122.10299683 263.88699341 102.50000000 0.600304 0.593540 -0.536046 0.000000
112.71099854 166.38299561 126.25000000 0.142033 0.014539 -0.989755 0.000000
212.00399780 239.73399353 148.75000000 0.688853 0.724889 0.004158 0.000000
174.43400574 288.03900146 168.75000000 0.744983 0.633468 0.209091 0.000000
119.86699677 308.61300659 128.75000000 0.732521 -0.169043 -0.659422 0.000000
78.71869659 288.48599243 145.00000000 -0.855209 0.498507 0.141804 0.000000
134.62699890 313.98001099 165.00000000 -0.047085 0.714832 0.697710 0.000000
121.65599823 245.10200500 203.75000000 -0.026762 0.335166 0.941779 0.000000
96.60939789 148.04499817 170.00000000 -0.689650 0.704874 -0.165942 0.000000
100.18699646 296.08999634 168.75000000 -0.566981 0.644373 0.513143 0.000000
185.16799927 126.12899780 153.75000000 0.813364 -0.001362 -0.581753 0.000000
91.24220276 152.51800537 115.00000000 -0.687161 -0.684002 -0.244850 0.000000
121.65599823 229.00000000 86.25000000 0.261796 -0.258966 -0.929731 0.000000
79.16600037 201.26899719 37.50000000 -0.857403 -0.297089 -0.420235 0.000000
103.31800079 169.96099854 120.00000000 0.534956 -0.511478 -0.672468 0.000000
152.96499634 253.60000610 117.50000000 0.477831 0.588486 -0.652197 0.000000
118.97299957 314.87500000 126.25000000 0.643453 -0.155943 -0.749433 0.000000
136.86300659 317.55899048 161.25000000 0.073830 0.751329 0.655785 0.000000
71.11519623 203.05900574 85.00000000 -0.980260 -0.163172 -0.111644 0.000000
176.22300720 140.44099426 146.25000000 0.250301 -0.486781 -0.836895 0.000000
114.94699860 187.85200500 122.50000000 0.621890 -0.497175 -0.605037 0.000000
64.85350037 240.62899780 117.50000000 -0.894688 0.446689 0.001310 0.000000
140.44099426 157.88499451 147.50000000 0.000978 0.000978 0.999999 0.000000
195.00799561 118.97299957 156.25000000 0.176637 0.070895 -0.981719 0.000000
211.10899353 161.01600647 151.25000000 0.518770 -0.208421 -0.829119 0.000000
86.32219696 252.25799561 185.00000000 -0.692076 0.130045 0.710013 0.000000
137.75799561 321.58401489 145.00000000 0.468224 0.599126 -0.649472 0.000000
75.14060211 273.72698975 98.75000000 -0.936383 0.285228 -0.204529 0.000000
180.69500732 252.70500183 145.00000000 0.857355 -0.189364 -0.478628 0.000000
122.55100250 311.29699707 166.25000000 -0.058119 0.806571 0.588273 0.000000
77.82420349 204.39999390 37.50000000 -0.897486 -0.359290 -0.255791 0.000000
89.45310211 247.78500366 188.75000000 -0.654398 0.279999 0.702398 0.000000
198.58599854 218.26600647 123.75000000 0.852207 -0.425330 -0.304691 0.000000
137.75799561 144.91400146 193.75000000 -0.276322 -0.646880 0.710769 0.000000
160.12100220 133.73199463 187.50000000 0.058270 -0.429571 0.901151 0.000000
151.17599487 225.42199707 103.75000000 -0.686203 -0.686203 -0.241354 0.000000
71.11519623 203.95300293 115.00000000 -0.644410 0.323017 0.693106 0.000000
177.56399536 212.89799500 140.00000000 -0.709915 -0.467180 -0.527033 0.000000
106.44899750 260.30899048 86.25000000 0.632710 0.416825 -0.652638 0.000000
116.73600006 219.16000366 85.00000000 0.718585 -0.311656 -0.621697 0.000000
225.86900330 202.16400146 182.50000000 0.493972 0.237045 0.836541 0.000000
84.08589935 221.84399414 191.25000000 -0.575891 0.131759 0.806839 0.000000
211.10899353 222.73800659 136.25000000 0.772270 -0.079690 -0.630277 0.000000
101.08200073 239.73399353 201.25000000 -0.160012 -0.111153 0.980837 0.000000
161.01600647 263.88699341 191.25000000 0.497536 0.435138 0.750408 0.000000
75.14060211 271.04299927 96.25000000 -0.983930 0.112277 -0.138837 0.000000
135.96899414 150.28100586 196.25000000 0.563114 -0.727287 0.392374 0.000000
246.89100647 192.32400513 168.75000000 0.717805 -0.216431 -0.661751 0.000000
164.59399414 159.22700500 203.75000000 0.362223 -0.374660 0.853478 0.000000
66.64260101 234.36700439 117.50000000 -0.976676 -0.214564 0.008207 0.000000
229.00000000 177.56399536 157.50000000 0.518159 -0.249026 -0.818228 0.000000
250.46899414 184.72099304 172.50000000 0.781769 -0.293362 -0.550251 0.000000
86.32219696 208.42599487 37.50000000 0.903829 0.083917 -0.419586 0.000000
179.80099487 197.24400330 140.00000000 -0.323017 0.644410 -0.693106 0.000000
203.95300293 121.65599823 178.75000000 -0.093439 -0.835202 0.541947 0.000000
169.96099854 135.07400513 146.25000000 0.327837 -0.238295 -0.914187 0.000000
123.89299774 161.91000366 200.00000000 -0.395783 -0.434240 0.809192 0.000000
114.50000000 198.58599854 98.75000000 0.812288 -0.387792 -0.435667 0.000000
76.03510284 209.76800537 37.50000000 -0.937163 -0.266763 -0.224863 0.000000
137.75799561 323.82000732 148.75000000 0.450532 0.803261 -0.389606 0.000000
208.87300110 187.85200500 137.50000000 0.307933 -0.299093 -0.903172 0.000000
107.34400177 187.85200500 98.75000000 0.563495 -0.563495 -0.604108 0.000000
229.89399719 184.27299500 183.75000000 0.386100 0.060119 0.920496 0.000000
113.60500336 263.88699341 96.25000000 0.624389 0.405770 -0.667450 0.000000
206.63699341 195.90199280 191.25000000 0.561804 0.297613 0.771883 0.000000
99.29290009 307.27099609 155.00000000 -0.537867 0.750398 0.384191 0.000000
186.95700073 263.88699341 161.25000000 0.820984 0.385878 -0.420814 0.000000
203.05900574 213.79299927 128.75000000 0.276429 -0.501321 -0.819917 0.000000
186.06199646 248.67999268 166.25000000 0.969119 -0.213232 0.123853 0.000000
86.32219696 212.00399780 37.50000000 0.941995 -0.001248 -0.335625 0.000000
182.03700256 274.62100220 165.00000000 0.847553 0.508532 0.151822 0.000000
118.97299957 308.61300659 168.75000000 -0.260965 0.738611 0.621572 0.000000
173.53900146 187.85200500 208.75000000 0.530611 -0.638417 0.557562 0.000000
148.49200439 141.33599854 141.25000000 0.104411 -0.651463 -0.751462 0.000000
183.37899780 160.12100220 133.75000000 0.428667 -0.471045 -0.770948 0.000000
240.62899780 200.37500000 181.25000000 0.000978 0.000978 0.999999 0.000000
142.22999573 239.73399353 101.25000000 0.623563 0.251004 -0.740382 0.000000
87.66400146 191.42999268 193.75000000 -0.255384 0.509220 0.821872 0.000000
215.58200073 220.94900513 143.75000000 0.860874 0.214843 -0.461236 0.000000
215.13499451 135.07400513 165.00000000 -0.090076 -0.358961 -0.928996 0.000000
171.75000000 127.91799927 183.75000000 -0.083152 -0.713356 0.695851 0.000000
228.10499573 201.26899719 151.25000000 0.490471 0.361823 -0.792794 0.000000
243.31199646 148.49200439 181.25000000 0.607922 0.750034 0.260538 0.000000
88.55860138 282.67199707 168.75000000 -0.685677 0.685677 0.244322 0.000000
223.63299561 191.42999268 186.25000000 0.334759 0.275771 0.901048 0.000000
93.92579651 222.73800659 198.75000000 -0.518980 0.177979 0.836052 0.000000
80.06050110 172.64399719 122.50000000 -0.894688 -0.446689 -0.001310 0.000000
130.60200500 160.12100220 121.25000000 0.194583 -0.586814 -0.785994 0.000000
121.65599823 168.17199707 203.75000000 -0.260906 -0.489392 0.832120 0.000000
168.17199707 282.67199707 176.25000000 0.422804 0.484837 0.765618 0.000000
169.51400757 221.84399414 205.00000000 0.528975 0.832950 0.162418 0.000000
119.86699677 210.21499634 91.25000000 0.516736 -0.301824 -0.801178 0.000000
84.98040009 271.93701172 173.75000000 -0.685677 0.685677 0.244322 0.000000
228.10499573 182.48399353 153.75000000 0.653017 -0.237604 -0.719106 0.000000
86.32219696 160.12100220 155.00000000 -0.900696 -0.432172 -0.044429 0.000000
81.40229797 262.09799194 68.75000000 -0.519728 0.466593 -0.715663 0.000000
71.11519623 244.20700073 80.00000000 -0.954066 0.244872 -0.172615 0.000000
238.83999634 152.07000732 183.75000000 0.941995 0.001248 0.335625 0.000000
99.29290009 280.88299561 86.25000000 0.793430 0.094629 -0.601260 0.000000
155.64799500 303.24600220 171.25000000 0.350896 0.876480 0.329629 0.000000
228.10499573 188.74600220 151.25000000 0.295691 -0.596176 -0.746419 0.000000
72.45700073 215.58200073 178.75000000 -0.858436 -0.001339 0.512919 0.000000
84.08589935 244.20700073 183.75000000 -0.827245 0.552940 0.099616 0.000000
64.85350037 229.89399719 137.50000000 -0.687161 0.684002 -0.244850 0.000000
112.71099854 309.50799561 118.75000000 0.858186 -0.006736 -0.513295 0.000000
210.21499634 198.58599854 138.75000000 0.680398 0.001380 -0.732842 0.000000
138.65199280 308.61300659 141.25000000 0.367875 -0.122625 -0.921754 0.000000
252.25799561 183.37899780 176.25000000 0.939905 -0.039969 -0.339088 0.000000
200.37500000 231.23599243 135.00000000 -0.106168 0.821711 -0.559927 0.000000
195.90199280 204.84800720 141.25000000 -0.111120 0.677089 -0.727463 0.000000
97.50389862 307.27099609 102.50000000 0.419449 0.487998 -0.765454 0.000000
152.07000732 308.16598511 167.50000000 0.453457 0.357992 0.816222 0.000000
106.00199890 226.31599426 72.50000000 0.767286 0.067659 -0.637726 0.000000
178.90600586 215.58200073 136.25000000 -0.979475 0.193491 -0.056485 0.000000
94.82029724 289.38101196 170.00000000 -0.516262 0.667610 0.536442 0.000000
225.42199707 135.07400513 186.25000000 0.565831 0.141086 0.812361 0.000000
119.86699677 288.93399048 181.25000000 -0.180501 0.231309 0.955989 0.000000
72.90429688 194.11300659 100.00000000 -0.971003 -0.194710 0.138715 0.000000
121.65599823 256.73001099 96.25000000 0.402153 0.490073 -0.773371 0.000000
150.72799683 193.21899414 137.50000000 0.639380 0.756175 -0.139256 0.000000
159.22700500 257.62500000 193.75000000 0.460459 0.383449 0.800590 0.000000
80.50779724 231.68400574 186.25000000 -0.689650 0.165942 0.704874 0.000000
108.23799896 180.69500732 203.75000000 -0.484482 -0.467946 0.739124 0.000000
211.10899353 152.96499634 153.75000000 0.572926 -0.485559 -0.660293 0.000000
183.37899780 217.81799316 200.00000000 0.346803 0.607312 0.714772 0.000000
102.87100220 139.99400330 170.00000000 -0.685677 -0.685677 0.244322 0.000000
170.85499573 132.39100647 148.75000000 0.404185 -0.522004 -0.751097 0.000000
159.22700500 124.33999634 141.25000000 0.000978 0.000978 -0.999999 0.000000
157.43699646 119.86699677 176.25000000 0.001362 -0.813364 0.581753 0.000000
185.16799927 203.05900574 201.25000000 0.437902 0.209302 0.874319 0.000000
100.63500214 174.43400574 100.00000000 0.978851 -0.204170 -0.012834 0.000000
238.39300537 135.07400513 182.50000000 0.573056 -0.316224 0.756048 0.000000
135.07400513 227.21099854 141.25000000 0.279225 -0.245208 -0.928389 0.000000
175.32800293 214.68699646 203.75000000 0.305688 0.223223 0.925595 0.000000
184.72099304 174.43400574 202.50000000 0.221781 0.029970 0.974636 0.000000
227.21099854 158.33200073 161.25000000 0.350812 -0.498186 -0.792932 0.000000
101.97699738 210.21499634 206.25000000 -0.729986 0.052856 0.681415 0.000000
151.17599487 251.80999756 115.00000000 0.384022 0.547436 -0.743533 0.000000
235.26199341 215.13499451 172.50000000 0.261084 0.960739 0.093888 0.000000
165.48800659 183.37899780 146.25000000 -0.394717 0.592901 -0.701902 0.000000
178.01199341 252.25799561 143.75000000 0.280581 -0.906378 -0.315837 0.000000
97.50389862 149.38699341 173.75000000 -0.687400 -0.503424 0.523494 0.000000
234.36700439 145.80900574 171.25000000 0.490395 -0.236795 -0.838714 0.000000
201.71699524 239.73399353 152.50000000 -0.900275 0.414098 0.134264 0.000000
148.49200439 116.73600006 167.50000000 -0.169154 -0.976081 0.136576 0.000000
82.74410248 275.51599121 77.50000000 -0.563495 0.563495 -0.604108 0.000000
134.17999268 245.10200500 206.25000000 -0.053732 0.486344 0.872113 0.000000
131.49600220 309.05999756 170.00000000 0.001360 0.564391 0.825507 0.000000
235.70899963 170.85499573 165.00000000 0.546374 -0.272400 -0.792006 0.000000
78.27149963 176.22300720 155.00000000 0.000978 0.000978 -0.999999 0.000000
161.91000366 226.76400757 125.00000000 -0.000978 -0.999999 -0.000978 0.000000
151.17599487 161.01600647 203.75000000 -0.337450 -0.328371 0.882213 0.000000
112.26399994 253.15199280 87.50000000 0.482400 0.357392 -0.799726 0.000000
183.37899780 127.91799927 151.25000000 0.116504 -0.499098 -0.858678 0.000000
147.59800720 250.46899414 201.25000000 0.126293 0.616608 0.777074 0.000000
106.44899750 238.83999634 78.75000000 0.584958 0.356841 -0.728346 0.000000
202.16400146 234.81399536 167.50000000 -0.505088 0.548717 0.666180 0.000000
183.82600403 259.41400146 152.50000000 0.616506 0.485477 -0.619865 0.000000
145.80900574 238.83999634 103.75000000 0.492223 0.357543 -0.793649 0.000000
76.48239899 181.58999634 172.50000000 -0.808428 -0.575766 0.122221 0.000000
120.76200104 152.07000732 191.25000000 -0.497552 -0.497552 0.710551 0.000000
198.58599854 231.23599243 132.50000000 0.000978 0.999999 0.000978 0.000000
228.10499573 167.27699280 161.25000000 0.615946 -0.278529 -0.736907 0.000000
178.01199341 147.14999390 140.00000000 0.039671 -0.868652 -0.493832 0.000000
151.17599487 285.35501099 138.75000000 0.462000 0.498430 -0.733569 0.000000
84.98040009 192.77099609 40.00000000 -0.637746 0.717664 -0.279713 0.000000
66.64260101 252.25799561 150.00000000 -0.949391 0.301663 0.087495 0.000000
110.92199707 127.02300262 146.25000000 -0.694015 -0.719354 0.029562 0.000000
245.10200500 193.21899414 183.75000000 0.000978 0.000978 0.999999 0.000000
110.92199707 204.84800720 88.75000000 0.195143 -0.343280 -0.918737 0.000000
82.29689789 294.74798584 142.50000000 -0.854730 0.170354 -0.490322 0.000000
87.66400146 226.31599426 193.75000000 -0.521810 0.120641 0.844488 0.000000
100.18699646 302.35101318 98.75000000 0.702554 0.472263 -0.532339 0.000000
149.38699341 122.55100250 178.75000000 -0.167329 -0.803481 0.571331 0.000000
171.75000000 113.60500336 153.75000000 -0.127153 -0.991346 0.032632 0.000000
133.28500366 210.21499634 216.25000000 0.000978 0.000978 0.999999 0.000000
192.32400513 219.16000366 178.75000000 0.884027 0.463324 -0.061868 0.000000
220.05499268 161.91000366 156.25000000 0.555575 -0.220075 -0.801813 0.000000
208.42599487 163.69900513 148.75000000 0.633174 -0.254217 -0.731071 0.000000
216.47700500 159.22700500 188.75000000 0.330125 0.086177 0.939995 0.000000
137.75799561 134.62699890 185.00000000 -0.040111 -0.524216 0.850640 0.000000
212.00399780 169.06599426 148.75000000 0.445815 -0.452347 -0.772419 0.000000
176.22300720 162.35699463 202.50000000 0.099671 -0.113742 0.988498 0.000000
68.43160248 231.68400574 85.00000000 -0.984424 -0.131337 -0.116878 0.000000
161.01600647 226.76400757 132.50000000 -0.168798 -0.976528 -0.133788 0.000000
214.68699646 172.64399719 188.75000000 -0.372742 -0.498603 0.782597 0.000000
160.12100220 199.47999573 153.75000000 -0.044054 -0.657966 -0.751758 0.000000
96.16210175 257.62500000 75.00000000 0.731332 0.243777 -0.636966 0.000000
91.24220276 288.48599243 167.50000000 -0.368078 0.718162 0.590561 0.000000
130.60200500 299.22100830 177.50000000 0.615952 0.770319 0.164960 0.000000
88.11129761 301.45700073 125.00000000 -0.246884 0.743796 -0.621141 0.000000
93.03119659 307.27099609 117.50000000 -0.815962 0.573879 -0.069777 0.000000
106.44899750 161.46299744 190.00000000 0.001248 -0.941995 -0.335625 0.000000
158.33200073 193.21899414 213.75000000 -0.000978 -0.000978 0.999999 0.000000
114.05300140 186.06199646 122.50000000 0.656634 -0.452793 -0.603167 0.000000
150.28100586 205.29499817 215.00000000 0.305428 0.259107 0.916284 0.000000
189.64100647 205.74200439 198.75000000 0.612521 0.278419 0.739798 0.000000
82.29689789 278.64599609 82.50000000 -0.831430 0.399149 -0.386528 0.000000
176.22300720 271.48999023 177.50000000 0.654768 0.365948 0.661332 0.000000
152.96499634 254.94099426 118.75000000 0.481244 0.581852 -0.655632 0.000000
173.53900146 156.54299927 201.25000000 -0.532865 -0.446544 0.718786 0.000000
165.48800659 141.33599854 141.25000000 -0.272237 -0.708452 -0.651139 0.000000
93.03119659 173.98599243 187.50000000 -0.617496 -0.383671 0.686655 0.000000
201.26899719 207.53100586 133.75000000 0.111643 -0.833699 -0.540817 0.000000
162.80499268 145.80900574 193.75000000 0.104807 -0.730700 0.674606 0.000000
226.31599426 201.26899719 181.25000000 0.488968 0.240652 0.838449 0.000000
125.23400116 322.92599487 151.25000000 -0.262630 0.784743 0.561430 0.000000
124.33999634 208.42599487 101.25000000 0.544728 0.020582 -0.838360 0.000000
131.04899597 240.62899780 95.00000000 0.646514 0.073763 -0.759328 0.000000
95.26760101 173.53900146 95.00000000 0.783348 -0.355482 -0.509900 0.000000
189.64100647 129.70700073 153.75000000 0.353031 -0.441684 -0.824794 0.000000
164.14599609 182.48399353 155.00000000 -0.685677 0.685677 -0.244322 0.000000
138.65199280 127.91799927 181.25000000 -0.347652 -0.683879 0.641442 0.000000
187.40400696 167.27699280 132.50000000 0.696503 -0.300799 -0.651463 0.000000
140.44099426 255.83599854 111.25000000 0.546042 0.562948 -0.620426 0.000000
172.64399719 117.18399811 171.25000000 0.238907 -0.872988 0.425225 0.000000
162.80499268 181.14300537 145.00000000 -0.627478 0.597197 0.499627 0.000000
231.68400574 212.89799500 163.75000000 0.314833 0.631280 -0.708778 0.000000
78.71869659 202.16400146 38.75000000 -0.857403 -0.297089 -0.420235 0.000000
111.81600189 275.51599121 188.75000000 -0.122609 0.787357 0.604182 0.000000
153.85899353 178.01199341 141.25000000 0.249561 0.040569 0.967509 0.000000
127.02300262 268.35900879 193.75000000 -0.070601 0.460986 0.884595 0.000000
118.97299957 312.19100952 126.25000000 0.686027 -0.095486 -0.721283 0.000000
110.47499847 322.92599487 130.00000000 -0.000978 -0.000978 0.999999 0.000000
89.90039825 152.96499634 162.50000000 -0.837386 -0.495720 0.230319 0.000000
133.28500366 206.63699341 118.75000000 0.401674 -0.705822 -0.583501 0.000000
72.45700073 228.10499573 176.25000000 -0.753777 0.376074 0.538877 0.000000
157.43699646 285.35501099 143.75000000 0.790112 0.282295 -0.544089 0.000000
89.45310211 277.30499268 76.25000000 -0.199712 0.726084 -0.657965 0.000000
183.37899780 237.05099487 156.25000000 0.567650 0.690835 -0.447794 0.000000
174.43400574 128.36500549 185.00000000 -0.032510 -0.708145 0.705318 0.000000
160.12100220 234.81399536 205.00000000 0.409702 0.284811 0.866618 0.000000
81.84960175 194.11300659 187.50000000 -0.684101 -0.441087 0.580903 0.000000
110.92199707 274.62100220 101.25000000 0.651781 0.651781 -0.387768 0.000000
72.00969696 195.00799561 85.00000000 -0.941995 -0.001248 0.335625 0.000000
72.00969696 197.69099426 72.50000000 -0.956575 -0.286846 -0.051809 0.000000
158.33200073 235.26199341 206.25000000 0.245849 0.309109 0.918700 0.000000
208.87300110 235.26199341 140.00000000 0.110997 0.511740 -0.851940 0.000000
89.45310211 153.85899353 121.25000000 -0.816001 -0.571345 -0.087788 0.000000
87.66400146 206.63699341 38.75000000 0.852207 0.425330 -0.304691 0.000000
88.11129761 206.63699341 40.00000000 0.852207 0.425330 -0.304691 0.000000
76.03510284 240.18200684 180.00000000 -0.813364 0.001362 0.581753 0.000000
71.11519623 199.47999573 120.00000000 -0.784220 -0.456244 -0.420524 0.000000
131.49600220 289.82800293 131.25000000 0.270422 0.477487 -0.835989 0.000000
113.60500336 221.84399414 211.25000000 -0.270560 0.517661 0.811680 0.000000
238.83999634 194.56100464 160.00000000 0.668076 -0.269463 -0.693588 0.000000
70.22070313 216.47700500 110.00000000 -0.988167 -0.142491 -0.056765 0.000000
229.89399719 170.85499573 186.25000000 0.452142 -0.181151 0.873356 0.000000
72.00969696 196.79699707 77.50000000 -0.956575 -0.286846 -0.051809 0.000000
67.98439789 242.41799927 166.25000000 -0.000978 -0.000978 0.999999 0.000000
80.50779724 171.30299377 95.00000000 -0.880921 -0.473112 -0.011994 0.000000
67.53710175 245.99600220 100.00000000 -0.941995 0.001248 -0.335625 0.000000
66.64260101 234.36700439 110.00000000 -0.960533 -0.159430 -0.227945 0.000000
151.17599487 129.70700073 183.75000000 -0.592063 -0.777566 -0.211782 0.000000
209.32000732 243.31199646 148.75000000 0.000978 0.000978 0.999999 0.000000
256.28298950 192.32400513 177.50000000 0.965633 0.143873 -0.216457 0.000000
161.91000366 116.73600006 167.50000000 -0.036174 -0.983689 0.176201 0.000000
131.49600220 247.78500366 203.75000000 -0.083321 0.498514 0.862868 0.000000
195.90199280 188.74600220 131.25000000 0.546629 -0.115157 -0.829419 0.000000
122.99800110 220.94900513 90.00000000 0.549074 -0.209535 -0.809081 0.000000
159.22700500 146.70300293 136.25000000 0.066019 -0.518322 -0.852633 0.000000
233.02499390 139.54699707 172.50000000 0.405989 -0.355828 -0.841760 0.000000
146.25599670 219.16000366 142.50000000 -0.013454 0.048643 -0.998726 0.000000
162.80499268 203.50599670 150.00000000 0.001379 -0.663079 -0.748548 0.000000
75.14060211 212.89799500 38.75000000 -0.932974 -0.132501 -0.334669 0.000000
74.69329834 212.89799500 40.00000000 -0.956051 -0.201907 -0.212604 0.000000
130.60200500 257.17800903 200.00000000 0.230649 0.287250 0.929671 0.000000
149.38699341 254.94099426 116.25000000 0.449468 0.535713 -0.714836 0.000000
127.02300262 121.20899963 160.00000000 -0.190430 -0.952151 0.239051 0.000000
149.38699341 130.60200500 186.25000000 -0.482010 -0.873730 -0.065287 0.000000
135.07400513 143.12500000 191.25000000 -0.188313 -0.601684 0.776218 0.000000
218.26600647 121.65599823 181.25000000 0.272685 -0.715997 0.642644 0.000000
85.87500000 295.19500732 153.75000000 -0.898379 0.298470 0.322228 0.000000
64.85350037 247.78500366 112.50000000 -0.916970 0.228883 -0.326770 0.000000
130.60200500 213.79299927 216.25000000 0.000978 0.000978 0.999999 0.000000
208.87300110 241.52299500 157.50000000 0.508448 0.832144 0.221396 0.000000
102.87100220 210.21499634 206.25000000 -0.729986 0.052856 0.681415 0.000000
255.83599854 186.06199646 181.25000000 0.822446 -0.182598 0.538740 0.000000
180.69500732 241.97099304 140.00000000 0.807132 0.402764 -0.431647 0.000000
70.66799927 269.25399780 151.25000000 -0.910515 0.252031 0.327785 0.000000
78.71869659 249.57400513 178.75000000 -0.816230 0.289832 0.499765 0.000000
175.77499390 247.78500366 190.00000000 0.869489 0.080066 0.487420 0.000000
183.37899780 218.71299744 127.50000000 -0.502238 -0.757448 -0.417169 0.000000
104.66000366 241.52299500 201.25000000 -0.261370 0.211585 0.941763 0.000000
70.66799927 254.94099426 93.75000000 -0.909208 0.069105 -0.410566 0.000000
84.53320313 208.42599487 192.50000000 -0.773537 0.221675 0.593717 0.000000
197.69099426 182.48399353 133.75000000 0.434427 -0.301471 -0.848757 0.000000
248.67999268 193.21899414 168.75000000 0.770820 -0.232024 -0.593297 0.000000
149.38699341 147.14999390 195.00000000 0.145012 -0.602471 0.784857 0.000000
86.76950073 218.26600647 38.75000000 -0.000978 -0.000978 -0.999999 0.000000
168.17199707 195.00799561 151.25000000 -0.707313 0.262262 -0.656450 0.000000
135.07400513 193.21899414 216.25000000 -0.000978 -0.000978 0.999999 0.000000
219.16000366 176.66999817 150.00000000 0.624523 -0.254552 -0.738360 0.000000
123.89299774 270.14801025 110.00000000 0.552776 0.775797 -0.304265 0.000000
222.29100037 173.53900146 187.50000000 0.680398 0.001380 0.732842 0.000000
109.13300323 311.29699707 158.75000000 -0.546960 0.757954 0.355443 0.000000
176.22300720 261.20300293 183.75000000 0.422629 0.416201 0.805085 0.000000
116.28900146 198.58599854 211.25000000 0.000978 0.000978 0.999999 0.000000
76.03510284 252.25799561 173.75000000 -0.561857 0.173227 0.808894 0.000000
75.58789825 186.06199646 105.00000000 -0.984462 0.001133 -0.175594 0.000000
96.60939789 312.19100952 116.25000000 -0.391229 0.913790 -0.109212 0.000000
169.96099854 237.94500732 198.75000000 0.622001 0.135736 0.771162 0.000000
170.40800476 248.67999268 192.50000000 0.462863 0.391901 0.795092 0.000000
117.63099670 270.14801025 105.00000000 0.521969 0.613187 -0.592916 0.000000
84.08589935 229.89399719 191.25000000 -0.743796 -0.246884 0.621141 0.000000
145.80900574 135.96899414 143.75000000 0.187139 -0.504525 -0.842872 0.000000
179.80099487 195.90199280 138.75000000 -0.560575 0.370993 -0.740351 0.000000
74.69329834 221.84399414 40.00000000 -0.942538 0.314179 -0.113639 0.000000
216.47700500 229.00000000 148.75000000 0.844619 -0.486755 0.222907 0.000000
85.87500000 221.84399414 38.75000000 -0.000978 -0.000978 -0.999999 0.000000
211.10899353 134.17999268 188.75000000 0.000978 0.000978 0.999999 0.000000
171.75000000 196.79699707 148.75000000 -0.731255 0.300538 -0.612326 0.000000
76.48239899 184.27299500 127.50000000 -0.912844 -0.406739 0.035772 0.000000
135.96899414 237.05099487 96.25000000 0.400452 0.011664 -0.916244 0.000000
84.98040009 222.73800659 38.75000000 -0.000978 -0.000978 -0.999999 0.000000
110.02700043 128.36500549 155.00000000 -0.652973 -0.745615 0.132985 0.000000
121.65599823 226.31599426 88.75000000 0.167870 -0.600400 -0.781882 0.000000
190.08799744 222.73800659 177.50000000 0.526242 0.267025 0.807321 0.000000
112.71099854 248.23199463 85.00000000 0.445995 0.288585 -0.847235 0.000000
88.55860138 163.69900513 173.75000000 -0.677031 -0.614128 0.405556 0.000000
79.61329651 259.41400146 173.75000000 -0.868069 0.300544 0.395132 0.000000
188.74600220 113.15799713 155.00000000 -0.000978 -0.999999 -0.000978 0.000000
232.57800293 156.54299927 166.25000000 0.275162 -0.825487 -0.492805 0.000000
237.05099487 198.58599854 181.25000000 -0.019730 0.422227 0.906275 0.000000
183.82600403 237.05099487 187.50000000 0.547233 0.048985 0.835545 0.000000
83.19139862 259.41400146 178.75000000 -0.695131 0.340240 0.633269 0.000000
74.24610138 280.88299561 116.25000000 -0.843001 0.483239 -0.236284 0.000000
140.44099426 126.12899780 178.75000000 -0.245249 -0.779487 0.576414 0.000000
220.05499268 217.37100220 176.25000000 0.241160 0.714022 0.657278 0.000000
210.21499634 229.00000000 166.25000000 0.910037 0.413413 -0.030379 0.000000
181.58999634 258.51901245 181.25000000 0.572652 0.407622 0.711276 0.000000
156.54299927 279.09399414 183.75000000 0.298470 0.898379 0.322228 0.000000
98.84570313 293.40600586 170.00000000 -0.660286 0.542678 0.519156 0.000000
107.34400177 196.79699707 208.75000000 0.388613 -0.388613 0.835440 0.000000
114.50000000 287.14401245 181.25000000 -0.174528 0.456118 0.872638 0.000000
190.08799744 230.78900146 125.00000000 0.439927 0.811065 -0.385536 0.000000
126.12899780 213.79299927 216.25000000 -0.180460 0.046000 0.982506 0.000000
105.55500031 301.45700073 111.25000000 0.918881 -0.182644 -0.349713 0.000000
125.23400116 141.33599854 186.25000000 -0.412719 -0.494284 0.765079 0.000000
128.81199646 237.94500732 93.75000000 0.736478 0.186041 -0.650376 0.000000
223.63299561 204.84800720 181.25000000 0.400991 0.097836 0.910843 0.000000
193.21899414 201.71699524 137.50000000 -0.329552 0.773241 -0.541751 0.000000
169.96099854 218.26600647 141.25000000 -0.380159 -0.682970 -0.623724 0.000000
118.07800293 287.14401245 123.75000000 0.380858 0.507271 -0.773061 0.000000
139.54699707 127.02300262 181.25000000 -0.349763 -0.740196 0.574262 0.000000
239.28700256 164.59399414 182.50000000 0.546057 -0.321870 0.773448 0.000000
112.71099854 229.89399719 208.75000000 -0.464415 0.308046 0.830317 0.000000
89.45310211 252.25799561 66.25000000 0.414934 0.440766 -0.795962 0.000000
106.44899750 134.17999268 131.25000000 -0.476964 -0.845735 -0.239244 0.000000
79.61329651 227.21099854 38.75000000 -0.001362 0.813364 -0.581753 0.000000
198.13900757 209.32000732 130.00000000 0.451421 -0.514256 -0.729219 0.000000
215.58200073 195.90199280 186.25000000 0.293788 0.682294 0.669451 0.000000
91.68939972 152.07000732 115.00000000 -0.687161 -0.684002 -0.244850 0.000000
83.19139862 227.21099854 38.75000000 0.316141 0.516311 -0.795913 0.000000
153.85899353 160.12100220 203.75000000 -0.332215 -0.368958 0.868046 0.000000
212.89799500 144.91400146 158.75000000 -0.000978 -0.000978 -0.999999 0.000000
145.80900574 195.00799561 216.25000000 0.000978 0.000978 0.999999 0.000000
71.11519623 267.46499634 107.50000000 -0.900365 0.317863 -0.297165 0.000000
152.07000732 172.64399719 148.75000000 0.677726 0.734321 0.038202 0.000000
92.58399963 305.92999268 127.50000000 -0.633072 0.772490 0.049792 0.000000
178.90600586 210.21499634 146.25000000 -0.044874 -0.998704 -0.024002 0.000000
132.39100647 157.43699646 123.75000000 0.207573 -0.582741 -0.785701 0.000000
64.85350037 219.16000366 155.00000000 -0.982728 -0.162783 0.088023 0.000000
200.82200623 206.63699341 142.50000000 0.004123 0.784735 -0.619817 0.000000
134.17999268 286.25000000 186.25000000 0.171943 0.949071 0.264007 0.000000
127.91799927 182.48399353 211.25000000 -0.208529 -0.322014 0.923484 0.000000
162.80499268 226.76400757 127.50000000 -0.000978 -0.999999 -0.000978 0.000000
175.32800293 152.96499634 201.25000000 -0.681886 -0.480838 0.551205 0.000000
127.91799927 138.65199280 186.25000000 -0.237774 -0.504694 0.829908 0.000000
192.32400513 226.31599426 173.75000000 0.781647 0.107055 -0.614465 0.000000
208.87300110 153.85899353 152.50000000 0.382940 -0.576876 -0.721506 0.000000
174.43400574 151.62300110 135.00000000 -0.117455 -0.676482 -0.727032 0.000000
161.01600647 183.82600403 130.00000000 -0.583600 0.281464 -0.761701 0.000000
73.35150146 205.74200439 178.75000000 -0.570155 -0.256020 0.780626 0.000000
178.01199341 268.35900879 151.25000000 0.689578 0.405148 -0.600281 0.000000
178.45899963 176.22300720 205.00000000 0.326770 -0.228883 0.916970 0.000000
106.00199890 258.51901245 195.00000000 -0.306259 0.413988 0.857216 0.000000
102.87100220 240.62899780 73.75000000 0.413745 0.672959 -0.613140 0.000000
190.08799744 223.63299561 180.00000000 0.884027 0.463324 -0.061868 0.000000
245.99600220 161.91000366 181.25000000 0.793906 0.288837 0.535058 0.000000
136.86300659 129.70700073 181.25000000 -0.165822 -0.369911 0.914149 0.000000
217.37100220 162.80499268 153.75000000 0.605493 -0.073350 -0.792463 0.000000
222.73800659 206.63699341 151.25000000 0.488121 0.571991 -0.659215 0.000000
203.50599670 237.94500732 165.00000000 -0.695802 0.532280 0.482222 0.000000
149.38699341 131.49600220 143.75000000 -0.000978 -0.000978 -0.999999 0.000000
70.66799927 220.05499268 176.25000000 0.439521 -0.439521 0.783353 0.000000
238.83999634 206.63699341 181.25000000 0.001362 0.813364 0.581753 0.000000
120.76200104 206.63699341 213.75000000 -0.241367 -0.084668 0.966733 0.000000
73.35150146 254.94099426 171.25000000 -0.540555 0.215916 0.813130 0.000000
78.71869659 287.14401245 148.75000000 -0.843390 0.506034 0.180620 0.000000
96.60939789 179.80099487 93.75000000 0.894688 -0.446689 0.001310 0.000000
118.97299957 282.67199707 121.25000000 0.598869 0.478089 -0.642485 0.000000
188.29899597 227.21099854 185.00000000 0.000978 0.000978 0.999999 0.000000
210.66200256 238.83999634 160.00000000 0.832144 0.508448 0.221396 0.000000
177.11700439 237.94500732 193.75000000 0.563495 0.563495 0.604108 0.000000
110.02700043 251.36300659 201.25000000 0.691617 0.632756 0.348261 0.000000
122.55100250 273.72698975 191.25000000 -0.088477 0.476088 0.874935 0.000000
112.71099854 197.69099426 96.25000000 0.812288 -0.387792 -0.435667 0.000000
193.21899414 230.78900146 133.75000000 0.601004 0.798054 0.043633 0.000000
187.85200500 189.64100647 201.25000000 0.552881 -0.230754 0.800671 0.000000
80.06050110 195.00799561 42.50000000 -0.605334 -0.662032 -0.441910 0.000000
80.06050110 179.80099487 72.50000000 -0.708486 -0.705724 0.001381 0.000000
81.84960175 168.17199707 145.00000000 -0.938095 -0.333988 0.091814 0.000000
177.11700439 283.56600952 168.75000000 0.674756 0.402864 0.618388 0.000000
86.76950073 289.82800293 161.25000000 -0.665389 0.652245 0.363089 0.000000
130.60200500 304.58801270 172.50000000 -0.043575 0.583342 0.811057 0.000000
157.88499451 235.26199341 105.00000000 0.323919 0.268223 -0.907267 0.000000
225.42199707 198.58599854 148.75000000 0.538035 0.195511 -0.819935 0.000000
162.80499268 286.25000000 178.75000000 0.449728 0.590163 0.670412 0.000000
182.48399353 151.17599487 196.25000000 -0.063465 -0.406447 0.911467 0.000000
194.11300659 178.01199341 133.75000000 0.698191 -0.558219 -0.448242 0.000000
136.86300659 233.47300720 211.25000000 0.063670 0.561711 0.824880 0.000000
189.64100647 232.13099670 127.50000000 0.435667 0.812288 -0.387792 0.000000
209.32000732 204.84800720 141.25000000 0.014378 0.992056 0.124975 0.000000
77.82420349 198.58599854 41.25000000 -0.650264 -0.478877 -0.589774 0.000000
170.85499573 131.04899597 187.50000000 0.158046 -0.503678 0.849311 0.000000
214.68699646 216.02900696 160.00000000 0.891869 0.166232 -0.420638 0.000000
145.36099243 208.42599487 137.50000000 0.522731 -0.028812 -0.852011 0.000000
180.24800110 253.15199280 145.00000000 0.857355 -0.189364 -0.478628 0.000000
68.87889862 199.47999573 148.75000000 -0.983723 -0.156964 0.087469 0.000000
88.55860138 199.03300476 42.50000000 -0.778857 0.188211 0.598297 0.000000
201.26899719 150.28100586 193.75000000 0.117321 -0.200581 0.972627 0.000000
100.63500214 228.10499573 202.50000000 -0.672104 0.169169 0.720873 0.000000
195.90199280 185.16799927 198.75000000 0.529449 0.040089 0.847394 0.000000
119.86699677 220.50199890 87.50000000 0.645943 -0.240461 -0.724525 0.000000
149.38699341 285.35501099 183.75000000 0.348112 0.697859 0.625948 0.000000
166.38299561 283.56600952 176.25000000 0.575866 0.525204 0.626529 0.000000
227.21099854 146.70300293 186.25000000 0.000978 0.000978 0.999999 0.000000
163.69900513 259.41400146 191.25000000 0.360723 0.370012 0.856137 0.000000
101.08200073 168.17199707 113.75000000 0.941995 0.001248 -0.335625 0.000000
183.37899780 211.10899353 201.25000000 0.572458 -0.001360 0.819933 0.000000
212.00399780 149.38699341 191.25000000 0.000978 0.000978 0.999999 0.000000
119.86699677 216.47700500 88.75000000 0.645458 -0.369537 -0.668451 0.000000
143.12500000 207.53100586 216.25000000 0.000978 0.000978 0.999999 0.000000
223.18499756 178.01199341 152.50000000 0.552006 -0.344802 -0.759211 0.000000
210.66200256 234.36700439 140.00000000 0.216020 0.484913 -0.847464 0.000000
88.55860138 289.82800293 86.25000000 -0.629358 0.694746 -0.348190 0.000000
149.83399963 152.96499634 200.00000000 0.096678 -0.549769 0.829703 0.000000
229.00000000 183.37899780 186.25000000 0.525389 0.698851 0.485359 0.000000
68.43160248 219.16000366 92.50000000 -0.995130 -0.056453 -0.080806 0.000000
138.65199280 266.57000732 196.25000000 -0.000978 -0.000978 0.999999 0.000000
197.69099426 120.76200104 176.25000000 -0.258870 -0.556964 0.789163 0.000000
186.95700073 222.29100037 192.50000000 0.663319 0.413951 0.623420 0.000000
163.25199890 290.72299194 150.00000000 0.687521 0.584310 -0.431157 0.000000
180.69500732 172.64399719 203.75000000 0.167989 -0.109131 0.979730 0.000000
178.01199341 238.39300537 127.50000000 0.363523 0.799110 -0.478826 0.000000
152.96499634 259.41400146 123.75000000 0.534037 0.500555 -0.681358 0.000000
139.54699707 216.47700500 138.75000000 0.436887 0.553169 -0.709319 0.000000
104.21299744 216.47700500 70.00000000 0.681472 -0.344821 -0.645519 0.000000
84.53320313 169.06599426 175.00000000 -0.783056 -0.612635 0.107248 0.000000
206.63699341 183.37899780 138.75000000 0.349798 -0.368289 -0.861397 0.000000
215.58200073 176.22300720 146.25000000 0.568582 -0.345037 -0.746769 0.000000
124.33999634 303.69299316 172.50000000 -0.112507 0.574226 0.810930 0.000000
149.38699341 247.78500366 111.25000000 0.220378 0.664261 -0.714276 0.000000
172.19700623 140.44099426 145.00000000 0.138937 -0.388743 -0.910810 0.000000
139.54699707 142.22999573 191.25000000 -0.052951 -0.676912 0.734157 0.000000
126.12899780 274.62100220 118.75000000 0.420406 0.626454 -0.656364 0.000000
118.07800293 313.08599854 126.25000000 0.671290 -0.047033 -0.739701 0.000000
97.05660248 237.94500732 67.50000000 0.716682 0.233667 -0.657089 0.000000
174.88099670 150.28100586 197.50000000 -0.635358 -0.544352 0.547723 0.000000
161.91000366 254.94099426 193.75000000 0.393022 0.510439 0.764843 0.000000
136.86300659 176.22300720 123.75000000 -0.572458 -0.001360 -0.819933 0.000000
76.03510284 207.53100586 41.25000000 -0.932248 -0.310749 -0.185335 0.000000
77.82420349 178.45899963 105.00000000 -0.941626 -0.333627 -0.045085 0.000000
77.37689972 186.95700073 180.00000000 -0.556948 -0.334169 0.760355 0.000000
191.42999268 137.75799561 191.25000000 -0.086065 -0.489580 0.867700 0.000000
75.14060211 243.31199646 178.75000000 -0.722202 0.254430 0.643187 0.000000
179.80099487 252.25799561 148.75000000 0.873700 -0.238282 -0.424112 0.000000
134.17999268 294.30099487 133.75000000 0.326392 0.347646 -0.878982 0.000000
138.65199280 290.27499390 135.00000000 0.422540 0.521188 -0.741501 0.000000
97.50389862 181.58999634 93.75000000 0.894688 -0.446689 0.001310 0.000000
153.85899353 253.15199280 198.75000000 0.202142 0.751476 0.628030 0.000000
89.00579834 263.88699341 182.50000000 -0.761563 0.544897 0.350869 0.000000
153.85899353 172.64399719 146.25000000 -0.337555 0.889646 0.307550 0.000000
72.90429688 195.90199280 75.00000000 -0.866786 -0.490660 -0.089082 0.000000
71.56250000 277.30499268 118.75000000 -0.851985 0.486634 -0.193156 0.000000
104.66000366 169.96099854 121.25000000 0.768575 -0.288017 -0.571260 0.000000
143.12500000 256.73001099 113.75000000 0.353276 0.517815 -0.779143 0.000000
223.18499756 188.74600220 147.50000000 0.757141 -0.098121 -0.645840 0.000000
150.28100586 279.98800659 186.25000000 0.199980 0.439957 0.875469 0.000000
146.70300293 127.91799927 143.75000000 0.006842 0.584327 -0.811489 0.000000
173.53900146 192.32400513 138.75000000 -0.431509 0.849098 -0.304685 0.000000
137.31100464 216.47700500 127.50000000 0.813364 0.001362 0.581753 0.000000
69.32620239 202.16400146 132.50000000 -0.943946 -0.293883 -0.150327 0.000000
82.29689789 166.38299561 121.25000000 -0.939910 -0.334278 0.069477 0.000000
147.59800720 151.62300110 130.00000000 0.685677 -0.685677 -0.244322 0.000000
123.44499969 192.32400513 126.25000000 0.113689 0.070051 -0.991044 0.000000
88.11129761 213.79299927 42.50000000 0.941995 -0.001248 -0.335625 0.000000
217.37100220 201.26899719 143.75000000 0.616910 0.475710 -0.626995 0.000000
200.37500000 190.53500366 193.75000000 -0.000978 -0.000978 0.999999 0.000000
206.18899536 202.16400146 190.00000000 0.374714 0.175247 0.910427 0.000000
241.52299500 186.50999451 165.00000000 -0.000978 -0.000978 -0.999999 0.000000
156.54299927 195.90199280 213.75000000 0.448438 0.167982 0.877887 0.000000
71.11519623 203.95300293 67.50000000 -0.984777 -0.163933 0.057789 0.000000
234.36700439 203.95300293 158.75000000 0.466256 0.420768 -0.778177 0.000000
131.49600220 160.12100220 121.25000000 0.194583 -0.586814 -0.785994 0.000000
70.22070313 206.63699341 77.50000000 -0.993465 -0.114004 0.005429 0.000000
133.28500366 286.69699097 185.00000000 0.308018 0.720860 0.620875 0.000000
220.94900513 148.49200439 188.75000000 0.550020 0.307692 0.776405 0.000000
114.50000000 259.41400146 93.75000000 0.629885 0.528563 -0.569092 0.000000
144.01899719 159.22700500 203.75000000 0.807132 -0.402764 0.431647 0.000000
147.14999390 312.19100952 147.50000000 0.310895 0.255946 -0.915334 0.000000
229.89399719 122.55100250 176.25000000 0.680398 -0.001380 -0.732842 0.000000
127.91799927 301.90399170 175.00000000 -0.098613 0.716782 0.690289 0.000000
135.96899414 238.83999634 96.25000000 0.394205 0.011632 -0.918949 0.000000
244.20700073 158.33200073 181.25000000 0.202171 -0.385434 0.900315 0.000000
123.44499969 287.59201050 127.50000000 0.437386 0.392526 -0.809084 0.000000
154.30700684 249.57400513 115.00000000 0.303067 0.585288 -0.752056 0.000000
83.19139862 267.46499634 71.25000000 -0.500959 0.311321 -0.807539 0.000000
113.15799713 215.58200073 82.50000000 0.941995 0.001248 0.335625 0.000000
97.50389862 295.19500732 166.25000000 -0.484643 0.714473 0.504628 0.000000
174.43400574 278.19900513 176.25000000 0.577728 0.434545 0.690943 0.000000
144.91400146 196.79699707 216.25000000 0.000978 0.000978 0.999999 0.000000
152.51800537 312.19100952 152.50000000 0.607227 0.405370 -0.683338 0.000000
222.73800659 120.31400299 177.50000000 0.191035 -0.949754 0.247939 0.000000
171.75000000 259.41400146 186.25000000 0.304487 0.393232 0.867558 0.000000
161.91000366 114.94699860 157.50000000 0.001248 -0.941995 0.335625 0.000000
65.30079651 232.13099670 132.50000000 -0.984910 -0.140018 -0.101722 0.000000
97.95110321 140.44099426 155.00000000 -0.705724 -0.708486 -0.001381 0.000000
208.87300110 223.63299561 172.50000000 0.538579 0.636502 0.552085 0.000000
77.82420349 203.50599670 185.00000000 -0.743796 -0.246884 0.621141 0.000000
146.70300293 223.63299561 211.25000000 0.138146 0.487148 0.862324 0.000000
145.80900574 198.58599854 138.75000000 0.719789 -0.660713 0.212983 0.000000
142.22999573 321.58401489 150.00000000 0.488693 0.803876 -0.339061 0.000000
208.42599487 139.54699707 156.25000000 0.636662 -0.158787 -0.754618 0.000000
120.76200104 200.37500000 213.75000000 -0.469057 -0.291408 0.833707 0.000000
202.16400146 197.69099426 133.75000000 0.177773 0.261911 -0.948578 0.000000
144.91400146 205.74200439 216.25000000 0.000978 0.000978 0.999999 0.000000
123.89299774 174.43400574 207.50000000 -0.304349 -0.543366 0.782384 0.000000
75.14060211 223.63299561 41.25000000 -0.965103 0.194063 -0.175829 0.000000
82.29689789 175.32800293 78.75000000 0.370313 -0.904726 -0.210570 0.000000
147.59800720 229.89399719 101.25000000 0.572458 -0.001360 -0.819933 0.000000
190.98199463 220.94900513 180.00000000 0.884027 0.463324 -0.061868 0.000000
93.03119659 283.56600952 173.75000000 -0.462285 0.372707 0.804600 0.000000
245.99600220 191.42999268 166.25000000 0.679151 -0.186343 -0.709951 0.000000
125.23400116 304.14099121 171.25000000 -0.100683 0.605554 0.789409 0.000000
87.66400146 286.69699097 82.50000000 -0.578703 0.632693 -0.514590 0.000000
93.92579651 304.14099121 153.75000000 -0.655397 0.658682 0.369585 0.000000
64.85350037 237.94500732 157.50000000 -0.987858 0.150651 0.037950 0.000000
168.17199707 155.20100403 132.50000000 0.070744 -0.671347 -0.737759 0.000000
203.05900574 231.68400574 168.75000000 -0.355734 0.644256 0.677043 0.000000
121.20899963 259.41400146 97.50000000 0.469149 0.462565 -0.752285 0.000000
123.44499969 237.94500732 88.75000000 0.487672 0.001329 -0.873026 0.000000
93.92579651 151.17599487 111.25000000 -0.614878 -0.769736 -0.171558 0.000000
71.11519623 192.32400513 160.00000000 -0.976791 -0.212449 0.027298 0.000000
87.21679688 157.43699646 160.00000000 -0.894688 -0.446689 0.001310 0.000000
233.47300720 200.37500000 181.25000000 0.000978 0.000978 0.999999 0.000000
148.49200439 215.58200073 141.25000000 0.237047 0.290986 -0.926896 0.000000
184.27299500 239.73399353 166.25000000 0.402122 -0.696681 -0.594082 0.000000
180.69500732 146.70300293 141.25000000 0.071608 -0.860694 -0.504061 0.000000
246.44299316 155.64799500 177.50000000 0.548680 -0.491631 0.676202 0.000000
171.75000000 239.73399353 196.25000000 0.419923 0.403956 0.812702 0.000000
189.64100647 203.05900574 198.75000000 0.483469 0.349438 0.802590 0.000000
151.17599487 151.17599487 198.75000000 0.108786 -0.549733 0.828226 0.000000
110.92199707 276.85699463 105.00000000 0.684769 0.584803 -0.434853 0.000000
74.69329834 188.74600220 120.00000000 -0.948930 -0.315485 -0.001237 0.000000
96.60939789 299.66799927 93.75000000 0.201867 0.381950 -0.901867 0.000000
130.60200500 261.20300293 198.75000000 0.150708 0.484314 0.861816 0.000000
178.90600586 121.65599823 148.75000000 0.834855 0.545703 -0.072288 0.000000
133.28500366 148.49200439 128.75000000 0.000978 0.000978 -0.999999 0.000000
154.75399780 114.94699860 162.50000000 -0.000978 -0.999999 -0.000978 0.000000
162.80499268 196.35000610 212.50000000 0.461433 0.165530 0.871596 0.000000
66.19529724 253.15199280 146.25000000 -0.978664 0.132386 0.157131 0.000000
173.53900146 284.46099854 156.25000000 0.669985 0.459466 -0.583104 0.000000
189.64100647 218.71299744 192.50000000 0.698712 0.419891 0.579217 0.000000
67.98439789 224.97500610 97.50000000 -0.996006 -0.040364 -0.079637 0.000000
63.95899963 227.21099854 157.50000000 -0.959508 -0.192432 0.205704 0.000000
174.43400574 279.98800659 153.75000000 0.633907 0.380344 -0.673424 0.000000
129.70700073 213.79299927 96.25000000 0.999999 -0.000978 -0.000978 0.000000
128.81199646 233.47300720 91.25000000 0.468877 0.413715 -0.780381 0.000000
80.50779724 229.00000000 41.25000000 -0.029430 0.620829 -0.783394 0.000000
201.26899719 219.16000366 178.75000000 0.064135 0.597167 0.799549 0.000000
156.54299927 220.94900513 141.25000000 0.440147 -0.436898 0.784468 0.000000
206.63699341 213.79299927 183.75000000 0.697859 0.348112 0.625948 0.000000
127.91799927 257.62500000 101.25000000 0.546353 0.479521 -0.686701 0.000000
119.86699677 252.70500183 92.50000000 0.598183 0.470839 -0.648450 0.000000
74.24610138 277.30499268 111.25000000 -0.871980 0.430737 -0.232628 0.000000
70.22070313 210.21499634 70.00000000 -0.984777 -0.163933 0.057789 0.000000
136.86300659 222.73800659 141.25000000 -0.001106 0.142660 -0.989771 0.000000
182.48399353 222.73800659 196.25000000 0.523806 0.470594 0.710048 0.000000
133.73199463 267.46499634 115.00000000 0.369808 0.616347 -0.695240 0.000000
76.92970276 278.19900513 156.25000000 -0.707475 0.582141 0.400738 0.000000
160.12100220 123.44499969 141.25000000 0.000978 0.000978 -0.999999 0.000000
177.11700439 275.51599121 173.75000000 0.702355 0.398276 0.589978 0.000000
98.39839935 184.27299500 198.75000000 -0.475131 -0.363147 0.801483 0.000000
115.84200287 325.60900879 135.00000000 -0.001197 0.965696 -0.259673 0.000000
95.26760101 177.11700439 92.50000000 0.819573 -0.296175 -0.490490 0.000000
135.96899414 169.96099854 121.25000000 -0.138253 0.106996 -0.984600 0.000000
191.42999268 230.78900146 173.75000000 0.906622 0.249649 0.340166 0.000000
111.81600189 262.09799194 91.25000000 0.558484 0.494753 -0.665820 0.000000
97.50389862 233.91999817 200.00000000 -0.529016 0.188396 0.827435 0.000000
144.46699524 290.72299194 137.50000000 0.364952 0.233042 -0.901388 0.000000
130.60200500 209.32000732 103.75000000 0.303106 -0.360410 -0.882174 0.000000
191.42999268 211.10899353 193.75000000 0.825487 0.275162 0.492805 0.000000
154.30700684 129.70700073 145.00000000 0.204289 -0.204289 -0.957357 0.000000
178.90600586 218.26600647 133.75000000 -0.735115 -0.399626 -0.547636 0.000000
169.51400757 251.36300659 132.50000000 0.514051 0.480779 -0.710355 0.000000
229.00000000 209.76800537 160.00000000 0.405556 0.677031 -0.614128 0.000000
130.60200500 250.91600037 202.50000000 0.019307 0.371987 0.928037 0.000000
99.29290009 300.56201172 96.25000000 0.757381 0.250361 -0.603070 0.000000
193.21899414 127.91799927 156.25000000 0.382241 -0.019436 -0.923858 0.000000
80.95510101 231.68400574 42.50000000 -0.703840 0.354369 -0.615656 0.000000
93.03119659 159.22700500 98.75000000 -0.246884 -0.743796 -0.621141 0.000000
97.05660248 201.26899719 202.50000000 -0.711394 0.426173 0.558834 0.000000
254.94099426 196.79699707 176.25000000 0.975798 0.022582 -0.217504 0.000000
143.12500000 141.33599854 191.25000000 0.092078 -0.641624 0.761472 0.000000
135.96899414 161.91000366 123.75000000 0.373797 -0.339955 -0.862964 0.000000
132.83799744 135.96899414 185.00000000 -0.182984 -0.681191 0.708869 0.000000
229.89399719 127.02300262 183.75000000 0.226894 -0.544855 0.807250 0.000000
79.61329651 292.06399536 130.00000000 0.000978 0.000978 -0.999999 0.000000
183.37899780 118.07800293 171.25000000 -0.069579 -0.830689 0.552372 0.000000
100.18699646 291.61700439 96.25000000 0.850867 0.284648 -0.441589 0.000000
124.33999634 254.94099426 96.25000000 -0.000978 -0.000978 -0.999999 0.000000
208.42599487 150.28100586 153.75000000 0.326347 -0.548198 -0.770050 0.000000
192.32400513 230.34199524 125.00000000 0.320375 0.885921 -0.335416 0.000000
161.46299744 178.90600586 152.50000000 -0.862988 0.494970 0.101276 0.000000
224.52699280 210.21499634 181.25000000 0.389004 0.345609 0.853950 0.000000
172.64399719 125.68199921 182.50000000 -0.052874 -0.721662 0.690223 0.000000
150.28100586 154.75399780 201.25000000 0.108786 -0.549733 0.828226 0.000000
214.68699646 182.48399353 188.75000000 0.000978 0.000978 0.999999 0.000000
144.01899719 305.92999268 171.25000000 0.563495 0.563495 0.604108 0.000000
158.33200073 177.11700439 128.75000000 0.102581 0.271385 -0.956989 0.000000
165.48800659 190.53500366 156.25000000 -0.642545 -0.113738 -0.757760 0.000000
157.43699646 175.32800293 158.75000000 -0.708110 0.531499 -0.464853 0.000000
116.28900146 132.39100647 176.25000000 -0.343746 -0.794612 0.500430 0.000000
165.48800659 211.10899353 146.25000000 0.159389 -0.466469 -0.870059 0.000000
65.74800110 259.41400146 115.00000000 -0.985764 0.166398 -0.024099 0.000000
189.64100647 216.47700500 193.75000000 0.728025 0.430872 0.533225 0.000000
151.17599487 312.19100952 163.75000000 0.442492 0.672921 0.592772 0.000000
75.58789825 253.15199280 72.50000000 -0.915283 0.327196 -0.234947 0.000000
182.48399353 226.31599426 193.75000000 0.318816 0.373731 0.871023 0.000000
