93.29299927 190.26899719 336.00000000 -0.699299 -0.280039 0.657693 0.000000
121.11699677 259.42001343 412.50000000 -0.015195 -0.592612 -0.805345 0.000000
194.77000427 202.54400635 429.00000000 -0.612056 -0.612056 -0.500773 0.000000
87.56449890 103.52200317 417.00000000 0.473412 0.790097 -0.389394 0.000000
63.01369858 223.00300598 336.00000000 0.858156 -0.448064 0.250612 0.000000
51.14749908 207.04499817 384.00000000 0.973632 0.132596 0.185634 0.000000
201.72599792 113.75199890 390.00000000 0.762537 0.242697 -0.599696 0.000000
109.66000366 268.01300049 372.00000000 -0.878249 0.001325 0.478202 0.000000
103.11299896 99.83979797 364.50000000 0.000978 0.000978 0.999999 0.000000
188.22300720 179.22099304 445.50000000 0.000978 0.000978 0.999999 0.000000
219.32000732 87.97360229 435.00000000 -0.091993 0.652709 -0.752003 0.000000
78.56250000 142.39500427 439.50000000 0.611826 0.390843 -0.687685 0.000000
228.32200623 85.51860046 420.00000000 -0.328990 0.894675 -0.302195 0.000000
131.34700012 246.32600403 378.00000000 -0.423058 0.058120 0.904237 0.000000
150.57800293 185.76800537 373.50000000 -0.755625 0.554988 0.347879 0.000000
86.74610138 200.49800110 445.50000000 0.196223 -0.092558 -0.976181 0.000000
113.75199890 99.83979797 430.50000000 0.058749 0.646239 -0.760871 0.000000
139.93899536 127.66400146 379.50000000 -0.030997 -0.067338 0.997249 0.000000
51.96580124 214.41000366 375.00000000 0.848934 -0.509945 -0.138810 0.000000
87.97360229 102.29499817 360.00000000 0.822382 0.548751 -0.150200 0.000000
168.58200073 136.66600037 451.50000000 0.232738 0.812271 -0.534835 0.000000
183.72200012 192.31399536 435.00000000 0.909420 -0.196825 -0.366354 0.000000
206.22700500 111.29699707 397.50000000 0.739673 0.044011 -0.671526 0.000000
70.37889862 120.29900360 418.50000000 0.797218 0.513975 -0.316659 0.000000
139.93899536 169.80999756 390.00000000 0.086316 0.938856 0.333314 0.000000
85.92769623 217.68400574 340.50000000 -0.543290 -0.402133 0.736970 0.000000
101.47699738 126.84600067 451.50000000 0.058935 0.694284 -0.717284 0.000000
172.67399597 189.44999695 390.00000000 -0.250103 -0.967146 0.045585 0.000000
65.46880341 239.36999512 354.00000000 0.663324 -0.515546 0.542415 0.000000
101.88600159 93.29299927 372.00000000 -0.001325 0.878249 -0.478202 0.000000
153.85200500 216.04699707 385.50000000 -0.803898 -0.457307 0.380287 0.000000
138.30299377 228.73100281 378.00000000 -0.498603 -0.372742 0.782597 0.000000
151.39599609 98.20310211 427.50000000 0.422448 0.700766 0.574860 0.000000
121.93599701 100.65799713 430.50000000 0.101712 0.723774 -0.682500 0.000000
124.39099884 177.58399963 358.50000000 -0.471591 0.656200 0.589070 0.000000
121.11699677 207.04499817 358.50000000 -0.213005 -0.223859 0.951061 0.000000
158.76199341 102.29499817 430.50000000 0.376037 0.586224 -0.717591 0.000000
185.76800537 168.58200073 388.50000000 -0.156505 -0.472439 -0.867357 0.000000
94.11129761 169.39999390 331.50000000 -0.565538 0.034738 0.823990 0.000000
67.10549927 136.25700378 366.00000000 0.856842 0.513552 0.045680 0.000000
225.04899597 171.03700256 418.50000000 0.351111 0.548510 -0.758853 0.000000
145.66799927 117.84400177 442.50000000 -0.317723 0.780737 -0.538054 0.000000
225.04899597 125.20899963 415.50000000 0.759415 -0.319500 -0.566752 0.000000
223.41200256 121.11699677 439.50000000 0.000978 0.000978 0.999999 0.000000
180.03900146 182.49400330 442.50000000 -0.417036 -0.599801 -0.682876 0.000000
85.51860046 217.68400574 339.00000000 -0.662857 -0.142792 0.735004 0.000000
77.33499908 117.84400177 369.00000000 0.829374 0.529420 0.178473 0.000000
65.05960083 184.13099670 312.00000000 0.662932 -0.199343 0.721653 0.000000
56.05759811 202.13499451 342.00000000 0.964929 -0.001199 0.262509 0.000000
76.51660156 115.38899994 378.00000000 0.612056 0.612056 0.500773 0.000000
52.78419876 191.49600220 351.00000000 0.964239 0.106567 0.242665 0.000000
110.47899628 211.13699341 355.50000000 -0.535178 -0.274651 0.798844 0.000000
69.56050110 247.96299744 364.50000000 0.750666 -0.619573 0.229413 0.000000
135.43800354 158.76199341 390.00000000 -0.258319 -0.673532 0.692550 0.000000
135.84800720 152.21499634 463.50000000 -0.174991 0.765394 -0.619315 0.000000
105.56800079 202.95300293 349.50000000 -0.721714 -0.129998 0.679875 0.000000
68.74220276 234.46000671 342.00000000 0.839995 -0.420780 0.342568 0.000000
142.39500427 256.14599609 388.50000000 -0.681060 -0.490296 0.543844 0.000000
197.22500610 84.29100037 418.50000000 0.109394 0.979631 -0.168393 0.000000
205.40800476 166.12699890 448.50000000 0.000978 0.000978 0.999999 0.000000
119.48000336 125.20899963 451.50000000 0.118759 0.470745 -0.874240 0.000000
78.56250000 212.77299500 436.50000000 0.319326 -0.640274 -0.698628 0.000000
135.02900696 114.56999969 376.50000000 0.000978 0.000978 0.999999 0.000000
58.51269913 142.39500427 387.00000000 0.615627 0.652331 -0.442117 0.000000
223.41200256 131.75599670 412.50000000 0.659545 0.219848 -0.718795 0.000000
64.65039825 178.40199280 433.50000000 0.814826 -0.090857 -0.572541 0.000000
68.74220276 134.61999512 360.00000000 0.866595 0.489321 0.097864 0.000000
179.22099304 131.75599670 451.50000000 -0.000978 -0.000978 -0.999999 0.000000
129.30099487 98.20310211 430.50000000 -0.178429 0.623740 -0.760994 0.000000
236.50599670 134.21099854 439.50000000 -0.000978 -0.000978 0.999999 0.000000
112.93399811 219.32000732 361.50000000 -0.401683 -0.351668 0.845565 0.000000
119.48000336 87.97360229 375.00000000 -0.314281 0.945474 -0.085474 0.000000
62.60449982 157.94299316 426.00000000 0.000978 0.000978 -0.999999 0.000000
145.25900269 85.10939789 402.00000000 -0.214873 0.975933 0.037213 0.000000
132.57400513 236.50599670 376.50000000 -0.146924 0.250167 0.956990 0.000000
209.50000000 156.30700684 448.50000000 0.144941 0.172669 0.974257 0.000000
98.20310211 122.75399780 361.50000000 -0.983248 0.141501 0.114894 0.000000
100.65799713 154.66999817 340.50000000 -0.001325 0.878249 0.478202 0.000000
76.51660156 185.76800537 312.00000000 -0.911322 -0.130189 0.390567 0.000000
221.77499390 126.84600067 409.50000000 0.633201 0.067484 -0.771040 0.000000
76.10739899 124.80000305 348.00000000 0.886184 0.420388 0.194814 0.000000
188.22300720 146.48599243 382.50000000 -0.000978 -0.000978 -0.999999 0.000000
103.93199921 216.04699707 445.50000000 0.266301 -0.515472 -0.814477 0.000000
161.21699524 97.38480377 427.50000000 -0.000978 -0.000978 -0.999999 0.000000
49.51070023 208.68200684 390.00000000 -0.513311 -0.772396 -0.374053 0.000000
139.12100220 84.70020294 390.00000000 -0.122354 0.972528 -0.198037 0.000000
162.03500366 206.22700500 439.50000000 -0.894982 0.227787 -0.383564 0.000000
112.93399811 105.97799683 435.00000000 0.098398 0.653540 -0.750469 0.000000
92.47460175 103.93199921 355.50000000 -0.450917 0.464035 0.762460 0.000000
202.95300293 121.11699677 394.50000000 0.452885 -0.227195 -0.862136 0.000000
214.41000366 143.21299744 439.50000000 -0.454235 0.368169 -0.811247 0.000000
117.84400177 112.93399811 442.50000000 0.229003 0.606002 -0.761787 0.000000
98.20310211 231.59599304 433.50000000 -0.559938 -0.559938 -0.610687 0.000000
100.65799713 204.18099976 450.00000000 0.179147 -0.345598 -0.921124 0.000000
133.39300537 194.77000427 457.50000000 -0.000978 -0.000978 -0.999999 0.000000
124.39099884 126.02700043 454.50000000 -0.023033 0.499942 -0.865753 0.000000
54.01169968 175.94700623 361.50000000 0.913409 0.406106 -0.027599 0.000000
162.85400391 198.86099243 442.50000000 -0.001343 -0.522373 -0.852716 0.000000
75.28910065 219.32000732 328.50000000 -0.383249 -0.536549 0.751821 0.000000
191.90499878 202.95300293 432.00000000 -0.612056 -0.612056 -0.500773 0.000000
144.85000610 117.84400177 442.50000000 -0.317723 0.780737 -0.538054 0.000000
100.65799713 161.21699524 337.50000000 -0.455835 -0.161654 0.875261 0.000000
177.58399963 87.97360229 420.00000000 0.057626 0.833468 -0.549555 0.000000
154.66999817 130.93800354 451.50000000 -0.261673 0.708896 -0.654976 0.000000
158.76199341 86.74610138 397.50000000 0.110498 0.989833 -0.089562 0.000000
62.19530106 145.25900269 366.00000000 0.887602 0.444511 0.120714 0.000000
205.40800476 121.11699677 448.50000000 -0.098443 0.349270 -0.931836 0.000000
179.22099304 122.75399780 373.50000000 0.650830 0.556653 -0.516292 0.000000
179.22099304 151.39599609 382.50000000 0.379567 0.603036 -0.701624 0.000000
54.83010101 151.39599609 397.50000000 0.829462 -0.553449 -0.075406 0.000000
215.22900391 90.01950073 436.50000000 0.230077 0.839554 -0.492152 0.000000
71.19730377 159.58000183 439.50000000 0.710394 0.182585 -0.679708 0.000000
182.08500671 101.47699738 438.00000000 0.082486 0.609240 -0.788684 0.000000
84.29100037 109.66000366 421.50000000 0.257842 0.795403 -0.548500 0.000000
99.43070221 265.96701050 399.00000000 0.409051 -0.680647 -0.607780 0.000000
167.76400757 136.66600037 451.50000000 0.232738 0.812271 -0.534835 0.000000
141.57600403 226.68600464 436.50000000 -0.340865 -0.627910 -0.699671 0.000000
136.66600037 96.97560120 429.00000000 0.179077 0.534220 -0.826160 0.000000
126.84600067 175.53799438 369.00000000 -0.694314 0.694314 -0.189358 0.000000
58.10350037 145.66799927 382.50000000 0.686223 0.156029 0.710460 0.000000
87.15529633 242.23399353 348.00000000 -0.460774 0.079348 0.883963 0.000000
190.67799377 179.22099304 445.50000000 -0.069075 0.249927 0.965798 0.000000
117.84400177 136.66600037 385.50000000 -0.052472 0.421124 0.905484 0.000000
50.73830032 217.27400208 366.00000000 0.939831 -0.094382 0.328343 0.000000
209.90899658 157.12500000 396.00000000 0.739258 0.296665 -0.604556 0.000000
138.30299377 253.69099426 415.50000000 -0.505364 -0.757229 -0.413777 0.000000
124.39099884 234.05099487 436.50000000 -0.175654 -0.734692 -0.655266 0.000000
83.47270203 215.22900391 436.50000000 -0.000978 -0.000978 -0.999999 0.000000
126.84600067 184.13099670 460.50000000 0.140128 -0.359339 -0.922627 0.000000
84.29100037 133.39300537 331.50000000 -0.526150 0.281137 0.802576 0.000000
117.02500153 160.39799500 463.50000000 0.500118 0.126117 -0.856724 0.000000
135.84800720 262.69299316 403.50000000 -0.223627 -0.884140 -0.410229 0.000000
167.35400391 148.94099426 381.00000000 -0.189360 0.540813 -0.819551 0.000000
198.04299927 201.72599792 420.00000000 -0.863474 -0.479382 0.156862 0.000000
83.06349945 110.47899628 366.00000000 0.802121 0.593369 -0.067201 0.000000
85.10939789 126.02700043 439.50000000 0.694314 0.694314 -0.189358 0.000000
98.20310211 167.76400757 334.50000000 -0.640808 -0.265546 0.720313 0.000000
63.42290115 145.66799927 420.00000000 0.888292 0.182326 -0.421538 0.000000
205.40800476 153.85200500 391.50000000 -0.000978 -0.000978 -0.999999 0.000000
97.38480377 194.77000427 340.50000000 -0.449799 0.017249 0.892963 0.000000
193.13299561 175.53799438 447.00000000 -0.071313 0.490804 0.868346 0.000000
229.55000305 121.11699677 420.00000000 0.371158 0.184863 -0.909982 0.000000
88.38279724 114.56999969 349.50000000 -0.161599 0.599578 0.783831 0.000000
133.39300537 202.95300293 364.50000000 -0.405534 -0.358561 0.840818 0.000000
92.88379669 152.21499634 330.00000000 -0.777832 0.343019 0.526607 0.000000
200.08900452 197.22500610 417.00000000 -0.943433 -0.331272 0.013855 0.000000
119.48000336 220.95700073 364.50000000 -0.353058 -0.316692 0.880373 0.000000
80.19920349 141.57600403 442.50000000 0.882755 0.001323 -0.469832 0.000000
148.94099426 155.07899475 396.00000000 -0.404600 -0.586257 0.701856 0.000000
199.67999268 143.21299744 388.50000000 0.663369 -0.442803 -0.603214 0.000000
206.22700500 148.94099426 391.50000000 0.403506 -0.038366 -0.914172 0.000000
201.31599426 188.22300720 400.50000000 -0.769621 -0.429746 0.472230 0.000000
236.50599670 104.75000000 436.50000000 -0.381314 -0.132692 -0.914873 0.000000
92.88379669 144.85000610 336.00000000 -0.553450 0.237193 0.798394 0.000000
185.76800537 166.53599548 390.00000000 -0.239943 -0.530971 -0.812710 0.000000
204.99899292 184.94900513 405.00000000 -0.945258 -0.314210 0.088084 0.000000
229.14100647 134.21099854 439.50000000 0.000978 0.000978 0.999999 0.000000
128.48199463 266.37600708 384.00000000 -0.532743 -0.699747 0.475961 0.000000
117.02500153 138.30299377 385.50000000 0.000978 0.000978 0.999999 0.000000
202.95300293 125.20899963 451.50000000 -0.130420 0.399675 -0.907332 0.000000
139.12100220 233.23199463 433.50000000 -0.117704 -0.527490 -0.841368 0.000000
152.62399292 114.56999969 378.00000000 -0.906026 0.271661 0.324525 0.000000
100.24900055 125.20899963 372.00000000 -0.888740 0.423279 0.176002 0.000000
101.06700134 268.42199707 369.00000000 0.124874 -0.955617 0.266837 0.000000
77.74410248 192.31399536 442.50000000 0.723702 -0.206108 -0.658616 0.000000
121.11699677 250.82699585 420.00000000 -0.001380 -0.674661 -0.738126 0.000000
71.19730377 144.03100586 433.50000000 0.791970 0.183932 -0.582197 0.000000
98.20310211 256.14599609 355.50000000 -0.616993 -0.158397 0.770864 0.000000
139.93899536 180.85699463 460.50000000 -0.137334 -0.054241 -0.989039 0.000000
162.85400391 182.49400330 379.50000000 -0.085636 0.770726 0.631386 0.000000
138.30299377 193.95100403 457.50000000 -0.000978 -0.000978 -0.999999 0.000000
56.05759811 152.21499634 384.00000000 0.981461 0.177024 -0.073459 0.000000
64.24120331 133.39300537 390.00000000 -0.001325 0.878249 0.478202 0.000000
84.70020294 262.69299316 387.00000000 0.694314 -0.694314 -0.189358 0.000000
68.74220276 165.30900574 436.50000000 0.689788 -0.104871 -0.716376 0.000000
87.56449890 123.98100281 441.00000000 0.694314 0.694314 -0.189358 0.000000
135.02900696 204.58999634 451.50000000 -0.587089 -0.453279 -0.670720 0.000000
113.75199890 174.31100464 460.50000000 0.000978 0.000978 -0.999999 0.000000
72.01560211 189.04100037 439.50000000 0.764543 -0.029459 -0.643899 0.000000
188.22300720 154.66999817 454.50000000 -0.359858 0.029666 -0.932535 0.000000
207.04499817 94.52050018 390.00000000 0.575355 0.615849 -0.538235 0.000000
99.02149963 236.50599670 430.50000000 0.149804 -0.362609 -0.919823 0.000000
132.57400513 112.93399811 442.50000000 -0.660550 0.730724 -0.172384 0.000000
220.95700073 139.12100220 409.50000000 0.738825 0.079834 -0.669152 0.000000
100.65799713 252.05499268 358.50000000 -0.590282 0.221549 0.776198 0.000000
168.17300415 191.49600220 438.00000000 -0.913529 -0.392694 -0.106096 0.000000
54.01169968 150.57800293 406.50000000 0.845851 0.530921 0.051559 0.000000
116.20700073 133.39300537 388.50000000 0.041946 0.455997 0.888992 0.000000
113.75199890 245.50799561 424.50000000 0.049902 -0.731423 -0.680095 0.000000
125.20899963 119.48000336 382.50000000 0.677562 -0.557106 0.480149 0.000000
64.65039825 182.49400330 433.50000000 0.899328 -0.101784 -0.425264 0.000000
206.63600159 178.40199280 444.00000000 0.140574 0.317997 0.937612 0.000000
70.37889862 239.77900696 346.50000000 0.702525 -0.610820 0.365182 0.000000
104.34100342 211.95500183 447.00000000 0.027181 -0.371477 -0.928044 0.000000
68.74220276 193.54200745 312.00000000 0.126596 -0.330783 0.935177 0.000000
212.77299500 83.88179779 399.00000000 -0.158050 0.935932 0.314726 0.000000
97.38480377 123.16300201 447.00000000 0.342404 0.485736 -0.804251 0.000000
175.94700623 156.30700684 409.50000000 -0.978319 0.140114 0.152514 0.000000
179.63000488 190.67799377 420.00000000 0.535611 -0.804198 -0.257656 0.000000
195.58799744 83.88179779 411.00000000 0.158353 0.982754 -0.095495 0.000000
70.37889862 152.21499634 313.50000000 0.362155 0.680066 0.637459 0.000000
156.30700684 202.13499451 448.50000000 -0.490902 -0.332034 -0.805461 0.000000
158.76199341 130.52799988 450.00000000 -0.280408 0.395602 -0.874569 0.000000
169.39999390 193.54200745 414.00000000 -0.600218 -0.799835 0.001367 0.000000
112.52400208 247.14500427 366.00000000 -0.209501 -0.631608 0.746445 0.000000
86.33689880 215.22900391 339.00000000 -0.555084 -0.451735 0.698439 0.000000
139.93899536 182.49400330 460.50000000 -0.158924 -0.124429 -0.979418 0.000000
102.29499817 104.75000000 376.50000000 -0.939829 0.001251 0.341642 0.000000
163.67199707 198.86099243 442.50000000 -0.001343 -0.522373 -0.852716 0.000000
62.19530106 212.77299500 418.50000000 0.751005 0.169090 -0.638278 0.000000
133.39300537 238.14300537 430.50000000 -0.402910 -0.507307 -0.761776 0.000000
146.48599243 85.51860046 390.00000000 0.000978 0.000978 -0.999999 0.000000
51.96580124 218.50199890 390.00000000 0.892357 -0.404555 0.200087 0.000000
104.75000000 231.59599304 436.50000000 0.061758 -0.650613 -0.756894 0.000000
151.39599609 241.41600037 391.50000000 -0.901212 -0.226399 0.369541 0.000000
227.50399780 175.94700623 424.50000000 0.179225 0.712304 -0.678603 0.000000
79.79000092 259.42001343 372.00000000 0.693124 -0.716374 0.079920 0.000000
54.01169968 198.45199585 411.00000000 0.983150 -0.102789 -0.151161 0.000000
132.98300171 189.04100037 360.00000000 -0.460770 0.112002 0.880424 0.000000
51.55659866 176.35600281 381.00000000 0.981605 -0.051039 -0.183977 0.000000
207.04499817 147.30499268 448.50000000 -0.000978 -0.000978 0.999999 0.000000
244.68899536 167.76400757 433.50000000 0.771267 0.239359 -0.589792 0.000000
83.47270203 221.77499390 433.50000000 0.612227 -0.366023 -0.700860 0.000000
69.96970367 130.11900330 375.00000000 0.575130 0.763123 0.294734 0.000000
56.05759811 230.77699280 369.00000000 0.852408 -0.522792 0.009456 0.000000
105.97799683 271.69500732 384.00000000 0.315763 -0.899850 0.300938 0.000000
109.66000366 89.20120239 373.50000000 0.253019 0.811835 0.526218 0.000000
120.29900360 232.41400146 367.50000000 -0.712229 0.101747 0.694534 0.000000
56.05759811 183.31199646 342.00000000 0.922384 0.376787 0.085081 0.000000
207.04499817 137.48399353 451.50000000 -0.357376 0.070412 -0.931303 0.000000
164.89900208 193.95100403 447.00000000 -0.913879 -0.220194 -0.341086 0.000000
222.59399414 83.88179779 411.00000000 -0.179321 0.932748 0.312770 0.000000
130.93800354 234.05099487 433.50000000 -0.146158 -0.676546 -0.721750 0.000000
192.31399536 180.03900146 445.50000000 0.011257 0.321456 0.946858 0.000000
154.66999817 144.85000610 460.50000000 0.000978 0.000978 -0.999999 0.000000
187.40400696 206.63600159 429.00000000 -0.437942 -0.674398 -0.594469 0.000000
160.39799500 184.13099670 454.50000000 -0.499723 -0.827714 -0.255276 0.000000
193.13299561 116.20700073 451.50000000 -0.000978 -0.000978 -0.999999 0.000000
120.29900360 179.22099304 460.50000000 0.000000 0.000000 0.000000 0.000000
159.98899841 238.14300537 405.00000000 -0.705614 -0.705614 -0.064934 0.000000
175.12899780 182.08500671 447.00000000 -0.213169 -0.811270 -0.544425 0.000000
214.81900024 134.21099854 405.00000000 -0.001294 -0.415362 -0.909655 0.000000
190.67799377 158.35299683 387.00000000 -0.146476 0.720301 -0.678020 0.000000
156.30700684 215.22900391 439.50000000 -0.304186 -0.638952 -0.706549 0.000000
125.20899963 198.04299927 454.50000000 0.000978 0.000978 -0.999999 0.000000
216.45599365 149.75999451 441.00000000 -0.320053 0.932449 -0.167647 0.000000
107.20500183 196.40600586 349.50000000 -0.402815 -0.322560 0.856560 0.000000
67.10549927 144.85000610 430.50000000 0.887725 0.160224 -0.431593 0.000000
158.76199341 199.67999268 382.50000000 -0.995927 0.001061 0.090153 0.000000
127.25499725 104.75000000 375.00000000 -0.157018 -0.557787 0.814997 0.000000
140.75799561 179.22099304 460.50000000 -0.000978 -0.000978 -0.999999 0.000000
204.58999634 181.67599487 400.50000000 -0.446689 0.894688 0.001310 0.000000
211.95500183 104.75000000 406.50000000 0.747927 0.120441 -0.652763 0.000000
182.49400330 86.74610138 421.50000000 0.085081 0.922384 -0.376787 0.000000
182.49400330 166.94500732 391.50000000 -0.405599 -0.540252 -0.737304 0.000000
182.90299988 202.13499451 429.00000000 -0.709037 -0.556270 0.433393 0.000000
62.19530106 202.95300293 424.50000000 0.842569 -0.161406 -0.513834 0.000000
239.36999512 149.75999451 429.00000000 0.612056 -0.612056 -0.500773 0.000000
105.56800079 199.27099609 450.00000000 0.209477 -0.480743 -0.851473 0.000000
101.47699738 92.06539917 378.00000000 0.878249 -0.001325 -0.478202 0.000000
179.22099304 187.40400696 430.50000000 0.656470 -0.730266 -0.189100 0.000000
123.57199860 267.60400391 400.50000000 -0.143840 -0.898642 -0.414429 0.000000
214.41000366 83.06349945 408.00000000 -0.268140 0.949942 0.160345 0.000000
81.83589935 130.93800354 331.50000000 -0.114959 0.336761 0.934546 0.000000
168.58200073 111.29699707 376.50000000 -0.000978 -0.000978 -0.999999 0.000000
197.22500610 169.39999390 391.50000000 0.806941 -0.247213 -0.536406 0.000000
122.75399780 238.96099854 430.50000000 0.365409 -0.454766 -0.812197 0.000000
202.95300293 180.85699463 400.50000000 -0.446689 0.894688 0.001310 0.000000
153.85200500 114.97899628 381.00000000 -0.874799 0.375783 0.305799 0.000000
55.23929977 162.03500366 414.00000000 0.810606 0.325194 -0.486998 0.000000
160.39799500 101.88600159 432.00000000 0.376037 0.586224 -0.717591 0.000000
143.21299744 117.43499756 444.00000000 -0.397353 0.704024 -0.588610 0.000000
162.85400391 218.50199890 397.50000000 -0.838683 0.174913 0.515768 0.000000
77.74410248 201.31599426 439.50000000 0.497303 -0.340597 -0.797924 0.000000
122.75399780 224.22999573 367.50000000 -0.385070 -0.475295 0.791085 0.000000
56.05759811 165.30900574 360.00000000 0.950280 0.151455 0.272083 0.000000
65.87789917 137.48399353 420.00000000 0.964929 0.001199 -0.262509 0.000000
144.03100586 99.02149963 430.50000000 -0.260374 0.765343 -0.588604 0.000000
78.56250000 171.03700256 445.50000000 0.655163 -0.113877 -0.746856 0.000000
129.30099487 232.41400146 436.50000000 -0.149813 -0.697612 -0.700638 0.000000
166.94500732 193.13299561 442.50000000 -0.891912 -0.393621 -0.222610 0.000000
55.64839935 149.75999451 406.50000000 0.947087 0.315696 -0.057985 0.000000
81.01760101 125.20899963 433.50000000 0.733811 0.482029 -0.478716 0.000000
164.49000549 166.12699890 460.50000000 -0.000978 -0.000978 -0.999999 0.000000
174.31100464 189.04100037 427.50000000 -0.548751 -0.822382 -0.150200 0.000000
211.95500183 83.47270203 400.50000000 -0.127194 0.973478 0.190162 0.000000
77.74410248 157.94299316 313.50000000 -0.853745 -0.083534 0.513946 0.000000
92.88379669 108.02300262 354.00000000 -0.432802 0.329680 0.839043 0.000000
182.08500671 166.94500732 408.00000000 -0.576994 0.745082 -0.334560 0.000000
148.94099426 207.04499817 376.50000000 -0.795587 -0.596324 0.106957 0.000000
102.29499817 222.59399414 439.50000000 0.371687 -0.487537 -0.790036 0.000000
109.66000366 121.11699677 448.50000000 0.162605 0.712727 -0.682334 0.000000
143.21299744 169.39999390 394.50000000 0.001199 0.964929 0.262509 0.000000
187.40400696 193.13299561 397.50000000 0.435141 -0.868776 0.236391 0.000000
78.97170258 158.76199341 315.00000000 -0.853745 -0.083534 0.513946 0.000000
136.66600037 259.82901001 408.00000000 -0.454624 -0.835820 -0.307769 0.000000
104.75000000 200.08900452 348.00000000 -0.698034 -0.159681 0.698034 0.000000
238.96099854 129.30099487 424.50000000 0.746800 -0.271131 -0.607271 0.000000
145.66799927 85.51860046 390.00000000 0.000978 0.000978 -0.999999 0.000000
72.83399963 132.57400513 430.50000000 0.509556 0.509556 -0.693330 0.000000
77.74410248 159.58000183 313.50000000 -0.865876 0.249336 0.433694 0.000000
106.38700104 199.67999268 349.50000000 -0.234100 -0.035176 0.971576 0.000000
59.33110046 202.13499451 420.00000000 0.811680 -0.270560 -0.517661 0.000000
121.11699677 84.70020294 390.00000000 0.140019 0.987191 0.076481 0.000000
143.21299744 190.67799377 457.50000000 -0.000978 -0.000978 -0.999999 0.000000
148.12300110 189.85899353 454.50000000 -0.000978 -0.000978 -0.999999 0.000000
193.13299561 200.49800110 433.50000000 -0.496161 -0.620622 -0.607167 0.000000
74.87989807 201.31599426 438.00000000 0.493826 -0.328688 -0.805047 0.000000
175.94700623 154.66999817 382.50000000 -0.009505 0.541762 -0.840478 0.000000
56.87599945 147.30499268 408.00000000 0.813336 0.480392 -0.328188 0.000000
135.02900696 164.49000549 463.50000000 -0.631608 -0.209501 -0.746445 0.000000
52.78419876 220.13900757 375.00000000 0.948648 -0.073971 -0.307564 0.000000
60.55860138 143.21299744 391.50000000 0.855398 0.461764 -0.234667 0.000000
164.08099365 181.67599487 450.00000000 -0.522327 -0.295091 -0.800060 0.000000
87.56449890 203.77099609 445.50000000 0.481508 -0.267848 -0.834510 0.000000
184.13099670 83.88179779 390.00000000 0.115973 0.990939 0.067747 0.000000
126.02700043 111.29699707 442.50000000 -0.000978 -0.000978 -0.999999 0.000000
75.69819641 169.39999390 444.00000000 0.752003 -0.091993 -0.652709 0.000000
221.77499390 165.30900574 412.50000000 0.440766 0.414934 -0.795962 0.000000
126.84600067 157.12500000 463.50000000 -0.000978 -0.000978 -0.999999 0.000000
112.11499786 238.14300537 430.50000000 0.179255 -0.684846 -0.706296 0.000000
211.95500183 146.48599243 442.50000000 -0.850251 0.523554 -0.054450 0.000000
112.52400208 139.12100220 459.00000000 0.317963 0.388621 -0.864797 0.000000
129.30099487 224.22999573 442.50000000 -0.510298 -0.772736 -0.377458 0.000000
138.30299377 245.50799561 421.50000000 -0.197763 -0.593288 -0.780320 0.000000
235.68800354 151.39599609 424.50000000 0.709654 -0.070821 -0.700982 0.000000
51.96580124 173.49200439 384.00000000 0.872511 0.406768 0.270675 0.000000
121.11699677 254.50999451 373.50000000 -0.785885 -0.168079 0.595092 0.000000
113.75199890 206.22700500 451.50000000 -0.636951 -0.475613 -0.606700 0.000000
220.95700073 156.30700684 409.50000000 0.851251 0.330267 -0.407794 0.000000
60.55860138 207.86300659 331.50000000 0.952886 -0.187343 0.238559 0.000000
110.47899628 118.66200256 445.50000000 0.122759 0.791279 -0.599006 0.000000
108.02300262 151.80599976 354.00000000 -0.849891 0.472837 0.232618 0.000000
183.31199646 154.66999817 454.50000000 -0.252013 0.124048 -0.959740 0.000000
171.03700256 99.02149963 430.50000000 0.272143 0.499187 -0.822648 0.000000
144.03100586 154.66999817 394.50000000 -0.582126 -0.728881 0.360364 0.000000
157.94299316 113.34300232 438.00000000 0.248997 0.424050 -0.870736 0.000000
79.38089752 163.67199707 313.50000000 -0.913033 0.281045 0.295607 0.000000
202.95300293 112.11499786 394.50000000 0.781122 0.145430 -0.607206 0.000000
180.03900146 134.21099854 379.50000000 0.694290 0.384250 -0.608534 0.000000
62.19530106 139.12100220 382.50000000 0.452885 0.227195 0.862136 0.000000
85.10939789 190.67799377 448.50000000 0.462431 -0.001317 -0.886654 0.000000
193.95100403 96.15720367 441.00000000 0.374923 0.564840 -0.735111 0.000000
85.51860046 258.60198975 399.00000000 0.596913 -0.717931 -0.358148 0.000000
79.79000092 164.49000549 315.00000000 -0.964929 0.001199 0.262509 0.000000
98.20310211 120.29900360 364.50000000 -0.983248 0.141501 0.114894 0.000000
84.29100037 200.49800110 445.50000000 0.443668 -0.277868 -0.852026 0.000000
234.46000671 164.49000549 420.00000000 0.631374 0.032342 -0.774804 0.000000
70.37889862 249.19000244 378.00000000 0.829462 -0.553449 0.075406 0.000000
160.39799500 186.58599854 376.50000000 0.000978 0.000978 0.999999 0.000000
79.38089752 165.30900574 313.50000000 -0.964929 0.001199 0.262509 0.000000
162.85400391 148.12300110 457.50000000 -0.455650 0.181375 -0.871485 0.000000
126.02700043 94.11129761 427.50000000 0.516965 0.634839 -0.574218 0.000000
186.58599854 169.39999390 451.50000000 0.228803 0.204433 0.951765 0.000000
118.66200256 259.82901001 411.00000000 0.250704 -0.748959 -0.613358 0.000000
157.53399658 139.12100220 381.00000000 -0.293358 0.196036 -0.935687 0.000000
73.24320221 251.23599243 360.00000000 0.638352 -0.560874 0.527188 0.000000
155.48800659 175.12899780 391.50000000 -0.132867 0.108927 0.985130 0.000000
105.56800079 239.77900696 430.50000000 0.061782 -0.685354 -0.725584 0.000000
223.41200256 154.66999817 412.50000000 0.710643 0.268677 -0.650230 0.000000
109.66000366 87.15529633 384.00000000 -0.001199 0.964929 0.262509 0.000000
120.29900360 224.63999939 366.00000000 -0.339353 -0.423800 0.839781 0.000000
180.03900146 85.92769623 418.50000000 0.138008 0.935992 -0.323840 0.000000
234.05099487 89.61039734 429.00000000 -0.851391 0.520372 0.065923 0.000000
59.33110046 144.85000610 390.00000000 0.864625 0.246819 -0.437612 0.000000
230.77699280 170.21899414 421.50000000 0.727797 0.386077 -0.566794 0.000000
97.38480377 117.02500153 439.50000000 0.357853 0.769141 -0.529493 0.000000
220.13900757 90.42870331 438.00000000 -0.193103 0.678178 -0.709074 0.000000
158.76199341 196.40600586 448.50000000 0.298979 -0.896937 -0.325753 0.000000
105.56800079 184.94900513 343.50000000 -0.571210 -0.040501 0.819804 0.000000
110.47899628 269.23999023 373.50000000 -0.878249 0.001325 0.478202 0.000000
71.19730377 247.96299744 361.50000000 0.695473 -0.609977 0.379797 0.000000
185.76800537 86.74610138 421.50000000 -0.001199 0.964929 -0.262509 0.000000
61.78609848 237.32400513 375.00000000 0.840909 -0.526114 -0.126792 0.000000
75.28910065 145.66799927 439.50000000 0.618368 0.344263 -0.706473 0.000000
143.21299744 108.02300262 376.50000000 -0.000978 -0.000978 0.999999 0.000000
130.11900330 149.75999451 463.50000000 -0.317490 0.524896 -0.789737 0.000000
94.92970276 101.47699738 358.50000000 -0.636522 0.254293 0.728131 0.000000
139.93899536 228.32200623 436.50000000 -0.336166 -0.532397 -0.776882 0.000000
246.32600403 129.71000671 432.00000000 0.842012 0.342116 -0.417100 0.000000
117.02500153 210.31799316 358.50000000 -0.267053 -0.319587 0.909146 0.000000
132.57400513 177.58399963 460.50000000 -0.000978 -0.000978 -0.999999 0.000000
208.68200684 108.84200287 400.50000000 0.827162 -0.105749 -0.551924 0.000000
74.87989807 112.93399811 414.00000000 0.645070 0.645070 -0.409595 0.000000
119.48000336 147.30499268 382.50000000 -0.628075 0.490000 0.604501 0.000000
54.83010101 202.95300293 412.50000000 0.890978 0.001316 -0.454044 0.000000
169.39999390 106.38700104 436.50000000 -0.026696 0.658966 -0.751699 0.000000
245.09899902 135.02900696 438.00000000 0.761885 -0.113913 0.637617 0.000000
50.73830032 188.22300720 385.50000000 0.957865 -0.041320 0.284229 0.000000
107.20500183 119.48000336 445.50000000 0.275331 0.727321 -0.628647 0.000000
87.56449890 218.50199890 436.50000000 0.580384 -0.328184 -0.745285 0.000000
94.92970276 131.75599670 346.50000000 -0.665939 0.632890 0.394937 0.000000
92.06539917 255.32800293 408.00000000 0.149525 -0.653984 -0.741584 0.000000
94.11129761 119.88999939 351.00000000 -0.918410 0.307098 0.249427 0.000000
65.87789917 126.84600067 405.00000000 0.694314 0.694314 0.189358 0.000000
139.93899536 184.13099670 460.50000000 -0.158924 -0.124429 -0.979418 0.000000
147.30499268 225.04899597 436.50000000 -0.000978 -0.000978 -0.999999 0.000000
186.99499512 207.04499817 429.00000000 -0.437942 -0.674398 -0.594469 0.000000
98.20310211 252.87300110 415.50000000 0.387561 -0.628344 -0.674522 0.000000
118.66200256 268.42199707 400.50000000 -0.154591 -0.926156 -0.344001 0.000000
135.84800720 236.50599670 430.50000000 -0.128654 -0.590033 -0.797063 0.000000
74.47070313 130.11900330 340.50000000 0.822511 0.506518 0.258680 0.000000
182.90299988 192.31399536 408.00000000 -0.240570 0.718565 -0.652526 0.000000
183.31199646 114.56999969 448.50000000 0.315163 0.495708 -0.809287 0.000000
166.12699890 169.39999390 397.50000000 -0.509556 -0.509556 0.693330 0.000000
84.29100037 216.04699707 436.50000000 -0.000978 -0.000978 -0.999999 0.000000
82.65429688 259.42001343 364.50000000 0.529747 -0.800122 0.281379 0.000000
153.03300476 129.30099487 451.50000000 -0.694314 0.694314 -0.189358 0.000000
119.07099915 176.76600647 354.00000000 -0.645484 0.351340 0.678167 0.000000
162.03500366 179.22099304 391.50000000 0.000978 0.000978 0.999999 0.000000
106.38700104 143.21299744 361.50000000 -0.865479 0.424373 0.266184 0.000000
93.29299927 212.77299500 442.50000000 0.278457 -0.490023 -0.826038 0.000000
189.85899353 94.11129761 379.50000000 0.701102 0.376001 -0.605870 0.000000
46.23730087 194.77000427 390.00000000 0.994373 -0.070309 0.079237 0.000000
116.20700073 117.02500153 445.50000000 0.223813 0.662048 -0.715262 0.000000
184.94900513 135.84800720 451.50000000 -0.000978 -0.000978 -0.999999 0.000000
104.75000000 92.47460175 370.50000000 0.298670 0.877818 0.374475 0.000000
117.02500153 92.06539917 420.00000000 0.528187 0.778634 0.338746 0.000000
86.74610138 167.76400757 451.50000000 0.694314 0.694314 0.189358 0.000000
241.41600037 125.20899963 427.50000000 -0.063013 -0.304777 -0.950337 0.000000
108.02300262 146.48599243 460.50000000 0.261342 0.301770 -0.916862 0.000000
204.58999634 134.21099854 451.50000000 -0.358758 0.056508 -0.931719 0.000000
94.92970276 251.23599243 415.50000000 0.413093 -0.661945 -0.625446 0.000000
150.57800293 233.23199463 385.50000000 -0.561390 -0.746893 0.356361 0.000000
121.93599701 98.61229706 429.00000000 -0.009666 0.625507 -0.780158 0.000000
158.35299683 197.22500610 378.00000000 -0.793706 -0.481375 0.371899 0.000000
117.43499756 91.65619659 420.00000000 0.612056 0.612056 0.500773 0.000000
217.27400208 121.11699677 408.00000000 0.518422 -0.095687 -0.849755 0.000000
175.12899780 112.93399811 442.50000000 0.539665 0.443356 -0.715679 0.000000
78.97170258 122.75399780 429.00000000 0.739647 0.388684 -0.549406 0.000000
103.11299896 91.24710083 381.00000000 0.878249 -0.001325 -0.478202 0.000000
81.01760101 234.05099487 421.50000000 0.334910 -0.584070 -0.739390 0.000000
219.32000732 178.40199280 430.50000000 0.001199 0.964929 -0.262509 0.000000
214.41000366 181.26699829 438.00000000 0.235501 0.937822 0.255009 0.000000
187.40400696 194.77000427 439.50000000 0.822744 -0.265953 -0.502356 0.000000
162.85400391 85.51860046 414.00000000 -0.000978 0.999999 -0.000978 0.000000
114.56999969 167.76400757 460.50000000 -0.000978 -0.000978 -0.999999 0.000000
112.93399811 267.19400024 402.00000000 0.051940 -0.832436 -0.551682 0.000000
69.56050110 209.50000000 430.50000000 0.571297 -0.378137 -0.728445 0.000000
122.75399780 153.85200500 385.50000000 -0.780704 0.181099 0.598083 0.000000
116.61599731 85.10939789 396.00000000 0.235000 0.957259 0.168616 0.000000
66.69629669 130.11900330 420.00000000 0.868776 0.435141 -0.236391 0.000000
100.65799713 215.22900391 445.50000000 0.195601 -0.430911 -0.880940 0.000000
135.84800720 162.03500366 463.50000000 0.000978 0.000978 -0.999999 0.000000
232.00500488 93.29299927 420.00000000 0.868776 0.435141 -0.236391 0.000000
78.56250000 109.25099945 411.00000000 0.593759 0.793166 0.135419 0.000000
201.31599426 180.03900146 397.50000000 -0.446689 0.894688 0.001310 0.000000
202.13499451 83.47270203 415.50000000 0.064652 0.996086 -0.060269 0.000000
147.30499268 176.76600647 388.50000000 0.351640 0.351640 -0.867582 0.000000
68.74220276 231.59599304 412.50000000 0.757229 -0.505364 -0.413777 0.000000
152.21499634 174.31100464 391.50000000 -0.132901 0.106560 0.985384 0.000000
216.45599365 117.84400177 408.00000000 0.338975 0.075181 -0.937787 0.000000
71.60639954 138.30299377 330.00000000 0.853914 0.492813 0.167231 0.000000
204.99899292 175.94700623 405.00000000 0.000978 0.000978 -0.999999 0.000000
95.74800110 220.95700073 439.50000000 0.000978 0.000978 -0.999999 0.000000
72.83399963 146.48599243 436.50000000 0.733998 0.321023 -0.598491 0.000000
227.50399780 162.85400391 415.50000000 0.623879 -0.155592 -0.765876 0.000000
120.29900360 209.90899658 360.00000000 -0.088577 -0.218323 0.971848 0.000000
51.96580124 189.04100037 357.00000000 0.969904 0.134176 0.203181 0.000000
135.02900696 177.58399963 460.50000000 -0.000978 -0.000978 -0.999999 0.000000
206.22700500 158.76199341 448.50000000 0.493019 0.068436 0.867323 0.000000
146.48599243 234.05099487 427.50000000 0.001374 -0.773712 -0.633537 0.000000
204.58999634 100.65799713 394.50000000 0.839188 -0.040226 -0.542351 0.000000
67.51460266 246.32600403 369.00000000 0.646240 -0.762981 0.015287 0.000000
109.66000366 189.04100037 346.50000000 -0.699100 -0.498880 0.512228 0.000000
80.19920349 165.30900574 448.50000000 0.595917 0.132261 -0.792079 0.000000
175.53799438 159.58000183 402.00000000 -0.836409 0.379613 0.395365 0.000000
225.04899597 96.97560120 417.00000000 0.740248 0.427003 -0.519328 0.000000
114.56999969 160.39799500 460.50000000 0.505364 0.757229 -0.413777 0.000000
154.66999817 209.50000000 382.50000000 -0.847881 0.105085 0.519669 0.000000
195.58799744 204.18099976 426.00000000 -0.122779 -0.856562 -0.501226 0.000000
156.30700684 106.38700104 433.50000000 -0.000978 -0.000978 -0.999999 0.000000
61.37699890 150.16900635 357.00000000 0.929733 0.338461 0.145055 0.000000
181.67599487 164.49000549 403.50000000 -0.307954 0.878351 -0.365600 0.000000
85.92769623 160.39799500 451.50000000 0.488082 0.103877 -0.866594 0.000000
220.13900757 124.39099884 409.50000000 0.779143 -0.517815 -0.353276 0.000000
120.29900360 104.75000000 436.50000000 0.352195 0.660160 -0.663436 0.000000
69.15139771 247.96299744 387.00000000 0.798882 -0.600904 -0.026490 0.000000
59.74020004 154.66999817 418.50000000 0.882809 0.363687 -0.297288 0.000000
147.30499268 161.21699524 460.50000000 -0.000978 -0.000978 -0.999999 0.000000
147.30499268 180.03900146 379.50000000 0.080233 0.912484 0.401167 0.000000
72.83399963 247.14500427 355.50000000 0.546492 -0.593866 0.590482 0.000000
58.10350037 215.22900391 343.50000000 0.964929 0.001199 0.262509 0.000000
84.29100037 237.32400513 343.50000000 0.000978 0.000978 0.999999 0.000000
67.10549927 139.93899536 427.50000000 0.923328 0.179027 -0.339728 0.000000
166.12699890 122.75399780 373.50000000 -0.610361 0.188156 -0.769452 0.000000
76.10739899 133.39300537 433.50000000 0.572136 0.356974 -0.738397 0.000000
58.92190170 202.95300293 331.50000000 0.967721 -0.156334 0.197679 0.000000
227.50399780 97.79389954 441.00000000 -0.641667 0.133120 -0.755343 0.000000
94.92970276 152.21499634 454.50000000 0.509085 -0.045528 -0.859511 0.000000
130.11900330 268.01300049 390.00000000 -0.377143 -0.918681 -0.117425 0.000000
70.37889862 129.30099487 424.50000000 0.701001 0.315693 -0.639481 0.000000
164.49000549 225.86700439 424.50000000 -0.372335 -0.860541 -0.347615 0.000000
85.92769623 234.86900330 343.50000000 0.000978 0.000978 0.999999 0.000000
193.95100403 120.29900360 451.50000000 -0.000978 -0.000978 -0.999999 0.000000
105.56800079 98.20310211 424.50000000 0.315224 0.687027 -0.654696 0.000000
109.66000366 198.86099243 349.50000000 -0.337181 -0.213787 0.916845 0.000000
127.66400146 252.87300110 418.50000000 0.159682 -0.819302 -0.550678 0.000000
105.56800079 227.50399780 439.50000000 0.419993 -0.868793 -0.262306 0.000000
138.71200562 256.96499634 384.00000000 -0.729864 -0.244339 0.638434 0.000000
190.67799377 128.48199463 385.50000000 0.340064 -0.169332 -0.925031 0.000000
165.30900574 137.48399353 403.50000000 -0.778506 0.433948 -0.453451 0.000000
121.93599701 179.22099304 460.50000000 0.000000 0.000000 0.000000 0.000000
209.09100342 147.30499268 396.00000000 0.541585 -0.619195 -0.568580 0.000000
184.13099670 171.03700256 451.50000000 0.210897 0.168980 0.962792 0.000000
66.69629669 135.02900696 372.00000000 0.802497 0.573642 0.164113 0.000000
63.83200073 135.84800720 382.50000000 0.491968 0.478716 0.727185 0.000000
177.58399963 190.26899719 417.00000000 -0.268368 -0.961336 -0.061737 0.000000
167.76400757 104.75000000 433.50000000 0.161508 0.786407 -0.596220 0.000000
125.20899963 100.65799713 370.50000000 -0.069777 -0.815962 0.573879 0.000000
189.85899353 126.84600067 451.50000000 -0.000978 -0.000978 -0.999999 0.000000
177.58399963 100.65799713 436.50000000 0.212247 0.120739 -0.969728 0.000000
113.75199890 252.05499268 418.50000000 0.029622 -0.717991 -0.695422 0.000000
85.92769623 254.50999451 349.50000000 0.612056 -0.612056 0.500773 0.000000
139.93899536 169.39999390 460.50000000 -0.000978 -0.000978 -0.999999 0.000000
239.77900696 147.30499268 439.50000000 0.000978 0.000978 0.999999 0.000000
220.13900757 177.58399963 442.50000000 0.917945 -0.377978 0.120454 0.000000
64.65039825 188.22300720 313.50000000 0.969936 0.115378 0.214273 0.000000
128.48199463 225.04899597 439.50000000 -0.510298 -0.772736 -0.377458 0.000000
134.21099854 265.96701050 391.50000000 -0.333413 -0.892590 0.303511 0.000000
180.03900146 189.85899353 397.50000000 0.001199 -0.964929 0.262509 0.000000
94.11129761 185.76800537 334.50000000 -0.721047 -0.193000 0.665464 0.000000
112.11499786 101.47699738 430.50000000 0.058749 0.646239 -0.760871 0.000000
112.11499786 103.93199921 379.50000000 0.374322 -0.844182 0.383719 0.000000
81.83589935 260.23800659 391.50000000 0.314281 -0.945474 -0.085474 0.000000
127.66400146 226.68600464 370.50000000 -0.462962 -0.235276 0.854583 0.000000
121.93599701 117.84400177 385.50000000 0.637018 -0.325803 0.698613 0.000000
209.50000000 175.94700623 445.50000000 0.139093 0.166661 0.976155 0.000000
206.22700500 177.99299622 405.00000000 -0.973868 0.152838 0.167995 0.000000
89.20120239 238.14300537 349.50000000 -0.406810 -0.165311 0.898431 0.000000
166.94500732 220.95700073 427.50000000 -0.615555 -0.585198 -0.527859 0.000000
87.15529633 102.29499817 402.00000000 0.613682 0.787392 -0.058378 0.000000
149.35099792 252.05499268 405.00000000 -0.868776 -0.435141 -0.236391 0.000000
179.22099304 116.20700073 376.50000000 0.640274 -0.319326 -0.698628 0.000000
167.76400757 180.03900146 451.50000000 -0.231523 -0.387839 -0.892176 0.000000
205.40800476 176.76600647 445.50000000 0.140574 0.317997 0.937612 0.000000
161.21699524 226.68600464 424.50000000 -0.372335 -0.860541 -0.347615 0.000000
126.43699646 268.42199707 396.00000000 -0.343170 -0.888646 -0.304208 0.000000
66.28710175 160.39799500 433.50000000 0.878249 0.001325 -0.478202 0.000000
104.75000000 110.47899628 436.50000000 0.382761 0.763893 -0.519578 0.000000
137.48399353 207.86300659 367.50000000 -0.270661 -0.580892 0.767664 0.000000
121.93599701 264.32998657 406.50000000 -0.129101 -0.854385 -0.503348 0.000000
121.11699677 87.15529633 411.00000000 0.106922 0.972362 -0.207555 0.000000
135.84800720 209.50000000 448.50000000 -0.001325 -0.878249 -0.478202 0.000000
109.66000366 145.66799927 460.50000000 0.261342 0.301770 -0.916862 0.000000
204.58999634 104.75000000 448.50000000 0.000978 0.000978 0.999999 0.000000
135.84800720 128.48199463 451.50000000 -0.238101 0.295131 -0.925314 0.000000
200.90699768 194.77000427 417.00000000 -0.935739 -0.352022 -0.021761 0.000000
149.35099792 108.02300262 378.00000000 -0.638922 0.712582 0.289837 0.000000
222.59399414 152.21499634 409.50000000 0.775343 0.325869 -0.540974 0.000000
155.48800659 119.48000336 442.50000000 -0.059800 0.378731 -0.923573 0.000000
130.93800354 223.82099915 372.00000000 -0.605730 -0.097793 0.789638 0.000000
119.48000336 156.30700684 463.50000000 -0.000978 -0.000978 -0.999999 0.000000
131.75599670 175.12899780 385.50000000 0.001325 0.878249 0.478202 0.000000
105.56800079 259.42001343 409.50000000 0.139731 -0.695648 -0.704663 0.000000
181.67599487 158.76199341 388.50000000 -0.006795 0.838455 -0.544928 0.000000
248.37199402 135.02900696 435.00000000 -0.270901 -0.887539 -0.372676 0.000000
78.97170258 130.93800354 435.00000000 0.584245 0.353151 -0.730713 0.000000
118.66200256 93.29299927 364.50000000 0.066597 0.330373 0.941498 0.000000
95.33889771 95.74800110 381.00000000 0.616892 0.775222 0.135925 0.000000
145.66799927 257.37399292 390.00000000 -0.545003 -0.619245 0.565251 0.000000
184.13099670 207.04499817 430.50000000 -0.271361 -0.614132 -0.741084 0.000000
159.17100525 202.95300293 387.00000000 -0.972094 -0.138508 0.189336 0.000000
99.83979797 97.79389954 420.00000000 0.321341 0.741184 -0.589395 0.000000
112.11499786 254.50999451 367.50000000 -0.663372 -0.370369 0.650203 0.000000
181.67599487 102.29499817 376.50000000 -0.551513 0.230183 -0.801779 0.000000
226.68600464 121.93599701 439.50000000 0.000978 0.000978 0.999999 0.000000
100.65799713 94.52050018 408.00000000 0.391353 0.912229 -0.121166 0.000000
55.23929977 184.94900513 345.00000000 0.944445 0.271989 0.184515 0.000000
76.92579651 191.90499878 315.00000000 -0.871357 -0.484087 0.079980 0.000000
98.20310211 130.93800354 451.50000000 0.508513 0.545435 -0.666270 0.000000
99.83979797 265.14801025 361.50000000 -0.039765 -0.867978 0.495008 0.000000
101.47699738 239.77900696 427.50000000 0.073902 -0.668016 -0.740469 0.000000
131.75599670 99.02149963 430.50000000 -0.178429 0.623740 -0.760994 0.000000
147.71400452 241.41600037 387.00000000 -0.623803 0.012448 0.781483 0.000000
200.08900452 189.85899353 435.00000000 -0.822212 -0.411901 -0.392817 0.000000
159.58000183 191.49600220 451.50000000 0.000978 0.000978 -0.999999 0.000000
85.92769623 168.58200073 451.50000000 0.694314 0.694314 0.189358 0.000000
59.74020004 225.86700439 352.50000000 0.843107 -0.414515 0.342561 0.000000
94.92970276 106.38700104 355.50000000 -0.615578 0.272000 0.739648 0.000000
201.31599426 117.84400177 394.50000000 0.693138 0.052879 -0.718863 0.000000
205.40800476 130.11900330 397.50000000 0.602301 0.122828 -0.788763 0.000000
96.56639862 269.23999023 376.50000000 0.307098 -0.918410 0.249427 0.000000
193.54200745 123.57199860 387.00000000 0.591008 0.001365 -0.806665 0.000000
220.95700073 180.85699463 439.50000000 0.721457 0.361546 0.590580 0.000000
184.94900513 127.66400146 379.50000000 0.742072 0.310672 -0.593980 0.000000
135.84800720 215.22900391 370.50000000 -0.605955 -0.369485 0.704485 0.000000
192.31399536 192.31399536 394.50000000 0.870425 -0.492212 -0.009388 0.000000
66.28710175 220.13900757 328.50000000 0.644739 0.286373 0.708733 0.000000
216.86500549 88.38279724 436.50000000 0.073999 0.706618 -0.703716 0.000000
120.29900360 184.94900513 457.50000000 -0.056441 -0.267153 -0.962000 0.000000
225.86700439 96.56639862 442.50000000 -0.446469 0.660506 -0.603653 0.000000
79.38089752 109.25099945 402.00000000 0.727541 0.684995 0.038292 0.000000
166.94500732 195.17900085 435.00000000 -0.749928 -0.632896 -0.192487 0.000000
198.86099243 195.99699402 432.00000000 -0.682299 -0.491188 -0.541481 0.000000
128.07299805 126.84600067 384.00000000 0.540679 0.237031 0.807145 0.000000
174.31100464 149.75999451 379.50000000 0.237552 0.649729 -0.722095 0.000000
121.93599701 199.67999268 355.50000000 -0.663739 -0.643975 0.380456 0.000000
113.75199890 182.49400330 460.50000000 0.632633 0.478251 -0.609140 0.000000
144.85000610 217.68400574 376.50000000 -0.818047 -0.115609 0.563413 0.000000
205.40800476 167.76400757 397.50000000 -0.000978 -0.000978 -0.999999 0.000000
197.22500610 147.30499268 385.50000000 0.584945 0.167775 -0.793530 0.000000
90.01950073 210.31799316 340.50000000 0.000978 -0.999999 0.000978 0.000000
230.77699280 132.57400513 418.50000000 0.589193 0.295395 -0.752059 0.000000
106.38700104 222.59399414 358.50000000 -0.310938 -0.534175 0.786114 0.000000
176.76600647 115.38899994 445.50000000 0.462129 0.465418 -0.754866 0.000000
165.30900574 115.38899994 439.50000000 0.055297 0.599762 -0.798265 0.000000
212.77299500 98.20310211 403.50000000 0.773449 0.259917 -0.578118 0.000000
109.66000366 126.02700043 385.50000000 0.146456 -0.674907 0.723223 0.000000
120.29900360 202.13499451 355.50000000 -0.220944 -0.563947 0.795706 0.000000
173.49200439 116.20700073 373.50000000 -0.000978 -0.000978 -0.999999 0.000000
167.76400757 212.77299500 406.50000000 -0.921083 0.230629 0.313713 0.000000
73.65229797 124.80000305 366.00000000 0.864051 0.482295 0.144251 0.000000
62.60449982 171.85499573 429.00000000 -0.000978 -0.000978 -0.999999 0.000000
88.38279724 185.76800537 451.50000000 0.419080 -0.017079 -0.907789 0.000000
56.05759811 164.49000549 417.00000000 0.901379 0.180276 -0.393722 0.000000
91.65619659 162.85400391 328.50000000 -0.725710 0.223175 0.650798 0.000000
143.21299744 158.76199341 460.50000000 -0.000978 -0.000978 -0.999999 0.000000
85.92769623 104.75000000 373.50000000 0.592856 0.788966 -0.161414 0.000000
77.74410248 256.14599609 364.50000000 0.540349 -0.811293 0.223221 0.000000
55.64839935 169.39999390 358.50000000 0.811680 0.270560 0.517661 0.000000
127.66400146 257.78298950 412.50000000 0.001325 -0.878249 -0.478202 0.000000
207.04499817 159.58000183 448.50000000 0.465780 0.410600 0.783873 0.000000
149.75999451 165.30900574 460.50000000 -0.000978 -0.000978 -0.999999 0.000000
74.87989807 195.58799744 315.00000000 -0.472196 -0.263015 0.841340 0.000000
99.83979797 160.39799500 337.50000000 -0.455835 -0.161654 0.875261 0.000000
132.57400513 207.86300659 451.50000000 -0.132872 -0.512508 -0.848340 0.000000
141.57600403 142.39500427 460.50000000 -0.000978 -0.000978 -0.999999 0.000000
138.30299377 152.21499634 391.50000000 0.000978 0.000978 0.999999 0.000000
76.10739899 128.48199463 337.50000000 0.801613 0.509540 0.312708 0.000000
