122.08999634 166.25000000 100.00000000 -0.474150 -0.118896 0.872379 0.000000
91.28910065 190.74200439 61.25000000 -0.862632 -0.045547 0.503777 0.000000
118.75000000 191.11300659 115.00000000 -0.315188 -0.651389 0.690181 0.000000
215.97700500 106.87500000 196.25000000 -0.000978 -0.000978 -0.999999 0.000000
135.07800293 207.07000732 188.75000000 -0.241653 -0.503316 -0.829625 0.000000
116.52400208 157.34399414 211.25000000 -0.000978 -0.000978 -0.999999 0.000000
120.97699738 250.86000061 163.75000000 -0.001338 -0.860313 -0.509765 0.000000
89.06259918 155.11700439 46.25000000 -0.785695 -0.324839 0.526463 0.000000
179.98100281 119.49199677 107.50000000 -0.335014 -0.930594 0.147516 0.000000
154.37500000 192.96899414 181.25000000 -0.785478 0.577877 0.221545 0.000000
110.58599854 112.44100189 192.50000000 0.197648 0.782930 -0.589878 0.000000
77.92970276 167.73399353 191.25000000 -0.000978 -0.000978 -0.999999 0.000000
87.20709991 117.26599884 122.50000000 0.558326 0.825289 0.084682 0.000000
127.65599823 144.72700500 211.25000000 -0.000978 -0.000978 -0.999999 0.000000
200.39100647 137.30499268 196.25000000 -0.000978 -0.000978 -0.999999 0.000000
114.29699707 230.82000732 178.75000000 0.225936 -0.603015 -0.765066 0.000000
152.14900208 122.83200073 157.50000000 0.410769 0.887792 0.207593 0.000000
198.16400146 143.24200439 196.25000000 -0.000978 -0.000978 -0.999999 0.000000
205.58599854 115.03900146 196.25000000 -0.000978 -0.000978 -0.999999 0.000000
188.51600647 133.59399414 148.75000000 -0.000978 -0.000978 0.999999 0.000000
134.33599854 171.44500732 113.75000000 -0.600188 0.125965 0.789878 0.000000
180.35200500 168.47700500 193.75000000 -0.291412 -0.199387 -0.935587 0.000000
59.74610138 168.47700500 122.50000000 0.985089 0.035969 0.168243 0.000000
119.49199677 115.78099823 196.25000000 0.294179 0.564506 -0.771227 0.000000
239.72700500 113.55500031 186.25000000 -0.961078 0.236674 0.142527 0.000000
208.18400574 120.97699738 157.50000000 -0.825207 -0.413396 0.384886 0.000000
155.85899353 174.41400146 171.25000000 -0.492495 -0.840139 -0.227188 0.000000
73.84770203 157.34399414 47.50000000 0.805860 0.487967 0.335378 0.000000
67.53910065 141.01600647 131.25000000 0.944239 0.315627 -0.093764 0.000000
136.56300354 95.74220276 148.75000000 0.127897 0.989761 -0.063372 0.000000
79.41410065 129.14100647 188.75000000 0.667067 0.556169 -0.495679 0.000000
175.15600586 138.04699707 198.75000000 -0.082931 -0.024772 -0.996247 0.000000
215.60600281 107.61699677 150.00000000 -0.691826 -0.691826 0.206770 0.000000
58.26179886 189.25799561 142.50000000 0.980927 -0.194345 -0.003450 0.000000
92.03130341 108.35900116 161.25000000 0.603277 0.792256 0.091582 0.000000
171.81700134 137.30499268 200.00000000 -0.446937 0.117764 -0.886780 0.000000
123.94499969 149.17999268 103.75000000 -0.786933 0.197884 0.584447 0.000000
110.58599854 240.46899414 171.25000000 -0.303931 -0.606254 -0.734902 0.000000
90.17579651 201.87500000 62.50000000 -0.486534 -0.486534 0.725650 0.000000
122.08999634 145.46899414 102.50000000 -0.902483 0.385541 0.192048 0.000000
63.08599854 151.77699280 117.50000000 0.965018 0.119822 -0.233202 0.000000
168.47700500 136.56300354 201.25000000 -0.348296 0.148477 -0.925551 0.000000
94.62899780 238.24200439 112.50000000 0.447571 -0.547401 0.707129 0.000000
80.15630341 217.46099854 173.75000000 0.697062 -0.350980 -0.625234 0.000000
58.63290024 190.37100220 135.00000000 0.976790 -0.163422 0.138472 0.000000
233.04699707 97.96880341 178.75000000 0.000978 0.000978 0.999999 0.000000
107.61699677 164.02400208 208.75000000 0.000978 0.000978 -0.999999 0.000000
106.13300323 162.53900146 73.75000000 -0.784598 -0.228388 0.576407 0.000000
214.49200439 168.10600281 190.00000000 -0.001356 -0.560008 -0.828486 0.000000
161.05499268 99.08209991 130.00000000 0.025108 0.905221 0.424199 0.000000
115.03900146 104.27700043 120.00000000 0.280022 0.959899 0.013451 0.000000
151.40600586 110.58599854 196.25000000 -0.000978 -0.000978 -0.999999 0.000000
217.46099854 115.78099823 166.25000000 -0.944239 -0.315627 -0.093764 0.000000
129.88299561 102.05100250 97.50000000 0.193664 0.965718 0.172867 0.000000
118.00800323 184.80499268 201.25000000 -0.192917 -0.545331 -0.815719 0.000000
120.97699738 249.37500000 166.25000000 -0.251317 -0.681244 -0.687566 0.000000
197.42199707 92.77349854 176.25000000 0.197293 0.971192 -0.133650 0.000000
212.26600647 126.54299927 165.00000000 -0.714640 -0.429447 0.552146 0.000000
217.46099854 139.53100586 173.75000000 -0.503269 -0.167756 0.847690 0.000000
68.28130341 207.81300354 108.75000000 0.852967 -0.407133 0.326635 0.000000
123.94499969 238.24200439 173.75000000 -0.130326 -0.705556 -0.696568 0.000000
190.00000000 176.27000427 167.50000000 -0.963009 -0.218212 0.158106 0.000000
141.01600647 211.52400208 143.75000000 -0.616059 -0.558673 0.555297 0.000000
188.51600647 130.62500000 196.25000000 -0.000978 -0.000978 -0.999999 0.000000
167.73399353 162.53900146 146.25000000 0.000978 0.000978 0.999999 0.000000
166.99200439 109.47299957 107.50000000 0.003975 0.881059 0.472990 0.000000
178.12500000 138.04699707 198.75000000 -0.150252 -0.016946 -0.988502 0.000000
86.83599854 161.05499268 46.25000000 -0.784473 -0.029365 0.619468 0.000000
90.54689789 128.39900208 198.75000000 0.536982 0.493488 -0.684192 0.000000
174.41400146 101.30899811 122.50000000 0.001227 0.953006 0.302950 0.000000
129.14100647 142.50000000 121.25000000 -0.411020 -0.469506 0.781426 0.000000
217.08999634 165.50799561 185.00000000 -0.167340 -0.880355 0.443815 0.000000
68.65239716 146.95300293 180.00000000 0.877764 0.240750 -0.414209 0.000000
146.21099854 170.70300293 203.75000000 -0.229659 -0.364236 -0.902546 0.000000
198.16400146 106.50399780 195.00000000 -0.097677 0.477058 -0.873427 0.000000
220.42999268 152.89100647 196.25000000 -0.000978 -0.000978 -0.999999 0.000000
123.20300293 100.56600189 137.50000000 0.393950 0.918338 0.038209 0.000000
161.05499268 173.30099487 170.00000000 -0.115492 -0.471947 -0.874029 0.000000
187.03100586 104.64900208 193.75000000 -0.000978 -0.000978 -0.999999 0.000000
123.94499969 237.50000000 141.25000000 -0.456048 -0.158815 0.875670 0.000000
96.48439789 170.70300293 201.25000000 0.445048 -0.588396 -0.675072 0.000000
209.29699707 101.68000031 126.25000000 -0.502234 0.508908 0.699123 0.000000
95.00009918 226.36700439 176.25000000 0.064791 -0.718460 -0.692544 0.000000
128.77000427 222.65600586 142.50000000 -0.718786 -0.532865 0.446544 0.000000
200.39100647 156.23100281 167.50000000 -0.548409 -0.561908 0.619280 0.000000
204.10200500 124.68800354 156.25000000 -0.620577 -0.748757 0.232912 0.000000
98.71099854 241.21099854 168.75000000 0.307769 -0.454624 -0.835820 0.000000
180.35200500 108.35900116 196.25000000 -0.113428 0.362151 -0.925192 0.000000
90.54689789 207.81300354 71.25000000 0.693883 -0.690778 0.203353 0.000000
119.49199677 202.61700439 193.75000000 -0.134919 -0.152248 -0.979090 0.000000
198.53500366 118.75000000 135.00000000 -0.539026 -0.806209 0.243882 0.000000
79.41410065 225.62500000 111.25000000 0.621807 -0.690715 0.369147 0.000000
231.93400574 89.06259918 180.00000000 -0.591837 0.628932 0.504157 0.000000
114.29699707 192.96899414 113.75000000 -0.598970 -0.598970 0.531480 0.000000
63.45709991 164.76600647 167.50000000 0.991472 0.124919 -0.037138 0.000000
179.60899353 172.18800354 151.25000000 -0.292859 -0.493319 0.819066 0.000000
156.60200500 120.23400116 98.75000000 0.268347 -0.792488 0.547680 0.000000
67.91020203 141.75799561 152.50000000 0.899994 0.434618 -0.033432 0.000000
123.94499969 127.65599823 206.25000000 0.307853 0.494144 -0.813049 0.000000
180.35200500 136.56300354 198.75000000 -0.327824 0.295190 -0.897438 0.000000
115.03900146 235.27400208 176.25000000 0.073142 -0.600914 -0.795960 0.000000
147.32400513 184.80499268 135.00000000 -0.771835 -0.572141 0.277354 0.000000
66.79689789 188.14500427 82.50000000 0.902478 -0.415559 0.113334 0.000000
86.83599854 164.76600647 46.25000000 -0.715725 -0.230222 0.659344 0.000000
136.56300354 96.11329651 150.00000000 0.099059 0.993930 -0.047860 0.000000
152.14900208 134.33599854 166.25000000 0.388172 0.077093 -0.918357 0.000000
144.72700500 231.56300354 171.25000000 -0.654819 -0.641556 -0.399522 0.000000
212.26600647 166.25000000 191.25000000 0.692396 -0.692396 0.202917 0.000000
132.10899353 154.37500000 211.25000000 -0.553228 -0.466316 -0.690281 0.000000
156.97300720 204.84399414 160.00000000 -0.974910 0.131745 0.179424 0.000000
123.94499969 227.85200500 178.75000000 -0.194986 -0.959015 -0.205598 0.000000
179.60899353 109.84400177 108.75000000 -0.072742 0.822981 0.563392 0.000000
117.26599884 227.11000061 136.25000000 0.000978 0.000978 0.999999 0.000000
66.42579651 207.81300354 165.00000000 0.574599 0.177383 -0.798981 0.000000
147.32400513 223.39900208 175.00000000 -0.438514 -0.895011 -0.081616 0.000000
107.61699677 102.05100250 162.50000000 0.209754 0.976854 0.041951 0.000000
192.22700500 126.91400146 146.25000000 -0.609871 -0.669695 0.423752 0.000000
112.44100189 186.28900146 102.50000000 -0.648677 -0.621996 0.438565 0.000000
175.89900208 102.42199707 121.25000000 -0.230227 0.922337 0.310306 0.000000
111.32800293 240.46899414 171.25000000 -0.078895 -0.572349 -0.816206 0.000000
149.17999268 155.85899353 206.25000000 -0.235841 -0.307308 -0.921923 0.000000
224.88299561 116.52400208 193.75000000 -0.609674 -0.439299 -0.659784 0.000000
147.69500732 167.36300659 142.50000000 0.001215 0.958392 -0.285453 0.000000
172.92999268 118.75000000 198.75000000 -0.043315 0.169747 -0.984535 0.000000
221.17199707 126.17199707 193.75000000 -0.541628 -0.541628 -0.642867 0.000000
72.73439789 198.90600586 176.25000000 0.685506 -0.497788 -0.531309 0.000000
220.42999268 101.68000031 193.75000000 -0.291408 0.469057 -0.833707 0.000000
203.36000061 103.16400146 193.75000000 0.101105 0.132032 -0.986076 0.000000
108.35900116 186.66000366 200.00000000 -0.398140 0.398140 -0.826419 0.000000
153.26199341 218.20300293 170.00000000 -0.933053 -0.308228 -0.185495 0.000000
127.65599823 175.15600586 203.75000000 -0.541628 -0.541628 -0.642867 0.000000
117.26599884 137.30499268 91.25000000 -0.958392 -0.001215 0.285453 0.000000
169.21899414 153.63299561 201.25000000 -0.349919 -0.198525 -0.915502 0.000000
177.38299561 152.14900208 198.75000000 -0.000978 -0.000978 -0.999999 0.000000
134.33599854 96.85549927 132.50000000 0.262971 0.961686 0.077494 0.000000
183.32000732 120.23400116 118.75000000 -0.330668 -0.934851 0.129273 0.000000
147.69500732 197.42199707 143.75000000 -0.842525 -0.181075 0.507311 0.000000
123.94499969 123.20300293 81.25000000 0.176484 -0.882420 0.436105 0.000000
63.08599854 158.08599854 91.25000000 0.973963 0.207729 0.090804 0.000000
231.19200134 117.26599884 192.50000000 -0.509320 -0.051348 -0.859044 0.000000
167.73399353 115.78099823 196.25000000 -0.377310 0.281103 -0.882394 0.000000
183.32000732 180.35200500 183.75000000 -0.409582 -0.544465 -0.731984 0.000000
146.95300293 103.16400146 188.75000000 0.032355 0.634437 -0.772297 0.000000
107.98799896 115.03900146 67.50000000 0.321231 0.885271 0.336312 0.000000
187.77400208 120.60600281 127.50000000 -0.458476 -0.809922 0.365823 0.000000
221.91400146 148.43800354 181.25000000 -0.667358 -0.355815 0.654240 0.000000
123.94499969 134.33599854 103.75000000 0.397890 -0.691767 0.602613 0.000000
146.21099854 164.02400208 151.25000000 0.000978 0.000978 0.999999 0.000000
71.62110138 169.96099854 47.50000000 0.909012 -0.184665 0.373625 0.000000
150.66400146 194.45300293 188.75000000 -0.593275 -0.339711 -0.729809 0.000000
97.96880341 144.72700500 208.75000000 0.290814 0.196195 -0.936448 0.000000
201.13299561 120.23400116 196.25000000 -0.000978 -0.000978 -0.999999 0.000000
123.20300293 98.71099854 151.25000000 0.239775 0.962989 0.123128 0.000000
190.74200439 94.25789642 176.25000000 0.089202 0.978774 -0.184513 0.000000
71.99220276 170.70300293 46.25000000 0.909012 -0.184665 0.373625 0.000000
68.28130341 189.25799561 76.25000000 0.942146 -0.268988 0.200016 0.000000
61.97269821 155.85899353 115.00000000 0.989041 0.001110 0.147635 0.000000
142.50000000 150.66400146 143.75000000 -0.372745 -0.892510 0.253942 0.000000
87.94930267 111.32800293 162.50000000 0.669484 0.734511 0.110842 0.000000
66.79689789 153.63299561 76.25000000 0.883177 0.398999 0.246572 0.000000
156.60200500 142.50000000 156.25000000 0.458206 -0.507831 -0.729490 0.000000
137.30499268 151.40600586 208.75000000 -0.088980 0.013937 -0.995936 0.000000
120.97699738 108.35900116 191.25000000 0.189141 0.727349 -0.659689 0.000000
181.09399414 106.13300323 193.75000000 -0.122014 0.577729 -0.807057 0.000000
106.13300323 232.30499268 176.25000000 0.113811 -0.648872 -0.752337 0.000000
192.22700500 138.78900146 196.25000000 -0.000978 -0.000978 -0.999999 0.000000
169.96099854 95.37120056 152.50000000 0.001069 0.995047 0.099398 0.000000
171.44500732 173.30099487 160.00000000 0.200362 -0.802979 0.561320 0.000000
164.76600647 134.70700073 132.50000000 0.256279 -0.514112 0.818541 0.000000
107.61699677 238.98500061 123.75000000 -0.800976 0.226866 0.554047 0.000000
72.73439789 172.18800354 46.25000000 0.909012 -0.184665 0.373625 0.000000
205.58599854 152.14900208 168.75000000 -0.540969 -0.551081 0.635344 0.000000
192.22700500 93.88680267 175.00000000 -0.001215 0.958392 -0.285453 0.000000
120.97699738 170.33200073 100.00000000 -0.933241 -0.235070 0.271667 0.000000
201.87500000 95.37120056 187.50000000 0.277976 0.833928 -0.476752 0.000000
180.35200500 112.81300354 196.25000000 -0.000978 -0.000978 -0.999999 0.000000
62.34379959 166.25000000 88.75000000 0.968892 -0.121271 -0.215735 0.000000
149.92199707 188.51600647 166.25000000 -0.937691 0.260547 0.229894 0.000000
101.68000031 256.42599487 147.50000000 0.431570 -0.901649 -0.027886 0.000000
152.89100647 201.13299561 153.75000000 -0.814841 0.072779 0.575098 0.000000
151.40600586 118.00800323 103.75000000 0.904511 0.188981 0.382290 0.000000
115.78099823 152.89100647 86.25000000 -0.874962 0.056494 0.480885 0.000000
136.56300354 183.32000732 198.75000000 0.203668 -0.247409 -0.947263 0.000000
90.91799927 239.72700500 120.00000000 0.677746 -0.684125 0.269504 0.000000
72.73439789 173.67199707 46.25000000 0.879686 -0.056443 0.472194 0.000000
86.83599854 242.69500732 161.25000000 0.635107 -0.668099 -0.387663 0.000000
164.76600647 100.93800354 186.25000000 -0.292345 0.602262 -0.742843 0.000000
152.89100647 142.50000000 206.25000000 -0.443828 -0.886229 -0.132720 0.000000
69.76570129 221.17199707 161.25000000 0.958071 -0.231898 -0.168292 0.000000
103.90599823 177.38299561 203.75000000 0.396555 -0.393395 -0.829448 0.000000
84.23829651 241.95300293 157.50000000 0.689114 -0.633461 -0.351923 0.000000
138.41799927 192.96899414 130.00000000 -0.441234 -0.564446 0.697649 0.000000
70.50789642 137.67599487 155.00000000 0.807898 0.538081 -0.240353 0.000000
185.91799927 130.62500000 142.50000000 -0.734206 -0.564145 0.377732 0.000000
77.18750000 178.86700439 186.25000000 0.709836 -0.443855 -0.546923 0.000000
143.24200439 115.03900146 196.25000000 0.154854 0.511755 -0.845060 0.000000
238.98500061 111.69899750 190.00000000 -0.766300 -0.001376 -0.642481 0.000000
84.98049927 115.03900146 160.00000000 0.695697 0.707614 0.123646 0.000000
77.18750000 189.25799561 183.75000000 0.638678 -0.312063 -0.703354 0.000000
209.29699707 143.98399353 166.25000000 -0.775522 -0.318204 0.545264 0.000000
77.92970276 184.80499268 186.25000000 0.693230 -0.185989 -0.696305 0.000000
137.67599487 170.70300293 115.00000000 -0.528486 0.105121 0.842409 0.000000
100.56600189 133.59399414 207.50000000 0.399375 0.343432 -0.850032 0.000000
84.60939789 175.89900208 46.25000000 -0.766837 0.175321 0.617433 0.000000
132.10899353 234.53100586 148.75000000 -0.655442 -0.006929 0.755214 0.000000
80.15630341 210.03900146 83.75000000 0.691826 -0.691826 0.206770 0.000000
220.80099487 105.39099884 195.00000000 0.344095 0.378042 -0.859467 0.000000
99.45320129 171.44500732 203.75000000 0.543070 -0.509444 -0.667489 0.000000
222.65600586 110.58599854 196.25000000 -0.182622 0.174851 -0.967510 0.000000
164.76600647 163.28100586 146.25000000 0.000978 0.000978 0.999999 0.000000
163.28100586 132.85200500 201.25000000 -0.000978 -0.000978 -0.999999 0.000000
92.77349854 116.52400208 98.75000000 0.474089 0.880452 0.006640 0.000000
141.75799561 95.37120056 150.00000000 0.086485 0.996184 -0.011745 0.000000
68.65239716 155.11700439 180.00000000 0.920814 0.102617 -0.376261 0.000000
123.20300293 100.56600189 130.00000000 0.222733 0.968570 -0.110730 0.000000
159.57000732 198.90600586 168.75000000 -0.968749 -0.137293 0.206581 0.000000
112.81300354 169.21899414 88.75000000 -0.340345 -0.371146 0.863954 0.000000
162.53900146 124.68800354 158.75000000 0.610852 0.229655 -0.757706 0.000000
86.09380341 177.38299561 46.25000000 -0.672924 0.196463 0.713145 0.000000
125.43000031 167.36300659 145.00000000 -0.613758 0.771365 0.168215 0.000000
234.53100586 139.53100586 186.25000000 -0.707106 0.707106 -0.001384 0.000000
239.35600281 100.19499969 185.00000000 -0.978780 -0.196238 -0.058992 0.000000
172.92999268 155.11700439 148.75000000 0.036535 0.298578 0.953686 0.000000
135.82000732 190.74200439 196.25000000 -0.141910 -0.195606 -0.970361 0.000000
112.81300354 241.95300293 128.75000000 -0.812326 0.103176 0.574005 0.000000
190.37100220 168.47700500 185.00000000 -0.791623 -0.561446 -0.241064 0.000000
110.58599854 247.89100647 166.25000000 0.080034 -0.676648 -0.731944 0.000000
214.49200439 90.54689789 156.25000000 0.350894 0.700155 -0.621816 0.000000
216.71899414 141.75799561 173.75000000 -0.503269 -0.167756 0.847690 0.000000
80.89849854 229.33599854 168.75000000 0.566724 -0.509547 -0.647445 0.000000
186.28900146 145.46899414 151.25000000 0.003840 -0.385249 0.922805 0.000000
79.04299927 143.98399353 195.00000000 0.504695 0.042631 -0.862244 0.000000
115.03900146 236.75799561 173.75000000 -0.032367 -0.637493 -0.769776 0.000000
187.03100586 135.07800293 196.25000000 -0.000978 -0.000978 -0.999999 0.000000
148.80900574 187.03100586 167.50000000 -0.937691 0.260547 0.229894 0.000000
188.51600647 146.21099854 151.25000000 -0.059120 -0.468837 0.881304 0.000000
123.20300293 141.01600647 211.25000000 -0.000978 -0.000978 -0.999999 0.000000
136.93400574 141.01600647 125.00000000 -0.527799 -0.581759 0.618857 0.000000
144.72700500 99.45320129 183.75000000 -0.510482 0.784241 -0.352667 0.000000
196.67999268 100.19499969 128.75000000 0.319239 0.882068 0.346473 0.000000
117.26599884 164.02400208 93.75000000 -0.825329 -0.172256 0.537737 0.000000
125.05899811 208.55499268 132.50000000 -0.547723 -0.544352 0.635358 0.000000
225.62500000 114.29699707 173.75000000 -0.531161 -0.267931 0.803792 0.000000
70.50789642 152.14900208 183.75000000 0.819719 -0.015104 -0.572567 0.000000
204.84399414 99.45320129 193.75000000 0.036786 0.110357 -0.993211 0.000000
120.23400116 236.38699341 175.00000000 -0.035002 -0.603434 -0.796645 0.000000
80.89849854 136.56300354 63.75000000 0.687461 0.516850 0.510160 0.000000
119.49199677 197.42199707 121.25000000 -0.100706 -0.404202 0.909109 0.000000
71.25000000 199.64900208 88.75000000 0.441532 -0.887350 -0.132888 0.000000
222.65600586 148.43800354 196.25000000 -0.000978 -0.000978 -0.999999 0.000000
83.49610138 134.33599854 62.50000000 0.665326 0.484330 0.568125 0.000000
80.15630341 174.04299927 192.50000000 0.732603 -0.416514 -0.538340 0.000000
207.81300354 130.62500000 196.25000000 -0.000978 -0.000978 -0.999999 0.000000
73.10549927 181.83599854 47.50000000 0.809283 -0.431084 0.399033 0.000000
100.93800354 241.58200073 170.00000000 0.258082 -0.412026 -0.873858 0.000000
237.50000000 103.90599823 188.75000000 -0.944986 -0.290661 -0.150062 0.000000
190.00000000 117.26599884 196.25000000 -0.000978 -0.000978 -0.999999 0.000000
162.53900146 120.97699738 98.75000000 0.001338 -0.860313 0.509765 0.000000
175.15600586 120.23400116 101.25000000 -0.315627 -0.944239 0.093764 0.000000
92.40239716 149.17999268 205.00000000 0.740648 0.257411 -0.620629 0.000000
227.85200500 109.10199738 176.25000000 -0.529511 0.126908 0.838757 0.000000
59.00389862 171.44500732 127.50000000 0.987997 0.035572 0.150322 0.000000
144.72700500 201.13299561 186.25000000 -0.599348 -0.746388 -0.289285 0.000000
99.45320129 135.07800293 208.75000000 0.330096 0.436478 -0.836973 0.000000
85.35160065 182.57800293 46.25000000 -0.780512 -0.417030 0.465711 0.000000
193.71099854 105.39099884 193.75000000 -0.061660 0.752830 -0.655321 0.000000
126.91400146 148.43800354 111.25000000 -0.691454 0.629338 0.354718 0.000000
204.10200500 138.78900146 196.25000000 -0.000978 -0.000978 -0.999999 0.000000
89.80470276 115.41000366 125.00000000 0.533872 0.841383 0.083996 0.000000
145.46899414 213.00799561 148.75000000 -0.475748 -0.410799 0.777758 0.000000
118.37899780 103.16400146 185.00000000 0.220033 0.641371 -0.735002 0.000000
103.90599823 200.39100647 191.25000000 0.202621 -0.112008 -0.972831 0.000000
120.23400116 150.66400146 93.75000000 -0.745961 0.001379 0.665988 0.000000
76.07430267 204.84399414 82.50000000 0.833824 -0.508800 0.214151 0.000000
112.06999969 236.75799561 173.75000000 0.038057 -0.635691 -0.771005 0.000000
180.35200500 103.16400146 118.75000000 -0.064847 0.884399 0.462205 0.000000
159.57000732 141.75799561 158.75000000 0.611759 -0.457563 -0.645280 0.000000
133.59399414 166.99200439 146.25000000 0.077823 0.847566 0.524953 0.000000
95.00009918 178.86700439 66.25000000 -0.870461 -0.168808 0.462387 0.000000
156.60200500 105.76200104 192.50000000 0.092244 0.745272 -0.660349 0.000000
82.38289642 125.80100250 97.50000000 0.621871 0.762442 0.178769 0.000000
71.25000000 225.99600220 142.50000000 0.873420 -0.486136 -0.028437 0.000000
170.70300293 166.25000000 146.25000000 0.000978 0.000978 0.999999 0.000000
100.19499969 116.89499664 195.00000000 0.403232 0.765650 -0.501183 0.000000
180.35200500 125.43000031 128.75000000 -0.469328 -0.696477 0.542818 0.000000
132.10899353 116.89499664 77.50000000 -0.485359 -0.525389 0.698851 0.000000
143.24200439 218.94500732 178.75000000 -0.000978 -0.000978 -0.999999 0.000000
204.10200500 155.85899353 171.25000000 -0.524619 -0.477986 0.704488 0.000000
84.98049927 184.80499268 47.50000000 -0.807502 -0.382164 0.449323 0.000000
112.06999969 226.36700439 128.75000000 -0.648473 -0.387764 0.655074 0.000000
132.85200500 131.36700439 103.75000000 -0.494317 -0.717343 0.490989 0.000000
154.37500000 142.50000000 166.25000000 -0.000978 -0.000978 -0.999999 0.000000
146.21099854 148.43800354 208.75000000 -0.010557 -0.212320 -0.977143 0.000000
77.18750000 185.54699707 46.25000000 0.456564 -0.450018 0.767485 0.000000
63.08599854 182.20700073 97.50000000 0.987528 -0.105258 0.117084 0.000000
83.49610138 138.04699707 197.50000000 0.598246 0.372060 -0.709700 0.000000
72.73439789 201.87500000 173.75000000 0.772185 -0.361001 -0.522884 0.000000
84.60939789 185.54699707 46.25000000 -0.807502 -0.382164 0.449323 0.000000
191.48399353 142.50000000 196.25000000 -0.000978 -0.000978 -0.999999 0.000000
197.42199707 150.66400146 196.25000000 -0.462534 -0.420338 -0.780627 0.000000
124.68800354 102.42199707 186.25000000 -0.387428 0.001279 -0.921899 0.000000
141.01600647 218.94500732 178.75000000 -0.350801 -0.429456 -0.832169 0.000000
125.43000031 168.47700500 208.75000000 -0.173434 -0.438686 -0.881745 0.000000
238.24200439 119.86299896 182.50000000 -0.802505 -0.518711 0.294830 0.000000
85.35160065 118.00800323 126.25000000 0.691826 0.691826 0.206770 0.000000
83.12509918 186.28900146 46.25000000 -0.454049 -0.292885 0.841462 0.000000
123.20300293 99.45320129 178.75000000 0.193664 0.965718 -0.172867 0.000000
151.40600586 147.69500732 206.25000000 -0.000978 -0.000978 -0.999999 0.000000
153.63299561 172.92999268 128.75000000 -0.720057 0.480593 0.500548 0.000000
75.70320129 186.66000366 47.50000000 0.702295 0.133271 0.699300 0.000000
106.13300323 247.89100647 166.25000000 0.021038 -0.716700 -0.697064 0.000000
96.48439789 185.54699707 198.75000000 0.541790 -0.084342 -0.836272 0.000000
167.73399353 111.32800293 196.25000000 0.089137 0.275163 -0.957256 0.000000
70.50789642 143.98399353 183.75000000 0.835045 0.204594 -0.510726 0.000000
71.99220276 137.30499268 101.25000000 0.847639 0.523918 0.083770 0.000000
157.71499634 152.89100647 155.00000000 0.376623 0.600294 0.705551 0.000000
128.39900208 113.92600250 72.50000000 -0.555944 -0.626916 0.545805 0.000000
132.85200500 204.10200500 191.25000000 -0.187612 -0.505801 -0.842002 0.000000
109.10199738 168.47700500 83.75000000 -0.645448 -0.001376 0.763803 0.000000
114.29699707 188.14500427 107.50000000 -0.590884 -0.657839 0.467016 0.000000
126.54299927 210.03900146 135.00000000 -0.502994 -0.214266 0.837310 0.000000
202.61700439 124.68800354 196.25000000 -0.000978 -0.000978 -0.999999 0.000000
127.28500366 158.82800293 145.00000000 0.219848 -0.659545 -0.718795 0.000000
61.60160065 158.45700073 117.50000000 0.989041 0.001110 0.147635 0.000000
77.55860138 213.00799561 175.00000000 0.732103 -0.353823 -0.582095 0.000000
61.23049927 164.76600647 147.50000000 0.965108 0.241597 -0.100985 0.000000
182.20700073 163.28100586 195.00000000 -0.234131 -0.375493 -0.896765 0.000000
100.93800354 188.51600647 83.75000000 -0.879718 -0.247280 0.406139 0.000000
107.61699677 107.98799896 100.00000000 0.489392 0.832120 0.260906 0.000000
93.51570129 221.91400146 98.75000000 -0.847954 -0.370102 0.379471 0.000000
189.62899780 176.64100647 180.00000000 -0.373353 0.745076 -0.552693 0.000000
135.07800293 233.78900146 173.75000000 -0.147618 -0.431388 -0.890007 0.000000
144.72700500 148.43800354 156.25000000 -0.432754 0.802767 0.410231 0.000000
207.44200134 118.75000000 152.50000000 -0.466256 -0.778177 0.420768 0.000000
83.12509918 187.77400208 46.25000000 -0.343956 0.284397 0.894881 0.000000
95.37120056 118.00800323 192.50000000 0.600616 0.499672 -0.624170 0.000000
153.63299561 95.37120056 137.50000000 -0.160219 0.987081 0.001120 0.000000
238.61300659 114.29699707 185.00000000 -0.942348 0.188470 0.276514 0.000000
151.40600586 180.35200500 191.25000000 -0.952050 -0.304807 0.026341 0.000000
200.39100647 132.10899353 156.25000000 -0.618174 -0.260866 0.741492 0.000000
92.03130341 247.14900208 131.25000000 0.510641 -0.809170 0.290673 0.000000
80.15630341 132.10899353 78.75000000 0.802634 0.553063 0.223382 0.000000
115.78099823 196.67999268 196.25000000 -0.489456 -0.650926 -0.580283 0.000000
83.86720276 216.71899414 88.75000000 0.320660 -0.752503 0.575254 0.000000
210.03900146 121.71900177 196.25000000 -0.000978 -0.000978 -0.999999 0.000000
217.46099854 126.91400146 196.25000000 -0.390426 0.145177 -0.909116 0.000000
121.71900177 99.08209991 152.50000000 0.294576 0.953193 0.068177 0.000000
135.82000732 131.36700439 206.25000000 -0.198980 0.480245 -0.854267 0.000000
108.35900116 112.06999969 76.25000000 0.393232 0.867558 0.304487 0.000000
222.28500366 97.96880341 160.00000000 -0.825682 -0.550942 0.121295 0.000000
176.64100647 169.96099854 193.75000000 0.033911 -0.300177 -0.953281 0.000000
114.29699707 233.04699707 176.25000000 0.031999 -0.580151 -0.813880 0.000000
76.07430267 230.07800293 130.00000000 0.814577 -0.543559 0.202502 0.000000
60.48830032 179.60899353 160.00000000 0.964278 0.063951 -0.257057 0.000000
118.75000000 198.90600586 121.25000000 -0.336999 -0.506297 0.793785 0.000000
227.11000061 141.01600647 196.25000000 -0.000978 -0.000978 -0.999999 0.000000
110.21499634 158.08599854 77.50000000 -0.832168 -0.197848 0.518028 0.000000
208.92599487 145.46899414 167.50000000 -0.777424 -0.322190 0.540190 0.000000
195.19500732 97.22660065 133.75000000 -0.162234 0.930421 0.328629 0.000000
118.75000000 175.89900208 101.25000000 -0.726812 -0.307807 0.614003 0.000000
146.95300293 205.58599854 146.25000000 -0.639860 -0.254364 0.725175 0.000000
180.35200500 94.62899780 155.00000000 -0.000978 0.999999 -0.000978 0.000000
71.25000000 139.90199280 182.50000000 0.866658 0.275686 -0.415813 0.000000
126.91400146 99.08209991 135.00000000 0.417636 0.903258 0.098512 0.000000
97.22660065 227.11000061 178.75000000 0.417251 -0.733901 -0.535995 0.000000
68.28130341 194.45300293 171.25000000 0.906006 0.035921 -0.421738 0.000000
185.54699707 106.13300323 193.75000000 -0.000978 -0.000978 -0.999999 0.000000
146.95300293 210.78100586 181.25000000 -0.149191 -0.530293 -0.834584 0.000000
231.56300354 147.69500732 196.25000000 -0.000978 -0.000978 -0.999999 0.000000
119.49199677 112.06999969 68.75000000 -0.253913 0.604030 0.755431 0.000000
217.08999634 98.71099854 192.50000000 -0.268623 0.646920 -0.713678 0.000000
128.39900208 170.70300293 108.75000000 -0.726510 -0.195896 0.658641 0.000000
232.30499268 133.59399414 181.25000000 -0.146552 -0.249535 0.957212 0.000000
89.80470276 190.00000000 191.25000000 0.695378 -0.626658 -0.351779 0.000000
136.19099426 156.60200500 147.50000000 0.777179 -0.554674 0.297203 0.000000
112.81300354 175.15600586 206.25000000 0.406583 -0.735800 -0.541562 0.000000
202.61700439 94.25789642 141.25000000 -0.001215 0.958392 0.285453 0.000000
144.72700500 119.49199677 98.75000000 -0.767475 -0.610597 0.195329 0.000000
107.61699677 135.07800293 211.25000000 0.163122 0.546234 -0.821596 0.000000
161.79699707 172.18800354 136.25000000 -0.660901 0.086078 0.745520 0.000000
130.62500000 149.92199707 143.75000000 0.387373 0.531208 0.753498 0.000000
233.04699707 115.03900146 191.25000000 -0.187538 -0.024461 -0.981953 0.000000
171.44500732 146.21099854 148.75000000 0.848675 -0.508619 0.145110 0.000000
184.80499268 152.89100647 151.25000000 -0.497468 0.265006 0.826013 0.000000
178.12500000 143.98399353 146.25000000 0.001079 -0.994040 0.109010 0.000000
120.60600281 143.24200439 100.00000000 -0.883319 0.388420 0.262446 0.000000
135.82000732 210.03900146 141.25000000 -0.471566 -0.432405 0.768539 0.000000
209.66799927 135.07800293 162.50000000 -0.615319 -0.250219 0.747511 0.000000
162.53900146 130.62500000 201.25000000 -0.109631 0.138545 -0.984269 0.000000
181.09399414 185.54699707 176.25000000 0.001215 -0.958392 -0.285453 0.000000
204.84399414 124.68800354 196.25000000 -0.000978 -0.000978 -0.999999 0.000000
70.50789642 180.35200500 181.25000000 0.808688 -0.189655 -0.556826 0.000000
63.45709991 197.42199707 112.50000000 0.960277 -0.239742 0.142797 0.000000
112.44100189 101.68000031 152.50000000 0.239606 0.954408 0.178031 0.000000
119.49199677 207.07000732 191.25000000 -0.691826 -0.691826 -0.206770 0.000000
132.85200500 200.39100647 131.25000000 0.000978 0.000978 0.999999 0.000000
191.48399353 129.14100647 196.25000000 -0.000978 -0.000978 -0.999999 0.000000
127.65599823 150.66400146 108.75000000 -0.886805 0.242126 0.393640 0.000000
92.77349854 119.12100220 80.00000000 0.479591 0.841199 0.249755 0.000000
132.85200500 147.69500732 211.25000000 -0.000978 -0.000978 -0.999999 0.000000
144.72700500 187.77400208 196.25000000 -0.210609 -0.840922 -0.498492 0.000000
143.24200439 202.61700439 141.25000000 -0.616220 -0.481894 0.622937 0.000000
97.96880341 132.85200500 206.25000000 0.471462 0.406657 -0.782530 0.000000
203.73100281 143.98399353 160.00000000 -0.306278 -0.288693 0.907111 0.000000
102.42199707 213.75000000 116.25000000 -0.580470 0.067032 0.811518 0.000000
68.65239716 187.77400208 72.50000000 0.947092 -0.263006 0.183968 0.000000
235.27400208 140.27400208 186.25000000 -0.707106 0.707106 -0.001384 0.000000
157.34399414 120.23400116 161.25000000 -0.170869 0.973319 0.153149 0.000000
58.63290024 176.64100647 126.25000000 0.974555 -0.064970 0.214525 0.000000
135.82000732 243.43800354 166.25000000 -0.655017 -0.510206 -0.557354 0.000000
121.71900177 97.59770203 167.50000000 0.165311 0.986241 -0.001125 0.000000
146.21099854 120.23400116 103.75000000 -0.398999 -0.883177 0.246572 0.000000
152.89100647 121.71900177 198.75000000 -0.154615 0.499185 -0.852590 0.000000
181.83599854 95.74220276 143.75000000 0.129902 0.978598 0.159594 0.000000
77.55860138 138.04699707 72.50000000 0.753737 0.627344 0.195756 0.000000
118.00800323 188.51600647 198.75000000 -0.187803 -0.453982 -0.870994 0.000000
150.66400146 102.42199707 188.75000000 0.086166 0.676182 -0.731679 0.000000
113.55500031 235.27400208 131.25000000 0.350894 -0.700155 0.621816 0.000000
191.48399353 92.40239716 157.50000000 0.193664 0.965718 0.172867 0.000000
208.18400574 114.29699707 145.00000000 0.000978 0.000978 0.999999 0.000000
218.94500732 89.43370056 157.50000000 0.001379 0.745961 0.665988 0.000000
71.62110138 135.82000732 180.00000000 0.914048 0.268838 -0.303714 0.000000
123.94499969 189.25799561 116.25000000 -0.197874 -0.777692 0.596691 0.000000
103.16400146 185.54699707 198.75000000 -0.836559 -0.431621 -0.337449 0.000000
112.81300354 161.79699707 211.25000000 0.119879 -0.506957 -0.853595 0.000000
220.42999268 88.69149780 172.50000000 -0.143265 0.949298 -0.279835 0.000000
119.49199677 106.50399780 187.50000000 0.195511 0.762030 -0.617321 0.000000
163.28100586 106.13300323 116.25000000 0.212129 0.769550 0.602324 0.000000
107.61699677 104.27700043 145.00000000 0.218342 0.959382 0.178643 0.000000
149.92199707 143.98399353 206.25000000 -0.396782 -0.094733 -0.913011 0.000000
97.22660065 218.57400513 107.50000000 -0.940078 -0.066867 0.334337 0.000000
108.35900116 223.39900208 126.25000000 -0.465644 -0.171862 0.868124 0.000000
132.10899353 158.82800293 208.75000000 -0.331710 -0.147274 -0.931815 0.000000
113.55500031 177.38299561 96.25000000 -0.670750 -0.470026 0.573733 0.000000
169.96099854 143.24200439 141.25000000 0.147516 -0.930594 0.335014 0.000000
118.37899780 132.10899353 100.00000000 -0.881094 -0.439816 0.173881 0.000000
138.04699707 207.81300354 186.25000000 -0.521300 -0.378389 -0.764898 0.000000
74.58989716 169.96099854 187.50000000 0.813416 -0.388330 -0.433076 0.000000
169.21899414 130.62500000 131.25000000 -0.162986 -0.542789 0.823903 0.000000
80.15630341 125.80100250 105.00000000 0.626848 0.772967 0.097899 0.000000
118.75000000 115.78099823 196.25000000 0.294179 0.564506 -0.771227 0.000000
130.62500000 221.91400146 143.75000000 -0.527122 -0.503695 0.684422 0.000000
244.92199707 122.83200073 187.50000000 -0.679255 -0.196504 0.707106 0.000000
148.43800354 149.17999268 158.75000000 -0.492619 0.617035 0.613672 0.000000
67.16799927 168.47700500 60.00000000 0.971006 0.073354 0.227521 0.000000
136.56300354 100.56600189 97.50000000 0.214828 0.960793 0.175289 0.000000
193.33999634 118.00800323 127.50000000 -0.413388 -0.889588 0.194278 0.000000
197.42199707 121.71900177 143.75000000 -0.550353 -0.786895 0.279119 0.000000
90.54689789 201.87500000 186.25000000 0.000978 0.000978 -0.999999 0.000000
65.68360138 170.70300293 175.00000000 0.907239 -0.069369 -0.414855 0.000000
239.35600281 118.00800323 182.50000000 -0.907021 0.035961 0.419547 0.000000
75.70320129 216.71899414 171.25000000 0.640214 -0.352036 -0.682786 0.000000
74.21880341 175.89900208 186.25000000 0.470296 -0.280936 -0.836599 0.000000
70.50789642 224.51199341 145.00000000 0.873420 -0.486136 -0.028437 0.000000
74.96099854 213.00799561 171.25000000 0.639871 -0.388552 -0.663018 0.000000
66.79689789 175.15600586 176.25000000 0.850682 -0.110833 -0.513864 0.000000
74.58989716 177.38299561 185.00000000 0.470296 -0.280936 -0.836599 0.000000
88.32039642 244.92199707 131.25000000 0.620924 -0.683510 0.383754 0.000000
182.57800293 169.96099854 193.75000000 -0.585675 -0.400899 -0.704460 0.000000
224.14100647 161.79699707 196.25000000 0.406430 -0.130789 -0.904272 0.000000
132.85200500 189.25799561 123.75000000 -0.593497 -0.633848 0.495982 0.000000
69.02349854 160.31300354 58.75000000 0.935364 0.234192 0.265043 0.000000
156.60200500 99.08209991 130.00000000 0.073535 0.883813 0.462025 0.000000
158.08599854 115.41000366 197.50000000 0.079888 0.681224 -0.727704 0.000000
153.26199341 174.41400146 190.00000000 -0.944239 -0.315627 -0.093764 0.000000
105.01999664 171.44500732 77.50000000 -0.870564 -0.287149 0.399578 0.000000
116.52400208 242.69500732 171.25000000 0.299227 -0.384286 -0.873377 0.000000
197.42199707 115.03900146 196.25000000 -0.000978 -0.000978 -0.999999 0.000000
152.14900208 128.39900208 166.25000000 0.701420 0.369601 -0.609430 0.000000
68.28130341 149.17999268 81.25000000 0.890715 0.446052 0.087543 0.000000
96.48439789 175.15600586 66.25000000 -0.859548 -0.374992 0.347214 0.000000
195.19500732 104.64900208 193.75000000 -0.067696 0.744661 -0.664001 0.000000
103.90599823 203.36000061 191.25000000 0.141209 -0.376091 -0.915760 0.000000
122.83200073 100.93800354 132.50000000 0.257063 0.966118 0.023148 0.000000
171.44500732 174.41400146 161.25000000 0.200362 -0.802979 0.561320 0.000000
83.49610138 118.00800323 147.50000000 0.762109 0.645300 0.052707 0.000000
156.60200500 115.03900146 196.25000000 -0.134615 0.484905 -0.864145 0.000000
90.91799927 127.65599823 60.00000000 0.595467 0.713576 0.369091 0.000000
141.75799561 104.27700043 190.00000000 0.486534 0.486534 -0.725650 0.000000
69.76570129 207.81300354 168.75000000 0.710044 -0.237731 -0.662813 0.000000
60.85940170 181.83599854 113.75000000 0.989497 0.070596 0.126146 0.000000
100.19499969 160.31300354 63.75000000 -0.000978 -0.000978 0.999999 0.000000
76.81649780 233.04699707 135.00000000 0.726088 -0.613391 0.310721 0.000000
154.37500000 157.34399414 153.75000000 0.398551 0.630074 0.666456 0.000000
120.60600281 120.23400116 70.00000000 -0.840013 -0.362697 0.403520 0.000000
201.13299561 163.28100586 191.25000000 -0.544749 -0.362624 -0.756144 0.000000
164.76600647 125.43000031 198.75000000 0.038083 0.158101 -0.986688 0.000000
120.23400116 239.35600281 172.50000000 -0.067076 -0.583703 -0.809192 0.000000
95.00009918 107.61699677 148.75000000 0.377143 0.918681 0.117425 0.000000
136.56300354 236.75799561 153.75000000 -0.718240 -0.459475 0.522507 0.000000
187.77400208 172.92999268 156.25000000 -0.592553 -0.652983 0.471692 0.000000
124.68800354 131.36700439 208.75000000 0.569915 0.217772 -0.792321 0.000000
204.84399414 92.77349854 181.25000000 0.130268 0.966045 -0.223132 0.000000
140.27400208 214.49200439 146.25000000 -0.713521 -0.581692 0.390541 0.000000
123.20300293 238.98500061 171.25000000 -0.161636 -0.771925 -0.614821 0.000000
126.91400146 123.94499969 203.75000000 0.028718 0.518300 -0.854716 0.000000
100.19499969 255.68400574 145.00000000 0.446689 -0.894688 -0.001310 0.000000
74.96099854 192.22700500 58.75000000 0.882653 -0.425854 0.198928 0.000000
144.35600281 221.91400146 152.50000000 -0.738834 -0.268522 0.618078 0.000000
112.81300354 155.85899353 211.25000000 -0.000978 -0.000978 -0.999999 0.000000
167.73399353 96.48439789 171.25000000 0.001215 0.958392 -0.285453 0.000000
105.39099884 160.31300354 71.25000000 -0.810772 -0.253658 0.527547 0.000000
196.67999268 127.65599823 196.25000000 -0.000978 -0.000978 -0.999999 0.000000
98.71099854 230.82000732 111.25000000 -0.798639 -0.163939 0.579051 0.000000
99.45320129 235.27400208 113.75000000 -0.675591 0.166229 0.718292 0.000000
84.23829651 230.82000732 170.00000000 0.491139 -0.471295 -0.732574 0.000000
128.39900208 120.23400116 78.75000000 -0.350223 -0.601080 0.718364 0.000000
86.46489716 221.91400146 95.00000000 0.373353 -0.745076 0.552693 0.000000
228.59399414 126.17199707 193.75000000 -0.000978 -0.000978 -0.999999 0.000000
92.40239716 201.87500000 70.00000000 -0.897001 -0.301975 0.322801 0.000000
197.42199707 110.58599854 196.25000000 -0.111400 0.102019 -0.988525 0.000000
123.94499969 219.68800354 183.75000000 -0.000978 -0.000978 -0.999999 0.000000
146.95300293 149.92199707 208.75000000 -0.010557 -0.212320 -0.977143 0.000000
138.78900146 123.20300293 93.75000000 -0.525302 -0.795095 0.303120 0.000000
162.53900146 171.07400513 177.50000000 0.148003 -0.886579 -0.438260 0.000000
156.23100281 210.78100586 172.50000000 -0.958392 -0.001215 -0.285453 0.000000
70.87899780 223.39900208 130.00000000 0.738634 -0.653348 0.166002 0.000000
97.96880341 249.37500000 126.25000000 0.583113 -0.643608 0.495730 0.000000
143.24200439 138.78900146 208.75000000 -0.215268 0.320763 -0.922372 0.000000
141.75799561 235.64500427 170.00000000 -0.808365 -0.531122 -0.253880 0.000000
146.95300293 118.75000000 198.75000000 -0.121222 0.297061 -0.947132 0.000000
74.21880341 148.43800354 58.75000000 0.641751 0.764670 -0.058601 0.000000
146.21099854 97.59770203 175.00000000 -0.274261 0.960538 0.046336 0.000000
77.55860138 123.20300293 167.50000000 0.853488 0.492567 0.170106 0.000000
187.03100586 185.17599487 167.50000000 -0.595557 -0.759849 0.260655 0.000000
142.87100220 135.82000732 125.00000000 -0.362624 -0.544749 0.756144 0.000000
70.50789642 138.04699707 171.25000000 0.952102 0.253804 0.170546 0.000000
171.44500732 161.05499268 146.25000000 0.020699 0.101316 0.994639 0.000000
139.90199280 131.36700439 112.50000000 -0.297260 -0.838865 0.456006 0.000000
95.74220276 227.11000061 176.25000000 0.167756 -0.503269 -0.847690 0.000000
84.60939789 176.64100647 196.25000000 0.435085 -0.287494 -0.853258 0.000000
87.94930267 241.21099854 127.50000000 0.556058 -0.724360 0.407556 0.000000
129.14100647 230.07800293 178.75000000 0.079083 -0.368609 -0.926214 0.000000
106.87500000 211.89500427 120.00000000 -0.739648 -0.272000 0.615578 0.000000
66.05470276 156.23100281 75.00000000 0.935078 0.296828 0.193705 0.000000
146.95300293 117.26599884 98.75000000 -0.800658 -0.537428 0.264797 0.000000
164.39500427 174.41400146 162.50000000 0.130400 -0.881278 -0.454252 0.000000
101.30899811 105.39099884 180.00000000 0.325263 0.858633 -0.396174 0.000000
104.64900208 254.57000732 156.25000000 0.693442 -0.690339 -0.206326 0.000000
64.57039642 204.84399414 116.25000000 0.818841 -0.424525 0.386366 0.000000
142.50000000 227.85200500 153.75000000 -0.589843 -0.346106 0.729586 0.000000
117.26599884 146.95300293 211.25000000 -0.000978 -0.000978 -0.999999 0.000000
73.84770203 230.82000732 142.50000000 0.827096 -0.519410 0.214771 0.000000
113.55500031 244.17999268 168.75000000 0.422581 -0.422581 -0.801779 0.000000
110.58599854 198.16400146 193.75000000 -0.149813 -0.697612 -0.700638 0.000000
105.39099884 152.52000427 67.50000000 -0.945982 -0.063585 0.317923 0.000000
73.10549927 201.13299561 85.00000000 0.831235 -0.519333 0.198346 0.000000
102.05100250 213.75000000 115.00000000 -0.679646 0.146177 0.718828 0.000000
95.00009918 142.50000000 48.75000000 -0.733118 -0.250679 0.632216 0.000000
220.42999268 166.62100220 192.50000000 -0.314596 -0.831098 -0.458591 0.000000
176.64100647 172.55900574 150.00000000 -0.423252 -0.702101 0.572636 0.000000
190.37100220 95.00009918 180.00000000 0.193664 0.965718 -0.172867 0.000000
68.65239716 143.24200439 177.50000000 0.999999 -0.000978 -0.000978 0.000000
82.38289642 228.96499634 112.50000000 0.669051 -0.642749 0.373156 0.000000
130.62500000 213.75000000 186.25000000 -0.168002 -0.515901 -0.840012 0.000000
93.51570129 234.53100586 108.75000000 -0.451419 -0.412587 0.791197 0.000000
138.04699707 178.49600220 117.50000000 -0.585199 -0.467824 0.662331 0.000000
184.06300354 164.76600647 148.75000000 -0.458576 0.276381 0.844583 0.000000
184.06300354 118.37899780 110.00000000 -0.363990 -0.901936 0.232428 0.000000
103.90599823 102.79299927 170.00000000 0.371681 0.925871 -0.067942 0.000000
181.09399414 132.85200500 196.25000000 -0.458842 0.347704 -0.817659 0.000000
90.91799927 219.68800354 92.50000000 -0.226712 -0.884621 0.407489 0.000000
142.50000000 151.03500366 147.50000000 -0.706775 -0.703884 0.070822 0.000000
121.71900177 100.19499969 181.25000000 0.315627 0.944239 -0.093764 0.000000
152.14900208 203.36000061 181.25000000 -0.559945 -0.348951 -0.751462 0.000000
121.71900177 105.76200104 187.50000000 0.314601 0.784106 -0.534981 0.000000
137.30499268 216.71899414 143.75000000 -0.606663 -0.401687 0.686009 0.000000
99.45320129 233.78900146 173.75000000 0.237403 -0.491655 -0.837804 0.000000
89.80470276 214.49200439 83.75000000 -0.020687 -0.817824 0.575097 0.000000
128.39900208 171.44500732 206.25000000 -0.182796 -0.390060 -0.902463 0.000000
154.37500000 188.14500427 182.50000000 -0.891390 -0.014613 0.453001 0.000000
100.93800354 118.75000000 63.75000000 0.599205 0.798466 0.058355 0.000000
153.63299561 192.22700500 158.75000000 -0.767314 0.640135 0.038154 0.000000
82.01180267 241.21099854 147.50000000 0.767080 -0.636575 0.079753 0.000000
189.25799561 145.46899414 196.25000000 -0.000978 -0.000978 -0.999999 0.000000
106.13300323 129.14100647 61.25000000 -0.519885 -0.536709 0.664577 0.000000
81.64070129 144.72700500 48.75000000 0.670510 0.576872 0.466514 0.000000
149.92199707 143.24200439 136.25000000 -0.754851 -0.302902 0.581764 0.000000
169.96099854 132.48100281 200.00000000 -0.358227 0.095978 -0.928688 0.000000
106.87500000 236.01600647 173.75000000 0.261156 -0.609364 -0.748647 0.000000
96.11329651 144.72700500 50.00000000 -0.694047 -0.297909 0.655400 0.000000
160.31300354 125.80100250 112.50000000 -0.157201 -0.927905 0.338052 0.000000
71.99220276 199.64900208 173.75000000 0.682576 -0.501450 -0.531637 0.000000
127.65599823 153.63299561 141.25000000 -0.975390 0.146873 0.164448 0.000000
152.89100647 95.37120056 145.00000000 -0.160852 0.986788 -0.019394 0.000000
77.18750000 232.67599487 132.50000000 0.760211 -0.588807 0.274565 0.000000
157.34399414 126.17199707 158.75000000 0.287149 0.399578 -0.870564 0.000000
107.98799896 186.28900146 200.00000000 -0.398140 0.398140 -0.826419 0.000000
89.80470276 205.95700073 67.50000000 0.693883 -0.690778 0.203353 0.000000
97.22660065 137.30499268 208.75000000 0.417218 0.363688 -0.832862 0.000000
69.02349854 178.12500000 178.75000000 0.862003 -0.104355 -0.496045 0.000000
221.91400146 155.11700439 183.75000000 -0.722095 -0.196373 0.663338 0.000000
94.25789642 124.68800354 61.25000000 0.691826 0.691826 -0.206770 0.000000
198.53500366 118.00800323 132.50000000 -0.536015 -0.779222 0.324809 0.000000
148.80900574 187.03100586 150.00000000 -0.932045 0.232659 -0.277780 0.000000
163.28100586 176.27000427 147.50000000 -0.315627 -0.944239 -0.093764 0.000000
78.67189789 146.58200073 50.00000000 0.589462 0.488699 0.643202 0.000000
112.06999969 253.82800293 131.25000000 -0.350894 -0.700155 0.621816 0.000000
92.77349854 107.98799896 170.00000000 0.540755 0.834926 -0.102383 0.000000
93.51570129 146.95300293 48.75000000 -0.787829 -0.187433 0.586681 0.000000
132.10899353 114.29699707 76.25000000 -0.327084 -0.410792 0.851038 0.000000
73.47660065 130.62500000 146.25000000 0.828616 0.553842 -0.081574 0.000000
132.85200500 149.92199707 121.25000000 -0.913331 -0.303476 0.271531 0.000000
141.75799561 98.33989716 105.00000000 0.405898 0.912266 -0.054924 0.000000
227.85200500 126.91400146 193.75000000 0.000978 0.000978 -0.999999 0.000000
78.67189789 147.69500732 48.75000000 0.613664 0.535899 0.579853 0.000000
79.41410065 147.69500732 48.75000000 0.613664 0.535899 0.579853 0.000000
68.65239716 138.04699707 145.00000000 0.855873 0.514633 0.051325 0.000000
89.80470276 227.85200500 101.25000000 0.089100 -0.685050 0.723027 0.000000
154.37500000 149.17999268 206.25000000 0.000978 0.000978 -0.999999 0.000000
174.04299927 101.68000031 122.50000000 0.043848 0.915489 0.399945 0.000000
100.19499969 194.08200073 87.50000000 -0.862708 -0.433636 0.260182 0.000000
234.16000366 151.40600586 192.50000000 -0.315627 -0.944239 0.093764 0.000000
168.47700500 120.23400116 198.75000000 -0.000978 -0.000978 -0.999999 0.000000
123.94499969 254.94200134 157.50000000 -0.221119 -0.882993 -0.414042 0.000000
77.92970276 156.60200500 193.75000000 0.863929 -0.262671 -0.429687 0.000000
89.80470276 126.91400146 196.25000000 0.452044 0.521590 -0.723602 0.000000
87.57820129 182.20700073 195.00000000 0.420626 -0.191993 -0.886686 0.000000
114.29699707 256.05499268 156.25000000 0.001359 -0.822094 -0.569351 0.000000
66.79689789 213.00799561 163.75000000 0.913331 0.303476 -0.271531 0.000000
97.22660065 236.75799561 111.25000000 -0.661273 -0.680675 0.315277 0.000000
63.45709991 166.99200439 80.00000000 0.998380 0.028345 0.049342 0.000000
156.60200500 203.36000061 178.75000000 -0.445675 -0.521887 -0.727329 0.000000
67.16799927 143.24200439 155.00000000 0.960277 0.239742 0.142797 0.000000
203.36000061 149.92199707 193.75000000 -0.097342 -0.466962 -0.878904 0.000000
115.03900146 194.45300293 116.25000000 -0.445389 -0.598857 0.665582 0.000000
82.01180267 120.97699738 127.50000000 0.691826 0.691826 0.206770 0.000000
71.99220276 131.73800659 127.50000000 0.886403 0.461471 -0.036539 0.000000
119.49199677 215.23500061 186.25000000 0.000978 0.000978 -0.999999 0.000000
110.58599854 226.36700439 181.25000000 -0.000978 -0.000978 -0.999999 0.000000
