163.39100647 167.46600342 360.00000000 0.540148 0.447076 0.712996 0.000000
79.28700256 178.58099365 367.50000000 -0.510327 0.597908 0.618119 0.000000
192.66000366 154.49899292 324.00000000 0.523821 0.352975 -0.775255 0.000000
149.68200684 205.25700378 361.50000000 0.466627 0.376830 0.800162 0.000000
195.62399292 110.40899658 268.50000000 -0.271130 0.856280 -0.439629 0.000000
144.49499512 200.44099426 366.00000000 0.337332 0.252634 0.906853 0.000000
199.32899475 100.03500366 364.50000000 -0.197509 -0.100618 0.975124 0.000000
136.34399414 145.97700500 223.50000000 0.901945 0.192550 -0.386548 0.000000
69.65399933 164.50199890 250.50000000 -0.942146 -0.268988 -0.200016 0.000000
143.75399780 146.71800232 376.50000000 0.238268 0.017960 0.971033 0.000000
87.06749725 113.37300110 315.00000000 -0.686417 -0.623866 -0.373661 0.000000
48.90599823 181.17399597 336.00000000 -0.910843 -0.097836 0.400991 0.000000
127.45200348 100.40599823 270.00000000 0.233836 -0.864440 -0.445043 0.000000
78.54599762 160.05599976 223.50000000 -0.761111 -0.499223 -0.414110 0.000000
47.79449844 176.35800171 330.00000000 -0.981822 -0.130503 -0.137821 0.000000
117.81900024 166.72500610 208.50000000 0.784871 0.234684 -0.573499 0.000000
105.22200012 118.93000031 255.00000000 -0.696449 -0.696449 -0.172964 0.000000
60.02099991 151.90499878 316.50000000 -0.763312 -0.326215 -0.557619 0.000000
194.14199829 90.03150177 282.00000000 0.245605 0.001186 0.969369 0.000000
155.61000061 181.54499817 301.50000000 0.843690 0.526405 -0.105281 0.000000
140.78999329 222.30000305 355.50000000 0.460571 0.523754 0.716628 0.000000
53.35200119 179.32200623 343.50000000 -0.805145 -0.112926 0.582227 0.000000
183.76800537 169.31799316 351.00000000 0.439635 0.797141 0.413869 0.000000
80.39849854 115.59600067 330.00000000 -0.574471 -0.818102 0.026301 0.000000
157.83299255 121.89499664 363.00000000 0.159798 0.332102 0.929609 0.000000
128.19299316 170.42999268 223.50000000 0.849423 0.307896 -0.428580 0.000000
81.13950348 139.30799866 261.00000000 -0.991749 -0.071899 0.106137 0.000000
254.90400696 112.63200378 364.50000000 -0.142373 -0.774811 0.615952 0.000000
177.09899902 148.19999695 364.50000000 0.110730 0.222733 0.968570 0.000000
197.84700012 157.83299255 331.50000000 0.752913 0.411724 -0.513425 0.000000
181.54499817 94.10700226 358.50000000 -0.322341 -0.646302 0.691657 0.000000
137.82600403 228.22799683 352.50000000 0.643128 0.707280 0.293497 0.000000
147.82899475 163.76100159 372.00000000 0.602596 0.318261 0.731839 0.000000
136.34399414 148.94099426 226.50000000 0.795366 0.329941 -0.508460 0.000000
100.03500366 133.00999451 231.00000000 -0.575198 -0.619054 -0.534714 0.000000
120.78299713 167.46600342 211.50000000 0.605392 0.416310 -0.678370 0.000000
193.40100098 121.52400208 289.50000000 0.059053 0.883046 -0.465556 0.000000
167.46600342 111.15000153 244.50000000 0.059120 -0.881304 -0.468837 0.000000
89.66100311 154.12800598 385.50000000 -0.412989 0.011725 0.910660 0.000000
125.22899628 208.96200562 370.50000000 0.102459 0.315362 0.943424 0.000000
129.67500305 192.66000366 373.50000000 0.147088 -0.033066 0.988571 0.000000
88.91999817 124.11799622 267.00000000 -0.402910 -0.761776 -0.507307 0.000000
70.39499664 221.55900574 361.50000000 -0.304249 0.154171 0.940034 0.000000
45.57149887 202.29299927 333.00000000 -0.994767 -0.072246 0.072246 0.000000
259.72000122 128.19299316 342.00000000 0.642749 0.373156 -0.669051 0.000000
89.66100311 240.08399963 361.50000000 -0.124373 0.077879 0.989175 0.000000
175.61700439 91.14299774 352.50000000 -0.020971 -0.761944 0.647303 0.000000
181.54499817 115.59600067 364.50000000 0.000978 0.000978 0.999999 0.000000
116.33699799 102.25800323 328.50000000 -0.369626 -0.924742 0.090714 0.000000
134.49200439 189.69599915 294.00000000 0.185289 0.982379 0.024472 0.000000
91.88400269 213.40800476 277.50000000 0.650814 0.749107 0.123610 0.000000
193.40100098 83.73300171 349.50000000 -0.370545 -0.865631 0.336720 0.000000
48.16500092 210.44400024 343.50000000 -0.760313 -0.006925 0.649520 0.000000
149.68200684 183.76800537 292.50000000 0.804370 0.513596 -0.298676 0.000000
102.25800323 194.14199829 208.50000000 0.754025 0.635687 -0.165370 0.000000
97.07099915 127.45200348 382.50000000 -0.297141 -0.212646 0.930854 0.000000
133.38000488 135.23199463 381.00000000 0.376261 0.102617 0.920814 0.000000
72.98850250 254.16299438 348.00000000 -0.234131 0.862507 0.448625 0.000000
70.39499664 213.40800476 229.50000000 -0.907703 0.046927 -0.416980 0.000000
98.55300140 102.99900055 301.50000000 -0.577554 -0.816259 0.012347 0.000000
142.64300537 142.27200317 273.00000000 0.904646 -0.262450 -0.335760 0.000000
72.61799622 223.04100037 232.50000000 0.286367 0.859102 -0.424191 0.000000
111.89099884 134.12100220 385.50000000 0.000978 0.000978 0.999999 0.000000
133.75100708 154.86900330 225.00000000 0.616629 0.267893 -0.740272 0.000000
68.54250336 180.06300354 240.00000000 -0.959382 -0.218342 -0.178643 0.000000
252.68099976 136.34399414 340.50000000 0.266635 0.077822 -0.960651 0.000000
266.01901245 141.53100586 358.50000000 0.484075 0.685075 0.544375 0.000000
119.30100250 232.67399597 361.50000000 0.277866 0.482773 0.830494 0.000000
241.56599426 144.49499512 364.50000000 0.000978 0.000978 0.999999 0.000000
205.99800110 123.00599670 307.50000000 0.541455 0.744296 -0.390960 0.000000
278.61599731 123.00599670 358.50000000 0.310153 -0.195073 0.930458 0.000000
148.57000732 181.54499817 285.00000000 0.835730 0.448326 -0.317109 0.000000
244.52999878 124.48799896 364.50000000 0.000978 0.000978 0.999999 0.000000
86.69699860 217.48399353 270.00000000 0.743379 0.665734 -0.064704 0.000000
125.97000122 183.02699280 376.50000000 0.000978 0.000978 0.999999 0.000000
123.74700165 194.14199829 325.50000000 0.195909 0.322756 -0.925985 0.000000
109.66799927 104.85199738 330.00000000 -0.064897 -0.958190 0.278677 0.000000
246.75300598 80.76899719 322.50000000 0.195917 -0.974592 -0.108565 0.000000
80.02799988 216.74200439 219.00000000 -0.289843 0.928913 -0.230461 0.000000
134.86199951 135.60299683 379.50000000 0.376261 0.102617 0.920814 0.000000
134.12100220 210.44400024 367.50000000 0.350194 0.365621 0.862372 0.000000
81.51000214 123.00599670 313.50000000 -0.831579 -0.508102 -0.224297 0.000000
148.19999695 90.03150177 327.00000000 -0.041117 -0.755705 0.653621 0.000000
116.33699799 197.84700012 373.50000000 -0.060489 0.171978 0.983242 0.000000
241.56599426 108.18599701 361.50000000 -0.027375 -0.387154 0.921609 0.000000
185.25000000 123.74700165 364.50000000 0.000978 0.000978 0.999999 0.000000
57.79800034 197.84700012 352.50000000 -0.914043 -0.202323 0.351555 0.000000
88.91999817 124.48799896 265.50000000 -0.390146 -0.752542 -0.530534 0.000000
140.41900635 209.70300293 336.00000000 0.181851 0.306787 -0.934244 0.000000
111.15000153 168.94799805 385.50000000 -0.160435 0.344587 0.924944 0.000000
102.25800323 159.68600464 195.00000000 -0.685537 -0.609549 -0.398107 0.000000
210.44400024 132.63900757 325.50000000 0.341302 0.661374 -0.667906 0.000000
139.30799866 205.25700378 367.50000000 0.182513 0.076148 0.980250 0.000000
103.73999786 160.05599976 193.50000000 -0.532898 -0.532898 -0.657297 0.000000
76.69349670 239.34300232 288.00000000 0.751814 0.564265 -0.341146 0.000000
80.02799988 205.99800110 367.50000000 -0.390842 -0.245205 0.887196 0.000000
48.90599823 219.33599854 340.50000000 -0.982297 0.065646 0.175453 0.000000
72.61799622 150.05299377 276.00000000 -0.839925 -0.528410 -0.123732 0.000000
181.54499817 122.63500214 261.00000000 0.711237 -0.001381 -0.702951 0.000000
112.63200378 198.95799255 318.00000000 0.575748 0.606140 -0.548734 0.000000
83.73300171 262.31399536 340.50000000 -0.087139 0.931717 0.352578 0.000000
56.68650055 201.55200195 282.00000000 -0.938820 0.032107 -0.342907 0.000000
161.90800476 203.77499390 345.00000000 0.813948 0.186435 0.550210 0.000000
87.43800354 192.66000366 367.50000000 0.000978 0.000978 0.999999 0.000000
77.06400299 145.97700500 262.50000000 -0.873648 -0.436080 -0.215807 0.000000
107.44499969 99.29399872 292.50000000 -0.368572 -0.919345 -0.137693 0.000000
204.51600647 95.21849823 267.00000000 -0.109554 -0.990603 -0.081878 0.000000
211.92599487 116.33699799 367.50000000 0.006604 -0.453006 0.891483 0.000000
77.80500031 139.30799866 286.50000000 -0.904811 -0.362798 -0.222924 0.000000
71.13600159 178.58099365 232.50000000 -0.895390 -0.332233 -0.296477 0.000000
251.94000244 97.81199646 328.50000000 0.439427 0.653292 -0.616534 0.000000
69.65399933 173.76400757 240.00000000 -0.894358 -0.430931 -0.120095 0.000000
108.92700195 198.21699524 291.00000000 0.531603 0.833684 0.149560 0.000000
145.23599243 203.77499390 364.50000000 0.505035 0.297357 0.810258 0.000000
217.11300659 87.43800354 358.50000000 -0.075918 -0.574400 0.815047 0.000000
101.51699829 162.27900696 193.50000000 -0.532898 -0.532898 -0.657297 0.000000
96.33000183 158.57400513 385.50000000 0.000978 0.000978 0.999999 0.000000
106.70400238 213.40800476 370.50000000 0.276796 -0.001209 0.960928 0.000000
168.20700073 148.94099426 367.50000000 0.310382 0.107901 0.944468 0.000000
204.51600647 85.95600128 355.50000000 -0.278943 -0.448466 0.849158 0.000000
227.48699951 90.03150177 285.00000000 0.053055 -0.968558 -0.243065 0.000000
62.24399948 237.11999512 352.50000000 -0.599987 0.427137 0.676439 0.000000
82.25099945 262.31399536 316.50000000 0.445886 0.632924 -0.632924 0.000000
161.53799438 94.47750092 348.00000000 -0.332736 -0.776384 0.535271 0.000000
139.30799866 151.90499878 379.50000000 0.557919 0.078480 0.826176 0.000000
161.53799438 179.32200623 361.50000000 0.707545 0.052887 0.704686 0.000000
100.77600098 101.51699829 301.50000000 -0.442629 -0.894791 -0.058563 0.000000
233.41499329 117.07800293 334.50000000 0.149104 0.748532 -0.646117 0.000000
218.59500122 141.53100586 364.50000000 0.000978 0.000978 0.999999 0.000000
170.42999268 100.77600098 358.50000000 -0.126465 -0.441917 0.888097 0.000000
97.07099915 124.85800171 255.00000000 -0.495510 -0.786037 -0.369615 0.000000
94.84799957 204.51600647 208.50000000 0.453451 0.778506 -0.433948 0.000000
88.91999817 138.56700134 235.50000000 -0.681534 -0.557618 -0.473892 0.000000
111.52100372 125.97000122 231.00000000 -0.404832 -0.833292 -0.376478 0.000000
194.88299561 113.37300110 274.50000000 -0.236795 0.838714 -0.490395 0.000000
67.43099976 158.57400513 280.50000000 -0.856465 -0.514431 0.042754 0.000000
180.80400085 149.68200684 316.50000000 0.178994 0.221422 -0.958610 0.000000
163.02000427 200.81100464 343.50000000 0.813948 0.186435 0.550210 0.000000
73.72949982 231.19200134 264.00000000 0.549553 0.515942 -0.657111 0.000000
254.90400696 87.06749725 351.00000000 0.097196 -0.957702 0.270852 0.000000
134.86199951 88.54949951 303.00000000 -0.139015 -0.980484 -0.139015 0.000000
71.87699890 140.78999329 304.50000000 -0.779162 -0.553824 -0.293574 0.000000
71.13600159 206.73899841 361.50000000 -0.617243 0.097767 0.780674 0.000000
87.43800354 130.41600037 379.50000000 -0.196322 -0.484061 0.852727 0.000000
117.07800293 98.55300140 322.50000000 -0.406306 -0.762028 0.504211 0.000000
215.63099670 81.51000214 310.50000000 -0.075705 -0.996965 -0.018127 0.000000
140.78999329 118.55999756 355.50000000 0.000978 0.000978 0.999999 0.000000
86.32649994 257.86801147 321.00000000 0.827118 0.012304 -0.561893 0.000000
85.95600128 257.12701416 349.50000000 -0.136269 0.759211 0.636419 0.000000
85.21499634 227.85699463 363.00000000 -0.053477 0.343034 0.937800 0.000000
97.81199646 205.62800598 243.00000000 0.315284 0.945853 -0.077186 0.000000
176.35800171 142.27200317 364.50000000 0.093436 0.009666 0.995578 0.000000
246.01199341 94.84799957 364.50000000 0.044439 -0.305995 0.950996 0.000000
253.42199707 94.84799957 325.50000000 0.518723 0.666450 -0.535510 0.000000
69.65399933 157.83299255 367.50000000 -0.678632 -0.012541 0.734372 0.000000
217.11300659 131.15699768 364.50000000 0.326749 0.018924 0.944922 0.000000
193.40100098 153.38699341 322.50000000 0.572100 0.419540 -0.704761 0.000000
57.42750168 154.86900330 327.00000000 -0.980251 -0.196983 -0.017484 0.000000
142.64300537 146.71800232 255.00000000 0.970765 0.001182 -0.240031 0.000000
125.22899628 161.16700745 213.00000000 0.927734 0.204751 -0.312069 0.000000
197.10600281 127.08100128 300.00000000 0.241828 0.787891 -0.566345 0.000000
128.93400574 153.38699341 382.50000000 0.701131 -0.029625 0.712417 0.000000
56.31600189 226.00500488 352.50000000 -0.730780 0.364572 0.577103 0.000000
176.72900391 87.43800354 318.00000000 -0.377862 -0.920782 -0.096853 0.000000
236.37899780 79.28700256 325.50000000 0.058547 -0.980955 -0.185199 0.000000
233.41499329 78.91649628 339.00000000 0.229139 -0.945370 0.231883 0.000000
64.83750153 140.04899597 327.00000000 -0.823925 -0.272565 -0.496847 0.000000
50.38800049 183.76800537 340.50000000 -0.895011 -0.101928 0.434241 0.000000
210.44400024 118.55999756 367.50000000 0.000978 0.000978 0.999999 0.000000
62.61449814 226.74600220 276.00000000 -0.860598 0.350729 -0.369269 0.000000
77.80500031 260.46099854 315.00000000 0.009659 0.793458 -0.608548 0.000000
220.07699585 147.45899963 364.50000000 0.000978 0.000978 0.999999 0.000000
120.04199982 194.88299561 316.50000000 0.191618 0.981315 -0.017420 0.000000
124.48799896 215.63099670 367.50000000 0.011386 0.347910 0.937459 0.000000
139.30799866 147.45899963 229.50000000 0.868736 0.106987 -0.483582 0.000000
115.59600067 125.97000122 382.50000000 -0.172403 -0.541194 0.823035 0.000000
150.42300415 137.82600403 277.50000000 -0.251267 0.857353 -0.449234 0.000000
139.67799377 226.74600220 351.00000000 0.710156 0.656380 0.254644 0.000000
240.82499695 116.33699799 337.50000000 0.437386 0.392526 -0.809084 0.000000
184.88000488 85.21499634 315.00000000 0.068606 -0.980949 -0.181746 0.000000
261.57299805 86.32649994 348.00000000 0.079516 -0.923195 0.376017 0.000000
217.11300659 143.75399780 337.50000000 0.492837 0.573574 -0.654312 0.000000
240.82499695 100.77600098 322.50000000 0.422400 0.889798 -0.172734 0.000000
252.68099976 139.30799866 364.50000000 0.000978 0.000978 0.999999 0.000000
124.48799896 218.59500122 334.50000000 0.253800 0.445289 -0.858664 0.000000
86.32649994 260.09100342 321.00000000 0.731939 0.199620 -0.651473 0.000000
156.35099792 208.22099304 346.50000000 0.380143 0.380143 0.843198 0.000000
127.45200348 177.09899902 232.50000000 0.696449 0.696449 -0.172964 0.000000
199.69900513 148.19999695 327.00000000 0.386548 0.192550 -0.901945 0.000000
111.15000153 216.37199402 331.50000000 0.095723 0.295038 -0.950678 0.000000
114.11399841 98.92350006 282.00000000 -0.285313 -0.916769 -0.279520 0.000000
233.41499329 101.51699829 361.50000000 0.167869 0.175558 0.970051 0.000000
244.89999390 151.90499878 351.00000000 0.229001 0.521016 -0.822253 0.000000
83.73300171 232.67399597 361.50000000 0.008540 0.279381 0.960142 0.000000
96.33000183 254.16299438 352.50000000 0.029624 0.715210 0.698282 0.000000
108.92700195 111.15000153 373.50000000 0.009627 -0.807328 0.590024 0.000000
96.33000183 119.30100250 265.50000000 -0.606901 -0.589996 -0.532518 0.000000
277.87500000 105.22200012 355.50000000 0.884864 -0.454390 -0.102695 0.000000
163.76100159 183.02699280 358.50000000 0.839908 -0.184151 0.510532 0.000000
94.10700226 115.59600067 373.50000000 -0.375326 -0.572003 0.729345 0.000000
180.06300354 125.97000122 274.50000000 0.577038 0.816195 -0.029199 0.000000
282.32101440 125.22899628 346.50000000 0.109946 -0.011974 -0.993865 0.000000
103.73999786 128.93400574 382.50000000 -0.512807 -0.255629 0.819562 0.000000
143.01300049 188.21400452 370.50000000 0.207466 0.256928 0.943900 0.000000
141.53100586 130.04600525 252.00000000 0.194272 0.976309 0.095280 0.000000
110.40899658 170.42999268 193.50000000 0.773274 -0.145646 -0.617118 0.000000
102.99900055 197.84700012 220.50000000 0.790101 0.161030 -0.591447 0.000000
48.90599823 226.00500488 328.50000000 -0.898666 0.270932 -0.344957 0.000000
150.42300415 102.99900055 259.50000000 -0.028346 -0.878727 -0.476483 0.000000
183.76800537 125.97000122 364.50000000 0.000978 0.000978 0.999999 0.000000
151.90499878 204.51600647 334.50000000 0.526749 0.349555 -0.774820 0.000000
95.58899689 128.93400574 247.50000000 -0.730075 -0.628278 -0.268808 0.000000
272.68798828 100.77600098 358.50000000 0.330648 -0.100399 0.938398 0.000000
103.36900330 202.29299927 321.00000000 0.461550 0.882415 0.091188 0.000000
207.47999573 87.43800354 358.50000000 -0.476152 -0.459676 0.749651 0.000000
113.37300110 215.63099670 367.50000000 -0.224307 0.216150 0.950245 0.000000
148.94099426 178.58099365 280.50000000 0.713668 0.333262 -0.616128 0.000000
231.93299866 88.91999817 361.50000000 -0.826006 0.191778 0.530033 0.000000
106.70400238 198.95799255 240.00000000 0.704484 0.704484 -0.086055 0.000000
96.33000183 111.89099884 370.50000000 -0.338682 -0.747044 0.572031 0.000000
108.92700195 198.21699524 273.00000000 0.561853 0.826904 -0.023468 0.000000
94.47750092 127.45200348 252.00000000 -0.471434 -0.803835 -0.362765 0.000000
222.30000305 81.13950348 351.00000000 0.063571 -0.834903 0.546713 0.000000
88.91999817 254.90400696 352.50000000 0.100932 0.776738 0.621683 0.000000
100.03500366 257.86801147 340.50000000 0.489688 0.870403 -0.051038 0.000000
111.89099884 212.29600525 369.00000000 0.120149 0.377019 0.918380 0.000000
112.63200378 184.50900269 220.50000000 0.628857 0.736030 -0.250597 0.000000
248.97599792 104.48100281 334.50000000 0.602192 0.306716 -0.737082 0.000000
115.59600067 116.70700073 378.00000000 0.139901 -0.669420 0.729592 0.000000
105.96299744 211.92599487 328.50000000 0.476889 0.212118 -0.852985 0.000000
200.81100464 136.34399414 364.50000000 0.000978 0.000978 0.999999 0.000000
154.12800598 188.95500183 364.50000000 0.535271 0.332736 0.776384 0.000000
140.78999329 209.70300293 337.50000000 0.036447 0.297862 -0.953913 0.000000
49.64699936 225.26400757 328.50000000 -0.901388 0.198857 -0.384650 0.000000
66.69000244 217.85400391 244.50000000 -0.878249 0.450048 -0.161668 0.000000
195.62399292 131.89799500 304.50000000 0.493041 0.203549 -0.845860 0.000000
81.51000214 186.73199463 364.50000000 -0.390535 -0.255868 0.884315 0.000000
144.49499512 153.75700378 258.00000000 0.996311 -0.076973 0.037944 0.000000
110.77999878 173.39399719 195.00000000 0.949169 0.238314 -0.205631 0.000000
277.87500000 116.33699799 358.50000000 0.429909 -0.229185 0.873300 0.000000
244.89999390 96.33000183 315.00000000 0.633196 0.766034 0.110699 0.000000
195.62399292 126.71099854 298.50000000 0.327214 0.749529 -0.575445 0.000000
102.25800323 116.33699799 265.50000000 -0.233828 -0.701483 -0.673235 0.000000
150.42300415 111.89099884 244.50000000 -0.133051 -0.840705 -0.524893 0.000000
199.69900513 148.94099426 327.00000000 0.449683 0.210649 -0.867993 0.000000
94.10700226 123.00599670 379.50000000 -0.417660 -0.463164 0.781690 0.000000
135.23199463 92.62500000 324.00000000 -0.385894 -0.824193 0.414478 0.000000
142.27200317 150.42300415 241.50000000 0.983098 -0.144252 -0.112735 0.000000
116.33699799 193.77099609 267.00000000 0.530325 0.847706 0.012207 0.000000
162.27900696 180.80400085 343.50000000 0.859609 -0.004023 -0.510937 0.000000
101.14600372 204.51600647 270.00000000 0.000978 0.000978 -0.999999 0.000000
218.59500122 111.89099884 283.50000000 0.378138 0.908959 -0.175513 0.000000
58.90950012 165.98399353 345.00000000 -0.835896 0.017785 0.548600 0.000000
130.41600037 91.14299774 316.50000000 -0.277381 -0.913470 0.297713 0.000000
109.66799927 174.87600708 193.50000000 0.669415 0.511708 -0.538552 0.000000
116.33699799 174.87600708 211.50000000 0.620622 0.607167 -0.496161 0.000000
145.23599243 197.10600281 367.50000000 0.390369 0.157567 0.907075 0.000000
82.25099945 151.90499878 223.50000000 -0.778177 -0.466256 -0.420768 0.000000
233.41499329 81.13950348 315.00000000 -0.001182 -0.970765 -0.240031 0.000000
131.89799500 159.31500244 382.50000000 0.578545 0.353646 0.734997 0.000000
133.38000488 111.52100372 249.00000000 -0.009435 -0.861237 -0.508116 0.000000
195.62399292 145.23599243 325.50000000 0.641240 0.023750 -0.766973 0.000000
109.66799927 175.61700439 193.50000000 0.737039 0.440245 -0.512794 0.000000
139.30799866 104.48100281 259.50000000 -0.181495 -0.832479 -0.523487 0.000000
178.58099365 123.00599670 247.50000000 0.742135 0.636779 -0.209161 0.000000
107.07499695 200.07000732 282.00000000 0.599077 0.797332 -0.073268 0.000000
115.59600067 116.33699799 376.50000000 0.120060 -0.641801 0.757414 0.000000
179.69299316 167.46600342 324.00000000 0.432373 0.710683 -0.554962 0.000000
246.01199341 85.95600128 349.50000000 0.291408 -0.833707 0.469057 0.000000
86.69699860 141.53100586 382.50000000 -0.445899 -0.058635 0.893161 0.000000
80.02799988 132.26800537 303.00000000 -0.614329 -0.729816 -0.299947 0.000000
133.38000488 160.79699707 379.50000000 0.432692 0.545424 0.717837 0.000000
75.58200073 242.30700684 358.50000000 0.473412 0.389394 0.790097 0.000000
148.94099426 166.72500610 301.50000000 0.459998 -0.834234 0.304066 0.000000
115.22599792 247.49400330 348.00000000 0.533616 0.661550 0.526883 0.000000
252.68099976 134.12100220 364.50000000 0.000978 0.000978 0.999999 0.000000
133.00999451 192.66000366 372.00000000 0.390941 0.311220 0.866203 0.000000
83.73300171 127.45200348 301.50000000 -0.842409 -0.528486 -0.105121 0.000000
105.22200012 248.97599792 352.50000000 0.000978 0.000978 0.999999 0.000000
100.40599823 204.51600647 258.00000000 0.603521 0.790568 -0.103753 0.000000
213.40800476 153.38699341 349.50000000 0.190063 0.953011 -0.235894 0.000000
220.81799316 100.77600098 364.50000000 0.437759 -0.313130 0.842803 0.000000
85.58550262 110.40899658 351.00000000 -0.525127 -0.844519 -0.105025 0.000000
100.03500366 103.36900330 318.00000000 -0.341022 -0.940014 0.008809 0.000000
188.95500183 154.12800598 358.50000000 0.245530 0.570818 0.783506 0.000000
237.11999512 83.73300171 304.50000000 -0.001182 -0.970765 -0.240031 0.000000
58.53900146 168.20700073 301.50000000 -0.915032 -0.329988 -0.232000 0.000000
131.15699768 143.01300049 382.50000000 0.378277 0.231088 0.896384 0.000000
123.00599670 234.89700317 340.50000000 -0.000978 -0.000978 -0.999999 0.000000
76.32299805 263.42599487 327.00000000 -0.557877 0.729026 -0.396603 0.000000
66.31950378 192.66000366 240.00000000 -0.954203 -0.191914 -0.229492 0.000000
223.78199768 81.13950348 351.00000000 0.062888 -0.859473 0.507298 0.000000
203.40400696 83.73300171 312.00000000 -0.211359 -0.977391 -0.005839 0.000000
82.25099945 114.11399841 331.50000000 -0.539133 -0.839123 0.072167 0.000000
210.44400024 149.68200684 364.50000000 -0.372680 0.372680 0.849835 0.000000
95.95950317 105.22200012 309.00000000 -0.717365 -0.694456 -0.055843 0.000000
90.03150177 210.44400024 234.00000000 0.627411 0.778326 0.023755 0.000000
266.01901245 137.08500671 346.50000000 -0.000978 -0.000978 -0.999999 0.000000
78.54599762 117.07800293 355.50000000 -0.615687 -0.774477 0.145308 0.000000
48.53549957 222.30000305 339.00000000 -0.912523 0.263424 0.312906 0.000000
89.66100311 153.38699341 385.50000000 -0.412989 0.011725 0.910660 0.000000
61.50299835 157.83299255 313.50000000 -0.823257 -0.478273 -0.305781 0.000000
265.27801514 133.38000488 361.50000000 0.081807 0.237871 0.967846 0.000000
195.62399292 157.46200562 354.00000000 0.316500 0.920857 0.227708 0.000000
100.77600098 248.97599792 334.50000000 0.727094 0.233989 -0.645433 0.000000
128.19299316 234.52699280 354.00000000 0.522693 0.752088 0.401441 0.000000
84.47399902 217.11300659 217.50000000 -0.388005 0.920354 0.048997 0.000000
260.09100342 115.59600067 343.50000000 0.188489 -0.381294 -0.905034 0.000000
164.50199890 183.76800537 358.50000000 0.871947 -0.159200 0.462994 0.000000
84.10350037 188.95500183 210.00000000 -0.877352 -0.065143 -0.475405 0.000000
152.64599609 200.81100464 361.50000000 0.429359 0.173199 0.886371 0.000000
126.71099854 114.85500336 244.50000000 -0.233158 -0.886593 -0.399487 0.000000
105.96299744 180.06300354 193.50000000 0.645917 0.432280 -0.629226 0.000000
145.97700500 159.31500244 310.50000000 0.839650 0.253276 -0.480458 0.000000
84.10350037 189.69599915 210.00000000 -0.877352 -0.065143 -0.475405 0.000000
148.94099426 182.28599548 367.50000000 0.470766 0.359059 0.805888 0.000000
128.93400574 114.85500336 343.50000000 -0.478089 -0.598869 0.642485 0.000000
83.73300171 236.37899780 361.50000000 0.057359 0.102346 0.993094 0.000000
171.91200256 164.87199402 354.00000000 -0.086156 0.492925 0.865796 0.000000
71.13600159 150.42300415 286.50000000 -0.856095 -0.513657 -0.057073 0.000000
129.67500305 145.23599243 382.50000000 0.409175 0.152549 0.899614 0.000000
164.50199890 145.60699463 315.00000000 -0.032297 0.636114 -0.770919 0.000000
148.94099426 92.99549866 336.00000000 -0.224743 -0.894564 0.386323 0.000000
96.70050049 172.65299988 381.00000000 -0.283552 0.424562 0.859852 0.000000
100.03500366 133.38000488 229.50000000 -0.545437 -0.805022 -0.233317 0.000000
78.91649628 125.97000122 315.00000000 -0.817129 -0.571848 -0.072729 0.000000
150.42300415 112.63200378 241.50000000 -0.157322 -0.854246 -0.495492 0.000000
246.75300598 98.18250275 294.00000000 0.427044 0.892650 -0.144252 0.000000
92.62500000 236.37899780 361.50000000 0.000978 0.000978 0.999999 0.000000
164.13200378 171.91200256 321.00000000 0.843107 0.414515 -0.342561 0.000000
203.03399658 128.19299316 310.50000000 0.630782 0.647425 -0.427733 0.000000
204.51600647 136.71400452 324.00000000 0.533016 0.690081 -0.489573 0.000000
186.73199463 143.75399780 313.50000000 0.390530 0.756549 -0.524519 0.000000
108.92700195 203.77499390 325.50000000 0.649033 0.524283 -0.551256 0.000000
203.03399658 155.61000061 358.50000000 -0.233621 0.653824 0.719677 0.000000
138.56700134 200.07000732 367.50000000 0.343152 0.213931 0.914593 0.000000
111.15000153 240.08399963 334.50000000 0.034434 -0.325208 -0.945015 0.000000
82.25099945 232.67399597 361.50000000 0.009701 0.100246 0.994915 0.000000
61.87350082 144.49499512 330.00000000 -0.839554 -0.492152 -0.230077 0.000000
89.66100311 170.42999268 208.50000000 -0.678911 -0.001383 -0.734219 0.000000
216.37199402 105.96299744 265.50000000 0.193999 0.869292 -0.454638 0.000000
132.26800537 218.59500122 324.00000000 0.957560 -0.118879 0.262578 0.000000
194.88299561 144.49499512 364.50000000 -0.140535 0.948945 0.282408 0.000000
151.90499878 170.42999268 316.50000000 0.545903 -0.275311 -0.791324 0.000000
171.91200256 161.53799438 355.50000000 0.189889 0.355507 0.915181 0.000000
153.01600647 175.61700439 291.00000000 0.922523 0.285509 -0.259684 0.000000
253.42199707 110.40899658 358.50000000 -0.626625 -0.358305 0.692069 0.000000
136.34399414 168.94799805 376.50000000 0.806012 0.434253 0.402205 0.000000
93.36599731 183.76800537 193.50000000 -0.697373 0.001381 -0.716707 0.000000
94.10700226 183.76800537 193.50000000 -0.679817 0.021025 -0.733081 0.000000
163.02000427 162.64999390 363.00000000 0.598516 0.214971 0.771730 0.000000
103.73999786 203.03399658 313.50000000 0.747667 0.583662 0.316753 0.000000
163.76100159 91.14299774 304.50000000 0.139315 -0.975205 -0.171947 0.000000
89.66100311 166.72500610 208.50000000 -0.675513 -0.020979 -0.737050 0.000000
68.91300201 172.65299988 244.50000000 -0.877161 -0.450986 -0.164924 0.000000
128.56300354 102.25800323 267.00000000 0.233836 -0.864440 -0.445043 0.000000
74.84100342 198.21699524 219.00000000 -0.749479 0.246684 -0.614352 0.000000
91.14299774 128.93400574 379.50000000 -0.306225 -0.446124 0.840952 0.000000
79.28700256 132.26800537 306.00000000 -0.651893 -0.681155 -0.333262 0.000000
200.81100464 84.47399902 310.50000000 -0.260273 -0.965528 0.003598 0.000000
106.70400238 249.71699524 352.50000000 0.000978 0.000978 0.999999 0.000000
130.41600037 108.92700195 340.50000000 -0.424506 -0.466794 0.775821 0.000000
149.68200684 185.25000000 310.50000000 0.397776 0.910588 0.112264 0.000000
84.47399902 153.38699341 382.50000000 -0.531087 0.004054 0.847307 0.000000
130.41600037 106.70400238 256.50000000 -0.218916 -0.877154 -0.427408 0.000000
210.44400024 148.94099426 364.50000000 -0.509540 0.312708 0.801613 0.000000
84.47399902 199.32899475 367.50000000 0.000978 0.000978 0.999999 0.000000
74.84100342 134.12100220 313.50000000 -0.735627 -0.586228 -0.339395 0.000000
132.63900757 148.57000732 219.00000000 0.794902 0.388583 -0.465977 0.000000
84.10350037 148.94099426 225.00000000 -0.829385 -0.554341 -0.069470 0.000000
255.64500427 97.81199646 331.50000000 0.694861 0.196542 -0.691766 0.000000
113.37300110 115.22599792 252.00000000 -0.317350 -0.885873 -0.338406 0.000000
84.47399902 205.99800110 211.50000000 -0.304685 0.431509 -0.849098 0.000000
105.22200012 227.48699951 328.50000000 0.332036 0.108886 -0.936961 0.000000
103.73999786 105.59200287 279.00000000 -0.554251 -0.757854 -0.344185 0.000000
143.75399780 92.99549866 333.00000000 -0.293335 -0.873926 0.387567 0.000000
94.47750092 206.73899841 237.00000000 0.523987 0.844442 -0.111149 0.000000
132.63900757 104.85199738 261.00000000 -0.284805 -0.937772 -0.198669 0.000000
104.48100281 186.36099243 195.00000000 0.950212 0.163086 -0.265520 0.000000
88.54949951 172.65299988 378.00000000 -0.350857 0.048259 0.935185 0.000000
207.47999573 121.15299988 303.00000000 0.511982 0.835181 -0.200866 0.000000
81.51000214 133.00999451 276.00000000 -0.877475 -0.479472 -0.012020 0.000000
46.68299866 219.33599854 325.50000000 -0.610660 0.553146 0.566679 0.000000
246.01199341 126.71099854 364.50000000 0.000978 0.000978 0.999999 0.000000
179.32200623 143.01300049 310.50000000 0.318298 0.625285 -0.712534 0.000000
138.56700134 208.96200562 367.50000000 0.341968 0.388389 0.855694 0.000000
262.31399536 107.44499969 361.50000000 0.382810 -0.224406 0.896158 0.000000
128.93400574 197.10600281 328.50000000 0.489430 0.404877 -0.772356 0.000000
157.09199524 203.03399658 337.50000000 0.286958 0.500217 -0.816969 0.000000
113.37300110 99.29399872 319.50000000 -0.362697 -0.840013 0.403520 0.000000
207.47999573 89.66100311 358.50000000 0.128574 -0.799524 0.586712 0.000000
127.45200348 108.92700195 340.50000000 -0.401778 -0.486363 0.775903 0.000000
180.80400085 85.21499634 316.50000000 -0.312705 -0.926797 -0.207999 0.000000
217.11300659 108.92700195 364.50000000 0.000978 0.000978 0.999999 0.000000
93.73650360 124.48799896 264.00000000 -0.409875 -0.605685 -0.682018 0.000000
153.38699341 173.02299500 315.00000000 0.529877 -0.198894 -0.824422 0.000000
114.11399841 208.96200562 370.50000000 -0.063247 0.125343 0.990095 0.000000
247.49400330 104.11000061 360.00000000 0.493853 0.527335 0.691395 0.000000
135.60299683 90.77249908 291.00000000 -0.199186 -0.961635 -0.188634 0.000000
203.77499390 126.71099854 307.50000000 0.695219 0.636606 -0.333770 0.000000
133.38000488 141.53100586 382.50000000 0.000978 0.000978 0.999999 0.000000
98.55300140 238.60200500 331.50000000 0.380952 0.201340 -0.902407 0.000000
142.27200317 174.87600708 373.50000000 0.519315 0.126556 0.845160 0.000000
162.27900696 138.56700134 367.50000000 0.155338 -0.354059 0.922232 0.000000
233.78500366 116.33699799 333.00000000 -0.297813 0.946857 -0.121529 0.000000
216.74200439 114.11399841 291.00000000 0.217427 0.947653 -0.233836 0.000000
83.73300171 220.81799316 271.50000000 0.753311 0.638117 -0.159150 0.000000
66.69000244 142.27200317 319.50000000 -0.801020 -0.574743 -0.167445 0.000000
171.54200745 137.82600403 291.00000000 0.669737 0.334054 -0.663219 0.000000
261.57299805 93.73650360 333.00000000 0.569619 0.620326 -0.539194 0.000000
121.52400208 165.98399353 382.50000000 0.408492 0.480100 0.776298 0.000000
232.67399597 85.95600128 298.50000000 -0.016538 -0.937605 -0.347308 0.000000
91.51349640 189.69599915 195.00000000 -0.631887 -0.001377 -0.775059 0.000000
68.91300201 256.75698853 342.00000000 -0.438332 0.661664 0.608331 0.000000
164.87199402 138.56700134 279.00000000 0.198780 0.962306 -0.185616 0.000000
94.84799957 177.83999634 376.50000000 -0.399211 0.405573 0.822278 0.000000
174.13499451 95.21849823 309.00000000 -0.832692 0.277564 -0.479147 0.000000
88.91999817 234.15600586 361.50000000 -0.005153 0.052558 0.998605 0.000000
151.16400146 177.09899902 286.50000000 0.880373 0.353058 -0.316692 0.000000
139.30799866 203.03399658 334.50000000 0.354264 0.706895 -0.612207 0.000000
205.99800110 148.94099426 361.50000000 -0.263183 0.315529 0.911689 0.000000
84.47399902 240.82499695 322.50000000 0.709863 0.004151 -0.704328 0.000000
188.95500183 167.09599304 333.00000000 0.353873 0.883929 -0.305686 0.000000
73.35900116 131.15699768 367.50000000 -0.697369 -0.419084 0.581417 0.000000
103.73999786 215.63099670 328.50000000 0.383312 0.313064 -0.868943 0.000000
125.97000122 115.59600067 373.50000000 0.493319 -0.292859 0.819066 0.000000
151.16400146 100.40599823 264.00000000 0.012098 -0.869747 -0.493350 0.000000
77.80500031 212.66700745 220.50000000 -0.202313 0.530882 -0.822942 0.000000
234.89700317 95.58899689 364.50000000 -0.729337 0.385155 0.565441 0.000000
85.95600128 132.63900757 262.50000000 -0.677583 -0.717172 0.162925 0.000000
228.22799683 143.01300049 343.50000000 0.407853 0.482599 -0.775083 0.000000
134.12100220 118.93000031 231.00000000 0.229816 -0.912037 -0.339665 0.000000
128.19299316 110.40899658 250.50000000 -0.168095 -0.843448 -0.510234 0.000000
115.59600067 102.25800323 325.50000000 -0.357753 -0.797324 0.486095 0.000000
216.37199402 110.40899658 364.50000000 0.471745 0.146604 0.869462 0.000000
111.15000153 112.26100159 375.00000000 -0.020998 -0.701329 0.712528 0.000000
223.04100037 123.74700165 364.50000000 0.000978 0.000978 0.999999 0.000000
143.75399780 151.16400146 376.50000000 0.597225 0.032169 0.801428 0.000000
82.99199677 158.57400513 214.50000000 -0.045723 -0.854880 -0.516807 0.000000
97.81199646 117.81900024 265.50000000 -0.420463 -0.813748 -0.401279 0.000000
78.54599762 186.73199463 214.50000000 -0.294532 0.106982 -0.949634 0.000000
188.21400452 166.35400391 330.00000000 0.342264 0.892279 -0.294437 0.000000
122.26499939 158.57400513 385.50000000 0.000978 0.000978 0.999999 0.000000
108.18599701 227.48699951 331.50000000 0.350147 0.006320 -0.936674 0.000000
243.78900146 100.40599823 285.00000000 0.562683 0.805349 0.186550 0.000000
224.52299500 151.16400146 364.50000000 0.000978 0.000978 0.999999 0.000000
148.19999695 154.86900330 310.50000000 0.718585 0.311656 -0.621697 0.000000
66.31950378 208.96200562 240.00000000 -0.956248 0.155175 -0.248014 0.000000
50.38800049 176.35800171 337.50000000 -0.847414 -0.120231 0.517140 0.000000
94.10700226 191.17799377 193.50000000 -0.623239 0.351697 -0.698486 0.000000
62.98500061 135.23199463 342.00000000 -0.936107 -0.342930 0.078119 0.000000
51.49950027 205.25700378 348.00000000 -0.970765 0.001182 0.240031 0.000000
224.52299500 145.60699463 342.00000000 0.360941 0.423987 -0.830636 0.000000
285.28500366 131.89799500 349.50000000 0.597842 0.795668 -0.097458 0.000000
79.65750122 155.61000061 231.00000000 -0.765128 -0.507367 -0.396431 0.000000
73.35900116 253.42199707 307.50000000 -0.403116 0.788423 -0.464636 0.000000
164.50199890 159.68600464 363.00000000 0.517818 0.335059 0.787147 0.000000
131.15699768 203.03399658 331.50000000 -0.000978 -0.000978 -0.999999 0.000000
70.76550293 140.78999329 306.00000000 -0.800096 -0.552484 -0.233684 0.000000
220.07699585 106.70400238 268.50000000 -0.001182 0.970765 -0.240031 0.000000
191.17799377 129.67500305 298.50000000 0.362371 0.541119 -0.758866 0.000000
92.99549866 114.85500336 282.00000000 -0.841848 -0.537498 -0.048863 0.000000
150.79400635 166.72500610 297.00000000 0.792152 -0.504097 0.344066 0.000000
217.85400391 145.23599243 364.50000000 0.000978 0.000978 0.999999 0.000000
197.84700012 153.38699341 361.50000000 -0.004113 0.804739 0.593615 0.000000
134.12100220 89.29049683 312.00000000 -0.240393 -0.949347 0.202364 0.000000
74.09999847 150.42300415 265.50000000 -0.897317 -0.382055 -0.221036 0.000000
202.29299927 95.58899689 265.50000000 -0.029693 -0.933399 -0.357609 0.000000
150.42300415 208.22099304 358.50000000 0.609510 0.514960 0.602756 0.000000
117.81900024 211.18499756 331.50000000 0.313080 0.071450 -0.947035 0.000000
72.61799622 221.55900574 229.50000000 0.189450 0.879693 -0.436175 0.000000
181.54499817 102.25800323 364.50000000 -0.382977 -0.532908 0.754545 0.000000
215.63099670 121.52400208 316.50000000 0.649365 0.718884 -0.248054 0.000000
203.77499390 114.11399841 367.50000000 0.000978 0.000978 0.999999 0.000000
253.42199707 112.26100159 339.00000000 0.563380 0.207238 -0.799785 0.000000
97.07099915 105.59200287 354.00000000 -0.042557 -0.988015 -0.148375 0.000000
57.79800034 188.21400452 283.50000000 -0.967089 -0.092526 -0.237019 0.000000
284.54400635 130.41600037 358.50000000 0.812195 0.202668 0.547051 0.000000
246.01199341 97.81199646 289.50000000 0.879525 0.440494 -0.180003 0.000000
170.42999268 166.35400391 351.00000000 0.301778 0.905333 0.298834 0.000000
152.64599609 183.39799500 315.00000000 0.428492 0.897461 0.104681 0.000000
82.99199677 145.23599243 244.50000000 -0.687031 -0.559988 -0.463035 0.000000
148.57000732 157.83299255 294.00000000 0.848887 0.108093 0.517403 0.000000
121.52400208 104.11000061 333.00000000 0.711237 0.001381 0.702951 0.000000
80.02799988 231.93299866 301.50000000 0.979106 0.094357 0.180136 0.000000
120.04199982 149.68200684 385.50000000 0.308359 0.039338 0.950456 0.000000
96.33000183 121.52400208 376.50000000 -0.331113 -0.566930 0.754291 0.000000
108.18599701 198.21699524 306.00000000 0.888128 0.451708 -0.084782 0.000000
97.07099915 194.88299561 370.50000000 -0.225621 -0.078531 0.971045 0.000000
125.97000122 122.26499939 379.50000000 0.137192 -0.553194 0.821678 0.000000
177.09899902 87.80850220 345.00000000 -0.318330 -0.872743 0.370116 0.000000
103.73999786 180.80400085 376.50000000 -0.306225 0.446124 0.840952 0.000000
197.84700012 86.32649994 303.00000000 0.066295 -0.996601 0.048906 0.000000
105.22200012 137.82600403 211.50000000 -0.624491 -0.651136 -0.431315 0.000000
145.97700500 191.91900635 367.50000000 0.451705 0.261836 0.852880 0.000000
119.30100250 175.61700439 214.50000000 0.599710 0.401459 -0.692227 0.000000
77.06400299 205.25700378 364.50000000 -0.273048 -0.264471 0.924932 0.000000
114.11399841 215.63099670 328.50000000 -0.775934 -0.088803 -0.624532 0.000000
117.81900024 154.12800598 385.50000000 0.282490 0.081264 0.955822 0.000000
68.17199707 185.99099731 361.50000000 -0.538328 -0.268379 0.798859 0.000000
191.17799377 109.66799927 364.50000000 -0.184854 -0.275227 0.943440 0.000000
141.53100586 103.73999786 259.50000000 -0.158725 -0.835158 -0.526609 0.000000
158.57400513 165.24299622 319.50000000 -0.142513 -0.640559 -0.754569 0.000000
60.02099991 148.57000732 321.00000000 -0.756173 -0.576361 -0.309854 0.000000
128.19299316 112.26100159 342.00000000 -0.250675 -0.484433 0.838145 0.000000
58.53900146 175.61700439 349.50000000 -0.725896 -0.189565 0.661166 0.000000
269.72399902 121.52400208 343.50000000 -0.000978 -0.000978 -0.999999 0.000000
102.99900055 103.36900330 285.00000000 -0.461643 -0.806677 -0.368995 0.000000
145.97700500 211.92599487 337.50000000 0.115882 0.482128 -0.868403 0.000000
79.28700256 244.52999878 301.50000000 0.987125 0.088452 -0.133268 0.000000
266.01901245 122.26499939 361.50000000 0.000978 0.000978 0.999999 0.000000
110.40899658 195.62399292 313.50000000 0.712767 0.443610 -0.543298 0.000000
171.17100525 132.63900757 271.50000000 0.492908 0.791542 -0.361252 0.000000
117.81900024 192.66000366 307.50000000 0.244421 0.834722 0.493454 0.000000
151.53500366 180.06300354 291.00000000 0.880605 0.408158 -0.240709 0.000000
56.31600189 238.60200500 313.50000000 -0.866524 0.498826 0.017574 0.000000
84.84449768 114.85500336 363.00000000 -0.534629 -0.622329 0.571733 0.000000
161.53799438 154.86900330 367.50000000 -0.537405 0.182146 0.823419 0.000000
154.86900330 91.14299774 337.50000000 -0.298618 -0.865227 0.402752 0.000000
106.70400238 230.08099365 330.00000000 0.305695 0.245417 -0.919957 0.000000
64.46700287 222.30000305 358.50000000 -0.499326 0.045393 0.865224 0.000000
172.65299988 128.56300354 249.00000000 0.696449 0.696449 -0.172964 0.000000
119.30100250 131.89799500 385.50000000 0.155914 -0.407664 0.899723 0.000000
128.19299316 165.24299622 382.50000000 0.090480 0.123381 0.988226 0.000000
145.23599243 193.40100098 328.50000000 -0.063095 0.525788 -0.848272 0.000000
135.60299683 175.61700439 244.50000000 0.698191 0.558219 -0.448242 0.000000
200.07000732 90.40200043 280.50000000 0.245605 0.001186 0.969369 0.000000
69.65399933 244.89999390 354.00000000 -0.409120 0.200894 0.890092 0.000000
126.71099854 230.45100403 361.50000000 0.169722 0.430834 0.886328 0.000000
157.46200562 179.32200623 327.00000000 0.922763 0.309489 -0.229621 0.000000
81.51000214 189.69599915 367.50000000 -0.787171 -0.344688 0.511421 0.000000
136.71400452 188.95500183 372.00000000 0.575202 0.451825 0.681906 0.000000
225.26400757 153.38699341 364.50000000 0.000978 0.000978 0.999999 0.000000
139.67799377 149.68200684 231.00000000 0.868403 0.115882 -0.482128 0.000000
118.55999756 236.37899780 358.50000000 0.152979 0.670988 0.725515 0.000000
141.90199280 170.42999268 258.00000000 0.990981 -0.067593 0.115710 0.000000
194.88299561 89.66100311 358.50000000 0.113935 -0.661414 0.741316 0.000000
67.43099976 226.00500488 358.50000000 -0.429938 0.279995 0.858345 0.000000
140.78999329 136.34399414 376.50000000 0.620723 -0.119997 0.774793 0.000000
278.61599731 100.77600098 349.50000000 0.841652 0.312702 -0.440272 0.000000
206.73899841 125.97000122 367.50000000 0.000978 0.000978 0.999999 0.000000
115.96600342 143.75399780 387.00000000 0.552966 -0.261602 0.791071 0.000000
110.03800201 197.84700012 282.00000000 0.599077 0.797332 -0.073268 0.000000
165.61300659 154.12800598 315.00000000 0.704560 0.192713 -0.682976 0.000000
149.68200684 126.71099854 235.50000000 0.000978 0.000978 -0.999999 0.000000
139.30799866 196.36500549 370.50000000 0.652809 0.355037 0.669170 0.000000
228.96899414 121.89499664 333.00000000 0.696449 0.696449 0.172964 0.000000
208.22099304 154.86900330 361.50000000 -0.414258 0.146627 0.898271 0.000000
165.24299622 92.99549866 348.00000000 -0.208996 -0.822255 0.529355 0.000000
187.84399414 125.22899628 294.00000000 0.242305 0.589348 -0.770686 0.000000
67.43099976 173.76400757 357.00000000 0.046977 0.724590 0.687577 0.000000
88.17900085 217.11300659 298.50000000 0.732241 0.677359 0.070769 0.000000
94.10700226 171.17100525 379.50000000 -0.223312 0.660567 0.716786 0.000000
177.83999634 134.12100220 295.50000000 0.421088 0.211283 -0.882068 0.000000
67.06050110 174.87600708 252.00000000 -0.986226 -0.096362 -0.134431 0.000000
131.89799500 133.38000488 208.50000000 0.739276 0.229754 -0.632996 0.000000
224.52299500 160.79699707 361.50000000 -0.291895 0.907954 0.300695 0.000000
188.95500183 95.58899689 361.50000000 -0.250237 -0.599624 0.760153 0.000000
57.79800034 243.78900146 343.50000000 -0.701960 0.495207 0.511881 0.000000
218.59500122 138.56700134 334.50000000 0.418547 0.507180 -0.753384 0.000000
71.50650024 165.98399353 240.00000000 -0.957137 0.284486 0.054368 0.000000
114.85500336 206.73899841 370.50000000 -0.115884 0.217761 0.969098 0.000000
179.32200623 170.80099487 339.00000000 -0.323514 0.922088 0.212351 0.000000
178.58099365 100.03500366 292.50000000 -0.962792 0.168980 -0.210897 0.000000
227.11700439 108.92700195 285.00000000 0.667564 0.667564 -0.329721 0.000000
141.16000366 186.73199463 282.00000000 0.499365 0.772634 -0.392010 0.000000
80.76899719 127.82299805 309.00000000 -0.740087 -0.502732 -0.446690 0.000000
196.36500549 139.30799866 316.50000000 0.463989 0.716771 -0.520532 0.000000
147.45899963 97.07099915 274.50000000 -0.109971 -0.947337 -0.300763 0.000000
102.25800323 163.76100159 385.50000000 0.000978 0.000978 0.999999 0.000000
150.79400635 164.50199890 294.00000000 0.947540 -0.299013 0.112961 0.000000
102.25800323 228.96899414 328.50000000 0.092226 0.050002 -0.994482 0.000000
113.74299622 163.76100159 198.00000000 0.827993 0.372043 -0.419538 0.000000
153.01600647 111.89099884 357.00000000 -0.341591 -0.784215 0.517999 0.000000
128.93400574 114.11399841 358.50000000 0.432053 -0.788052 -0.438526 0.000000
158.57400513 178.21000671 330.00000000 0.955449 0.279485 -0.094895 0.000000
242.30700684 98.18250275 303.00000000 0.485018 0.806243 0.338718 0.000000
76.69349670 151.90499878 246.00000000 -0.567225 -0.516730 -0.641284 0.000000
131.89799500 200.81100464 331.50000000 0.117886 0.290080 -0.949714 0.000000
136.34399414 161.53799438 379.50000000 0.477885 0.267554 0.836685 0.000000
193.40100098 85.95600128 301.50000000 0.066295 -0.996601 0.048906 0.000000
255.64500427 118.55999756 340.50000000 0.421914 -0.101649 -0.900919 0.000000
218.59500122 120.78299713 364.50000000 0.161700 0.082646 0.983373 0.000000
127.45200348 207.47999573 370.50000000 0.281430 0.167227 0.944898 0.000000
150.42300415 212.66700745 340.50000000 0.328976 0.597991 -0.730878 0.000000
72.98850250 132.63900757 369.00000000 -0.686655 -0.383671 0.617496 0.000000
157.83299255 205.99800110 337.50000000 0.178632 0.532894 -0.827112 0.000000
77.80500031 208.96200562 217.50000000 -0.752462 0.355916 -0.554189 0.000000
215.63099670 82.25099945 352.50000000 -0.009489 -0.844515 0.535447 0.000000
155.61000061 143.75399780 286.50000000 -0.001089 0.992394 -0.123096 0.000000
86.69699860 130.41600037 259.50000000 -0.592720 -0.803086 0.061120 0.000000
110.40899658 108.18599701 367.50000000 -0.001308 -0.896251 0.443546 0.000000
79.28700256 222.30000305 361.50000000 -0.418570 0.150000 0.895712 0.000000
56.31600189 164.13200378 339.00000000 -0.756048 -0.418204 0.503485 0.000000
77.80500031 256.38598633 310.50000000 -0.207573 0.785701 -0.582741 0.000000
201.55200195 132.63900757 313.50000000 0.673869 0.570197 -0.469869 0.000000
95.58899689 168.57699585 198.00000000 0.975463 0.156928 -0.154417 0.000000
58.16849899 198.58799744 279.00000000 -0.946037 -0.088156 -0.311837 0.000000
111.15000153 185.99099731 376.50000000 0.034842 0.222265 0.974364 0.000000
64.46700287 151.16400146 310.50000000 -0.940585 -0.314428 -0.128200 0.000000
242.30700684 104.48100281 361.50000000 0.252976 0.284420 0.924721 0.000000
104.48100281 158.57400513 388.50000000 -0.076767 0.664827 0.743042 0.000000
116.33699799 107.81500244 351.00000000 0.593297 -0.770820 -0.232024 0.000000
198.95799255 136.34399414 315.00000000 0.501247 0.672241 -0.544834 0.000000
154.12800598 133.38000488 256.50000000 -0.409680 0.839765 -0.356311 0.000000
91.14299774 125.97000122 262.50000000 -0.122225 -0.900534 -0.417252 0.000000
64.46700287 254.16299438 340.50000000 -0.473828 0.664699 0.577635 0.000000
71.87699890 234.89700317 358.50000000 -0.270609 0.593441 0.758022 0.000000
111.52100372 169.68899536 198.00000000 0.931778 0.226954 -0.283340 0.000000
72.98850250 122.26499939 336.00000000 -0.632910 -0.752442 -0.182364 0.000000
182.28599548 168.57699585 327.00000000 0.258231 0.790342 -0.555587 0.000000
86.69699860 257.12701416 322.50000000 0.803149 -0.247003 -0.542164 0.000000
97.07099915 237.86099243 361.50000000 0.000978 0.000978 0.999999 0.000000
208.96200562 82.99199677 310.50000000 -0.225113 -0.935406 -0.272652 0.000000
64.46700287 157.09199524 304.50000000 -0.896065 -0.298688 -0.328409 0.000000
102.25800323 240.08399963 358.50000000 0.459533 0.115239 0.880653 0.000000
226.74600220 81.13950348 315.00000000 0.156353 -0.684615 -0.711939 0.000000
94.84799957 223.04100037 325.50000000 0.342390 0.176126 -0.922902 0.000000
53.35200119 238.23199463 339.00000000 -0.884709 0.399978 0.239392 0.000000
162.27900696 99.66449738 267.00000000 0.023093 -0.966279 -0.256459 0.000000
177.09899902 126.71099854 253.50000000 0.646720 0.728147 -0.227057 0.000000
247.49400330 110.40899658 334.50000000 0.506516 0.138672 -0.851006 0.000000
211.18499756 80.02799988 319.50000000 -0.380143 -0.380143 -0.843198 0.000000
138.56700134 138.56700134 232.50000000 0.996335 -0.072956 -0.044645 0.000000
136.34399414 186.73199463 373.50000000 0.691586 0.162637 0.703746 0.000000
103.73999786 235.63800049 331.50000000 0.349763 0.444721 -0.824554 0.000000
80.76899719 231.93299866 361.50000000 0.000978 0.000978 0.999999 0.000000
105.96299744 113.00299835 375.00000000 -0.057626 -0.833468 0.549555 0.000000
74.09999847 174.13499451 364.50000000 -0.078605 0.555949 0.827492 0.000000
165.24299622 171.54200745 348.00000000 0.703840 0.615656 0.354369 0.000000
100.03500366 243.04800415 331.50000000 0.678090 0.117219 -0.725571 0.000000
93.36599731 172.65299988 196.50000000 0.382997 -0.126737 -0.915014 0.000000
