144.23800659 71.77729797 442.50000000 0.000978 0.000978 0.999999 0.000000
124.41400146 130.90800476 410.00000000 -0.044065 -0.660979 -0.749110 0.000000
104.58999634 105.27300262 392.50000000 -0.000978 -0.000978 -0.999999 0.000000
166.11300659 60.15620041 402.50000000 -0.065566 -0.296974 0.952632 0.000000
88.18360138 66.30860138 392.50000000 -0.000978 -0.000978 -0.999999 0.000000
149.02299500 108.69100189 447.50000000 0.000978 0.000978 0.999999 0.000000
124.41400146 168.84800720 457.50000000 -0.345421 0.575702 0.741115 0.000000
122.36299896 88.18360138 447.50000000 0.000978 0.000978 0.999999 0.000000
169.53100586 107.32399750 442.50000000 0.262181 0.102031 0.959610 0.000000
177.73399353 49.90230179 412.50000000 0.001199 -0.964929 0.262509 0.000000
127.83200073 148.33999634 457.50000000 0.000978 0.000978 0.999999 0.000000
157.22700500 130.56599426 407.50000000 -0.006835 -0.821582 0.570049 0.000000
29.73629951 125.09799957 435.00000000 -0.970583 -0.162403 0.177748 0.000000
122.36299896 177.05099487 387.50000000 0.694134 0.451104 -0.560967 0.000000
139.45300293 84.76560211 442.50000000 -0.293188 -0.270079 0.917114 0.000000
118.94499969 213.96499634 437.50000000 0.000978 0.000978 0.999999 0.000000
86.13279724 253.95500183 380.00000000 -0.383112 0.886971 -0.257892 0.000000
120.65399933 227.63699341 395.00000000 0.385389 -0.410764 -0.826286 0.000000
138.77000427 111.42600250 452.50000000 0.533609 -0.063357 0.843355 0.000000
181.15199280 82.71479797 442.50000000 0.000978 0.000978 0.999999 0.000000
142.18800354 173.63299561 412.50000000 0.791237 -0.516302 -0.327684 0.000000
194.14100647 60.83980179 427.50000000 0.000978 0.000978 0.999999 0.000000
155.85899353 53.66210175 425.00000000 -0.073610 -0.879151 0.470825 0.000000
131.25000000 173.97500610 395.00000000 0.549897 0.189359 -0.813484 0.000000
86.13279724 163.37899780 467.50000000 0.000978 0.000978 0.999999 0.000000
120.99600220 69.72660065 402.50000000 -0.000978 -0.000978 -0.999999 0.000000
39.99020004 143.55499268 455.00000000 -0.693926 -0.415693 0.587933 0.000000
81.34770203 194.82400513 462.50000000 0.000978 0.000978 0.999999 0.000000
205.07800293 75.19529724 412.50000000 0.000978 0.000978 0.999999 0.000000
146.28900146 105.95700073 447.50000000 0.000978 0.000978 0.999999 0.000000
131.25000000 136.71899414 412.50000000 -0.000978 -0.000978 -0.999999 0.000000
139.45300293 55.37110138 427.50000000 -0.001357 -0.826370 0.563126 0.000000
93.65229797 179.78500366 467.50000000 0.000978 0.000978 0.999999 0.000000
121.68000031 151.07400513 457.50000000 0.000978 0.000978 0.999999 0.000000
142.87100220 124.41400146 452.50000000 0.000978 0.000978 0.999999 0.000000
132.61700439 126.46499634 452.50000000 0.385978 -0.871120 0.303595 0.000000
41.01559830 211.91400146 437.50000000 -0.722819 0.568047 0.393517 0.000000
84.08200073 152.44099426 322.50000000 0.479150 0.426820 -0.766968 0.000000
105.27300262 110.74199677 452.50000000 0.000978 0.000978 0.999999 0.000000
78.27149963 80.66410065 435.00000000 -0.476799 -0.444029 0.758618 0.000000
115.52700043 194.14100647 452.50000000 0.314440 0.394200 0.863559 0.000000
70.41020203 189.35499573 322.50000000 0.789636 0.382707 -0.479595 0.000000
52.63669968 93.65229797 442.50000000 -0.659675 -0.293724 0.691776 0.000000
29.39450073 154.49200439 347.50000000 -0.964929 0.001199 -0.262509 0.000000
74.51170349 137.40199280 302.50000000 0.911923 -0.063309 -0.405449 0.000000
197.55900574 108.00800323 437.50000000 0.000978 0.000978 0.999999 0.000000
163.37899780 77.24610138 447.50000000 -0.082640 -0.383396 0.919879 0.000000
192.77299500 91.60160065 437.50000000 -0.000978 -0.000978 0.999999 0.000000
133.30099487 197.55900574 402.50000000 0.869704 0.165728 -0.464918 0.000000
131.25000000 94.33589935 397.50000000 0.000978 0.000978 -0.999999 0.000000
75.19529724 172.26600647 317.50000000 0.873262 0.309375 -0.376432 0.000000
89.55079651 98.43750000 447.50000000 0.000978 0.000978 0.999999 0.000000
167.47999573 111.42600250 442.50000000 0.159885 0.204081 0.965809 0.000000
47.16799927 142.87100220 462.50000000 -0.990809 0.001100 -0.135260 0.000000
24.60939980 162.69500732 367.50000000 -0.001328 0.877641 0.479317 0.000000
150.39100647 58.10549927 432.50000000 -0.000978 -0.000978 0.999999 0.000000
56.73830032 166.79699707 467.50000000 0.000978 0.000978 0.999999 0.000000
97.75389862 155.17599487 352.50000000 0.925729 0.001273 -0.378186 0.000000
148.33999634 89.55079651 397.50000000 -0.059674 -0.153281 -0.986379 0.000000
76.56250000 222.16799927 447.50000000 -0.428441 0.325615 0.842860 0.000000
80.66410065 201.66000366 352.50000000 0.664423 0.308771 -0.680589 0.000000
82.03119659 146.28900146 317.50000000 0.834192 -0.020614 -0.551089 0.000000
28.02729988 196.19099426 417.50000000 -0.824019 0.548853 0.140542 0.000000
64.94139862 205.07800293 457.50000000 0.000978 0.000978 0.999999 0.000000
38.28120041 142.87100220 452.50000000 -0.693926 -0.415693 0.587933 0.000000
88.86720276 159.96099854 467.50000000 0.000978 0.000978 0.999999 0.000000
162.35400391 125.09799957 445.00000000 0.513409 0.331077 0.791706 0.000000
183.20300293 75.87889862 407.50000000 0.000978 0.000978 0.999999 0.000000
38.28120041 106.64099884 437.50000000 -0.773496 -0.633115 -0.029480 0.000000
82.03119659 170.21499634 327.50000000 -0.000978 -0.000978 -0.999999 0.000000
72.46089935 66.30860138 417.50000000 -0.226630 -0.626750 0.745535 0.000000
203.71099854 113.47699738 417.50000000 0.000978 0.000978 0.999999 0.000000
162.69500732 105.95700073 447.50000000 0.199750 0.171028 0.964805 0.000000
84.08200073 133.30099487 462.50000000 0.000978 0.000978 0.999999 0.000000
102.19699860 174.31599426 365.00000000 0.650725 0.417729 -0.634082 0.000000
25.97660065 157.22700500 442.50000000 -0.944584 0.326727 -0.031783 0.000000
198.92599487 115.52700043 437.50000000 0.000978 0.000978 0.999999 0.000000
62.20700073 239.25799561 417.50000000 -0.473367 0.567036 -0.674087 0.000000
72.46089935 139.45300293 467.50000000 0.000978 0.000978 0.999999 0.000000
105.27300262 179.78500366 462.50000000 0.000978 0.000978 0.999999 0.000000
38.96480179 189.35499573 452.50000000 -0.381120 -0.464741 0.799227 0.000000
39.64839935 133.30099487 452.50000000 -0.317365 -0.214898 0.923633 0.000000
56.05469894 101.85500336 312.50000000 -0.841099 -0.418200 -0.343018 0.000000
146.97300720 129.88299561 452.50000000 0.000978 0.000978 0.999999 0.000000
103.22299957 168.84800720 362.50000000 -0.000978 -0.000978 -0.999999 0.000000
132.27499390 162.01199341 380.00000000 0.530460 0.641604 -0.554036 0.000000
145.60499573 162.69500732 447.50000000 0.763690 0.149123 0.628124 0.000000
118.26200104 125.09799957 457.50000000 0.000978 0.000978 0.999999 0.000000
22.90040016 153.80900574 430.00000000 -0.947740 0.241367 0.208639 0.000000
139.45300293 122.36299896 412.50000000 -0.571319 -0.009590 0.820672 0.000000
113.47699738 125.78099823 457.50000000 0.000978 0.000978 0.999999 0.000000
153.12500000 56.05469894 427.50000000 -0.105087 -0.892536 0.438562 0.000000
141.50399780 202.34399414 412.50000000 0.000978 0.000978 -0.999999 0.000000
207.81199646 135.35200500 432.50000000 0.536447 -0.225953 0.813124 0.000000
57.42190170 125.78099823 287.50000000 -0.000978 -0.000978 -0.999999 0.000000
85.44920349 190.03900146 347.50000000 0.938883 0.324635 -0.114498 0.000000
145.60499573 50.58589935 417.50000000 0.081918 -0.887217 0.454022 0.000000
101.51399994 136.03500366 380.00000000 -0.323547 -0.751723 0.574657 0.000000
35.20510101 215.33200073 415.00000000 -0.705447 0.683930 0.185968 0.000000
90.91799927 121.68000031 402.50000000 0.000978 0.000978 -0.999999 0.000000
65.96679688 89.55079651 440.00000000 -0.181608 -0.835998 0.517808 0.000000
52.63669968 166.79699707 462.50000000 -0.606502 -0.336584 0.720323 0.000000
93.65229797 229.68800354 432.50000000 0.636378 0.636378 0.435944 0.000000
60.15620041 162.69500732 467.50000000 0.000978 0.000978 0.999999 0.000000
178.75999451 92.28520203 445.00000000 -0.003008 0.023063 0.999730 0.000000
127.14800262 223.53500366 397.50000000 -0.000978 -0.000978 -0.999999 0.000000
197.55900574 60.83980179 422.50000000 0.521730 -0.738980 0.426271 0.000000
175.68400574 165.77099609 410.00000000 0.936133 0.344613 0.069979 0.000000
207.12899780 86.81639862 412.50000000 0.000978 0.000978 0.999999 0.000000
25.63479996 131.25000000 425.00000000 -0.968578 -0.234921 0.081657 0.000000
175.00000000 154.83399963 430.00000000 0.640356 0.640356 0.424132 0.000000
57.42190170 126.46499634 287.50000000 -0.000978 -0.000978 -0.999999 0.000000
68.35939789 185.93800354 312.50000000 0.360749 0.899664 -0.245898 0.000000
79.98049927 83.39839935 437.50000000 -0.503802 -0.261977 0.823135 0.000000
185.59599304 84.76560211 410.00000000 -0.665785 0.169112 0.726726 0.000000
49.90230179 203.71099854 452.50000000 0.000978 0.000978 0.999999 0.000000
190.72300720 139.45300293 422.50000000 0.000978 0.000978 0.999999 0.000000
109.37500000 81.34770203 397.50000000 -0.000978 -0.000978 -0.999999 0.000000
69.72660065 99.12110138 452.50000000 0.163803 -0.986253 -0.021764 0.000000
72.46089935 209.86300659 457.50000000 -0.000978 -0.000978 0.999999 0.000000
58.78910065 208.49600220 327.50000000 0.509220 0.821872 -0.255384 0.000000
72.46089935 74.51170349 382.50000000 -0.060966 -0.812411 0.579889 0.000000
93.65229797 158.59399414 347.50000000 0.959764 -0.137483 -0.244851 0.000000
74.51170349 71.09380341 427.50000000 0.198483 -0.969364 0.144700 0.000000
114.16000366 69.72660065 437.50000000 0.000978 0.000978 0.999999 0.000000
120.31199646 174.31599426 382.50000000 -0.474747 0.448463 -0.757295 0.000000
62.89059830 186.62100220 307.50000000 -0.000978 -0.000978 -0.999999 0.000000
66.99220276 106.98200226 455.00000000 -0.448565 -0.484713 0.750895 0.000000
73.14450073 120.99600220 462.50000000 0.000978 0.000978 0.999999 0.000000
38.96480179 207.12899780 437.50000000 -0.776735 0.394043 0.491338 0.000000
99.80470276 165.42999268 467.50000000 0.884258 -0.293748 0.363043 0.000000
40.33200073 104.24800110 435.00000000 -0.773496 -0.633115 -0.029480 0.000000
138.77000427 203.71099854 407.50000000 0.543559 0.814577 -0.202502 0.000000
120.31199646 110.05899811 407.50000000 0.900110 -0.098776 0.424318 0.000000
76.56250000 217.72500610 450.00000000 0.422619 0.697737 0.578409 0.000000
151.07400513 56.73830032 397.50000000 -0.045125 -0.230505 0.972024 0.000000
59.47269821 243.70100403 400.00000000 -0.534445 0.843048 0.060318 0.000000
25.97660065 145.60499573 367.50000000 -0.960545 -0.110184 -0.255368 0.000000
175.00000000 101.17199707 407.50000000 -0.254881 -0.502039 0.826433 0.000000
69.04299927 171.58200073 302.50000000 -0.000978 -0.000978 -0.999999 0.000000
89.55079651 168.84800720 342.50000000 0.865711 0.294678 -0.404609 0.000000
115.52700043 188.67199707 452.50000000 0.479490 0.367235 0.797012 0.000000
157.22700500 159.61900330 415.00000000 -0.500737 0.843584 0.193979 0.000000
187.98800659 64.94139862 412.50000000 -0.337405 0.078066 0.938117 0.000000
163.37899780 84.76560211 447.50000000 0.000978 0.000978 0.999999 0.000000
215.33200073 119.62899780 427.50000000 0.500645 0.074325 0.862456 0.000000
139.45300293 59.47269821 432.50000000 -0.038765 -0.904955 0.423738 0.000000
99.12110138 248.14500427 407.50000000 0.163453 0.886695 0.432499 0.000000
106.64099884 167.47999573 462.50000000 0.000978 0.000978 0.999999 0.000000
84.76560211 177.05099487 467.50000000 0.000978 0.000978 0.999999 0.000000
125.78099823 125.09799957 412.50000000 0.361280 -0.816462 -0.450407 0.000000
28.02729988 151.07400513 357.50000000 -0.990809 -0.001100 -0.135260 0.000000
216.35699463 120.31199646 415.00000000 0.800710 -0.220619 0.556948 0.000000
127.83200073 101.85500336 417.50000000 -0.000978 -0.000978 -0.999999 0.000000
93.65229797 129.88299561 362.50000000 0.953510 -0.214439 -0.211741 0.000000
30.07810020 140.82000732 442.50000000 0.000978 0.000978 0.999999 0.000000
59.47269821 110.05899811 452.50000000 -0.532898 0.532898 0.657297 0.000000
83.05660248 164.06199646 325.00000000 0.748510 0.306136 -0.588229 0.000000
105.27300262 124.41400146 402.50000000 -0.000978 -0.000978 -0.999999 0.000000
51.95309830 224.21899414 352.50000000 -0.679241 0.616440 -0.398289 0.000000
143.55499268 119.62899780 402.50000000 0.251004 -0.623563 0.740382 0.000000
155.17599487 54.68750000 397.50000000 -0.200963 -0.459983 0.864887 0.000000
201.66000366 66.30860138 427.50000000 0.911684 0.405042 0.069087 0.000000
205.76199341 129.88299561 432.50000000 0.411863 0.295500 0.862003 0.000000
84.08200073 198.24200439 352.50000000 0.674654 0.557468 -0.483809 0.000000
39.64839935 168.16400146 317.50000000 -0.826370 0.001357 -0.563126 0.000000
39.64839935 110.05899811 357.50000000 -0.881718 -0.466466 -0.070593 0.000000
146.28900146 151.75799561 452.50000000 0.000978 0.000978 0.999999 0.000000
123.38899994 214.64799500 395.00000000 0.673626 0.344153 -0.654054 0.000000
112.10900116 88.18360138 407.50000000 -0.857034 0.211632 -0.469793 0.000000
67.67579651 207.12899780 332.50000000 0.000978 0.000978 -0.999999 0.000000
142.52900696 109.37500000 450.00000000 0.806657 0.209700 0.552567 0.000000
198.24200439 86.81639862 412.50000000 0.000978 0.000978 0.999999 0.000000
138.08599854 213.28100586 412.50000000 0.826370 -0.001357 -0.563126 0.000000
155.17599487 65.28320313 440.00000000 -0.552085 -0.609489 0.568969 0.000000
25.29299927 153.80900574 437.50000000 -0.930937 0.233087 0.281117 0.000000
210.54699707 102.53900146 432.50000000 0.879525 -0.180003 0.440494 0.000000
175.00000000 159.96099854 392.50000000 -0.000978 -0.000978 -0.999999 0.000000
125.09799957 225.58599854 397.50000000 -0.000978 -0.000978 -0.999999 0.000000
50.58589935 236.18200684 395.00000000 -0.614981 0.774364 0.148858 0.000000
172.26600647 56.73830032 402.50000000 0.000978 0.000978 0.999999 0.000000
56.73830032 129.19900513 287.50000000 -0.000978 -0.000978 -0.999999 0.000000
57.42190170 129.19900513 287.50000000 -0.000978 -0.000978 -0.999999 0.000000
39.30659866 103.90599823 385.00000000 -0.937822 -0.235501 -0.255009 0.000000
133.30099487 52.63669968 422.50000000 0.549469 0.275522 0.788779 0.000000
170.21499634 68.35939789 442.50000000 0.144411 -0.862089 0.485745 0.000000
125.78099823 192.77299500 447.50000000 0.553762 0.001354 0.832674 0.000000
147.65600586 173.29100037 420.00000000 0.600354 -0.720750 -0.346546 0.000000
27.68549919 133.98399353 435.00000000 -0.895137 -0.123028 0.428478 0.000000
84.08200073 155.17599487 322.50000000 0.808035 0.230205 -0.542295 0.000000
120.65399933 52.63669968 405.00000000 -0.388613 -0.835440 0.388613 0.000000
155.17599487 149.02299500 387.50000000 -0.654592 0.026632 -0.755513 0.000000
74.85350037 112.10900116 370.00000000 0.622665 -0.713235 0.321845 0.000000
73.14450073 136.03500366 467.50000000 -0.000978 -0.000978 0.999999 0.000000
171.58200073 108.69100189 442.50000000 0.000978 0.000978 0.999999 0.000000
125.78099823 220.11700439 427.50000000 -0.000978 -0.000978 0.999999 0.000000
54.00389862 129.88299561 287.50000000 -0.000978 -0.000978 -0.999999 0.000000
123.73000336 218.75000000 397.50000000 0.918054 0.006456 -0.396403 0.000000
188.67199707 79.98049927 412.50000000 0.000978 0.000978 0.999999 0.000000
119.62899780 139.45300293 457.50000000 0.000978 0.000978 0.999999 0.000000
40.33200073 203.71099854 347.50000000 -0.871120 0.385978 -0.303595 0.000000
166.11300659 90.23439789 447.50000000 0.000978 0.000978 0.999999 0.000000
49.90230179 159.27699280 462.50000000 0.000978 0.000978 0.999999 0.000000
68.35939789 194.14100647 462.50000000 0.000978 0.000978 0.999999 0.000000
127.14800262 125.09799957 452.50000000 0.000978 0.000978 0.999999 0.000000
97.07029724 151.75799561 467.50000000 0.000978 0.000978 0.999999 0.000000
199.60899353 110.74199677 437.50000000 0.254611 0.001195 0.967043 0.000000
112.10900116 242.67599487 412.50000000 0.315551 0.847170 0.427471 0.000000
94.33589935 192.77299500 462.50000000 0.000978 0.000978 0.999999 0.000000
140.82000732 55.37110138 427.50000000 -0.156756 -0.813637 0.559842 0.000000
148.33999634 60.15620041 397.50000000 0.000978 0.000978 0.999999 0.000000
77.92970276 177.05099487 467.50000000 0.000978 0.000978 0.999999 0.000000
73.82810211 99.80470276 452.50000000 0.271867 -0.495574 0.824921 0.000000
88.86720276 150.39100647 467.50000000 0.000978 0.000978 0.999999 0.000000
145.60499573 144.23800659 452.50000000 0.000978 0.000978 0.999999 0.000000
25.97660065 145.60499573 437.50000000 0.000978 0.000978 0.999999 0.000000
162.01199341 69.72660065 402.50000000 0.000978 0.000978 0.999999 0.000000
111.42600250 170.89799500 462.50000000 0.000978 0.000978 0.999999 0.000000
51.95309830 103.90599823 447.50000000 0.000978 0.000978 0.999999 0.000000
90.91799927 115.52700043 462.50000000 0.311088 -0.604447 0.733395 0.000000
158.59399414 113.47699738 397.50000000 0.000978 0.000978 0.999999 0.000000
189.35499573 86.13279724 442.50000000 0.000978 0.000978 0.999999 0.000000
88.18360138 120.31199646 367.50000000 -0.000978 -0.000978 0.999999 0.000000
89.89260101 202.34399414 365.00000000 0.655801 0.715562 -0.240618 0.000000
97.07029724 129.19900513 462.50000000 0.000978 0.000978 0.999999 0.000000
78.61329651 115.18599701 370.00000000 0.482183 -0.656911 0.579627 0.000000
68.35939789 93.65229797 447.50000000 0.275466 -0.137068 0.951489 0.000000
33.49610138 213.96499634 412.50000000 -0.753749 0.642859 0.136364 0.000000
76.56250000 216.01600647 352.50000000 -0.000978 -0.000978 -0.999999 0.000000
68.35939789 74.51170349 422.50000000 -0.381081 -0.628536 0.678027 0.000000
108.69100189 160.64500427 367.50000000 0.751947 0.281384 -0.596153 0.000000
142.18800354 203.71099854 422.50000000 0.000978 0.000978 0.999999 0.000000
177.05099487 102.53900146 407.50000000 0.000978 0.000978 0.999999 0.000000
111.42600250 136.71899414 457.50000000 0.342196 0.053346 0.938113 0.000000
182.52000427 72.46089935 407.50000000 0.000978 0.000978 0.999999 0.000000
74.85350037 142.87100220 305.00000000 0.993990 -0.090566 0.061495 0.000000
164.74600220 164.74600220 397.50000000 -0.000978 -0.000978 -0.999999 0.000000
139.45300293 128.51600647 412.50000000 -0.704675 -0.379440 0.599549 0.000000
60.83980179 131.25000000 287.50000000 -0.000978 -0.000978 -0.999999 0.000000
130.56599426 226.27000427 417.50000000 0.402681 0.803757 -0.437975 0.000000
101.85500336 140.82000732 402.50000000 0.113843 -0.511575 -0.851664 0.000000
102.53900146 175.68400574 462.50000000 0.339112 0.050672 0.939380 0.000000
163.37899780 149.70700073 437.50000000 0.329680 0.824988 0.459028 0.000000
167.47999573 53.32030106 397.50000000 -0.190075 -0.567184 0.801357 0.000000
94.33589935 169.53100586 352.50000000 0.000978 0.000978 -0.999999 0.000000
160.64500427 134.66799927 447.50000000 0.000978 0.000978 0.999999 0.000000
76.56250000 175.00000000 467.50000000 0.000978 0.000978 0.999999 0.000000
178.07600403 69.72660065 440.00000000 0.274093 -0.768411 0.578289 0.000000
79.98049927 210.54699707 452.50000000 0.868776 0.435141 0.236391 0.000000
85.44920349 76.90429688 390.00000000 0.568585 0.291459 -0.769261 0.000000
99.80470276 89.55079651 397.50000000 0.889991 -0.182077 -0.418048 0.000000
76.56250000 252.24600220 382.50000000 -0.323547 0.751723 -0.574657 0.000000
25.29299927 193.11500549 415.00000000 -0.890439 0.156798 0.427238 0.000000
23.92580032 185.25399780 412.50000000 0.000978 0.000978 0.999999 0.000000
77.58789825 198.24200439 345.00000000 0.466786 0.583900 -0.664208 0.000000
196.87500000 81.34770203 412.50000000 0.000978 0.000978 0.999999 0.000000
55.37110138 192.08999634 462.50000000 0.577363 0.674427 0.460217 0.000000
121.68000031 154.49200439 372.50000000 0.607910 -0.490033 -0.624750 0.000000
140.82000732 129.19900513 452.50000000 0.117519 -0.169475 0.978503 0.000000
156.54299927 46.14260101 400.00000000 -0.077605 -0.515018 -0.853659 0.000000
94.67769623 249.51199341 375.00000000 0.305041 0.695622 -0.650431 0.000000
112.79299927 150.04899597 380.00000000 0.439187 -0.114386 0.891084 0.000000
196.87500000 92.96880341 412.50000000 0.000978 0.000978 0.999999 0.000000
66.30860138 146.28900146 467.50000000 0.000978 0.000978 0.999999 0.000000
73.82810211 183.20300293 467.50000000 0.000978 0.000978 0.999999 0.000000
167.47999573 50.58589935 417.50000000 -0.210166 -0.845199 0.491395 0.000000
52.29489899 99.80470276 330.00000000 -0.569085 -0.714242 -0.407432 0.000000
41.69919968 216.01600647 362.50000000 -0.703874 0.703874 -0.095515 0.000000
138.08599854 129.19900513 452.50000000 0.000978 0.000978 0.999999 0.000000
79.29689789 131.25000000 462.50000000 0.000978 0.000978 0.999999 0.000000
207.81199646 139.79499817 425.00000000 -0.582978 -0.805064 -0.109582 0.000000
60.15620041 229.00399780 347.50000000 -0.624332 0.723840 -0.293709 0.000000
137.40199280 67.67579651 402.50000000 0.113385 0.498031 -0.859714 0.000000
164.06199646 54.34569931 425.00000000 0.189576 -0.953258 0.235289 0.000000
29.39450073 117.57800293 407.50000000 -0.833413 -0.550473 -0.049024 0.000000
65.62500000 175.00000000 302.50000000 -0.000978 -0.000978 -0.999999 0.000000
141.50399780 134.66799927 417.50000000 0.000978 0.000978 0.999999 0.000000
84.76560211 203.02699280 357.50000000 0.757442 0.274712 -0.592297 0.000000
159.27699280 80.66410065 447.50000000 -0.319980 -0.108445 0.941197 0.000000
77.92970276 111.42600250 397.50000000 0.241828 -0.566345 -0.787891 0.000000
144.92199707 140.82000732 402.50000000 -0.178985 -0.754183 -0.631801 0.000000
214.64799500 115.52700043 427.50000000 0.554045 -0.034715 0.831762 0.000000
73.14450073 174.31599426 467.50000000 0.000978 0.000978 0.999999 0.000000
133.98399353 185.93800354 402.50000000 0.815843 0.340595 -0.467328 0.000000
172.94900513 141.84599304 420.00000000 -0.168630 -0.529766 0.831211 0.000000
205.76199341 118.94499969 417.50000000 0.000978 0.000978 0.999999 0.000000
164.74600220 62.89059830 402.50000000 0.000978 0.000978 0.999999 0.000000
80.66410065 133.98399353 317.50000000 0.660486 -0.311672 -0.683095 0.000000
155.85899353 112.79299927 397.50000000 0.000978 0.000978 0.999999 0.000000
148.33999634 78.61329651 442.50000000 0.000978 0.000978 0.999999 0.000000
32.81250000 184.57000732 342.50000000 -0.906103 0.106845 -0.409342 0.000000
88.86720276 72.11910248 435.00000000 -0.373274 -0.754698 0.539535 0.000000
36.91410065 168.16400146 452.50000000 -0.324740 -0.174217 0.929620 0.000000
181.15199280 92.28520203 407.50000000 0.000978 0.000978 0.999999 0.000000
179.10200500 86.81639862 447.50000000 0.548751 -0.822382 0.150200 0.000000
103.22299957 124.41400146 457.50000000 0.492141 -0.699006 -0.518833 0.000000
120.31199646 126.46499634 457.50000000 0.000978 0.000978 0.999999 0.000000
60.15620041 232.08000183 355.00000000 -0.632693 0.514590 -0.578703 0.000000
202.34399414 128.51600647 417.50000000 -0.505364 -0.757229 0.413777 0.000000
24.95120049 141.50399780 375.00000000 -0.939918 -0.269932 -0.209024 0.000000
108.00800323 97.75389862 447.50000000 0.000978 0.000978 0.999999 0.000000
80.66410065 174.31599426 327.50000000 0.799672 0.254087 -0.544026 0.000000
155.51800537 151.07400513 445.00000000 0.461421 0.467989 0.753709 0.000000
116.21099854 157.91000366 372.50000000 -0.000978 -0.000978 -0.999999 0.000000
102.53900146 119.28700256 400.00000000 -0.175615 0.630686 -0.755907 0.000000
88.86720276 208.49600220 452.50000000 0.000978 0.000978 0.999999 0.000000
169.53100586 95.70310211 402.50000000 0.000978 0.000978 0.999999 0.000000
101.17199707 212.59800720 377.50000000 0.744860 -0.006935 -0.667184 0.000000
140.82000732 149.70700073 452.50000000 0.000978 0.000978 0.999999 0.000000
120.99600220 155.17599487 457.50000000 0.258856 0.045826 0.964828 0.000000
90.23439789 94.33589935 447.50000000 0.000978 0.000978 0.999999 0.000000
145.60499573 127.83200073 417.50000000 0.346282 -0.938109 0.006296 0.000000
124.41400146 222.85200500 397.50000000 0.229498 0.001177 -0.973308 0.000000
88.18360138 218.75000000 367.50000000 0.351272 -0.130866 -0.927083 0.000000
114.84400177 224.21899414 432.50000000 -0.034620 0.339787 0.939865 0.000000
178.41799927 51.95309830 402.50000000 -0.676726 0.169563 0.716443 0.000000
80.66410065 82.71479797 392.50000000 0.098385 0.723934 -0.682818 0.000000
60.15620041 181.15199280 302.50000000 -0.522478 0.492431 -0.696081 0.000000
71.43550110 108.69100189 385.00000000 0.722131 0.001381 -0.691755 0.000000
56.05469894 97.75389862 447.50000000 0.000978 0.000978 0.999999 0.000000
23.58399963 192.08999634 410.00000000 -0.886597 0.102570 0.451026 0.000000
118.26200104 111.42600250 397.50000000 -0.461699 0.085086 -0.882946 0.000000
136.71899414 192.08999634 402.50000000 0.434567 -0.069915 -0.897922 0.000000
54.68750000 134.66799927 287.50000000 -0.000978 -0.000978 -0.999999 0.000000
121.68000031 229.68800354 422.50000000 0.151842 0.602859 0.783266 0.000000
107.32399750 155.85899353 362.50000000 0.350055 0.101367 -0.931228 0.000000
191.40600586 131.93400574 432.50000000 -0.000978 -0.000978 0.999999 0.000000
77.92970276 253.27099609 395.00000000 -0.214738 0.969497 -0.118169 0.000000
200.97700500 95.01950073 437.50000000 0.000978 0.000978 0.999999 0.000000
23.24220085 142.18800354 407.50000000 -0.962696 -0.267070 -0.043477 0.000000
32.81250000 186.27900696 345.00000000 -0.636378 -0.636378 0.435944 0.000000
129.88299561 157.22700500 372.50000000 0.359435 0.931916 -0.048360 0.000000
186.62100220 130.56599426 417.50000000 -0.000978 -0.000978 0.999999 0.000000
119.62899780 138.77000427 457.50000000 0.000978 0.000978 0.999999 0.000000
62.20700073 134.66799927 287.50000000 0.000978 0.000978 -0.999999 0.000000
138.77000427 77.92970276 442.50000000 0.000978 0.000978 0.999999 0.000000
203.71099854 79.29689789 412.50000000 0.000978 0.000978 0.999999 0.000000
158.59399414 120.31199646 397.50000000 -0.251733 -0.388771 0.886278 0.000000
166.11300659 102.53900146 402.50000000 0.000978 0.000978 0.999999 0.000000
182.52000427 99.80470276 442.50000000 0.000978 0.000978 0.999999 0.000000
111.08399963 198.92599487 385.00000000 0.443570 0.154599 -0.882805 0.000000
213.96499634 112.79299927 427.50000000 0.548503 -0.153105 0.822012 0.000000
174.31599426 141.50399780 437.50000000 0.781390 -0.259415 0.567569 0.000000
205.07800293 131.25000000 432.50000000 0.209960 0.106866 0.971852 0.000000
136.71899414 208.83799744 425.00000000 0.733751 0.374229 0.567064 0.000000
86.81639862 223.53500366 367.50000000 -0.000978 -0.000978 -0.999999 0.000000
55.37110138 240.96699524 390.00000000 -0.703874 0.703874 0.095515 0.000000
133.30099487 69.04299927 442.50000000 0.052099 -0.214454 0.975344 0.000000
80.66410065 149.02299500 312.50000000 0.745326 0.532376 -0.401329 0.000000
126.46499634 142.87100220 457.50000000 0.000978 0.000978 0.999999 0.000000
151.75799561 151.75799561 392.50000000 0.237568 0.455466 -0.857970 0.000000
170.89799500 104.58999634 442.50000000 0.000978 0.000978 0.999999 0.000000
37.59769821 155.85899353 452.50000000 -0.780675 -0.151923 0.606189 0.000000
87.50000000 249.51199341 367.50000000 0.196249 0.730911 -0.653648 0.000000
199.60899353 115.52700043 437.50000000 0.000978 0.000978 0.999999 0.000000
115.86900330 99.80470276 410.00000000 0.829276 -0.556136 0.054910 0.000000
45.11719894 192.77299500 452.50000000 -0.921840 -0.116776 0.369560 0.000000
62.20700073 233.10499573 352.50000000 -0.781204 0.141901 -0.607935 0.000000
99.12110138 253.61300659 392.50000000 0.493754 0.863713 -0.101027 0.000000
123.73000336 208.83799744 395.00000000 0.617442 0.082422 -0.782286 0.000000
146.97300720 84.76560211 447.50000000 0.000978 0.000978 0.999999 0.000000
116.89499664 116.21099854 402.50000000 0.047201 0.307443 -0.950395 0.000000
20.84959984 166.11300659 400.00000000 -0.971712 -0.107128 0.210475 0.000000
142.87100220 90.91799927 397.50000000 -0.000978 -0.000978 -0.999999 0.000000
218.40800476 110.05899811 415.00000000 -0.727953 0.073808 0.681642 0.000000
38.62300110 139.45300293 320.00000000 -0.991828 -0.060214 -0.112475 0.000000
92.96880341 213.28100586 372.50000000 0.607267 0.376868 -0.699427 0.000000
36.23049927 148.33999634 322.50000000 -0.958355 -0.132413 -0.253027 0.000000
111.42600250 91.60160065 417.50000000 -0.720508 0.671556 0.172861 0.000000
207.12899780 110.05899811 432.50000000 0.439075 -0.196623 0.876671 0.000000
92.96880341 66.30860138 427.50000000 0.000978 0.000978 0.999999 0.000000
128.51600647 166.79699707 382.50000000 0.162389 0.657145 -0.736064 0.000000
84.76560211 171.58200073 467.50000000 0.000978 0.000978 0.999999 0.000000
92.28520203 167.47999573 347.50000000 0.854001 0.293899 -0.429309 0.000000
46.14260101 91.60160065 380.00000000 -0.833928 -0.476752 -0.277976 0.000000
118.94499969 171.58200073 382.50000000 -0.471702 0.426001 -0.772024 0.000000
36.91410065 127.14800262 337.50000000 -0.933087 -0.310102 -0.182168 0.000000
140.82000732 195.50799561 407.50000000 0.900294 0.017186 -0.434944 0.000000
77.24610138 229.34599304 435.00000000 -0.226399 0.901212 0.369541 0.000000
130.56599426 145.60499573 457.50000000 0.000978 0.000978 0.999999 0.000000
156.54299927 144.92199707 387.50000000 -0.553097 -0.096756 -0.827479 0.000000
64.25779724 118.94499969 457.50000000 -0.006195 -0.311013 0.950386 0.000000
181.83599854 144.23800659 432.50000000 -0.000978 -0.000978 0.999999 0.000000
73.48629761 182.52000427 320.00000000 0.647974 0.255071 -0.717683 0.000000
158.59399414 155.17599487 432.50000000 0.343283 0.803122 0.486983 0.000000
79.98049927 229.68800354 357.50000000 -0.000978 -0.000978 -0.999999 0.000000
35.20510101 207.81199646 365.00000000 -0.727605 0.615172 -0.303570 0.000000
133.30099487 190.72300720 442.50000000 0.354729 0.714362 0.603203 0.000000
74.16989899 192.77299500 335.00000000 0.838906 0.503343 -0.207081 0.000000
150.39100647 48.19340134 410.00000000 0.164805 -0.932048 0.322685 0.000000
84.08200073 164.06199646 467.50000000 0.000978 0.000978 0.999999 0.000000
146.97300720 139.45300293 452.50000000 0.000978 0.000978 0.999999 0.000000
133.30099487 153.12500000 457.50000000 0.337209 0.289673 0.895757 0.000000
148.33999634 64.94139862 442.50000000 -0.948097 -0.315182 -0.042109 0.000000
66.30860138 149.02299500 467.50000000 0.000978 0.000978 0.999999 0.000000
87.50000000 136.03500366 462.50000000 0.000978 0.000978 0.999999 0.000000
218.40800476 107.32399750 415.00000000 0.877993 -0.476547 -0.045060 0.000000
38.96480179 173.63299561 457.50000000 -0.659519 -0.449141 0.602750 0.000000
55.37110138 209.17999268 452.50000000 0.000978 0.000978 0.999999 0.000000
164.06199646 59.47269821 402.50000000 -0.225929 -0.360028 0.905172 0.000000
97.75389862 92.96880341 447.50000000 0.000978 0.000978 0.999999 0.000000
42.72460175 199.60899353 335.00000000 -0.704676 0.518095 -0.484777 0.000000
43.75000000 136.03500366 302.50000000 -0.947390 -0.104385 -0.302583 0.000000
47.16799927 144.92199707 462.50000000 -0.990809 0.001100 -0.135260 0.000000
163.37899780 83.39839935 447.50000000 0.000978 0.000978 0.999999 0.000000
116.89499664 101.85500336 412.50000000 0.883921 -0.464572 0.053446 0.000000
138.08599854 100.48799896 447.50000000 0.000978 0.000978 0.999999 0.000000
45.45899963 105.95700073 335.00000000 -0.732745 -0.610888 -0.299832 0.000000
191.40600586 60.15620041 412.50000000 0.000978 0.000978 0.999999 0.000000
50.92770004 84.76560211 395.00000000 -0.800486 -0.589754 0.106829 0.000000
79.29689789 122.36299896 462.50000000 0.000978 0.000978 0.999999 0.000000
60.83980179 241.30900574 372.50000000 -0.371146 0.885040 -0.280989 0.000000
56.05469894 96.72850037 330.00000000 -0.564985 -0.688315 -0.454988 0.000000
84.76560211 116.21099854 397.50000000 0.300989 -0.339923 -0.890987 0.000000
64.25779724 137.40199280 287.50000000 0.746893 -0.561390 -0.356361 0.000000
166.11300659 137.74400330 390.00000000 0.304269 -0.935037 -0.182006 0.000000
103.90599823 139.45300293 372.50000000 0.592856 -0.788966 -0.161414 0.000000
120.99600220 88.18360138 447.50000000 0.000978 0.000978 0.999999 0.000000
34.86330032 126.46499634 447.50000000 -0.415896 -0.019680 0.909199 0.000000
101.17199707 91.94339752 395.00000000 0.857799 -0.267584 -0.438838 0.000000
34.52149963 109.37500000 395.00000000 -0.630540 -0.001374 -0.776155 0.000000
166.79699707 156.54299927 387.50000000 -0.315991 0.669254 -0.672495 0.000000
83.74019623 142.87100220 320.00000000 0.808421 -0.163484 -0.565445 0.000000
59.47269821 212.59800720 452.50000000 0.173706 0.176279 0.968892 0.000000
103.22299957 96.38670349 447.50000000 0.000978 0.000978 0.999999 0.000000
34.17969894 125.09799957 352.50000000 -0.925412 -0.331007 -0.184519 0.000000
166.79699707 160.64500427 392.50000000 -0.189938 0.563737 -0.803819 0.000000
42.72460175 207.12899780 445.00000000 -0.714318 0.613435 0.336820 0.000000
113.47699738 173.63299561 457.50000000 0.678915 0.678915 0.279553 0.000000
68.35939789 179.78500366 467.50000000 0.000978 0.000978 0.999999 0.000000
71.77729797 163.37899780 467.50000000 0.000978 0.000978 0.999999 0.000000
166.11300659 155.17599487 387.50000000 -0.315991 0.669254 -0.672495 0.000000
118.26200104 179.78500366 382.50000000 0.799488 0.299214 -0.520855 0.000000
84.08200073 256.00601196 390.00000000 -0.381222 0.891496 0.244754 0.000000
73.14450073 194.48199463 335.00000000 0.838906 0.503343 -0.207081 0.000000
84.76560211 101.85500336 452.50000000 -0.549469 0.275522 0.788779 0.000000
197.55900574 75.19529724 432.50000000 0.742667 -0.619677 0.253863 0.000000
66.99220276 240.28300476 415.00000000 -0.289516 0.724590 0.625419 0.000000
207.12899780 116.89499664 417.50000000 0.000978 0.000978 0.999999 0.000000
87.50000000 233.10499573 432.50000000 0.050231 0.894652 0.443932 0.000000
95.01950073 119.62899780 462.50000000 0.000978 0.000978 0.999999 0.000000
102.53900146 66.30860138 437.50000000 0.000978 0.000978 0.999999 0.000000
166.11300659 142.18800354 417.50000000 -0.012470 -0.622109 -0.782832 0.000000
167.47999573 158.59399414 422.50000000 -0.152930 0.326526 0.932734 0.000000
156.54299927 137.40199280 417.50000000 0.362787 -0.687818 0.628722 0.000000
97.07029724 120.31199646 462.50000000 0.371772 -0.715702 0.591232 0.000000
121.68000031 174.31599426 382.50000000 -0.474747 0.448463 -0.757295 0.000000
67.67579651 159.96099854 467.50000000 0.000978 0.000978 0.999999 0.000000
84.08200073 58.78910065 412.50000000 -0.381697 -0.840361 0.384838 0.000000
125.09799957 154.49200439 457.50000000 0.000978 0.000978 0.999999 0.000000
99.12110138 170.21499634 357.50000000 0.884258 0.293748 -0.363043 0.000000
24.26759911 193.45700073 390.00000000 -0.786915 0.525142 -0.324024 0.000000
117.57800293 131.25000000 457.50000000 0.000978 0.000978 0.999999 0.000000
21.53319931 159.96099854 400.00000000 -0.000978 -0.000978 0.999999 0.000000
173.63299561 99.12110138 402.50000000 0.632925 -0.761605 0.139154 0.000000
101.17199707 233.10499573 377.50000000 0.755705 0.041117 -0.653621 0.000000
149.70700073 80.66410065 442.50000000 -0.068715 -0.506251 0.859644 0.000000
127.14800262 163.03700256 455.00000000 0.501148 0.347441 0.792550 0.000000
205.07800293 118.26200104 432.50000000 0.000978 0.000978 0.999999 0.000000
93.65229797 227.97900391 435.00000000 0.636378 0.636378 0.435944 0.000000
51.26950073 83.05660248 390.00000000 -0.805157 -0.575962 0.141386 0.000000
90.91799927 99.12110138 397.50000000 -0.000978 -0.000978 -0.999999 0.000000
215.33200073 88.18360138 422.50000000 0.000000 0.000000 0.000000 0.000000
89.55079651 252.92999268 372.50000000 -0.000978 -0.000978 -0.999999 0.000000
25.97660065 171.58200073 367.50000000 -0.866239 0.423259 -0.265485 0.000000
183.88699341 125.78099823 437.50000000 0.000978 0.000978 0.999999 0.000000
24.95120049 171.58200073 370.00000000 -0.925729 0.001273 -0.378186 0.000000
80.66410065 245.75199890 410.00000000 -0.149027 0.965438 0.213822 0.000000
42.04100037 216.01600647 360.00000000 -0.764258 0.625027 -0.158905 0.000000
105.61499786 176.36700439 370.00000000 0.754668 0.316993 -0.574449 0.000000
117.57800293 127.14800262 407.50000000 0.496736 0.325338 -0.804617 0.000000
122.02100372 62.20700073 400.00000000 -0.508478 0.410379 -0.756994 0.000000
155.17599487 95.01950073 397.50000000 0.232447 -0.086696 -0.968737 0.000000
36.91410065 127.83200073 447.50000000 -0.415896 -0.019680 0.909199 0.000000
164.74600220 120.99600220 402.50000000 0.000978 0.000978 0.999999 0.000000
184.57000732 112.79299927 442.50000000 0.000978 0.000978 0.999999 0.000000
28.02729988 146.97300720 357.50000000 -0.993320 -0.057372 -0.100119 0.000000
82.71479797 81.00589752 390.00000000 0.250002 0.608494 -0.753149 0.000000
140.82000732 60.83980179 397.50000000 0.591008 0.001365 0.806665 0.000000
175.00000000 62.20700073 437.50000000 0.000978 0.000978 0.999999 0.000000
92.28520203 89.89260101 445.00000000 -0.888595 -0.385504 0.248568 0.000000
129.19900513 196.87500000 397.50000000 0.298351 0.260877 -0.918112 0.000000
110.74199677 238.57400513 417.50000000 -0.000978 -0.000978 0.999999 0.000000
96.04489899 84.08200073 395.00000000 0.606611 -0.452869 -0.653401 0.000000
39.64839935 160.64500427 317.50000000 -0.849608 0.113954 -0.514957 0.000000
79.98049927 57.08010101 400.00000000 -0.162748 -0.982516 0.090416 0.000000
186.62100220 64.94139862 432.50000000 -0.000978 -0.000978 0.999999 0.000000
57.42190170 82.71479797 372.50000000 -0.577363 -0.674427 -0.460217 0.000000
88.86720276 179.78500366 467.50000000 0.000978 0.000978 0.999999 0.000000
118.26200104 232.42199707 392.50000000 0.300096 0.107083 -0.947880 0.000000
76.56250000 120.31199646 462.50000000 0.000978 0.000978 0.999999 0.000000
131.93400574 146.97300720 457.50000000 0.000978 0.000978 0.999999 0.000000
142.18800354 47.50979996 410.00000000 0.098132 -0.934272 0.342791 0.000000
91.60160065 78.61329651 437.50000000 0.000978 0.000978 0.999999 0.000000
59.81449890 241.30900574 375.00000000 -0.241063 0.965527 -0.098211 0.000000
103.22299957 250.87899780 387.50000000 0.541951 0.831187 -0.124167 0.000000
60.15620041 98.43750000 447.50000000 0.000978 0.000978 0.999999 0.000000
56.05469894 140.82000732 287.50000000 -0.826205 0.159286 -0.540383 0.000000
208.83799744 86.13279724 430.00000000 0.895757 0.437527 -0.078672 0.000000
135.35200500 173.63299561 397.50000000 0.549897 0.189359 -0.813484 0.000000
29.73629951 120.31199646 420.00000000 -0.929066 -0.347199 0.127627 0.000000
99.12110138 136.03500366 387.50000000 0.964929 -0.001199 0.262509 0.000000
120.99600220 166.79699707 457.50000000 -0.000978 -0.000978 0.999999 0.000000
129.19900513 201.66000366 437.50000000 0.779995 0.258952 0.569694 0.000000
40.33200073 152.44099426 457.50000000 -0.434793 -0.790386 0.431561 0.000000
156.54299927 100.48799896 447.50000000 0.000978 0.000978 0.999999 0.000000
194.82400513 118.94499969 417.50000000 0.242814 -0.970072 -0.001184 0.000000
54.00389862 210.54699707 452.50000000 -0.000978 -0.000978 0.999999 0.000000
88.18360138 70.41020203 432.50000000 -0.150074 -0.818720 0.554234 0.000000
80.66410065 217.38299561 447.50000000 0.390843 0.687685 0.611826 0.000000
73.14450073 72.46089935 382.50000000 0.000978 0.000978 0.999999 0.000000
48.53519821 115.52700043 452.50000000 -0.287314 -0.569865 0.769873 0.000000
95.01950073 116.89499664 397.50000000 0.000978 0.000978 -0.999999 0.000000
168.16400146 88.18360138 447.50000000 0.000978 0.000978 0.999999 0.000000
105.27300262 114.84400177 397.50000000 -0.101524 0.172469 -0.979769 0.000000
60.83980179 139.45300293 462.50000000 0.051933 -0.206524 0.977062 0.000000
127.14800262 123.73000336 452.50000000 0.000978 0.000978 0.999999 0.000000
83.39839935 174.31599426 467.50000000 0.000978 0.000978 0.999999 0.000000
145.94700623 183.20300293 415.00000000 0.860051 0.098414 -0.500627 0.000000
175.68400574 125.78099823 407.50000000 0.000978 0.000978 0.999999 0.000000
112.79299927 107.32399750 397.50000000 0.468697 -0.458830 -0.754849 0.000000
169.53100586 87.50000000 447.50000000 0.000978 0.000978 0.999999 0.000000
152.44099426 99.80470276 397.50000000 -0.000978 -0.000978 -0.999999 0.000000
95.70310211 129.19900513 377.50000000 0.758822 -0.620294 0.198556 0.000000
123.04699707 164.74600220 377.50000000 -0.000978 -0.000978 -0.999999 0.000000
215.33200073 103.22299957 412.50000000 0.956894 -0.240219 0.163243 0.000000
133.98399353 193.45700073 402.50000000 0.296414 0.175091 -0.938873 0.000000
111.76799774 191.40600586 455.00000000 0.502799 0.272414 0.820356 0.000000
172.94900513 137.40199280 437.50000000 0.000978 0.000978 0.999999 0.000000
103.22299957 225.58599854 432.50000000 0.001317 0.462431 0.886654 0.000000
123.04699707 82.03119659 402.50000000 -0.000978 -0.000978 -0.999999 0.000000
26.66020012 177.05099487 362.50000000 -0.985881 0.113526 -0.123086 0.000000
157.91000366 140.13699341 447.50000000 0.000978 0.000978 0.999999 0.000000
35.20510101 118.26200104 365.00000000 -0.913200 -0.405423 0.041207 0.000000
146.97300720 123.73000336 452.50000000 0.000978 0.000978 0.999999 0.000000
200.97700500 133.98399353 432.50000000 0.000978 0.000978 0.999999 0.000000
77.92970276 133.30099487 462.50000000 0.000978 0.000978 0.999999 0.000000
108.00800323 142.87100220 462.50000000 0.000978 0.000978 0.999999 0.000000
60.15620041 102.53900146 452.50000000 -0.062031 0.976678 -0.205552 0.000000
84.76560211 129.88299561 462.50000000 0.000978 0.000978 0.999999 0.000000
22.55859947 153.12500000 402.50000000 -0.990034 -0.123322 0.068000 0.000000
101.17199707 219.43400574 442.50000000 0.396006 0.389695 0.831455 0.000000
34.86330032 215.33200073 412.50000000 -0.671827 0.723389 0.159237 0.000000
162.01199341 137.06100464 390.00000000 0.125332 -0.942008 -0.311307 0.000000
86.13279724 164.74600220 467.50000000 0.000978 0.000978 0.999999 0.000000
181.15199280 93.65229797 442.50000000 0.133911 0.068702 0.988609 0.000000
97.75389862 251.56199646 397.50000000 0.000978 0.000978 0.999999 0.000000
125.78099823 91.60160065 417.50000000 -0.724783 -0.107758 -0.680499 0.000000
112.79299927 129.19900513 407.50000000 0.128834 0.496518 -0.858412 0.000000
54.34569931 142.87100220 290.00000000 -0.666909 0.427421 -0.610363 0.000000
90.91799927 69.72660065 432.50000000 -0.194700 -0.783401 0.590233 0.000000
152.10000610 131.25000000 415.00000000 0.106749 -0.476814 0.872498 0.000000
172.94900513 78.61329651 407.50000000 0.000978 0.000978 0.999999 0.000000
170.21499634 108.00800323 402.50000000 -0.240899 0.040354 0.969711 0.000000
169.53100586 135.35200500 442.50000000 0.000978 0.000978 0.999999 0.000000
140.13699341 133.64300537 455.00000000 0.686426 -0.230903 0.689567 0.000000
41.69919968 153.12500000 312.50000000 -0.964314 -0.043326 -0.261194 0.000000
128.51600647 75.87889862 402.50000000 -0.000978 -0.000978 -0.999999 0.000000
203.02699280 77.92970276 412.50000000 0.000978 0.000978 0.999999 0.000000
30.07810020 169.53100586 447.50000000 -0.698043 0.038230 0.715034 0.000000
179.78500366 112.79299927 407.50000000 0.000978 0.000978 0.999999 0.000000
143.55499268 180.46899414 407.50000000 0.548438 -0.051898 -0.834579 0.000000
131.93400574 166.79699707 382.50000000 0.399966 0.368596 -0.839145 0.000000
172.26600647 47.50979996 405.00000000 0.788411 -0.614145 0.035134 0.000000
92.96880341 176.36700439 467.50000000 0.000978 0.000978 0.999999 0.000000
92.96880341 241.30900574 417.50000000 -0.287450 0.776591 0.560606 0.000000
90.91799927 59.81449890 420.00000000 0.263773 -0.925344 0.272328 0.000000
73.48629761 202.34399414 460.00000000 0.532898 -0.532898 0.657297 0.000000
187.30499268 117.57800293 442.50000000 0.478716 0.733811 0.482029 0.000000
183.88699341 88.18360138 407.50000000 -0.375314 0.088070 0.922704 0.000000
105.27300262 187.64599609 460.00000000 0.838957 0.148918 0.523426 0.000000
127.14800262 64.25779724 437.50000000 0.000978 0.000978 0.999999 0.000000
29.73629951 179.78500366 445.00000000 -0.485427 0.445934 0.752000 0.000000
120.31199646 61.52339935 402.50000000 -0.508478 0.410379 -0.756994 0.000000
113.47699738 106.64099884 452.50000000 0.080455 -0.407730 0.909551 0.000000
86.81639862 137.40199280 462.50000000 0.658440 -0.438405 0.611766 0.000000
175.00000000 141.50399780 387.50000000 0.257673 0.249225 -0.933537 0.000000
105.95700073 249.51199341 397.50000000 0.193885 0.971959 0.133058 0.000000
48.53519821 188.67199707 317.50000000 -0.000978 -0.000978 -0.999999 0.000000
99.46289825 146.97300720 400.00000000 0.907922 -0.303619 -0.288951 0.000000
78.61329651 178.41799927 467.50000000 0.000978 0.000978 0.999999 0.000000
38.28120041 179.78500366 327.50000000 -0.839995 -0.420780 -0.342568 0.000000
108.69100189 213.96499634 442.50000000 0.657910 -0.209971 0.723234 0.000000
37.59769821 216.69900513 377.50000000 -0.811293 0.540349 -0.223221 0.000000
182.52000427 77.24610138 442.50000000 0.401345 -0.401345 0.823313 0.000000
46.48440170 168.84800720 462.50000000 0.000978 0.000978 0.999999 0.000000
54.68750000 165.42999268 467.50000000 0.000978 0.000978 0.999999 0.000000
51.26950073 229.68800354 417.50000000 -0.618556 0.784819 0.038043 0.000000
137.40199280 211.22999573 422.50000000 0.733751 0.374229 0.567064 0.000000
60.83980179 205.76199341 457.50000000 0.000978 0.000978 0.999999 0.000000
181.15199280 71.09380341 407.50000000 0.000978 0.000978 0.999999 0.000000
95.70310211 199.60899353 372.50000000 0.157891 0.273948 -0.948696 0.000000
112.10900116 142.87100220 457.50000000 0.000978 0.000978 0.999999 0.000000
103.90599823 250.87899780 392.50000000 0.707745 0.701932 0.079930 0.000000
77.24610138 216.01600647 452.50000000 0.293234 0.839363 0.457693 0.000000
210.54699707 111.42600250 432.50000000 -0.340028 0.765465 0.546300 0.000000
66.30860138 133.98399353 462.50000000 0.000978 0.000978 0.999999 0.000000
191.06399536 112.79299927 440.00000000 0.884060 0.240023 0.401032 0.000000
103.90599823 123.73000336 457.50000000 0.492141 -0.699006 -0.518833 0.000000
184.57000732 86.81639862 442.50000000 0.000978 0.000978 0.999999 0.000000
140.82000732 201.66000366 427.50000000 0.000978 0.000978 0.999999 0.000000
27.34379959 157.22700500 442.50000000 -0.944584 0.326727 -0.031783 0.000000
65.62500000 201.66000366 457.50000000 0.000978 0.000978 0.999999 0.000000
203.71099854 95.70310211 432.50000000 0.000978 0.000978 0.999999 0.000000
25.97660065 154.49200439 442.50000000 -0.957847 0.275686 0.080782 0.000000
43.75000000 199.60899353 332.50000000 -0.652226 0.544365 -0.527511 0.000000
31.44529915 200.29299927 367.50000000 -0.001201 0.964763 0.263117 0.000000
141.50399780 100.48799896 447.50000000 0.000978 0.000978 0.999999 0.000000
44.43360138 208.83799744 445.00000000 -0.681355 0.642141 0.351298 0.000000
32.47069931 201.66000366 430.00000000 -0.925722 0.294354 0.237474 0.000000
125.09799957 218.75000000 427.50000000 0.000978 0.000978 0.999999 0.000000
75.19529724 88.18360138 392.50000000 -0.000978 -0.000978 -0.999999 0.000000
173.63299561 141.50399780 387.50000000 -0.000978 -0.000978 -0.999999 0.000000
131.25000000 115.52700043 412.50000000 0.703840 -0.329976 0.629067 0.000000
92.96880341 71.77729797 437.50000000 -0.283517 -0.774523 0.565449 0.000000
105.95700073 138.77000427 462.50000000 0.496525 -0.307373 0.811779 0.000000
78.95510101 222.16799927 355.00000000 0.627890 0.247065 -0.738047 0.000000
101.85500336 90.91799927 397.50000000 -0.001280 -0.390517 -0.920595 0.000000
140.82000732 203.71099854 412.50000000 0.000978 0.000978 -0.999999 0.000000
184.57000732 58.10549927 407.50000000 0.000978 0.000978 0.999999 0.000000
121.68000031 152.44099426 377.50000000 0.342390 -0.931681 -0.121405 0.000000
45.11719894 100.48799896 342.50000000 -0.887602 -0.444511 -0.120714 0.000000
171.58200073 77.24610138 407.50000000 -0.000978 -0.000978 0.999999 0.000000
65.62500000 172.94900513 467.50000000 0.000978 0.000978 0.999999 0.000000
91.60160065 159.96099854 467.50000000 0.000978 0.000978 0.999999 0.000000
60.83980179 95.01950073 447.50000000 0.000978 0.000978 0.999999 0.000000
80.66410065 206.44500732 352.50000000 0.756551 0.168968 -0.631728 0.000000
64.94139862 96.38670349 447.50000000 -0.062013 -0.354926 0.932835 0.000000
32.47069931 198.24200439 440.00000000 -0.623866 0.373661 0.686417 0.000000
48.87699890 213.28100586 340.00000000 -0.532898 0.532898 -0.657297 0.000000
170.21499634 110.74199677 442.50000000 0.000978 0.000978 0.999999 0.000000
181.15199280 88.86720276 442.50000000 0.184487 -0.107721 0.976914 0.000000
129.88299561 106.64099884 407.50000000 -0.000978 -0.000978 -0.999999 0.000000
151.07400513 75.87889862 402.50000000 0.000978 0.000978 0.999999 0.000000
150.39100647 112.79299927 447.50000000 0.000978 0.000978 0.999999 0.000000
47.16799927 157.91000366 462.50000000 0.000978 0.000978 0.999999 0.000000
