121.68000031 218.06599426 371.00000000 -0.330699 -0.559768 -0.759801 0.000000
162.01199341 141.50399780 327.00000000 -0.001378 -0.767655 0.640861 0.000000
68.35939789 138.42799377 322.00000000 0.784789 0.585136 0.204260 0.000000
149.02299500 138.08599854 389.00000000 -0.240291 0.837191 -0.491295 0.000000
56.73830032 160.30299377 312.00000000 0.883830 0.442636 0.151390 0.000000
161.32800293 168.50599670 376.00000000 -0.285077 -0.759675 -0.584488 0.000000
125.09799957 220.80099487 365.00000000 -0.399535 -0.651525 -0.644893 0.000000
49.21879959 170.55700684 354.00000000 0.982447 0.183843 -0.031616 0.000000
136.71899414 224.90199280 327.00000000 -0.723722 -0.552271 0.413791 0.000000
69.38480377 132.61700439 336.00000000 0.843867 0.507511 0.174131 0.000000
64.59960175 136.03500366 350.00000000 0.883830 0.442636 0.151390 0.000000
145.60499573 169.87300110 324.00000000 -0.883830 0.442636 -0.151390 0.000000
101.85500336 156.54299927 405.00000000 0.021277 0.311647 -0.949960 0.000000
47.85160065 188.67199707 339.00000000 0.991553 -0.090558 0.092851 0.000000
65.62500000 221.48399353 363.00000000 0.654903 -0.591255 -0.470659 0.000000
105.95700073 194.14100647 393.00000000 -0.128200 -0.314428 -0.940585 0.000000
117.57800293 222.16799927 303.00000000 -0.584701 -0.332032 0.740189 0.000000
81.34770203 135.35200500 393.00000000 0.656000 0.146280 -0.740450 0.000000
100.14600372 110.05899811 328.00000000 0.358104 0.873164 -0.330675 0.000000
231.05499268 138.77000427 361.00000000 -0.673620 -0.535873 0.508995 0.000000
121.68000031 200.29299927 297.00000000 -0.500586 -0.293447 0.814434 0.000000
71.77729797 168.84800720 391.00000000 0.496922 0.031313 -0.867230 0.000000
69.04299927 157.91000366 255.00000000 -0.125165 -0.085393 0.988454 0.000000
63.91600037 139.45300293 342.00000000 0.884816 0.451610 0.114672 0.000000
133.98399353 125.09799957 301.00000000 -0.012523 -0.658157 0.752776 0.000000
111.76799774 231.05499268 302.00000000 -0.569104 -0.656400 0.495238 0.000000
184.57000732 170.55700684 354.00000000 -0.423392 -0.904581 -0.049732 0.000000
163.37899780 99.46289825 348.00000000 -0.194297 0.971486 -0.135881 0.000000
68.01760101 200.97700500 382.00000000 0.614946 -0.467493 -0.635053 0.000000
216.01600647 130.90800476 336.00000000 -0.727137 -0.442245 0.525063 0.000000
132.61700439 200.29299927 307.00000000 -0.806782 -0.298399 0.509962 0.000000
54.68750000 159.96099854 371.00000000 0.827586 0.295678 -0.477153 0.000000
136.71899414 195.50799561 309.00000000 -0.772736 -0.377458 0.510298 0.000000
115.52700043 224.90199280 303.00000000 -0.597144 -0.449949 0.664051 0.000000
150.39100647 194.14100647 367.00000000 -0.638206 -0.399500 -0.658098 0.000000
104.58999634 112.79299927 295.00000000 0.675923 0.669471 0.308118 0.000000
154.49200439 162.01199341 387.00000000 -0.435550 -0.605765 -0.665841 0.000000
203.02699280 115.86900330 300.00000000 -0.277976 -0.833928 0.476752 0.000000
139.45300293 116.89499664 293.00000000 -0.001240 -0.946173 0.323658 0.000000
82.71479797 185.93800354 395.00000000 0.256324 -0.085441 -0.962807 0.000000
169.53100586 165.42999268 377.00000000 -0.294199 -0.813373 -0.501868 0.000000
223.53500366 98.09570313 348.00000000 -0.000978 0.999999 -0.000978 0.000000
104.58999634 210.88900757 382.00000000 -0.046263 -0.562168 -0.825728 0.000000
142.87100220 210.88900757 326.00000000 -0.745285 -0.328184 0.580384 0.000000
109.37500000 131.93400574 399.00000000 -0.089304 0.692472 -0.715896 0.000000
73.82810211 133.98399353 381.00000000 0.769967 0.449556 -0.452825 0.000000
93.99410248 131.25000000 396.00000000 0.200743 0.450556 -0.869886 0.000000
229.68800354 151.41600037 370.00000000 -0.554014 -0.740320 0.380782 0.000000
115.52700043 132.27499390 290.00000000 -0.756498 0.113993 0.643985 0.000000
133.30099487 130.56599426 391.00000000 -0.422882 0.138113 -0.895598 0.000000
142.18800354 103.90599823 371.00000000 -0.035099 0.793230 -0.607909 0.000000
175.00000000 151.75799561 383.00000000 -0.071703 -0.252847 -0.964845 0.000000
84.76560211 219.43400574 279.00000000 0.238041 -0.570987 0.785691 0.000000
55.02930069 151.07400513 358.00000000 0.883267 0.420252 -0.207914 0.000000
125.09799957 183.88699341 293.00000000 -0.433339 -0.291463 0.852799 0.000000
229.68800354 141.50399780 361.00000000 -0.800627 -0.423672 0.423672 0.000000
89.55079651 128.51600647 393.00000000 0.434403 0.457180 -0.776067 0.000000
63.91600037 160.64500427 256.00000000 0.572058 0.445305 0.688805 0.000000
165.42999268 146.63099670 386.00000000 -0.353846 0.186160 -0.916590 0.000000
206.78700256 156.54299927 346.00000000 -0.637485 -0.600480 0.482739 0.000000
226.95300293 135.35200500 381.00000000 -0.331373 0.441308 -0.833930 0.000000
104.58999634 122.36299896 277.00000000 -0.543991 -0.048945 0.837662 0.000000
73.14450073 160.30299377 256.00000000 -0.494004 0.186557 0.849209 0.000000
133.98399353 162.01199341 395.00000000 -0.000978 -0.000978 -0.999999 0.000000
131.25000000 171.58200073 393.00000000 -0.385561 -0.221368 -0.895734 0.000000
64.25779724 219.43400574 315.00000000 0.741429 -0.600509 0.299454 0.000000
178.07600403 101.17199707 346.00000000 -0.094391 0.989361 -0.110706 0.000000
95.70310211 157.22700500 403.00000000 0.207103 0.104179 -0.972756 0.000000
119.62899780 189.35499573 391.00000000 -0.273120 -0.362668 -0.890998 0.000000
179.10200500 124.41400146 381.00000000 0.089174 0.107703 -0.990176 0.000000
188.67199707 134.32600403 318.00000000 -0.185817 -0.747873 0.637305 0.000000
114.16000366 113.13500214 286.00000000 -0.396648 0.781964 0.480835 0.000000
73.48629761 161.32800293 256.00000000 -0.672411 0.023864 0.739793 0.000000
85.10739899 122.36299896 384.00000000 0.634842 0.661362 -0.399470 0.000000
80.66410065 142.18800354 395.00000000 0.602751 0.413458 -0.682454 0.000000
77.24610138 236.86500549 346.00000000 0.711344 -0.354854 -0.606686 0.000000
73.14450073 234.13099670 348.00000000 0.583735 -0.806800 -0.091254 0.000000
96.38670349 149.70700073 403.00000000 -0.000978 -0.000978 -0.999999 0.000000
73.14450073 138.42799377 294.00000000 0.687410 0.687410 0.234380 0.000000
93.65229797 203.02699280 281.00000000 -0.786527 -0.018033 0.617292 0.000000
179.78500366 115.52700043 379.00000000 -0.610436 0.539416 -0.579999 0.000000
147.65600586 144.23800659 317.00000000 -0.422870 -0.708101 0.565486 0.000000
150.39100647 168.16400146 335.00000000 -0.731555 -0.004149 0.681770 0.000000
152.10000610 192.77299500 350.00000000 -0.998151 -0.049749 0.034930 0.000000
212.59800720 158.93600464 356.00000000 -0.531610 -0.735696 0.419692 0.000000
150.73199463 198.92599487 350.00000000 -0.926036 -0.371747 -0.065289 0.000000
83.39839935 176.36700439 397.00000000 0.204819 -0.125945 -0.970663 0.000000
125.09799957 123.04699707 389.00000000 -0.161484 0.972717 -0.166570 0.000000
78.61329651 224.90199280 369.00000000 0.186244 -0.666477 -0.721888 0.000000
152.44099426 143.55499268 389.00000000 -0.000978 -0.000978 -0.999999 0.000000
190.38099670 148.33999634 382.00000000 -0.268360 -0.300273 -0.915325 0.000000
52.97850037 166.79699707 324.00000000 0.963404 0.218302 0.155556 0.000000
160.64500427 125.09799957 379.00000000 0.001238 0.320681 -0.947186 0.000000
193.45700073 132.61700439 383.00000000 -0.085441 0.256324 -0.962807 0.000000
66.99220276 152.44099426 279.00000000 0.897580 0.416784 0.143670 0.000000
55.02930069 173.63299561 302.00000000 0.966705 0.127097 0.222098 0.000000
86.13279724 184.91200256 396.00000000 0.108959 -0.556416 -0.823729 0.000000
161.32800293 151.07400513 389.00000000 -0.331112 0.114875 -0.936573 0.000000
86.47460175 118.26200104 322.00000000 0.502427 0.799098 0.330166 0.000000
72.46089935 164.06199646 255.00000000 -0.697972 0.095512 0.709727 0.000000
169.53100586 100.48799896 319.00000000 0.198256 0.904454 0.377700 0.000000
223.53500366 109.37500000 367.00000000 -0.222208 0.595143 -0.772288 0.000000
119.28700256 140.82000732 292.00000000 -0.682935 0.290850 0.670080 0.000000
141.50399780 98.77929688 360.00000000 0.022215 0.980963 -0.192919 0.000000
57.42190170 186.62100220 291.00000000 0.919484 -0.201003 0.337857 0.000000
196.87500000 123.73000336 381.00000000 0.176591 0.038593 -0.983527 0.000000
112.10900116 102.88099670 328.00000000 0.379982 0.924666 0.024640 0.000000
146.28900146 102.88099670 300.00000000 0.088243 0.973162 0.212530 0.000000
186.62100220 166.45500183 362.00000000 -0.609623 -0.743326 -0.275365 0.000000
99.80470276 190.03900146 283.00000000 -0.487130 -0.313718 0.815037 0.000000
71.09380341 231.05499268 355.00000000 0.603907 -0.711923 -0.358416 0.000000
185.93800354 148.33999634 383.00000000 -0.130759 -0.199313 -0.971173 0.000000
120.31199646 166.11300659 287.00000000 -0.830278 0.377974 0.409604 0.000000
88.86720276 168.84800720 271.00000000 -0.502778 -0.051247 0.862895 0.000000
123.73000336 195.50799561 387.00000000 -0.152818 -0.655151 -0.739881 0.000000
187.98800659 160.98599243 374.00000000 -0.156108 -0.868079 -0.471243 0.000000
140.13699341 191.74800110 312.00000000 -0.743109 -0.489365 0.456411 0.000000
209.86300659 143.55499268 379.00000000 -0.155497 -0.320626 -0.934355 0.000000
61.86520004 167.47999573 282.00000000 0.915674 0.388509 0.102962 0.000000
213.96499634 103.90599823 367.00000000 -0.273704 0.808600 -0.520819 0.000000
85.44920349 188.67199707 273.00000000 -0.719439 -0.431663 0.544127 0.000000
95.70310211 211.22999573 283.00000000 -0.656395 -0.130083 0.743117 0.000000
99.12110138 223.87699890 288.00000000 -0.512741 -0.459642 0.725139 0.000000
138.77000427 102.88099670 370.00000000 0.006789 0.840497 -0.541774 0.000000
170.89799500 100.83000183 350.00000000 -0.107153 0.987930 -0.111863 0.000000
73.14450073 166.79699707 255.00000000 -0.599762 0.055297 0.798265 0.000000
226.27000427 99.46289825 334.00000000 0.189482 0.731741 0.654715 0.000000
60.15620041 181.83599854 279.00000000 0.834871 0.277258 0.475520 0.000000
93.99410248 235.15600586 304.00000000 0.180331 -0.898771 0.399614 0.000000
94.33589935 226.95300293 369.00000000 0.156339 -0.681516 -0.714909 0.000000
174.31599426 161.66999817 378.00000000 -0.189331 -0.644958 -0.740394 0.000000
109.37500000 238.91600037 350.00000000 -0.202989 -0.807376 -0.554022 0.000000
198.92599487 157.22700500 339.00000000 -0.344077 -0.767309 0.541155 0.000000
104.58999634 130.56599426 279.00000000 -0.782539 -0.348688 0.515801 0.000000
76.90429688 237.89100647 330.00000000 0.481663 -0.866415 0.131626 0.000000
182.52000427 152.44099426 327.00000000 -0.221764 -0.032366 0.974563 0.000000
119.97100067 99.80470276 348.00000000 0.242814 0.970072 -0.001184 0.000000
56.39649963 155.17599487 328.00000000 0.894051 0.430783 0.122879 0.000000
125.09799957 98.77929688 324.00000000 0.126260 0.984828 0.119045 0.000000
184.57000732 127.48999786 382.00000000 0.181051 0.188866 -0.965169 0.000000
109.37500000 150.39100647 279.00000000 -0.513889 -0.074620 0.854605 0.000000
144.92199707 163.37899780 391.00000000 -0.251884 -0.456445 -0.853354 0.000000
175.34199524 99.12110138 326.00000000 -0.001127 0.985809 0.167869 0.000000
137.40199280 114.16000366 379.00000000 -0.082256 0.593107 -0.800911 0.000000
108.69100189 155.17599487 279.00000000 -0.844442 -0.111149 0.523987 0.000000
69.04299927 200.97700500 383.00000000 0.583859 -0.411844 -0.699638 0.000000
132.61700439 218.75000000 317.00000000 -0.806878 -0.271048 0.524862 0.000000
82.71479797 191.74800110 394.00000000 0.338284 -0.752641 -0.564885 0.000000
54.68750000 157.22700500 333.00000000 0.927399 0.356482 0.113364 0.000000
231.73800659 126.12300110 352.00000000 -0.599375 -0.191616 0.777195 0.000000
129.19900513 125.09799957 301.00000000 -0.120505 -0.659061 0.742373 0.000000
65.28320313 136.03500366 344.00000000 0.918266 0.393543 0.043727 0.000000
116.21099854 167.47999573 283.00000000 -0.658616 -0.206108 0.723702 0.000000
92.96880341 125.09799957 393.00000000 0.162162 0.531117 -0.831636 0.000000
57.42190170 210.54699707 315.00000000 0.850213 -0.465557 0.245753 0.000000
137.40199280 205.76199341 317.00000000 -0.867378 -0.336205 0.366909 0.000000
218.06599426 118.94499969 377.00000000 -0.244266 0.447569 -0.860242 0.000000
73.82810211 235.15600586 343.00000000 0.554263 -0.826330 -0.099854 0.000000
95.70310211 123.04699707 277.00000000 0.362340 0.917835 0.162137 0.000000
60.83980179 196.19099426 291.00000000 0.869999 -0.353198 0.344024 0.000000
62.89059830 170.89799500 255.00000000 0.446667 0.009223 0.894653 0.000000
131.25000000 200.97700500 305.00000000 -0.822393 -0.235189 0.518031 0.000000
229.00399780 149.70700073 377.00000000 0.374603 0.027220 -0.926786 0.000000
74.16989899 234.47300720 324.00000000 0.538328 -0.798859 0.268379 0.000000
234.47300720 121.68000031 353.00000000 -0.701624 -0.379567 0.603036 0.000000
83.05660248 128.51600647 292.00000000 0.858436 -0.001339 0.512919 0.000000
187.30499268 117.57800293 295.00000000 -0.196750 -0.848579 0.491124 0.000000
71.09380341 216.01600647 287.00000000 0.635314 -0.671618 0.381189 0.000000
86.81639862 236.18200684 358.00000000 0.269133 -0.782218 -0.561875 0.000000
68.35939789 213.28100586 287.00000000 0.722509 -0.584888 0.368627 0.000000
83.74019623 147.65600586 398.00000000 0.376760 -0.156631 -0.912973 0.000000
58.10549927 217.04100037 332.00000000 0.843867 -0.507511 0.174131 0.000000
187.30499268 141.50399780 325.00000000 -0.267255 -0.474261 0.838839 0.000000
90.91799927 119.97100067 308.00000000 0.542074 0.813875 0.209195 0.000000
94.67769623 121.68000031 286.00000000 0.540122 0.822972 0.176029 0.000000
190.03900146 100.14600372 328.00000000 -0.048843 0.998685 -0.015588 0.000000
60.49800110 170.89799500 286.00000000 0.980260 0.163172 0.111644 0.000000
67.33399963 146.97300720 292.00000000 0.815529 0.520385 0.253202 0.000000
197.55900574 100.83000183 342.00000000 0.055206 0.996948 -0.055206 0.000000
92.96880341 216.01600647 379.00000000 -0.020945 -0.654893 -0.755431 0.000000
209.86300659 134.66799927 331.00000000 0.157814 0.789072 0.593683 0.000000
148.33999634 141.16200256 314.00000000 -0.423752 -0.609871 0.669695 0.000000
175.00000000 171.92399597 344.00000000 0.330416 -0.659204 0.675481 0.000000
80.32230377 133.30099487 274.00000000 0.708486 0.705724 -0.001381 0.000000
182.52000427 117.57800293 379.00000000 -0.096782 0.267119 -0.958791 0.000000
138.08599854 196.87500000 313.00000000 -0.820837 -0.322978 0.471075 0.000000
112.79299927 149.70700073 281.00000000 -0.533872 0.083996 0.841383 0.000000
72.11910248 172.94900513 256.00000000 -0.784598 -0.228388 0.576407 0.000000
62.89059830 173.63299561 255.00000000 0.503678 0.158046 0.849311 0.000000
202.34399414 134.66799927 325.00000000 -0.625431 -0.500682 0.598459 0.000000
126.46499634 186.62100220 295.00000000 -0.515891 -0.249425 0.819539 0.000000
106.64099884 109.71700287 378.00000000 0.354847 0.685165 -0.636108 0.000000
128.51600647 117.91999817 384.00000000 -0.367538 0.775553 -0.513258 0.000000
101.85500336 181.15199280 397.00000000 0.003533 -0.227265 -0.973826 0.000000
122.02100372 194.14100647 388.00000000 -0.195806 -0.652173 -0.732346 0.000000
226.95300293 153.46699524 370.00000000 -0.544886 -0.835113 0.075402 0.000000
70.41020203 131.25000000 335.00000000 0.843867 0.507511 0.174131 0.000000
181.83599854 128.17399597 382.00000000 0.144772 0.258997 -0.954967 0.000000
90.23439789 133.98399353 397.00000000 0.340413 0.643364 -0.685712 0.000000
153.80900574 173.63299561 375.00000000 -0.562928 -0.653669 -0.505795 0.000000
140.82000732 205.07800293 321.00000000 -0.821406 -0.192115 0.537015 0.000000
153.12500000 110.74199677 377.00000000 -0.089542 0.507404 -0.857044 0.000000
62.89059830 175.00000000 255.00000000 0.699037 0.050033 0.713333 0.000000
87.15820313 237.89100647 316.00000000 0.316184 -0.881987 0.349467 0.000000
235.83999634 106.98200226 360.00000000 -0.557835 0.454594 -0.694380 0.000000
85.44920349 128.17399597 288.00000000 0.499636 0.835783 0.227663 0.000000
131.93400574 164.06199646 297.00000000 0.000978 0.000978 0.999999 0.000000
136.03500366 160.64500427 395.00000000 -0.000978 -0.000978 -0.999999 0.000000
61.18159866 140.82000732 360.00000000 0.858822 0.502760 0.098273 0.000000
108.00800323 105.27300262 321.00000000 0.486764 0.873508 0.006668 0.000000
95.01950073 152.44099426 273.00000000 -0.504922 0.012118 0.863080 0.000000
240.96699524 103.22299957 354.00000000 -0.885539 0.232881 0.401978 0.000000
123.73000336 131.93400574 395.00000000 -0.293899 0.429309 -0.854001 0.000000
66.30860138 146.97300720 295.00000000 0.865386 0.436469 0.246174 0.000000
221.48399353 98.77929688 340.00000000 0.003306 0.990764 0.135555 0.000000
144.58000183 220.80099487 340.00000000 -0.894252 -0.439501 -0.084573 0.000000
116.89499664 146.28900146 285.00000000 -0.820140 0.366446 0.439417 0.000000
197.55900574 118.94499969 301.00000000 -0.294485 -0.811014 0.505506 0.000000
119.62899780 231.05499268 309.00000000 -0.754231 -0.348731 0.556347 0.000000
61.18159866 168.16400146 284.00000000 0.958028 0.278630 0.067431 0.000000
142.87100220 125.09799957 303.00000000 -0.199243 -0.536892 0.819786 0.000000
168.50599670 102.53900146 314.00000000 0.327688 0.812096 0.482825 0.000000
105.95700073 243.70100403 322.00000000 -0.236559 -0.947603 0.214681 0.000000
83.39839935 123.04699707 315.00000000 0.622032 0.747378 0.233458 0.000000
112.79299927 197.55900574 389.00000000 -0.059238 -0.354111 -0.933326 0.000000
199.26800537 140.13699341 328.00000000 -0.278113 -0.411851 0.867774 0.000000
133.98399353 119.97100067 384.00000000 0.001381 0.697373 -0.716707 0.000000
181.15199280 140.13699341 383.00000000 -0.000978 -0.000978 -0.999999 0.000000
58.10549927 211.57200623 314.00000000 0.855648 -0.454420 0.247728 0.000000
86.13279724 113.47699738 373.00000000 0.782686 0.468316 -0.409979 0.000000
198.92599487 129.88299561 381.00000000 -0.099554 0.142734 -0.984742 0.000000
236.52299500 112.10900116 349.00000000 -0.641007 -0.460253 0.614229 0.000000
89.55079651 242.67599487 329.00000000 0.311837 -0.946037 0.088156 0.000000
172.26600647 124.41400146 307.00000000 0.367701 -0.737035 0.567076 0.000000
160.64500427 101.17199707 361.00000000 -0.095942 0.986666 -0.131476 0.000000
92.28520203 210.54699707 383.00000000 -0.067659 -0.637726 -0.767286 0.000000
151.75799561 195.85000610 362.00000000 -0.768255 -0.535353 -0.350971 0.000000
58.10549927 146.63099670 352.00000000 0.811578 0.578878 0.079003 0.000000
70.75199890 177.73399353 256.00000000 -0.701011 -0.146233 0.697996 0.000000
102.88099670 155.17599487 276.00000000 -0.297264 -0.079184 0.951506 0.000000
123.04699707 195.16600037 296.00000000 -0.508811 -0.429772 0.745927 0.000000
69.04299927 213.96499634 375.00000000 -0.360030 -0.360030 -0.860672 0.000000
151.07400513 119.28700256 302.00000000 -0.513143 -0.644373 0.566981 0.000000
75.87889862 222.50999451 370.00000000 0.359388 -0.674468 -0.644929 0.000000
116.89499664 197.55900574 293.00000000 -0.486983 -0.343283 0.803122 0.000000
108.69100189 194.14100647 289.00000000 -0.202835 -0.398373 0.894515 0.000000
101.85500336 163.37899780 275.00000000 -0.296667 -0.196385 0.934570 0.000000
215.67399597 140.13699341 344.00000000 -0.762263 -0.409696 0.501102 0.000000
223.87699890 148.33999634 360.00000000 -0.691395 -0.493853 0.527335 0.000000
153.80900574 159.96099854 335.00000000 -0.313167 -0.096461 0.944787 0.000000
91.94339752 119.62899780 306.00000000 0.570314 0.810290 0.134802 0.000000
88.86720276 126.12300110 284.00000000 0.547051 0.812195 0.202668 0.000000
57.76369858 151.75799561 372.00000000 0.813279 0.364464 -0.453590 0.000000
225.58599854 131.93400574 351.00000000 -0.574446 -0.396681 0.716000 0.000000
69.04299927 137.40199280 321.00000000 0.771134 0.609272 0.184767 0.000000
82.03119659 214.64799500 379.00000000 0.115665 -0.575396 -0.809655 0.000000
198.24200439 106.64099884 297.00000000 -0.046813 0.908174 0.415968 0.000000
169.53100586 160.64500427 333.00000000 0.570500 -0.331310 0.751508 0.000000
103.90599823 214.64799500 289.00000000 -0.608529 -0.012419 0.793434 0.000000
236.52299500 110.05899811 347.00000000 -0.649211 -0.432251 0.625846 0.000000
54.68750000 175.68400574 303.00000000 0.946173 0.001240 0.323658 0.000000
91.60160065 185.25399780 277.00000000 -0.531161 -0.267931 0.803792 0.000000
69.04299927 179.78500366 255.00000000 -0.667759 -0.286640 0.686975 0.000000
129.19900513 100.48799896 361.00000000 0.188179 0.966849 -0.172605 0.000000
105.95700073 214.64799500 291.00000000 -0.545437 -0.233317 0.805022 0.000000
99.12110138 217.04100037 378.00000000 -0.126611 -0.656888 -0.743282 0.000000
103.22299957 173.63299561 277.00000000 -0.314455 -0.314455 0.895676 0.000000
129.54100037 209.17999268 308.00000000 -0.680790 -0.226930 0.696440 0.000000
165.42999268 116.21099854 379.00000000 -0.240601 0.184147 -0.952996 0.000000
226.27000427 100.48799896 333.00000000 -0.463876 0.638039 0.614594 0.000000
69.72660065 180.46899414 255.00000000 -0.667759 -0.286640 0.686975 0.000000
213.28100586 100.48799896 321.00000000 0.064903 0.991760 0.110449 0.000000
220.80099487 114.84400177 321.00000000 -0.610776 -0.711758 0.346921 0.000000
123.04699707 177.73399353 291.00000000 -0.572809 0.572809 0.586327 0.000000
148.33999634 122.36299896 303.00000000 -0.343823 -0.537526 0.769969 0.000000
95.70310211 230.02900696 366.00000000 -0.067894 -0.677495 -0.732388 0.000000
106.64099884 186.62100220 395.00000000 -0.077658 -0.410088 -0.908734 0.000000
79.29689789 238.91600037 328.00000000 0.558334 -0.784813 0.268944 0.000000
88.18360138 175.00000000 397.00000000 -0.000978 -0.000978 -0.999999 0.000000
126.46499634 230.02900696 354.00000000 -0.524749 -0.639485 -0.561870 0.000000
188.33000183 167.47999573 356.00000000 -0.605937 -0.787865 -0.110037 0.000000
55.37110138 206.78700256 366.00000000 -0.152588 -0.831087 -0.534800 0.000000
137.74400330 211.91400146 320.00000000 -0.775338 -0.256349 0.577179 0.000000
79.29689789 148.33999634 395.00000000 0.653470 0.114098 -0.748304 0.000000
64.94139862 227.63699341 339.00000000 0.793166 -0.593759 -0.135419 0.000000
118.26200104 100.83000183 322.00000000 0.344490 0.935043 0.083795 0.000000
145.26400757 212.59800720 330.00000000 -0.881745 -0.173434 0.438686 0.000000
67.67579651 226.27000427 359.00000000 0.687410 -0.687410 -0.234380 0.000000
60.15620041 153.80900574 311.00000000 0.890644 0.448774 0.073185 0.000000
125.09799957 101.85500336 313.00000000 0.001240 0.946173 0.323658 0.000000
192.08999634 137.06100464 322.00000000 -0.459328 -0.673124 0.579588 0.000000
157.22700500 142.52900696 326.00000000 -0.263994 -0.838295 0.477041 0.000000
214.64799500 138.77000427 381.00000000 -0.143522 -0.283019 -0.948315 0.000000
64.25779724 182.52000427 255.00000000 0.216084 -0.163700 0.962554 0.000000
137.40199280 101.17199707 309.00000000 -0.001240 0.946173 0.323658 0.000000
157.22700500 173.97500610 364.00000000 -0.330376 -0.937190 -0.111923 0.000000
67.67579651 182.52000427 255.00000000 0.000978 0.000978 0.999999 0.000000
150.39100647 159.96099854 391.00000000 0.000978 0.000978 -0.999999 0.000000
172.26600647 169.53100586 371.00000000 -0.143163 -0.727870 -0.670604 0.000000
206.44500732 131.25000000 325.00000000 -0.497141 -0.625218 0.601625 0.000000
132.61700439 205.07800293 309.00000000 -0.752044 -0.289002 0.592374 0.000000
231.05499268 127.83200073 377.00000000 -0.657051 0.305117 -0.689339 0.000000
83.39839935 124.07199860 384.00000000 0.595955 0.592578 -0.541931 0.000000
63.57419968 183.20300293 255.00000000 0.216084 -0.163700 0.962554 0.000000
186.27900696 125.78099823 308.00000000 -0.469790 -0.690474 0.550039 0.000000
179.78500366 102.19699860 356.00000000 -0.000978 0.999999 -0.000978 0.000000
133.98399353 140.82000732 309.00000000 -0.317490 -0.451994 0.833608 0.000000
61.86520004 145.60499573 328.00000000 0.806557 0.321672 0.495977 0.000000
101.85500336 113.13500214 306.00000000 0.533061 0.821613 0.201986 0.000000
79.98049927 155.17599487 395.00000000 0.568989 0.057887 -0.820305 0.000000
51.26950073 182.52000427 323.00000000 0.946173 0.001240 0.323658 0.000000
135.35200500 148.33999634 395.00000000 -0.547033 0.169356 -0.819801 0.000000
88.18360138 218.40800476 278.00000000 -0.064613 -0.457790 0.886710 0.000000
222.16799927 102.88099670 310.00000000 -0.202765 0.964116 0.171369 0.000000
91.60160065 196.19099426 279.00000000 -0.600897 0.122542 0.789877 0.000000
83.74019623 207.12899780 270.00000000 -0.534743 -0.353803 0.767381 0.000000
116.21099854 168.16400146 401.00000000 -0.412026 -0.258082 -0.873858 0.000000
133.30099487 136.03500366 393.00000000 -0.509812 0.319228 -0.798865 0.000000
101.85500336 201.66000366 287.00000000 -0.440483 -0.219495 0.870515 0.000000
149.02299500 163.37899780 333.00000000 -0.538341 0.087106 0.838213 0.000000
56.73830032 169.53100586 299.00000000 0.910965 0.212222 0.353703 0.000000
155.17599487 169.18899536 380.00000000 -0.382113 -0.762600 -0.521950 0.000000
223.87699890 150.39100647 362.00000000 -0.696003 -0.525758 0.489038 0.000000
165.42999268 101.85500336 317.00000000 0.161626 0.920566 0.355577 0.000000
66.99220276 155.17599487 387.00000000 0.628647 0.275331 -0.727321 0.000000
141.50399780 152.44099426 393.00000000 -0.111526 0.050694 -0.992468 0.000000
211.91400146 115.18599701 306.00000000 -0.402458 -0.840934 0.361743 0.000000
100.48799896 214.30700684 380.00000000 -0.119697 -0.604398 -0.787639 0.000000
146.63099670 213.96499634 340.00000000 -0.975798 -0.218286 0.012979 0.000000
119.28700256 148.33999634 288.00000000 -0.789882 0.085510 0.607267 0.000000
55.71289825 207.12899780 314.00000000 0.885000 -0.416731 0.207629 0.000000
142.18800354 137.40199280 309.00000000 -0.231788 -0.385329 0.893194 0.000000
157.22700500 133.30099487 383.00000000 -0.297203 0.777179 -0.554674 0.000000
168.50599670 144.23800659 384.00000000 -0.241071 0.352109 -0.904380 0.000000
177.05099487 123.04699707 303.00000000 0.239492 -0.768567 0.593252 0.000000
146.97300720 188.67199707 321.00000000 -0.903886 -0.125110 0.409068 0.000000
192.77299500 106.64099884 297.00000000 -0.179386 0.815526 0.550216 0.000000
56.05469894 191.40600586 375.00000000 0.756148 -0.239525 -0.608989 0.000000
159.27699280 153.12500000 389.00000000 -0.097058 -0.050203 -0.994012 0.000000
51.61130142 162.01199341 346.00000000 0.912385 0.364097 0.187046 0.000000
63.23239899 185.25399780 256.00000000 0.679558 -0.159628 0.716044 0.000000
198.92599487 138.77000427 383.00000000 0.435245 0.675380 -0.595335 0.000000
190.38099670 108.69100189 294.00000000 -0.199102 0.754735 0.625087 0.000000
176.36700439 149.02299500 327.00000000 0.004029 -0.508951 0.860786 0.000000
48.87699890 177.05099487 334.00000000 0.976801 0.107982 0.184934 0.000000
116.21099854 118.26200104 389.00000000 0.000978 0.000978 -0.999999 0.000000
70.41020203 218.06599426 293.00000000 0.638327 -0.732429 0.236824 0.000000
130.56599426 214.99000549 312.00000000 -0.710990 -0.241200 0.660542 0.000000
49.21879959 191.40600586 333.00000000 0.974779 -0.074983 0.210198 0.000000
49.56050110 199.60899353 344.00000000 0.958917 -0.241378 0.149048 0.000000
57.42190170 167.47999573 379.00000000 0.744619 0.188842 -0.640219 0.000000
93.65229797 196.19099426 281.00000000 -0.603401 0.079205 0.793494 0.000000
97.75389862 238.57400513 355.00000000 -0.202989 -0.807376 -0.554022 0.000000
142.18800354 104.24800110 372.00000000 -0.026416 0.802216 -0.596449 0.000000
107.32399750 127.14800262 281.00000000 -0.744029 -0.089167 0.662171 0.000000
97.07029724 177.05099487 277.00000000 -0.286469 -0.333966 0.897999 0.000000
101.17199707 187.30499268 395.00000000 -0.003470 -0.200117 -0.979766 0.000000
169.53100586 125.78099823 381.00000000 -0.000978 -0.000978 -0.999999 0.000000
99.80470276 230.37100220 291.00000000 -0.380188 -0.597438 0.706063 0.000000
110.40000153 177.73399353 398.00000000 -0.182585 -0.679708 -0.710394 0.000000
96.38670349 116.21099854 385.00000000 0.241064 0.650715 -0.720041 0.000000
138.42799377 200.29299927 316.00000000 -0.798124 -0.306239 0.518860 0.000000
99.12110138 230.37100220 365.00000000 -0.088562 -0.619936 -0.779638 0.000000
170.21499634 119.62899780 379.00000000 -0.028707 0.295806 -0.954817 0.000000
64.94139862 186.62100220 255.00000000 0.221628 -0.266232 0.938084 0.000000
82.37300110 131.25000000 270.00000000 0.576564 0.808364 -0.118834 0.000000
152.10000610 179.78500366 352.00000000 -0.922921 -0.381120 -0.054446 0.000000
106.98200226 200.97700500 290.00000000 -0.544928 -0.169633 0.821145 0.000000
113.47699738 146.97300720 403.00000000 -0.000978 -0.000978 -0.999999 0.000000
223.53500366 118.94499969 335.00000000 -0.756781 -0.602592 0.253309 0.000000
117.57800293 102.19699860 316.00000000 0.266667 0.940935 0.208636 0.000000
66.99220276 205.07800293 277.00000000 0.572809 -0.572809 0.586327 0.000000
69.38480377 228.32000732 320.00000000 0.710526 -0.585236 0.390707 0.000000
157.91000366 172.26600647 371.00000000 -0.299093 -0.903172 -0.307933 0.000000
71.09380341 174.31599426 391.00000000 0.553553 -0.026228 -0.832401 0.000000
95.01950073 142.18800354 401.00000000 0.525351 0.263455 -0.809072 0.000000
201.66000366 148.68200684 334.00000000 -0.423215 -0.163219 0.891206 0.000000
182.17799377 100.48799896 338.00000000 -0.097208 0.978231 -0.183341 0.000000
75.19529724 229.34599304 362.00000000 0.435822 -0.652898 -0.619502 0.000000
79.29689789 221.82600403 288.00000000 0.434118 -0.782062 0.447125 0.000000
78.61329651 131.59199524 302.00000000 0.707106 0.707106 -0.001384 0.000000
146.28900146 208.83799744 354.00000000 -0.946332 0.034297 -0.321372 0.000000
206.44500732 114.16000366 375.00000000 0.030686 0.433611 -0.900577 0.000000
61.86520004 180.46899414 384.00000000 0.793335 -0.091371 -0.601890 0.000000
222.16799927 102.19699860 318.00000000 -0.687410 0.687410 0.234380 0.000000
125.78099823 155.85899353 401.00000000 -0.445320 -0.126625 -0.886372 0.000000
102.53900146 234.13099670 298.00000000 -0.203594 -0.869363 0.450286 0.000000
219.43400574 99.12110138 353.00000000 -0.001240 0.946173 -0.323658 0.000000
118.60399628 116.89499664 288.00000000 -0.994381 0.034137 0.100209 0.000000
100.48799896 215.33200073 287.00000000 -0.601086 0.006877 0.799155 0.000000
112.79299927 218.06599426 297.00000000 -0.591294 -0.225033 0.774424 0.000000
140.13699341 97.07029724 345.00000000 -0.001040 0.997710 -0.067624 0.000000
153.12500000 193.11500549 356.00000000 -0.976334 -0.125938 0.175815 0.000000
63.91600037 188.67199707 256.00000000 0.517722 -0.471110 0.714156 0.000000
145.26400757 150.39100647 326.00000000 -0.783279 -0.449210 0.429749 0.000000
99.80470276 233.78900146 361.00000000 -0.116635 -0.783965 -0.609750 0.000000
63.23239899 150.39100647 306.00000000 0.687410 0.687410 0.234380 0.000000
122.02100372 224.21899414 364.00000000 -0.353473 -0.724864 -0.591294 0.000000
78.61329651 119.62899780 347.00000000 0.704956 0.695937 0.136782 0.000000
226.95300293 151.41600037 376.00000000 0.400549 0.118630 -0.908563 0.000000
51.95309830 161.66999817 362.00000000 0.942974 0.328160 -0.055774 0.000000
211.91400146 151.75799561 347.00000000 -0.719739 -0.467082 0.513624 0.000000
106.64099884 214.99000549 378.00000000 -0.146530 -0.708479 -0.690352 0.000000
92.96880341 229.00399780 367.00000000 -0.001381 -0.697373 -0.716707 0.000000
148.68200684 196.87500000 330.00000000 -0.967901 -0.161532 0.192546 0.000000
55.71289825 183.88699341 378.00000000 0.714697 -0.126825 -0.687840 0.000000
97.07029724 132.61700439 271.00000000 -0.685432 -0.388136 0.616063 0.000000
172.26600647 100.83000183 348.00000000 -0.161032 0.984084 -0.075148 0.000000
158.59399414 132.61700439 381.00000000 -0.203951 0.085289 -0.975259 0.000000
95.70310211 120.65399933 288.00000000 0.530202 0.810074 0.250330 0.000000
137.40199280 98.09570313 352.00000000 0.057098 0.986987 -0.150320 0.000000
103.22299957 233.10499573 297.00000000 -0.274998 -0.831207 0.483188 0.000000
101.17199707 228.32000732 291.00000000 -0.456788 -0.493067 0.740425 0.000000
71.43550110 229.68800354 318.00000000 0.664612 -0.631464 0.399430 0.000000
182.52000427 102.53900146 363.00000000 -0.095464 0.975719 -0.197127 0.000000
81.00589752 157.91000366 396.00000000 0.356615 0.090163 -0.929890 0.000000
78.61329651 224.21899414 295.00000000 0.450209 -0.839663 0.303774 0.000000
114.84400177 185.25399780 289.00000000 -0.585638 -0.514754 0.626144 0.000000
179.10200500 104.58999634 371.00000000 -0.239174 0.764418 -0.598716 0.000000
68.35939789 153.12500000 257.00000000 0.070938 0.725302 0.684766 0.000000
223.53500366 113.47699738 323.00000000 -0.756048 -0.573056 0.316224 0.000000
55.37110138 151.41600037 348.00000000 0.786214 0.587752 0.190829 0.000000
222.50999451 114.84400177 324.00000000 -0.610776 -0.711758 0.346921 0.000000
71.77729797 133.30099487 323.00000000 0.769946 0.595736 0.228651 0.000000
146.28900146 123.73000336 303.00000000 -0.277354 -0.572141 0.771835 0.000000
71.09380341 153.12500000 257.00000000 -0.029513 0.765925 0.642253 0.000000
105.95700073 166.11300659 277.00000000 -0.333314 0.086316 0.938856 0.000000
166.79699707 144.23800659 385.00000000 -0.512744 0.060076 -0.856437 0.000000
72.80269623 153.12500000 258.00000000 -0.226453 0.751200 0.620014 0.000000
151.07400513 139.45300293 315.00000000 -0.474083 -0.584647 0.658356 0.000000
61.52339935 192.08999634 277.00000000 0.744174 -0.366388 0.558538 0.000000
175.68400574 102.88099670 364.00000000 -0.001127 0.985809 -0.167869 0.000000
141.50399780 179.10200500 387.00000000 -0.440847 -0.334165 -0.833059 0.000000
117.57800293 151.75799561 285.00000000 -0.692358 0.156046 0.704478 0.000000
91.60160065 216.01600647 279.00000000 -0.340235 -0.346338 0.874237 0.000000
222.16799927 98.77929688 336.00000000 -0.146045 0.983689 0.105007 0.000000
185.25399780 100.83000183 342.00000000 -0.072401 0.975576 -0.207387 0.000000
66.65039825 154.49200439 276.00000000 0.902646 0.423244 0.078074 0.000000
66.99220276 224.90199280 319.00000000 0.671048 -0.638073 0.377568 0.000000
57.42190170 213.28100586 363.00000000 0.812735 -0.407166 -0.416746 0.000000
153.80900574 100.83000183 366.00000000 0.001240 0.946173 -0.323658 0.000000
190.03900146 128.51600647 383.00000000 0.416641 0.665629 -0.619151 0.000000
144.23800659 198.24200439 323.00000000 -0.770799 -0.322101 0.549655 0.000000
153.12500000 176.70899963 356.00000000 -0.843867 -0.507511 -0.174131 0.000000
107.32399750 192.77299500 393.00000000 -0.088348 -0.259921 -0.961580 0.000000
226.95300293 121.68000031 375.00000000 -0.192525 0.433548 -0.880324 0.000000
147.31399536 168.16400146 388.00000000 -0.635912 -0.336659 -0.694461 0.000000
102.53900146 226.27000427 291.00000000 0.000978 0.000978 0.999999 0.000000
85.44920349 167.47999573 267.00000000 -0.489862 -0.244163 0.836911 0.000000
66.30860138 219.43400574 367.00000000 0.513073 -0.664472 -0.543353 0.000000
139.45300293 222.50999451 350.00000000 -0.485083 -0.646218 -0.589149 0.000000
85.44920349 159.27699280 399.00000000 0.759556 0.104310 -0.642023 0.000000
101.17199707 118.94499969 281.00000000 0.558346 0.794749 0.237958 0.000000
114.16000366 110.74199677 381.00000000 0.035203 0.764620 -0.643520 0.000000
144.92199707 172.94900513 387.00000000 -0.518415 -0.397397 -0.757180 0.000000
79.29689789 237.54899597 348.00000000 0.420630 -0.898939 -0.122391 0.000000
132.95899963 158.59399414 304.00000000 -0.806677 0.461643 0.368995 0.000000
91.60160065 225.58599854 287.00000000 0.037516 -0.835081 0.548847 0.000000
120.31199646 162.01199341 401.00000000 -0.000978 -0.000978 -0.999999 0.000000
150.73199463 196.87500000 362.00000000 -0.734451 -0.581372 -0.350126 0.000000
182.52000427 144.92199707 383.00000000 -0.000978 -0.000978 -0.999999 0.000000
227.63699341 112.79299927 335.00000000 -0.837476 -0.504303 0.210505 0.000000
67.67579651 131.25000000 353.00000000 0.846575 0.526096 0.080829 0.000000
50.24409866 175.00000000 364.00000000 0.921083 0.230629 -0.313713 0.000000
135.69299316 159.27699280 310.00000000 -0.851939 0.466213 0.238422 0.000000
134.66799927 124.41400146 387.00000000 -0.354580 0.462703 -0.812514 0.000000
69.38480377 229.00399780 356.00000000 0.620512 -0.699100 -0.355280 0.000000
119.28700256 119.62899780 290.00000000 -0.833731 -0.257362 0.488526 0.000000
98.43750000 109.71700287 376.00000000 0.686426 0.689567 0.230903 0.000000
233.10499573 123.04699707 373.00000000 -0.551530 0.461552 -0.694827 0.000000
217.38299561 140.82000732 379.00000000 0.068897 -0.398520 -0.914568 0.000000
190.03900146 116.55300140 378.00000000 -0.147368 0.371929 -0.916489 0.000000
182.52000427 131.25000000 313.00000000 0.098553 -0.675161 0.731057 0.000000
51.26950073 192.77299500 367.00000000 0.933483 -0.135307 -0.332118 0.000000
113.47699738 121.33799744 284.00000000 -0.525473 -0.528831 0.666495 0.000000
147.99800110 130.56599426 308.00000000 -0.399507 -0.510390 0.761509 0.000000
136.71899414 133.30099487 305.00000000 0.111877 -0.451755 0.885100 0.000000
97.41210175 138.08599854 274.00000000 -0.716680 -0.120688 0.686880 0.000000
120.31199646 225.58599854 363.00000000 -0.356308 -0.737020 -0.574322 0.000000
150.73199463 131.93400574 310.00000000 -0.317370 -0.487897 0.813162 0.000000
68.35939789 218.40800476 302.00000000 0.687410 -0.687410 0.234380 0.000000
98.43750000 187.30499268 281.00000000 -0.461824 -0.221134 0.858963 0.000000
117.57800293 131.93400574 399.00000000 -0.364410 0.395690 -0.842992 0.000000
90.23439789 159.27699280 401.00000000 0.496215 -0.062548 -0.865944 0.000000
139.11099243 178.41799927 388.00000000 -0.496760 -0.343419 -0.797052 0.000000
92.62699890 123.73000336 284.00000000 0.555423 0.819063 0.143669 0.000000
211.22999573 99.46289825 350.00000000 0.082232 0.990261 -0.112345 0.000000
119.62899780 192.08999634 391.00000000 -0.383870 -0.405986 -0.829349 0.000000
187.30499268 105.95700073 297.00000000 0.009075 0.913934 0.405761 0.000000
147.65600586 97.41210175 350.00000000 -0.001081 0.993536 0.113516 0.000000
76.56250000 234.47300720 319.00000000 0.533339 -0.797648 0.281615 0.000000
116.21099854 159.27699280 403.00000000 -0.000978 -0.000978 -0.999999 0.000000
80.66410065 204.39500427 387.00000000 0.373176 -0.606617 -0.701966 0.000000
237.89100647 105.61499786 346.00000000 -0.867574 -0.348565 0.354707 0.000000
63.91600037 179.10200500 386.00000000 0.766502 -0.006905 -0.642205 0.000000
200.97700500 136.03500366 381.00000000 -0.697373 0.001381 -0.716707 0.000000
71.09380341 172.26600647 391.00000000 0.502288 0.125934 -0.855481 0.000000
63.57419968 145.60499573 319.00000000 0.925070 0.378615 0.029925 0.000000
61.18159866 169.53100586 280.00000000 0.915674 0.388509 0.102962 0.000000
185.25399780 135.35200500 383.00000000 -0.000978 -0.000978 -0.999999 0.000000
53.66210175 165.42999268 322.00000000 0.967043 0.210451 0.143313 0.000000
211.22999573 121.68000031 379.00000000 -0.116952 0.372871 -0.920483 0.000000
63.91600037 159.27699280 258.00000000 0.809633 0.568972 0.144100 0.000000
81.34770203 188.67199707 267.00000000 -0.721048 0.070804 0.689258 0.000000
74.51170349 159.27699280 257.00000000 -0.669703 0.018176 0.742406 0.000000
120.99600220 183.20300293 393.00000000 -0.190206 -0.264099 -0.945555 0.000000
108.69100189 107.32399750 311.00000000 -0.001381 0.697373 0.716707 0.000000
61.86520004 175.68400574 272.00000000 0.983703 -0.163354 0.075119 0.000000
192.77299500 153.12500000 379.00000000 -0.427409 -0.424183 -0.798367 0.000000
118.94499969 196.53300476 294.00000000 -0.542146 -0.388183 0.745246 0.000000
127.83200073 144.23800659 305.00000000 -0.516830 -0.014922 0.855958 0.000000
91.60160065 235.15600586 361.00000000 -0.147227 -0.893365 -0.424527 0.000000
70.75199890 224.21899414 310.00000000 0.585662 -0.725959 0.360533 0.000000
75.53710175 159.96099854 258.00000000 -0.684371 0.015332 0.728973 0.000000
128.51600647 219.77499390 312.00000000 -0.726703 -0.216299 0.652010 0.000000
122.36299896 198.24200439 385.00000000 -0.278825 -0.626162 -0.728133 0.000000
188.67199707 117.23600006 294.00000000 -0.196750 -0.848579 0.491124 0.000000
84.08200073 118.60399628 378.00000000 0.560626 0.654905 -0.506752 0.000000
137.40199280 99.46289825 362.00000000 0.034400 0.978608 -0.202839 0.000000
126.46499634 154.49200439 295.00000000 -0.856761 0.170168 0.486830 0.000000
74.85350037 216.01600647 282.00000000 0.517710 -0.707482 0.481088 0.000000
209.86300659 130.56599426 381.00000000 -0.000978 -0.000978 -0.999999 0.000000
116.21099854 103.90599823 311.00000000 0.272546 0.930610 0.244303 0.000000
55.37110138 191.40600586 299.00000000 0.904444 -0.259460 0.338617 0.000000
89.55079651 237.89100647 313.00000000 0.266330 -0.927171 0.263482 0.000000
239.60000610 112.10900116 352.00000000 -0.678234 -0.391098 0.622127 0.000000
222.85200500 123.73000336 377.00000000 -0.270430 0.432383 -0.860182 0.000000
74.51170349 231.73800659 359.00000000 0.564691 -0.645602 -0.514122 0.000000
185.93800354 117.91999817 294.00000000 -0.196750 -0.848579 0.491124 0.000000
224.90199280 98.09570313 350.00000000 0.069909 0.984645 -0.159960 0.000000
54.34569931 201.66000366 316.00000000 0.941008 -0.217582 0.259158 0.000000
105.27300262 170.89799500 277.00000000 -0.215074 -0.135226 0.967190 0.000000
89.89260101 108.69100189 358.00000000 0.527454 0.848634 0.040147 0.000000
132.27499390 157.91000366 304.00000000 -0.806677 0.461643 0.368995 0.000000
59.47269821 151.07400513 323.00000000 0.854296 0.490073 0.173228 0.000000
200.29299927 130.22500610 320.00000000 -0.387832 -0.694796 0.605677 0.000000
128.51600647 219.43400574 311.00000000 -0.669037 -0.230324 0.706641 0.000000
233.78900146 133.98399353 377.00000000 -0.861105 0.175766 -0.477079 0.000000
178.41799927 140.47900391 322.00000000 0.180467 -0.878860 0.441631 0.000000
53.66210175 187.30499268 374.00000000 0.901722 -0.356290 -0.244858 0.000000
171.58200073 126.46499634 381.00000000 -0.000978 -0.000978 -0.999999 0.000000
162.01199341 140.13699341 325.00000000 0.130048 -0.653230 0.745908 0.000000
72.46089935 158.59399414 391.00000000 0.571089 0.109544 -0.813546 0.000000
81.34770203 141.50399780 395.00000000 0.329611 0.375603 -0.866187 0.000000
203.02699280 153.80900574 339.00000000 -0.461086 -0.648873 0.605280 0.000000
74.51170349 164.06199646 257.00000000 -0.633281 0.082602 0.769501 0.000000
73.48629761 214.64799500 282.00000000 0.590736 -0.641226 0.489755 0.000000
162.01199341 132.61700439 317.00000000 -0.078869 -0.444159 0.892470 0.000000
62.54880142 199.60899353 378.00000000 0.596999 -0.430704 -0.676821 0.000000
181.83599854 136.71899414 319.00000000 -0.122759 -0.599006 0.791279 0.000000
192.77299500 102.53900146 309.00000000 -0.088720 0.980778 0.173793 0.000000
58.10549927 146.97300720 367.00000000 0.857937 0.487096 -0.163346 0.000000
153.12500000 138.08599854 387.00000000 -0.414344 0.466340 -0.781566 0.000000
175.00000000 149.02299500 327.00000000 0.107568 -0.426083 0.898266 0.000000
102.53900146 165.77099609 404.00000000 -0.374154 -0.260864 -0.889920 0.000000
230.37100220 125.09799957 351.00000000 -0.599375 -0.191616 0.777195 0.000000
195.50799561 120.31199646 303.00000000 -0.162237 -0.869650 0.466249 0.000000
84.08200073 212.93899536 274.00000000 -0.350297 -0.584915 0.731551 0.000000
218.75000000 123.73000336 379.00000000 -0.244204 0.414997 -0.876437 0.000000
86.47460175 115.52700043 376.00000000 0.470298 0.712925 -0.520152 0.000000
205.07800293 151.07400513 337.00000000 -0.666912 -0.446279 0.596711 0.000000
68.35939789 141.84599304 308.00000000 0.785477 0.599246 0.154692 0.000000
157.22700500 155.85899353 389.00000000 -0.338229 -0.338229 -0.878181 0.000000
142.52900696 191.40600586 316.00000000 -0.705048 -0.620377 0.343568 0.000000
80.66410065 234.13099670 358.00000000 0.311191 -0.813519 -0.491271 0.000000
70.41020203 179.10200500 391.00000000 0.808970 0.103490 -0.578669 0.000000
146.97300720 164.06199646 391.00000000 -0.251884 -0.456445 -0.853354 0.000000
56.05469894 153.46699524 370.00000000 0.892718 0.309535 -0.327479 0.000000
164.74600220 149.02299500 333.00000000 0.626297 -0.182223 0.757988 0.000000
126.46499634 99.12110138 321.00000000 0.053562 0.965363 0.255354 0.000000
103.90599823 190.03900146 285.00000000 -0.345193 -0.207689 0.915263 0.000000
55.02930069 199.60899353 370.00000000 0.745060 -0.363563 -0.559203 0.000000
132.95899963 201.66000366 308.00000000 -0.816191 -0.262736 0.514589 0.000000
190.03900146 165.42999268 345.00000000 -0.542893 -0.810494 0.219925 0.000000
67.67579651 140.82000732 317.00000000 0.751254 0.638945 0.165428 0.000000
131.25000000 123.73000336 389.00000000 0.001240 0.946173 0.323658 0.000000
178.41799927 139.45300293 321.00000000 -0.172345 -0.657352 0.733611 0.000000
60.15620041 211.57200623 308.00000000 0.822055 -0.494481 0.282338 0.000000
103.90599823 164.74600220 277.00000000 -0.471124 -0.053568 0.880439 0.000000
75.19529724 167.47999573 257.00000000 -0.637892 0.149294 0.755517 0.000000
67.67579651 139.79499817 320.00000000 0.781260 0.590934 0.201071 0.000000
146.63099670 214.64799500 344.00000000 -0.967835 -0.250741 -0.020592 0.000000
95.70310211 142.18800354 273.00000000 -0.429186 0.036100 0.902494 0.000000
109.71700287 103.90599823 328.00000000 0.393609 0.919277 -0.001282 0.000000
141.50399780 119.62899780 381.00000000 -0.169754 0.305006 -0.937099 0.000000
206.78700256 121.68000031 314.00000000 -0.509413 -0.703158 0.496052 0.000000
174.31599426 162.69500732 331.00000000 0.384499 -0.554660 0.737911 0.000000
157.91000366 172.60699463 370.00000000 -0.299093 -0.903172 -0.307933 0.000000
58.44729996 187.30499268 380.00000000 0.663279 -0.186210 -0.724836 0.000000
100.48799896 152.44099426 275.00000000 -0.222733 -0.110730 0.968570 0.000000
124.41400146 234.47300720 319.00000000 -0.453962 -0.758789 0.467073 0.000000
167.13900757 172.94900513 366.00000000 -0.001294 -0.912042 -0.410095 0.000000
56.39649963 210.54699707 318.00000000 0.902627 -0.299891 0.308755 0.000000
232.42199707 137.40199280 379.00000000 -0.883830 -0.442636 0.151390 0.000000
205.76199341 109.03299713 372.00000000 -0.020904 0.636886 -0.770674 0.000000
164.74600220 148.68200684 332.00000000 0.671037 -0.315307 0.671037 0.000000
56.39649963 186.62100220 294.00000000 0.891840 -0.275443 0.358820 0.000000
130.22500610 233.78900146 344.00000000 -0.534175 -0.786114 -0.310938 0.000000
112.79299927 243.01800537 328.00000000 -0.229464 -0.972492 0.040065 0.000000
75.19529724 140.13699341 277.00000000 0.687410 0.687410 0.234380 0.000000
122.02100372 239.25799561 326.00000000 -0.451219 -0.874513 0.177842 0.000000
80.66410065 129.54100037 296.00000000 0.290285 -0.870854 0.396672 0.000000
101.85500336 202.34399414 287.00000000 -0.440483 -0.219495 0.870515 0.000000
78.61329651 235.83999634 321.00000000 0.406196 -0.857181 0.316616 0.000000
74.16989899 142.18800354 274.00000000 0.833199 0.551279 0.043265 0.000000
96.38670349 155.85899353 403.00000000 0.209048 0.101394 -0.972635 0.000000
117.57800293 203.02699280 383.00000000 -0.353258 -0.527467 -0.772650 0.000000
125.09799957 231.73800659 353.00000000 -0.491415 -0.679260 -0.545085 0.000000
132.61700439 130.56599426 305.00000000 0.222907 -0.486755 0.844619 0.000000
82.03119659 222.85200500 371.00000000 0.082486 -0.609240 -0.788684 0.000000
62.20700073 214.64799500 367.00000000 0.636350 -0.562081 -0.528322 0.000000
180.12699890 168.84800720 368.00000000 -0.320626 -0.866765 -0.381990 0.000000
66.65039825 151.75799561 384.00000000 0.784369 0.300701 -0.542535 0.000000
220.80099487 140.13699341 351.00000000 -0.711344 -0.354854 0.606686 0.000000
113.13500214 102.53900146 322.00000000 0.369134 0.927467 0.059538 0.000000
73.48629761 126.46499634 372.00000000 0.867218 0.462418 -0.184672 0.000000
207.12899780 115.52700043 303.00000000 -0.001240 -0.946173 0.323658 0.000000
128.51600647 152.10000610 302.00000000 -0.834210 0.438314 0.334627 0.000000
137.74400330 218.75000000 324.00000000 -0.795399 -0.312762 0.519153 0.000000
94.33589935 207.12899780 281.00000000 -0.847810 0.111212 0.518507 0.000000
183.20300293 136.71899414 383.00000000 -0.000978 -0.000978 -0.999999 0.000000
239.94099426 109.37500000 351.00000000 -0.675806 -0.254812 0.691633 0.000000
102.53900146 235.15600586 301.00000000 -0.084028 -0.902273 0.422898 0.000000
221.48399353 139.45300293 381.00000000 0.063737 -0.326490 -0.943049 0.000000
143.55499268 146.97300720 317.00000000 -0.598078 -0.759039 0.257221 0.000000
110.74199677 105.27300262 313.00000000 0.783865 0.587515 -0.200952 0.000000
111.42600250 187.98800659 393.00000000 0.016399 -0.334293 -0.942327 0.000000
159.96099854 131.93400574 317.00000000 -0.459346 -0.423637 0.780726 0.000000
209.86300659 100.83000183 320.00000000 0.059901 0.996534 0.057723 0.000000
72.46089935 173.63299561 257.00000000 -0.714276 -0.220378 0.664261 0.000000
