105.38800049 176.21099854 215.00000000 -0.519885 -0.556899 0.647753 0.000000
61.67380142 180.95500183 182.50000000 0.182828 -0.726703 0.662176 0.000000
166.04499817 144.35699463 237.50000000 0.000000 0.000000 0.000000 0.000000
86.75000000 182.98800659 207.50000000 -0.347639 -0.353764 0.868331 0.000000
105.04900360 71.83979797 212.50000000 0.176705 0.566363 0.804990 0.000000
128.09199524 159.60600281 210.00000000 -0.381348 -0.868371 0.317024 0.000000
96.91600037 72.51760101 207.50000000 0.000978 0.000978 0.999999 0.000000
207.38699341 117.24800110 247.50000000 -0.000978 -0.000978 0.999999 0.000000
174.85499573 96.23829651 207.50000000 -0.282414 -0.627054 0.725979 0.000000
70.48439789 170.11099243 182.50000000 -0.682729 -0.514983 0.518337 0.000000
96.91600037 124.70300293 132.50000000 -0.927083 0.142309 0.346793 0.000000
214.84199524 113.18199921 257.50000000 -0.720816 -0.023887 0.692714 0.000000
52.86330032 176.88900757 247.50000000 0.400956 -0.569258 -0.717760 0.000000
91.49410248 83.70020294 185.00000000 0.481478 0.866082 0.134467 0.000000
73.87300110 136.90199280 272.50000000 0.332985 -0.178435 -0.925895 0.000000
96.23829651 83.36129761 267.50000000 -0.250091 0.185202 -0.950345 0.000000
71.83979797 164.01199341 262.50000000 0.149562 -0.190467 -0.970234 0.000000
85.39450073 80.65039825 267.50000000 -0.192047 0.202643 -0.960236 0.000000
148.42399597 82.00589752 272.50000000 -0.296704 0.856292 -0.422765 0.000000
113.18199921 69.80660248 262.50000000 0.230548 0.726149 -0.647731 0.000000
107.08200073 76.58399963 182.50000000 -0.100513 0.595795 0.796822 0.000000
110.47100067 160.62300110 202.50000000 -0.130701 -0.268003 0.954511 0.000000
76.92289734 203.99800110 235.00000000 0.069155 -0.964400 -0.255245 0.000000
80.65039825 98.94920349 162.50000000 0.706752 0.662481 0.248233 0.000000
176.88900757 137.58000183 237.50000000 -0.465623 -0.308848 0.829342 0.000000
79.97270203 84.71679688 267.50000000 0.702572 0.130328 -0.699576 0.000000
49.81349945 132.15800476 260.00000000 0.678906 -0.366577 -0.636167 0.000000
54.89649963 126.05899811 177.50000000 -0.486534 0.486534 0.725650 0.000000
63.02930069 133.51400757 152.50000000 0.964127 -0.058773 0.258851 0.000000
187.73199463 144.01899719 270.00000000 -0.001100 -0.990809 0.135260 0.000000
96.91600037 126.05899811 132.50000000 -0.927083 0.142309 0.346793 0.000000
60.99610138 193.15400696 237.50000000 0.307259 -0.392864 -0.866747 0.000000
97.93260193 126.05899811 135.00000000 -0.931565 -0.138569 0.336132 0.000000
98.94920349 187.05499268 252.50000000 0.025627 -0.259932 -0.965287 0.000000
126.39700317 123.34799957 190.00000000 -0.999999 -0.000978 -0.000978 0.000000
111.14800262 163.33399963 267.50000000 -0.000978 -0.000978 -0.999999 0.000000
84.71679688 140.96899414 277.50000000 -0.000978 -0.000978 -0.999999 0.000000
101.66000366 95.22170258 275.00000000 -0.315096 0.644734 -0.696442 0.000000
111.82599640 74.55079651 187.50000000 -0.283881 0.572521 0.769176 0.000000
101.66000366 197.22099304 222.50000000 0.000978 0.000978 0.999999 0.000000
80.65039825 165.36700439 262.50000000 0.200652 -0.798011 -0.568258 0.000000
223.65199280 105.04900360 262.50000000 -0.855812 0.151198 0.494697 0.000000
77.26170349 157.23399353 152.50000000 -0.443393 -0.888203 0.120410 0.000000
109.11499786 166.72300720 207.50000000 -0.415550 -0.328393 0.848219 0.000000
63.02930069 164.68899536 162.50000000 0.000978 0.000978 0.999999 0.000000
213.14700317 136.90199280 265.00000000 -0.619502 -0.435822 0.652898 0.000000
78.27829742 127.41400146 135.00000000 0.731808 0.175695 0.658474 0.000000
96.23829651 196.54299927 247.50000000 -0.000978 -0.000978 -0.999999 0.000000
112.50399780 85.39450073 277.50000000 -0.000978 -0.000978 -0.999999 0.000000
145.71299744 124.02500153 282.50000000 -0.000978 -0.000978 -0.999999 0.000000
96.91600037 152.49000549 182.50000000 -0.681782 -0.688109 0.248352 0.000000
134.86900330 153.16799927 202.50000000 -0.740147 -0.641255 0.202420 0.000000
145.71299744 75.22850037 267.50000000 0.690304 0.638083 -0.341072 0.000000
132.83599854 125.38099670 227.50000000 -0.536691 0.536691 0.651095 0.000000
125.38099670 83.36129761 277.50000000 0.271884 0.119524 -0.954879 0.000000
109.79299927 132.15800476 157.50000000 -0.694736 -0.287200 0.659438 0.000000
79.29489899 74.21189880 220.00000000 0.679518 0.679518 0.276604 0.000000
213.14700317 96.91600037 280.00000000 -0.334385 0.560539 -0.757616 0.000000
125.38099670 132.15800476 182.50000000 -0.000978 -0.000978 0.999999 0.000000
52.18550110 133.51400757 262.50000000 0.604391 -0.219072 -0.765976 0.000000
79.97270203 180.95500183 252.50000000 0.155299 -0.764433 -0.625719 0.000000
122.66999817 92.17189789 192.50000000 -0.232628 0.430737 -0.871980 0.000000
111.82599640 149.10200500 187.50000000 -0.352087 -0.782951 0.512857 0.000000
68.79000092 84.03910065 220.00000000 0.707106 0.707106 0.001384 0.000000
155.20100403 81.66699982 275.00000000 0.029276 0.798820 -0.600857 0.000000
107.76000214 142.66299438 175.00000000 -0.397637 -0.825373 0.400805 0.000000
65.74019623 161.97900391 262.50000000 0.369236 -0.293882 -0.881645 0.000000
77.93949890 106.40399933 147.50000000 0.475419 0.596374 0.646772 0.000000
46.42480087 167.39999390 190.00000000 0.835648 -0.168321 0.522839 0.000000
111.82599640 85.39450073 277.50000000 -0.000978 -0.000978 -0.999999 0.000000
118.60399628 121.31400299 162.50000000 0.000978 0.000978 0.999999 0.000000
79.29489899 128.77000427 132.50000000 0.796629 0.378197 0.471540 0.000000
72.17870331 80.65039825 220.00000000 0.000000 0.000000 0.000000 0.000000
117.92600250 157.91200256 202.50000000 0.000978 0.000978 0.999999 0.000000
103.69300079 180.27699280 217.50000000 -0.135520 -0.437945 0.888729 0.000000
86.75000000 80.65039825 267.50000000 -0.326788 -0.183730 -0.927067 0.000000
38.63090134 147.06799316 207.50000000 0.975798 -0.022582 0.217504 0.000000
111.82599640 168.75599670 212.50000000 -0.461148 -0.608715 0.645607 0.000000
58.96289825 122.66999817 267.50000000 0.679742 -0.290859 -0.673314 0.000000
195.18800354 75.90619659 217.50000000 -0.139540 0.979252 0.146950 0.000000
63.02930069 95.56050110 262.50000000 -0.000978 -0.000978 -0.999999 0.000000
86.07230377 195.86500549 212.50000000 -0.957245 0.149611 0.247586 0.000000
69.80660248 205.01499939 225.00000000 0.204803 -0.974366 0.093092 0.000000
58.96289825 185.02099609 187.50000000 0.308655 -0.651246 0.693261 0.000000
119.28099823 166.04499817 262.50000000 -0.229418 -0.303515 -0.924795 0.000000
73.87300110 197.22099304 202.50000000 -0.613713 -0.766759 0.188246 0.000000
56.25199890 145.71299744 162.50000000 -0.000978 -0.000978 0.999999 0.000000
163.33399963 76.58399963 202.50000000 -0.103669 0.951392 0.290011 0.000000
111.82599640 170.11099243 262.50000000 -0.000978 -0.000978 -0.999999 0.000000
111.14800262 163.33399963 207.50000000 -0.393887 -0.393887 0.830485 0.000000
135.54699707 160.62300110 222.50000000 0.000978 0.000978 0.999999 0.000000
159.26800537 83.36129761 277.50000000 0.251733 0.388771 -0.886278 0.000000
145.37399292 79.29489899 205.00000000 -0.000978 -0.000978 0.999999 0.000000
78.61720276 94.88279724 272.50000000 -0.000978 -0.000978 -0.999999 0.000000
127.41400146 174.85499573 227.50000000 -0.534271 -0.406046 0.741404 0.000000
90.81639862 202.30400085 240.00000000 0.082254 -0.792239 -0.604641 0.000000
106.40399933 86.07230377 272.50000000 -0.000978 -0.000978 -0.999999 0.000000
90.13870239 173.50000000 262.50000000 -0.000978 -0.000978 -0.999999 0.000000
112.50399780 170.78900146 262.50000000 -0.071899 -0.106137 -0.991749 0.000000
109.79299927 98.94920349 277.50000000 -0.000978 -0.000978 -0.999999 0.000000
88.10549927 69.80660248 212.50000000 0.288861 0.742101 0.604852 0.000000
165.36700439 153.84599304 247.50000000 0.402396 -0.402396 -0.822287 0.000000
157.91200256 142.32400513 232.50000000 0.000978 0.000978 0.999999 0.000000
95.56050110 85.39450073 172.50000000 0.000978 0.999999 0.000978 0.000000
133.51400757 145.71299744 267.50000000 -0.649664 0.055685 -0.758179 0.000000
130.12500000 117.92600250 212.50000000 -0.817326 0.545388 -0.185825 0.000000
149.77900696 131.47999573 227.50000000 0.000978 0.000978 0.999999 0.000000
62.35160065 140.96899414 267.50000000 0.153630 -0.079792 -0.984901 0.000000
69.12889862 171.12800598 180.00000000 -0.700961 -0.666150 0.254751 0.000000
236.52900696 108.09899902 270.00000000 -0.685607 -0.021031 0.727668 0.000000
180.95500183 137.58000183 242.50000000 -0.104154 -0.781889 0.614656 0.000000
229.07400513 117.92600250 267.50000000 -0.095095 -0.234569 0.967437 0.000000
187.73199463 124.02500153 237.50000000 -0.393299 -0.483936 0.781743 0.000000
223.65199280 130.12500000 277.50000000 -0.092452 -0.510618 -0.854823 0.000000
54.21879959 95.56050110 232.50000000 0.000978 0.000978 0.999999 0.000000
166.04499817 109.79299927 212.50000000 -0.513409 -0.331077 0.791706 0.000000
137.58000183 151.81199646 252.50000000 -0.990809 0.001100 -0.135260 0.000000
103.01599884 68.79000092 215.00000000 0.121490 0.827011 0.548901 0.000000
41.34180069 167.39999390 237.50000000 0.953354 0.131268 -0.271819 0.000000
65.40139771 109.79299927 270.00000000 0.716491 0.244079 -0.653503 0.000000
210.77499390 99.62699890 282.50000000 -0.288904 0.260158 -0.921332 0.000000
182.31100464 113.85900116 282.50000000 -0.000978 -0.000978 -0.999999 0.000000
195.86500549 102.33799744 232.50000000 0.000978 0.000978 0.999999 0.000000
158.58999634 130.12500000 282.50000000 -0.000978 -0.000978 -0.999999 0.000000
136.22500610 164.01199341 227.50000000 -0.828486 0.001356 0.560008 0.000000
119.95899963 75.22850037 272.50000000 -0.000978 -0.000978 -0.999999 0.000000
150.45700073 127.41400146 237.50000000 0.333607 0.865532 0.373578 0.000000
107.08200073 82.68360138 272.50000000 -0.000978 -0.000978 -0.999999 0.000000
227.04100037 124.02500153 282.50000000 0.281277 -0.958844 -0.038754 0.000000
56.59080124 96.91600037 255.00000000 0.651118 0.492965 -0.577089 0.000000
55.91310120 179.60000610 245.00000000 0.126785 -0.678670 -0.723417 0.000000
92.17189789 113.18199921 282.50000000 -0.000978 -0.000978 -0.999999 0.000000
65.74019623 99.62699890 267.50000000 0.369203 0.253549 -0.894093 0.000000
167.39999390 140.29100037 232.50000000 0.000978 0.000978 0.999999 0.000000
96.23829651 132.15800476 132.50000000 0.000978 0.000978 0.999999 0.000000
50.83010101 126.73600006 187.50000000 0.868331 0.347639 0.353764 0.000000
83.36129761 92.17189789 177.50000000 0.425099 0.829655 0.361888 0.000000
77.26170349 132.83599854 132.50000000 0.256676 -0.135578 0.956941 0.000000
103.69300079 134.19099426 147.50000000 -0.951005 -0.198859 -0.236737 0.000000
231.78500366 119.95899963 267.50000000 -0.414537 -0.476311 0.775427 0.000000
117.24800110 194.17100525 245.00000000 -0.578878 -0.811578 -0.079003 0.000000
132.15800476 154.18499756 200.00000000 -0.607936 -0.651480 0.453859 0.000000
64.38480377 124.02500153 272.50000000 -0.000978 -0.000978 -0.999999 0.000000
85.39450073 96.91600037 152.50000000 0.355251 0.888878 0.289297 0.000000
170.78900146 136.90199280 232.50000000 -0.433234 -0.075644 0.898101 0.000000
109.11499786 159.26800537 202.50000000 -0.174156 -0.286603 0.942087 0.000000
68.11229706 86.07230377 215.00000000 0.715152 0.658568 0.234192 0.000000
68.45120239 196.54299927 237.50000000 0.550439 -0.687630 -0.473478 0.000000
128.77000427 74.55079651 267.50000000 -0.747248 0.380982 -0.544494 0.000000
90.81639862 180.95500183 207.50000000 -0.322054 -0.221859 0.920358 0.000000
86.07230377 167.39999390 262.50000000 0.009741 -0.722215 -0.691601 0.000000
198.57600403 75.22850037 222.50000000 0.001100 0.990809 0.135260 0.000000
70.48439789 189.08799744 247.50000000 0.345790 -0.917836 -0.194951 0.000000
117.24800110 94.54389954 195.00000000 -0.349273 0.523104 -0.777413 0.000000
136.22500610 109.11499786 197.50000000 -0.592680 0.545400 0.592680 0.000000
120.63700104 121.99199677 282.50000000 -0.000978 -0.000978 -0.999999 0.000000
191.12100220 143.67999268 277.50000000 0.436304 -0.846213 -0.305879 0.000000
96.91600037 177.56599426 257.50000000 -0.000978 -0.000978 -0.999999 0.000000
174.85499573 125.38099670 232.50000000 -0.305197 -0.673370 0.673370 0.000000
232.46299744 96.23829651 277.50000000 0.600682 0.174882 0.780126 0.000000
119.62000275 71.16210175 265.00000000 0.141588 0.791404 -0.594671 0.000000
165.36700439 140.29100037 282.50000000 -0.285254 -0.603973 -0.744209 0.000000
132.15800476 68.79000092 225.00000000 0.000978 0.000978 0.999999 0.000000
76.58399963 134.19099426 132.50000000 0.256899 -0.475340 0.841460 0.000000
220.94099426 124.02500153 282.50000000 -0.340970 -0.381084 -0.859368 0.000000
120.63700104 178.92199707 257.50000000 -0.272652 -0.225113 -0.935406 0.000000
119.95899963 166.72300720 262.50000000 -0.229418 -0.303515 -0.924795 0.000000
45.40819931 161.97900391 247.50000000 0.700792 -0.461091 -0.544321 0.000000
70.14550018 88.78320313 200.00000000 0.534294 0.800658 0.271064 0.000000
218.22999573 93.52729797 277.50000000 0.000978 0.000978 0.999999 0.000000
95.56050110 134.19099426 132.50000000 0.000978 0.000978 0.999999 0.000000
176.21099854 88.10549927 202.50000000 0.000978 0.000978 0.999999 0.000000
66.41799927 155.20100403 147.50000000 0.689415 -0.258332 0.676736 0.000000
66.75679779 117.92600250 160.00000000 0.859635 0.404444 0.312175 0.000000
65.06250000 118.60399628 272.50000000 -0.000978 -0.000978 -0.999999 0.000000
113.85900116 143.00199890 182.50000000 -0.376078 -0.880537 0.288478 0.000000
105.04900360 67.09570313 217.50000000 0.113179 0.904038 0.412197 0.000000
79.29489899 106.40399933 147.50000000 0.576971 0.640892 0.506322 0.000000
141.64599609 146.39100647 247.50000000 0.000978 0.000978 0.999999 0.000000
168.75599670 140.96899414 277.50000000 0.247332 -0.267119 -0.931383 0.000000
232.46299744 102.33799744 267.50000000 0.000978 0.000978 0.999999 0.000000
93.52729797 134.86900330 132.50000000 -0.441054 0.033515 0.896855 0.000000
218.22999573 92.17189789 277.50000000 0.000978 0.000978 0.999999 0.000000
159.94500732 140.29100037 282.50000000 -0.000978 -0.000978 -0.999999 0.000000
48.79690170 105.72699738 227.50000000 0.823342 0.547411 0.149833 0.000000
216.87500000 99.62699890 257.50000000 0.000978 0.000978 0.999999 0.000000
123.34799957 132.15800476 177.50000000 -0.964929 -0.001199 0.262509 0.000000
113.18199921 141.64599609 177.50000000 -0.492503 -0.820839 0.289248 0.000000
207.38699341 98.94920349 282.50000000 -0.000978 -0.000978 -0.999999 0.000000
134.19099426 69.80660248 252.50000000 -0.387958 0.908078 -0.157741 0.000000
142.32400513 112.50399780 282.50000000 -0.000978 -0.000978 -0.999999 0.000000
63.70700073 113.18199921 267.50000000 0.718510 0.189244 -0.669276 0.000000
60.31840134 140.96899414 267.50000000 0.120785 -0.090296 -0.988563 0.000000
80.65039825 135.54699707 132.50000000 0.000978 0.000978 0.999999 0.000000
197.89799500 81.66699982 275.00000000 0.316806 0.570894 -0.757439 0.000000
133.51400757 79.29489899 272.50000000 0.031655 0.527133 -0.849193 0.000000
67.09570313 82.00589752 257.50000000 0.582954 0.579575 -0.569436 0.000000
69.12889862 180.27699280 187.50000000 -0.476914 -0.316368 0.820039 0.000000
110.47100067 75.22850037 187.50000000 0.000978 0.000978 0.999999 0.000000
79.29489899 190.44299316 207.50000000 0.000978 0.000978 0.999999 0.000000
168.75599670 151.81199646 262.50000000 -0.001100 -0.990809 -0.135260 0.000000
43.37500000 184.34399414 217.50000000 0.782877 -0.562348 0.266210 0.000000
101.66000366 90.81639862 272.50000000 -0.003382 0.163484 -0.986540 0.000000
163.33399963 73.19529724 217.50000000 0.194554 0.977662 0.079534 0.000000
169.43400574 75.90619659 207.50000000 0.102864 0.990496 0.091306 0.000000
152.49000549 136.22500610 282.50000000 -0.000978 -0.000978 -0.999999 0.000000
67.09570313 186.37699890 192.50000000 -0.345946 -0.586321 0.732495 0.000000
105.72699738 141.98500061 170.00000000 -0.820984 -0.420814 -0.385878 0.000000
84.03910065 156.55700684 177.50000000 -0.607935 -0.781204 0.141901 0.000000
175.53300476 77.26170349 267.50000000 -0.138049 0.947579 -0.288161 0.000000
50.15230179 146.39100647 177.50000000 0.651480 0.453859 0.607936 0.000000
64.38480377 196.20399475 200.00000000 0.136502 -0.835160 0.532800 0.000000
114.53700256 121.99199677 282.50000000 -0.000978 -0.000978 -0.999999 0.000000
95.56050110 136.22500610 132.50000000 -0.441054 0.033515 0.896855 0.000000
84.03910065 173.50000000 197.50000000 -0.390221 -0.352909 0.850402 0.000000
189.76600647 90.81639862 217.50000000 -0.000978 -0.000978 0.999999 0.000000
159.94500732 78.27829742 270.00000000 0.162067 0.874577 -0.457000 0.000000
117.92600250 175.53300476 217.50000000 -0.416984 -0.204808 0.885538 0.000000
108.43800354 110.47100067 282.50000000 -0.000978 -0.000978 -0.999999 0.000000
99.62699890 200.60899353 242.50000000 0.178297 -0.894384 -0.410228 0.000000
74.55079651 115.21499634 277.50000000 0.165665 -0.019423 -0.985991 0.000000
45.74710083 110.47100067 225.00000000 0.767134 0.637599 0.070524 0.000000
87.42769623 76.58399963 262.50000000 -0.000978 -0.000978 -0.999999 0.000000
121.31400299 156.55700684 267.50000000 0.150341 -0.375150 -0.914691 0.000000
208.06399536 92.84960175 242.50000000 0.000978 0.000978 0.999999 0.000000
121.65299988 183.66600037 225.00000000 -0.631995 -0.530876 0.564582 0.000000
191.12100220 94.20510101 222.50000000 0.000978 0.000978 0.999999 0.000000
63.02930069 195.18800354 197.50000000 0.125447 -0.798436 0.588865 0.000000
128.09199524 123.34799957 217.50000000 -0.890692 -0.053196 -0.451484 0.000000
76.24510193 137.58000183 135.00000000 0.844241 -0.242738 0.477844 0.000000
138.25799561 97.59380341 192.50000000 -0.374963 -0.162720 0.912647 0.000000
57.94630051 128.77000427 170.00000000 0.833441 0.395451 0.385998 0.000000
124.70300293 72.85639954 195.00000000 0.240738 0.961650 -0.131430 0.000000
103.69300079 123.34799957 282.50000000 -0.000978 -0.000978 -0.999999 0.000000
82.00589752 179.60000610 257.50000000 0.112804 -0.801351 -0.587462 0.000000
209.41999817 89.46089935 277.50000000 -0.000978 -0.000978 -0.999999 0.000000
201.28700256 139.61300659 257.50000000 -0.562344 -0.606250 0.562344 0.000000
94.88279724 186.37699890 252.50000000 0.020329 -0.233189 -0.972219 0.000000
209.41999817 115.21499634 252.50000000 -0.279629 -0.191470 0.940822 0.000000
224.33000183 127.41400146 277.50000000 -0.069067 -0.531391 -0.844306 0.000000
214.16400146 135.54699707 277.50000000 -0.000978 -0.000978 -0.999999 0.000000
189.76600647 103.01599884 282.50000000 -0.000978 -0.000978 -0.999999 0.000000
168.07800293 146.39100647 272.50000000 -0.551250 -0.632167 -0.544507 0.000000
143.67999268 94.20510101 277.50000000 -0.000978 -0.000978 -0.999999 0.000000
67.09570313 172.82200623 177.50000000 -0.162295 -0.984429 -0.067524 0.000000
103.69300079 189.76600647 222.50000000 -0.094357 -0.596626 0.796953 0.000000
90.13870239 88.78320313 172.50000000 0.446914 0.892460 0.061502 0.000000
78.61720276 70.14550018 245.00000000 0.398427 0.879546 -0.260105 0.000000
66.41799927 174.17799377 252.50000000 0.094056 -0.264131 -0.959890 0.000000
159.94500732 104.37100220 282.50000000 0.000978 0.000978 -0.999999 0.000000
108.09899902 120.63700104 150.00000000 -0.828982 -0.051899 0.556862 0.000000
218.22999573 118.60399628 282.50000000 -0.000978 -0.000978 -0.999999 0.000000
124.36399841 170.78900146 220.00000000 -0.660840 -0.395841 0.637652 0.000000
50.15230179 132.15800476 262.50000000 0.467988 -0.701150 -0.537937 0.000000
210.77499390 111.82599640 252.50000000 0.000978 0.000978 0.999999 0.000000
93.52729797 86.07230377 272.50000000 0.040508 0.562918 -0.825520 0.000000
141.30799866 98.27149963 195.00000000 -0.763988 -0.202187 0.612734 0.000000
110.47100067 130.12500000 157.50000000 -0.697150 -0.258851 0.668565 0.000000
201.96499634 141.98500061 265.00000000 -0.220030 -0.934776 0.278891 0.000000
75.22850037 155.20100403 142.50000000 0.140950 -0.571217 0.808606 0.000000
90.13870239 92.17189789 157.50000000 0.375601 0.765835 0.521939 0.000000
119.28099823 127.41400146 282.50000000 -0.000978 -0.000978 -0.999999 0.000000
63.70700073 144.35699463 267.50000000 -0.000978 -0.000978 -0.999999 0.000000
71.16210175 84.71679688 262.50000000 0.419455 -0.455084 -0.785466 0.000000
106.40399933 146.39100647 277.50000000 -0.000978 -0.000978 -0.999999 0.000000
119.28099823 157.23399353 267.50000000 -0.262594 -0.242935 -0.933824 0.000000
120.63700104 188.41000366 247.50000000 -0.613818 -0.542798 -0.573235 0.000000
163.33399963 132.15800476 227.50000000 -0.711632 0.508309 0.484976 0.000000
231.78500366 113.18199921 282.50000000 -0.000978 -0.000978 -0.999999 0.000000
118.94200134 174.85499573 220.00000000 -0.205238 -0.615715 0.760771 0.000000
84.03910065 74.21189880 210.00000000 0.544570 0.813041 0.205930 0.000000
161.97900391 104.37100220 282.50000000 0.000978 0.000978 -0.999999 0.000000
91.83300018 146.39100647 150.00000000 -0.636562 -0.765338 0.095118 0.000000
105.04900360 74.21189880 200.00000000 0.431235 0.867009 0.249662 0.000000
73.53420258 205.35400391 225.00000000 0.155958 -0.982897 0.097927 0.000000
182.31100464 123.34799957 232.50000000 -0.637927 -0.637927 0.431392 0.000000
138.25799561 111.14800262 282.50000000 -0.000978 -0.000978 -0.999999 0.000000
163.33399963 138.25799561 232.50000000 0.000978 0.000978 0.999999 0.000000
123.34799957 169.43400574 217.50000000 -0.335551 -0.809456 0.481857 0.000000
107.08200073 124.02500153 282.50000000 -0.000978 -0.000978 -0.999999 0.000000
157.23399353 138.25799561 282.50000000 -0.000978 -0.000978 -0.999999 0.000000
118.60399628 193.83200073 237.50000000 -0.509246 -0.858918 0.054116 0.000000
209.41999817 140.96899414 277.50000000 -0.000978 -0.000978 -0.999999 0.000000
54.89649963 123.34799957 182.50000000 0.779143 0.353276 0.517815 0.000000
73.53420258 151.81199646 270.00000000 0.343241 -0.590505 -0.730404 0.000000
69.80660248 200.60899353 207.50000000 -0.139500 -0.941286 0.307442 0.000000
101.66000366 190.44299316 252.50000000 -0.179343 -0.224511 -0.957826 0.000000
53.54100037 115.21499634 262.50000000 0.055309 0.163575 -0.984979 0.000000
106.40399933 141.30799866 170.00000000 -0.453457 -0.816222 0.357992 0.000000
178.92199707 107.08200073 217.50000000 -0.223822 -0.191656 0.955600 0.000000
128.43099976 183.66600037 245.00000000 -0.709050 -0.570215 -0.414852 0.000000
206.03100586 93.52729797 242.50000000 0.000978 0.000978 0.999999 0.000000
222.29699707 79.63379669 265.00000000 -0.234551 0.907609 -0.348184 0.000000
166.72300720 73.87300110 257.50000000 -0.140452 0.989903 -0.019101 0.000000
146.39100647 134.86900330 282.50000000 -0.000978 -0.000978 -0.999999 0.000000
91.49410248 140.29100037 132.50000000 -0.262432 -0.682323 0.682323 0.000000
124.02500153 94.20510101 192.50000000 -0.436927 0.837835 -0.327304 0.000000
128.77000427 115.89299774 212.50000000 -0.835238 0.531783 -0.139943 0.000000
201.96499634 113.85900116 282.50000000 -0.000978 -0.000978 -0.999999 0.000000
128.09199524 68.11229706 240.00000000 -0.265723 0.963706 -0.025715 0.000000
121.99199677 146.39100647 192.50000000 -0.119952 -0.278130 0.953024 0.000000
181.63299561 74.55079651 212.50000000 -0.098041 0.990787 0.093427 0.000000
77.93949890 140.96899414 132.50000000 0.828486 0.001356 0.560008 0.000000
185.36000061 105.04900360 220.00000000 -0.625957 -0.416751 0.659164 0.000000
153.84599304 142.66299438 270.00000000 0.785255 -0.590085 -0.187546 0.000000
38.29199982 145.03500366 245.00000000 0.922430 -0.169884 -0.346789 0.000000
101.99900055 77.26170349 270.00000000 0.764761 0.195422 -0.613963 0.000000
133.51400757 137.58000183 282.50000000 -0.259597 -0.583701 -0.769352 0.000000
87.42769623 170.78900146 262.50000000 -0.000978 -0.000978 -0.999999 0.000000
222.29699707 126.73600006 267.50000000 0.000978 0.000978 0.999999 0.000000
216.19700623 107.08200073 257.50000000 0.000978 0.000978 0.999999 0.000000
215.52000427 98.27149963 252.50000000 -0.511735 0.086470 0.854781 0.000000
90.13870239 185.02099609 252.50000000 0.056185 -0.459070 -0.886622 0.000000
195.18800354 104.37100220 282.50000000 -0.000978 -0.000978 -0.999999 0.000000
145.71299744 72.51760101 257.50000000 -0.238927 0.951658 -0.193031 0.000000
124.02500153 155.53999329 270.00000000 0.209171 -0.618217 -0.757664 0.000000
62.35160065 168.75599670 257.50000000 0.445303 -0.036324 -0.894643 0.000000
133.51400757 127.41400146 282.50000000 -0.000978 -0.000978 -0.999999 0.000000
45.40819931 115.21499634 212.50000000 0.867550 0.357768 0.345484 0.000000
103.69300079 200.27099609 245.00000000 0.082305 -0.880246 -0.467325 0.000000
128.77000427 168.07800293 262.50000000 0.047464 -0.451585 -0.890965 0.000000
122.66999817 175.53300476 222.50000000 -0.525820 -0.185318 0.830163 0.000000
171.46699524 124.70300293 282.50000000 -0.000978 -0.000978 -0.999999 0.000000
141.64599609 108.43800354 282.50000000 -0.000978 -0.000978 -0.999999 0.000000
108.43800354 190.44299316 222.50000000 0.000978 0.000978 0.999999 0.000000
159.94500732 149.10200500 267.50000000 0.407522 -0.865413 -0.291524 0.000000
175.53300476 95.56050110 207.50000000 -0.289516 -0.625419 0.724590 0.000000
131.47999573 86.07230377 277.50000000 0.519315 0.852461 -0.060190 0.000000
157.91200256 132.15800476 282.50000000 -0.000978 -0.000978 -0.999999 0.000000
86.07230377 186.37699890 252.50000000 0.087056 -0.354922 -0.930834 0.000000
51.84669876 182.98800659 240.00000000 0.453513 -0.594085 -0.664371 0.000000
92.17189789 141.64599609 132.50000000 -0.262432 -0.682323 0.682323 0.000000
151.13499451 117.24800110 282.50000000 -0.000978 -0.000978 -0.999999 0.000000
122.66999817 174.85499573 257.50000000 -0.290708 -0.320221 -0.901636 0.000000
190.44299316 124.02500153 242.50000000 -0.558483 -0.400328 0.726522 0.000000
169.43400574 105.04900360 282.50000000 -0.000978 -0.000978 -0.999999 0.000000
113.18199921 130.80299377 282.50000000 -0.000978 -0.000978 -0.999999 0.000000
194.50999451 124.70300293 282.50000000 -0.000978 -0.000978 -0.999999 0.000000
197.89799500 127.41400146 282.50000000 -0.000978 -0.000978 -0.999999 0.000000
100.30500031 86.41110229 160.00000000 0.261060 0.936746 0.233140 0.000000
213.48599243 107.76000214 252.50000000 0.000978 0.000978 0.999999 0.000000
48.45800018 189.76600647 230.00000000 0.518847 -0.721082 -0.459172 0.000000
99.62699890 81.32810211 267.50000000 0.214835 -0.196154 -0.956750 0.000000
46.76369858 152.49000549 252.50000000 0.584908 -0.238643 -0.775198 0.000000
107.42099762 132.83599854 155.00000000 -0.786678 -0.331655 0.520714 0.000000
109.11499786 180.95500183 257.50000000 -0.339927 -0.210841 -0.916513 0.000000
88.78320313 142.32400513 132.50000000 -0.354570 -0.759330 0.545617 0.000000
55.57419968 176.88900757 182.50000000 0.558679 -0.695430 0.451946 0.000000
134.19099426 134.52999878 205.00000000 -0.820839 0.492503 0.289248 0.000000
90.81639862 142.32400513 132.50000000 -0.462253 -0.724031 0.511958 0.000000
56.59080124 153.84599304 260.00000000 0.222999 -0.734494 -0.640928 0.000000
191.12100220 79.97270203 272.50000000 0.000978 0.000978 -0.999999 0.000000
77.26170349 75.22850037 222.50000000 0.463449 0.884518 0.053317 0.000000
126.73600006 89.46089935 277.50000000 -0.000978 -0.000978 -0.999999 0.000000
214.16400146 86.07230377 242.50000000 -0.782822 -0.585187 0.211532 0.000000
236.52900696 116.56999969 282.50000000 0.328884 -0.396823 -0.856952 0.000000
94.20510101 172.48300171 205.00000000 -0.209017 -0.630146 0.747815 0.000000
60.99610138 195.86500549 202.50000000 0.268838 -0.914048 0.303714 0.000000
121.99199677 69.46779633 210.00000000 0.151722 0.959144 0.238796 0.000000
35.24219894 136.90199280 227.50000000 0.935934 0.247624 0.250422 0.000000
125.38099670 159.94500732 267.50000000 0.169045 -0.235598 -0.957036 0.000000
78.61720276 103.69300079 152.50000000 0.669946 0.653566 0.352172 0.000000
91.49410248 202.30400085 240.00000000 0.082254 -0.792239 -0.604641 0.000000
89.46089935 178.24400330 207.50000000 -0.540050 -0.651088 0.533320 0.000000
117.92600250 168.07800293 212.50000000 0.000978 0.000978 0.999999 0.000000
114.53700256 69.12889862 212.50000000 0.268988 0.942146 0.200016 0.000000
122.66999817 88.44429779 190.00000000 0.020701 0.815605 -0.578238 0.000000
65.74019623 128.77000427 272.50000000 0.364010 -0.158815 -0.917755 0.000000
198.57600403 138.59700012 255.00000000 -0.339061 -0.803876 0.488693 0.000000
132.83599854 166.72300720 222.50000000 -0.434240 -0.395783 0.809192 0.000000
35.91989899 128.77000427 237.50000000 0.919229 0.126169 -0.372960 0.000000
61.67380142 130.12500000 162.50000000 0.701420 0.369601 0.609430 0.000000
58.28519821 98.94920349 212.50000000 0.778613 0.611233 0.141973 0.000000
107.08200073 145.03500366 177.50000000 -0.313718 -0.815037 0.487130 0.000000
66.41799927 87.42769623 262.50000000 0.307514 0.233138 -0.922541 0.000000
104.37100220 82.68360138 272.50000000 -0.000978 -0.000978 -0.999999 0.000000
178.92199707 134.86900330 282.50000000 -0.000978 -0.000978 -0.999999 0.000000
130.12500000 148.42399597 272.50000000 -0.602193 -0.387713 -0.697884 0.000000
138.93600464 83.36129761 272.50000000 -0.000978 -0.000978 -0.999999 0.000000
154.52299500 101.66000366 202.50000000 0.000978 0.000978 0.999999 0.000000
58.28519821 128.77000427 267.50000000 0.385659 0.472795 -0.792295 0.000000
180.95500183 109.79299927 282.50000000 -0.000978 -0.000978 -0.999999 0.000000
45.40819931 168.75599670 242.50000000 0.510015 -0.815712 0.272944 0.000000
136.22500610 165.36700439 262.50000000 -0.631715 -0.574440 -0.520533 0.000000
150.45700073 143.34100342 240.00000000 0.001100 -0.990809 0.135260 0.000000
80.65039825 89.46089935 187.50000000 0.483399 0.761969 0.430963 0.000000
122.33100128 111.82599640 200.00000000 -0.000978 -0.000978 -0.999999 0.000000
83.36129761 143.67999268 132.50000000 -0.512598 -0.827807 0.227991 0.000000
109.79299927 176.21099854 217.50000000 -0.345223 -0.254143 0.903456 0.000000
119.28099823 124.02500153 162.50000000 0.000978 0.000978 0.999999 0.000000
85.39450073 143.67999268 132.50000000 -0.351274 -0.833292 0.426885 0.000000
151.13499451 130.12500000 282.50000000 -0.000978 -0.000978 -0.999999 0.000000
223.65199280 92.17189789 277.50000000 0.000978 0.000978 0.999999 0.000000
74.55079651 165.36700439 262.50000000 0.127933 -0.167679 -0.977506 0.000000
88.78320313 107.76000214 282.50000000 0.798153 0.487849 -0.353491 0.000000
84.03910065 141.64599609 277.50000000 0.060142 -0.391593 -0.918171 0.000000
71.16210175 125.38099670 272.50000000 -0.000978 -0.000978 -0.999999 0.000000
89.46089935 143.34100342 135.00000000 -0.386187 -0.764226 0.516545 0.000000
65.06250000 202.64300537 217.50000000 0.679518 -0.679518 0.276604 0.000000
93.52729797 174.17799377 207.50000000 -0.081381 -0.552531 0.829510 0.000000
81.32810211 179.60000610 257.50000000 -0.213824 -0.841648 -0.495890 0.000000
61.67380142 104.37100220 192.50000000 0.804885 0.403246 0.435377 0.000000
226.36300659 118.60399628 267.50000000 -0.392588 -0.222025 0.892513 0.000000
79.29489899 151.81199646 272.50000000 0.129738 -0.127313 -0.983341 0.000000
94.20510101 197.22099304 247.50000000 -0.000978 -0.000978 -0.999999 0.000000
116.56999969 137.91900635 175.00000000 -0.462397 -0.766304 0.446058 0.000000
67.77339935 103.69300079 182.50000000 0.764589 0.640289 0.073713 0.000000
153.16799927 139.61300659 277.50000000 0.703874 -0.703874 -0.095515 0.000000
74.88960266 192.47700500 245.00000000 0.337250 -0.756795 -0.559932 0.000000
128.77000427 112.50399780 282.50000000 -0.000978 -0.000978 -0.999999 0.000000
180.61599731 138.25799561 245.00000000 -0.519728 -0.466593 0.715663 0.000000
114.53700256 67.43460083 260.00000000 -0.020459 0.852462 -0.522389 0.000000
173.50000000 97.93260193 210.00000000 -0.236322 -0.749658 0.618194 0.000000
86.75000000 176.88900757 257.50000000 -0.000978 -0.000978 -0.999999 0.000000
42.69729996 131.47999573 202.50000000 0.915124 0.262500 0.306008 0.000000
181.63299561 137.58000183 247.50000000 -0.486094 -0.868733 0.094951 0.000000
92.17189789 86.75000000 272.50000000 0.077410 0.499644 -0.862765 0.000000
213.48599243 134.86900330 277.50000000 -0.000978 -0.000978 -0.999999 0.000000
77.93949890 145.03500366 132.50000000 0.773609 -0.434849 0.460908 0.000000
100.98200226 166.04499817 202.50000000 -0.339711 -0.593275 0.729809 0.000000
72.51760101 94.88279724 192.50000000 0.379528 0.535900 0.754169 0.000000
107.08200073 129.44700623 152.50000000 -0.807830 -0.305110 0.504301 0.000000
201.28700256 117.24800110 247.50000000 0.000978 0.000978 0.999999 0.000000
81.32810211 72.85639954 225.00000000 0.403161 0.887544 0.222994 0.000000
113.18199921 166.04499817 267.50000000 -0.196032 -0.125207 -0.972571 0.000000
159.26800537 144.35699463 237.50000000 -0.637927 -0.637927 0.431392 0.000000
212.13099670 89.79979706 245.00000000 -0.689533 -0.637370 0.343952 0.000000
203.32000732 92.17189789 277.50000000 -0.230022 0.921516 -0.312887 0.000000
181.63299561 132.15800476 282.50000000 -0.000978 -0.000978 -0.999999 0.000000
142.32400513 90.13870239 277.50000000 -0.000978 -0.000978 -0.999999 0.000000
161.30099487 144.69599915 275.00000000 0.406810 -0.898431 -0.165311 0.000000
61.33499908 126.05899811 165.00000000 0.889320 0.216799 0.402627 0.000000
140.29100037 149.10200500 227.50000000 -0.955212 -0.281250 0.092022 0.000000
94.20510101 124.02500153 282.50000000 -0.000978 -0.000978 -0.999999 0.000000
233.14100647 107.08200073 282.50000000 -0.000978 -0.000978 -0.999999 0.000000
50.83010101 189.76600647 202.50000000 0.625063 -0.625063 0.467540 0.000000
64.38480377 140.96899414 267.50000000 0.678376 -0.076989 -0.730670 0.000000
88.78320313 176.88900757 202.50000000 -0.642493 -0.625804 0.442235 0.000000
49.81349945 133.51400757 260.00000000 0.598911 -0.212018 -0.772240 0.000000
108.09899902 123.34799957 150.00000000 -0.777991 -0.256187 0.573670 0.000000
41.68069839 139.61300659 250.00000000 0.175407 0.526222 -0.832060 0.000000
139.61300659 139.95199585 265.00000000 -0.000978 -0.000978 -0.999999 0.000000
82.00589752 145.71299744 132.50000000 -0.119697 -0.604398 0.787639 0.000000
63.70700073 182.98800659 247.50000000 -0.000978 -0.000978 -0.999999 0.000000
71.16210175 166.72300720 172.50000000 -0.823342 -0.547411 0.149833 0.000000
168.75599670 105.72699738 212.50000000 -0.759871 -0.633477 0.145955 0.000000
47.10250092 149.10200500 255.00000000 0.794268 0.035021 -0.606557 0.000000
178.92199707 105.72699738 217.50000000 -0.078968 -0.234398 0.968928 0.000000
169.43400574 134.86900330 282.50000000 -0.000978 -0.000978 -0.999999 0.000000
212.80900574 107.76000214 252.50000000 0.000978 0.000978 0.999999 0.000000
114.53700256 71.83979797 197.50000000 0.090463 0.947893 0.305476 0.000000
229.07400513 110.47100067 282.50000000 -0.000978 -0.000978 -0.999999 0.000000
140.63000488 145.71299744 220.00000000 -0.941324 -0.217016 0.258484 0.000000
111.82599640 197.89799500 237.50000000 -0.417636 -0.903258 0.098512 0.000000
210.77499390 132.83599854 257.50000000 -0.564446 -0.441234 0.697649 0.000000
116.56999969 89.46089935 187.50000000 0.567913 0.805925 -0.167211 0.000000
130.80299377 155.53999329 200.00000000 -0.394626 -0.794085 0.462276 0.000000
96.91600037 65.74019623 222.50000000 -0.001199 0.964929 0.262509 0.000000
215.52000427 140.96899414 277.50000000 -0.998190 0.030632 -0.051758 0.000000
147.06799316 112.50399780 282.50000000 -0.000978 -0.000978 -0.999999 0.000000
115.89299774 124.02500153 157.50000000 -0.000978 -0.000978 0.999999 0.000000
178.24400330 102.33799744 282.50000000 -0.000978 -0.000978 -0.999999 0.000000
125.38099670 181.63299561 252.50000000 -0.107431 -0.143644 -0.983781 0.000000
212.80900574 127.41400146 257.50000000 -0.790226 -0.251933 0.558635 0.000000
90.47750092 103.69300079 280.00000000 0.855794 0.420958 -0.300684 0.000000
79.29489899 147.06799316 132.50000000 -0.355414 -0.934701 -0.003794 0.000000
66.41799927 121.31400299 157.50000000 0.871648 0.352628 0.340416 0.000000
106.40399933 91.49410248 272.50000000 0.373533 0.084955 -0.923718 0.000000
94.88279724 202.98100281 240.00000000 -0.147214 -0.915530 -0.374344 0.000000
44.05270004 185.69900513 227.50000000 0.679518 -0.679518 -0.276604 0.000000
187.73199463 112.50399780 227.50000000 -0.662932 -0.721653 0.199343 0.000000
126.73600006 119.62000275 220.00000000 -0.778959 0.473230 0.411433 0.000000
104.37100220 130.80299377 147.50000000 -0.883268 -0.306501 0.354817 0.000000
90.81639862 85.39450073 272.50000000 0.006421 0.383969 -0.923324 0.000000
75.90619659 79.97270203 212.50000000 0.558729 0.672824 0.484903 0.000000
178.92199707 134.86900330 242.50000000 -0.017292 -0.180989 0.983333 0.000000
161.30099487 73.87300110 257.50000000 0.536479 0.533115 0.654201 0.000000
176.21099854 133.51400757 237.50000000 -0.842992 -0.051726 0.535433 0.000000
107.08200073 150.45700073 187.50000000 -0.263949 -0.763397 0.589539 0.000000
84.71679688 199.25399780 242.50000000 -0.463251 -0.067759 -0.883633 0.000000
216.19700623 130.80299377 262.50000000 -0.393329 -0.712600 0.580942 0.000000
90.13870239 97.59380341 277.50000000 0.000978 0.000978 -0.999999 0.000000
48.79690170 113.85900116 252.50000000 0.560102 0.153841 -0.814014 0.000000
132.15800476 144.35699463 272.50000000 -0.967988 -0.250154 0.020544 0.000000
66.41799927 157.57299805 265.00000000 -0.113811 -0.648872 -0.752337 0.000000
130.12500000 162.99499512 265.00000000 -0.067870 -0.737907 -0.671481 0.000000
139.27400208 152.49000549 235.00000000 -0.982373 -0.186846 -0.005731 0.000000
128.77000427 176.88900757 227.50000000 -0.488752 -0.268426 0.830102 0.000000
50.83010101 115.21499634 257.50000000 0.735716 0.244188 -0.631739 0.000000
138.25799561 121.65299988 220.00000000 0.134455 -0.951833 0.275566 0.000000
69.80660248 80.98930359 225.00000000 0.794969 0.547227 0.261854 0.000000
197.89799500 126.05899811 247.50000000 0.000978 0.000978 0.999999 0.000000
47.44139862 188.41000366 212.50000000 0.859886 -0.478043 0.179081 0.000000
193.15400696 144.35699463 267.50000000 0.043063 -0.994860 0.091646 0.000000
82.68360138 154.18499756 155.00000000 -0.596659 -0.792090 0.128807 0.000000
65.06250000 197.22099304 202.50000000 0.331042 -0.898117 0.289476 0.000000
215.52000427 100.30500031 257.50000000 0.000978 0.000978 0.999999 0.000000
107.08200073 109.11499786 282.50000000 -0.000978 -0.000978 -0.999999 0.000000
171.46699524 149.77900696 267.50000000 -0.360706 -0.774790 -0.519222 0.000000
122.33100128 112.50399780 180.00000000 -0.810257 0.571165 -0.131353 0.000000
128.09199524 165.36700439 262.50000000 -0.020199 -0.480734 -0.876634 0.000000
185.02099609 128.77000427 282.50000000 -0.000978 -0.000978 -0.999999 0.000000
66.41799927 180.95500183 247.50000000 -0.000978 -0.000978 -0.999999 0.000000
100.30500031 119.95899963 282.50000000 -0.000978 -0.000978 -0.999999 0.000000
140.96899414 113.85900116 282.50000000 -0.000978 -0.000978 -0.999999 0.000000
194.50999451 107.08200073 232.50000000 -0.956341 -0.291492 0.021087 0.000000
39.98630142 138.25799561 207.50000000 0.879525 0.440494 0.180003 0.000000
55.57419968 92.84960175 247.50000000 0.855597 0.428566 0.290319 0.000000
95.56050110 92.51069641 275.00000000 -0.323610 0.442424 -0.836384 0.000000
50.15230179 105.04900360 222.50000000 0.815422 0.549162 0.183054 0.000000
119.95899963 69.12889862 212.50000000 0.151722 0.959144 0.238796 0.000000
109.79299927 82.00589752 272.50000000 -0.000978 -0.000978 -0.999999 0.000000
91.49410248 103.01599884 137.50000000 0.456422 0.886486 0.076302 0.000000
238.90100098 109.11499786 280.00000000 -0.971254 -0.143842 -0.189668 0.000000
138.25799561 130.12500000 282.50000000 -0.000978 -0.000978 -0.999999 0.000000
119.95899963 87.42769623 187.50000000 0.304858 0.948593 -0.085046 0.000000
97.59380341 92.17189789 272.50000000 -0.238258 0.418076 -0.876610 0.000000
136.90199280 115.89299774 282.50000000 -0.000978 -0.000978 -0.999999 0.000000
99.62699890 183.32699585 255.00000000 -0.052345 -0.587113 -0.807811 0.000000
136.22500610 150.45700073 257.50000000 -0.996055 0.007457 -0.088420 0.000000
174.85499573 134.86900330 282.50000000 0.179747 -0.281283 -0.942640 0.000000
105.72699738 200.94799805 240.00000000 -0.001100 -0.990809 0.135260 0.000000
138.59700012 151.13499451 245.00000000 -0.833205 -0.476339 0.280838 0.000000
51.50780106 105.38800049 215.00000000 0.679518 0.679518 0.276604 0.000000
60.99610138 189.76600647 242.50000000 0.396014 -0.415099 -0.819064 0.000000
103.69300079 138.93600464 157.50000000 0.001199 -0.964929 0.262509 0.000000
227.04100037 119.95899963 267.50000000 -0.051320 -0.369767 0.927706 0.000000
163.33399963 91.49410248 282.50000000 -0.000978 -0.000978 -0.999999 0.000000
218.90800476 111.48699951 260.00000000 -0.699052 -0.210183 0.683483 0.000000
48.79690170 166.72300720 182.50000000 -0.000978 -0.000978 0.999999 0.000000
224.66900635 123.34799957 280.00000000 -0.125820 -0.794884 -0.593573 0.000000
47.44139862 110.47100067 217.50000000 0.892460 0.446914 0.061502 0.000000
91.49410248 103.69300079 137.50000000 0.456422 0.886486 0.076302 0.000000
225.00799561 94.88279724 277.50000000 0.000978 0.000978 0.999999 0.000000
210.77499390 119.95899963 282.50000000 -0.000978 -0.000978 -0.999999 0.000000
77.93949890 186.03799438 200.00000000 -0.782766 -0.314063 0.537255 0.000000
45.40819931 142.32400513 252.50000000 0.707944 -0.290562 -0.643731 0.000000
54.21879959 147.74600220 167.50000000 0.957525 0.140929 0.251564 0.000000
208.74200439 94.20510101 277.50000000 -0.251670 0.564303 -0.786273 0.000000
191.79899597 124.70300293 242.50000000 -0.558483 -0.400328 0.726522 0.000000
182.98800659 121.31400299 227.50000000 -0.000978 -0.000978 0.999999 0.000000
225.68600464 86.07230377 277.50000000 0.000978 0.000978 0.999999 0.000000
66.41799927 189.76600647 242.50000000 0.385548 -0.509184 -0.769470 0.000000
94.88279724 88.10549927 272.50000000 -0.084955 0.373533 -0.923718 0.000000
135.54699707 129.78599548 230.00000000 -0.647892 0.720405 -0.247492 0.000000
145.71299744 139.95199585 265.00000000 0.236840 -0.934747 -0.264868 0.000000
80.65039825 161.30099487 267.50000000 0.123051 -0.242216 -0.962388 0.000000
71.16210175 157.91200256 267.50000000 0.306866 -0.071214 -0.949085 0.000000
195.18800354 145.71299744 277.50000000 -0.000978 -0.000978 -0.999999 0.000000
77.93949890 84.03910065 267.50000000 0.355809 0.087274 -0.930475 0.000000
84.71679688 92.84960175 277.50000000 0.536401 -0.792734 0.289562 0.000000
61.67380142 176.21099854 252.50000000 -0.000978 -0.000978 -0.999999 0.000000
185.02099609 100.30500031 282.50000000 -0.000978 -0.000978 -0.999999 0.000000
209.41999817 86.75000000 237.50000000 -0.684055 -0.427743 0.590851 0.000000
203.99800110 78.27829742 265.00000000 0.001199 0.964929 -0.262509 0.000000
96.23829651 149.10200500 177.50000000 -0.359551 -0.825224 0.435579 0.000000
201.96499634 139.95199585 260.00000000 -0.682415 -0.626507 0.376562 0.000000
94.20510101 136.22500610 277.50000000 -0.000978 -0.000978 -0.999999 0.000000
84.03910065 117.24800110 277.50000000 0.130605 -0.403051 -0.905810 0.000000
139.61300659 123.00900269 225.00000000 0.872498 -0.476814 -0.106749 0.000000
239.24000549 110.47100067 272.50000000 -0.874781 -0.216087 0.433665 0.000000
128.77000427 114.53700256 207.50000000 -0.375766 0.785399 -0.491882 0.000000
88.10549927 105.04900360 137.50000000 0.531328 0.819194 0.215900 0.000000
84.71679688 174.85499573 197.50000000 -0.374660 -0.362223 0.853478 0.000000
87.76660156 105.04900360 140.00000000 0.514724 0.726571 0.455141 0.000000
114.53700256 174.17799377 262.50000000 -0.117754 -0.172293 -0.977982 0.000000
128.09199524 124.02500153 197.50000000 -0.917112 0.398576 0.006449 0.000000
105.04900360 200.94799805 240.00000000 0.611920 -0.780828 0.125940 0.000000
89.46089935 76.58399963 202.50000000 0.092452 0.854823 0.510618 0.000000
224.33000183 92.17189789 277.50000000 0.000978 0.000978 0.999999 0.000000
100.98200226 161.97900391 197.50000000 -0.227253 -0.659817 0.716238 0.000000
132.15800476 94.20510101 192.50000000 0.001373 0.789499 -0.613750 0.000000
171.46699524 73.53420258 255.00000000 -0.050922 0.965043 -0.257096 0.000000
131.47999573 166.72300720 222.50000000 -0.434240 -0.395783 0.809192 0.000000
211.79200745 100.98200226 250.00000000 -0.530868 0.099268 0.841620 0.000000
181.63299561 117.24800110 222.50000000 -0.343893 0.431829 0.833823 0.000000
84.71679688 90.47750092 180.00000000 0.466666 0.824914 0.318967 0.000000
184.68299866 92.17189789 215.00000000 -0.638507 -0.145730 0.755692 0.000000
213.48599243 141.30799866 270.00000000 -0.467183 -0.790494 0.396055 0.000000
215.52000427 115.89299774 282.50000000 -0.000978 -0.000978 -0.999999 0.000000
131.47999573 154.86199951 200.00000000 -0.488259 -0.780241 0.390932 0.000000
138.93600464 154.86199951 230.00000000 -0.977014 -0.203190 0.064485 0.000000
48.79690170 118.94200134 200.00000000 0.927547 0.328768 0.177675 0.000000
231.10699463 103.01599884 267.50000000 0.000978 0.000978 0.999999 0.000000
138.59700012 142.32400513 210.00000000 -0.985717 -0.045495 0.162148 0.000000
189.08799744 99.62699890 222.50000000 -0.869512 -0.434005 0.235774 0.000000
51.16889954 151.81199646 175.00000000 0.889023 0.053259 0.454754 0.000000
68.45120239 144.35699463 272.50000000 -0.000978 -0.000978 -0.999999 0.000000
56.59080124 155.20100403 165.00000000 0.835424 -0.336991 0.434170 0.000000
71.16210175 105.72699738 272.50000000 0.364751 0.096273 -0.926115 0.000000
162.65600586 114.53700256 217.50000000 0.000978 0.000978 0.999999 0.000000
130.80299377 148.76300049 270.00000000 -0.690569 -0.095301 -0.716960 0.000000
176.21099854 121.31400299 282.50000000 -0.000978 -0.000978 -0.999999 0.000000
71.83979797 120.63700104 277.50000000 0.298493 0.206002 -0.931915 0.000000
38.63090134 170.11099243 232.50000000 0.956154 -0.121978 -0.266254 0.000000
96.91600037 166.04499817 267.50000000 0.000978 0.000978 -0.999999 0.000000
63.70700073 93.52729797 262.50000000 0.420928 0.254971 -0.870522 0.000000
159.26800537 140.96899414 232.50000000 0.000978 0.000978 0.999999 0.000000
118.60399628 101.66000366 282.50000000 0.000978 0.000978 -0.999999 0.000000
112.50399780 102.33799744 277.50000000 -0.000978 -0.000978 -0.999999 0.000000
103.01599884 64.72360229 250.00000000 0.528379 0.844552 -0.086876 0.000000
230.42999268 98.27149963 267.50000000 0.000978 0.000978 0.999999 0.000000
182.31100464 133.51400757 282.50000000 -0.000978 -0.000978 -0.999999 0.000000
43.37500000 165.36700439 197.50000000 0.942865 -0.026721 0.332102 0.000000
86.75000000 106.40399933 137.50000000 0.734157 0.676912 0.052951 0.000000
113.18199921 67.09570313 222.50000000 -0.118916 0.967949 0.221209 0.000000
48.11909866 160.62300110 252.50000000 0.493968 -0.250831 -0.832514 0.000000
128.77000427 170.78900146 257.50000000 -0.402300 -0.843735 -0.355339 0.000000
202.64300537 75.56739807 245.00000000 0.001100 0.990809 0.135260 0.000000
185.69900513 135.54699707 247.50000000 -0.049917 -0.902556 0.427669 0.000000
99.62699890 87.42769623 157.50000000 0.327941 0.860653 0.389526 0.000000
77.93949890 166.72300720 262.50000000 0.096609 -0.264066 -0.959654 0.000000
118.60399628 114.53700256 282.50000000 0.001272 0.926978 -0.375114 0.000000
87.42769623 126.73600006 277.50000000 0.306215 -0.130850 -0.942927 0.000000
136.22500610 153.16799927 267.50000000 -0.811641 0.314847 -0.492047 0.000000
82.34470367 68.45120239 245.00000000 0.000978 0.000978 -0.999999 0.000000
131.47999573 127.41400146 282.50000000 -0.000978 -0.000978 -0.999999 0.000000
225.68600464 94.88279724 267.50000000 0.000978 0.000978 0.999999 0.000000
40.32519913 117.92600250 235.00000000 0.921022 0.368685 -0.125657 0.000000
182.31100464 98.27149963 282.50000000 -0.000978 -0.000978 -0.999999 0.000000
78.61720276 88.78320313 272.50000000 0.629208 0.195377 -0.752280 0.000000
52.18550110 107.76000214 207.50000000 0.848014 0.485227 0.213137 0.000000
137.58000183 139.27400208 275.00000000 -0.486534 -0.486534 -0.725650 0.000000
143.67999268 77.93949890 267.50000000 0.106118 0.878660 -0.465506 0.000000
120.63700104 164.68899536 212.50000000 0.000978 0.000978 0.999999 0.000000
171.46699524 116.56999969 282.50000000 -0.000978 -0.000978 -0.999999 0.000000
155.87899780 96.23829651 282.50000000 0.000978 0.000978 -0.999999 0.000000
51.50780106 182.98800659 237.50000000 0.307485 -0.418735 -0.854467 0.000000
147.74600220 100.30500031 197.50000000 -0.796531 -0.001371 0.604596 0.000000
124.02500153 157.23399353 267.50000000 0.150341 -0.375150 -0.914691 0.000000
98.27149963 82.00589752 267.50000000 -0.000978 -0.000978 -0.999999 0.000000
