121.56199646 203.61700439 397.50000000 0.599149 -0.787410 -0.144931 0.000000
92.31150055 139.03700256 325.00000000 0.702968 0.702968 0.108035 0.000000
93.45120239 208.93600464 257.50000000 -0.163354 -0.075119 0.983703 0.000000
139.79699707 177.78500366 402.50000000 0.502944 -0.068647 -0.861589 0.000000
122.32199860 259.07998657 342.50000000 -0.609391 -0.545245 0.575630 0.000000
229.44900513 177.02499390 382.50000000 -0.447429 -0.741313 0.500262 0.000000
96.49019623 208.93600464 257.50000000 -0.461487 -0.011969 0.887066 0.000000
174.74600220 156.51199341 412.50000000 -0.000978 -0.000978 -0.999999 0.000000
230.96899414 153.47300720 397.50000000 -0.000978 -0.000978 -0.999999 0.000000
237.04699707 120.04299927 367.50000000 -0.387615 -0.183000 0.903474 0.000000
135.99800110 184.62300110 297.50000000 0.000978 0.000978 0.999999 0.000000
137.51800537 221.85200500 387.50000000 -0.000978 -0.000978 -0.999999 0.000000
91.17189789 189.94099426 387.50000000 0.838378 0.333784 -0.430942 0.000000
136.37800598 158.03100586 305.00000000 -0.962303 0.226501 0.150564 0.000000
132.19900513 255.28100586 347.50000000 -0.589710 -0.278165 0.758199 0.000000
104.84799957 216.53300476 277.50000000 0.000978 0.000978 0.999999 0.000000
109.40599823 231.34899902 385.00000000 0.347474 -0.693317 -0.631326 0.000000
112.44499969 211.21499634 282.50000000 -0.603786 -0.376749 0.702497 0.000000
133.71899414 200.57800293 297.50000000 -0.331160 -0.816015 0.473764 0.000000
142.07600403 247.68400574 372.50000000 -0.699299 -0.280039 -0.657693 0.000000
218.05299377 139.79699707 397.50000000 -0.426925 -0.760614 -0.489083 0.000000
128.02099609 210.45500183 300.00000000 -0.717190 -0.407232 0.565509 0.000000
99.90920258 132.95899963 315.00000000 0.644538 0.760410 0.079662 0.000000
173.22700500 109.40599823 382.50000000 0.284204 0.837083 -0.467462 0.000000
93.45120239 209.69500732 257.50000000 -0.163354 -0.075119 0.983703 0.000000
183.86300659 201.33799744 387.50000000 0.130864 -0.821942 -0.554333 0.000000
175.88600159 196.77900696 350.00000000 0.341287 -0.939499 -0.029399 0.000000
149.67399597 173.98599243 337.50000000 -0.822808 -0.560547 0.093665 0.000000
218.81199646 167.14799500 372.50000000 0.000978 0.000978 0.999999 0.000000
96.87010193 209.69500732 260.00000000 -0.617251 -0.456665 0.640670 0.000000
88.89260101 267.43798828 312.50000000 -0.076499 -0.630753 0.772204 0.000000
159.55099487 221.85200500 357.50000000 -0.762600 -0.382113 0.521950 0.000000
101.80899811 132.19900513 362.50000000 0.606673 0.708058 -0.361388 0.000000
188.42199707 126.88099670 332.50000000 0.000000 0.000000 0.000000 0.000000
204.37699890 127.64099884 342.50000000 -0.327568 -0.582523 0.743886 0.000000
74.07710266 271.23599243 330.00000000 0.772371 -0.630890 0.073628 0.000000
167.14799500 156.51199341 412.50000000 -0.000978 -0.000978 -0.999999 0.000000
143.97599792 176.26600647 305.00000000 -0.909655 -0.001294 0.415362 0.000000
98.00980377 134.85800171 315.00000000 0.685811 0.712942 0.146206 0.000000
88.89260101 210.45500183 257.50000000 0.000978 0.000978 0.999999 0.000000
89.65229797 210.45500183 257.50000000 0.000978 0.000978 0.999999 0.000000
67.99900055 258.32000732 335.00000000 0.937396 -0.338099 0.083530 0.000000
107.88700104 268.95700073 372.50000000 -0.000978 -0.000978 -0.999999 0.000000
89.65229797 247.68400574 292.50000000 -0.804336 -0.590037 0.070004 0.000000
228.30999756 135.99800110 370.00000000 -0.603838 -0.313996 0.732657 0.000000
93.45120239 210.45500183 257.50000000 -0.183331 -0.396977 0.899333 0.000000
189.18200684 113.96499634 392.50000000 -0.000978 -0.000978 -0.999999 0.000000
128.02099609 204.37699890 295.00000000 -0.688216 -0.487277 0.537512 0.000000
67.61910248 254.14199829 325.00000000 0.976516 -0.195796 0.089894 0.000000
130.67999268 199.81799316 297.50000000 -0.318205 -0.715557 0.621872 0.000000
188.80200195 204.37699890 375.00000000 -0.857446 -0.513922 0.025901 0.000000
189.18200684 160.31100464 412.50000000 -0.000978 -0.000978 -0.999999 0.000000
104.84799957 136.37800598 290.00000000 0.649312 0.735681 0.192789 0.000000
113.96499634 206.65600586 392.50000000 -0.000978 -0.000978 -0.999999 0.000000
132.19900513 186.90199280 402.50000000 0.004143 -0.642214 -0.766514 0.000000
72.93750000 257.94000244 305.00000000 0.681103 -0.611502 0.402696 0.000000
227.92999268 145.87500000 372.50000000 0.000978 0.000978 0.999999 0.000000
221.09199524 168.66799927 402.50000000 -0.395666 -0.235621 -0.887655 0.000000
149.67399597 166.38900757 407.50000000 -0.000978 -0.000978 -0.999999 0.000000
202.85699463 173.60600281 360.00000000 -0.772550 -0.569498 0.280783 0.000000
96.49019623 143.59599304 292.50000000 0.660031 0.740487 0.126643 0.000000
155.75199890 215.77299500 387.50000000 -0.271288 -0.537872 -0.798183 0.000000
69.51860046 173.98599243 330.00000000 0.939188 0.312154 0.143127 0.000000
238.56599426 151.19299316 397.50000000 -0.451299 0.564540 -0.691103 0.000000
143.59599304 144.35499573 397.50000000 -0.000978 -0.000978 -0.999999 0.000000
221.09199524 112.44499969 387.50000000 -0.000978 -0.000978 -0.999999 0.000000
157.27099609 153.47300720 407.50000000 -0.000978 -0.000978 -0.999999 0.000000
154.23199463 126.12100220 387.50000000 0.450266 0.716106 -0.533341 0.000000
143.59599304 180.82400513 407.50000000 0.191400 -0.782445 -0.592576 0.000000
112.44499969 153.47300720 392.50000000 0.000978 0.000978 -0.999999 0.000000
73.69730377 174.74600220 362.50000000 0.448915 0.528427 -0.720583 0.000000
147.77400208 168.66799927 330.00000000 -0.644929 -0.359388 0.674468 0.000000
154.99200439 145.87500000 322.50000000 0.000978 0.000978 0.999999 0.000000
92.69139862 154.99200439 377.50000000 -0.000978 -0.000978 -0.999999 0.000000
171.70700073 164.86900330 337.50000000 -0.439879 -0.472584 0.763656 0.000000
184.62300110 186.14300537 342.50000000 -0.424048 0.590341 0.686791 0.000000
147.01499939 177.78500366 335.00000000 -0.909655 0.001294 -0.415362 0.000000
196.77900696 118.52300262 332.50000000 -0.383564 -0.227787 0.894982 0.000000
224.89100647 127.64099884 362.50000000 -0.000978 -0.000978 0.999999 0.000000
147.39500427 195.25999451 397.50000000 -0.000978 -0.000978 -0.999999 0.000000
143.59599304 222.61099243 387.50000000 -0.000978 -0.000978 -0.999999 0.000000
81.29489899 259.07998657 297.50000000 -0.015338 -0.695781 0.718090 0.000000
147.39500427 185.38299561 332.50000000 -0.976760 0.173397 -0.125993 0.000000
75.21679688 191.46099854 272.50000000 0.893975 0.387340 0.225335 0.000000
183.86300659 191.46099854 392.50000000 -0.000978 -0.000978 -0.999999 0.000000
92.69139862 137.89700317 330.00000000 0.702968 0.702968 0.108035 0.000000
94.97070313 211.97500610 257.50000000 -0.455432 -0.397497 0.796604 0.000000
77.11620331 221.85200500 375.00000000 0.751579 -0.126503 -0.647400 0.000000
96.49019623 265.91799927 372.50000000 -0.000978 -0.000978 -0.999999 0.000000
235.52699280 158.79100037 382.50000000 0.000978 0.000978 0.999999 0.000000
88.13279724 239.32600403 377.50000000 -0.000978 -0.000978 -0.999999 0.000000
92.69139862 154.99200439 277.50000000 0.758943 0.587107 0.281621 0.000000
170.94700623 194.11999512 365.00000000 -0.075164 -0.903340 -0.422288 0.000000
101.80899811 144.35499573 377.50000000 0.415781 0.247668 -0.875092 0.000000
215.01400757 112.44499969 387.50000000 -0.000978 -0.000978 -0.999999 0.000000
144.35499573 110.16600037 352.50000000 0.000978 0.000978 -0.999999 0.000000
207.41600037 161.83000183 407.50000000 -0.000978 -0.000978 -0.999999 0.000000
227.16999817 145.87500000 372.50000000 0.000978 0.000978 0.999999 0.000000
94.97070313 266.67800903 372.50000000 0.221740 -0.246531 -0.943427 0.000000
149.67399597 139.03700256 317.50000000 0.000978 0.000978 0.999999 0.000000
165.24899292 162.58999634 330.00000000 -0.325577 -0.626858 0.707848 0.000000
85.09380341 170.18800354 272.50000000 0.841619 0.409055 0.352634 0.000000
82.81449890 173.22700500 377.50000000 0.754618 -0.158787 -0.636662 0.000000
175.50599670 193.74000549 382.50000000 0.814383 -0.562206 -0.143889 0.000000
150.43400574 200.57800293 317.50000000 0.000978 0.000978 0.999999 0.000000
94.97070313 148.91400146 282.50000000 0.459343 0.689850 0.559563 0.000000
177.78500366 136.75799561 327.50000000 -0.674905 -0.133185 0.725785 0.000000
236.28700256 149.67399597 377.50000000 0.000978 0.000978 0.999999 0.000000
240.84599304 139.79699707 392.50000000 -0.000978 -0.000978 -0.999999 0.000000
164.10899353 121.56199646 312.50000000 -0.000978 -0.000978 0.999999 0.000000
171.70700073 132.95899963 407.50000000 -0.000978 -0.000978 -0.999999 0.000000
69.13870239 178.54499817 312.50000000 0.694495 0.697562 0.176307 0.000000
80.91500092 246.92399597 285.00000000 0.519313 -0.485917 0.702993 0.000000
104.84799957 240.08599854 382.50000000 -0.000978 -0.000978 -0.999999 0.000000
102.56800079 150.43400574 382.50000000 -0.000978 -0.000978 -0.999999 0.000000
85.85350037 278.07400513 327.50000000 0.001112 -0.988665 0.150135 0.000000
91.17189789 157.27099609 377.50000000 0.720557 0.375871 -0.582682 0.000000
119.28299713 253.76199341 332.50000000 -0.848828 -0.378468 0.369124 0.000000
215.77299500 183.10400391 387.50000000 -0.070376 -0.955838 0.285344 0.000000
129.16000366 165.62899780 287.50000000 -0.528140 -0.142701 0.837081 0.000000
143.59599304 215.01400757 387.50000000 -0.000978 -0.000978 -0.999999 0.000000
67.61910248 210.45500183 287.50000000 0.978424 -0.036854 0.203293 0.000000
208.17599487 138.27699280 402.50000000 -0.000978 -0.000978 -0.999999 0.000000
73.31739807 195.25999451 275.00000000 0.835813 0.207816 0.508162 0.000000
119.28299713 240.84599304 322.50000000 -0.517423 -0.557873 0.648885 0.000000
217.29299927 152.71299744 407.50000000 -0.000978 -0.000978 -0.999999 0.000000
88.13279724 214.25399780 257.50000000 -0.889045 -0.292351 0.352320 0.000000
66.47949982 201.33799744 360.00000000 0.943225 0.130518 -0.305438 0.000000
113.20500183 198.29899597 397.50000000 0.742536 -0.182189 -0.644552 0.000000
101.04900360 148.91400146 382.50000000 -0.000978 -0.000978 -0.999999 0.000000
111.68599701 186.90199280 397.50000000 -0.000978 -0.000978 -0.999999 0.000000
173.98599243 103.32800293 347.50000000 -0.037105 0.856174 0.515354 0.000000
235.52699280 156.51199341 397.50000000 -0.000978 -0.000978 -0.999999 0.000000
152.71299744 228.68899536 377.50000000 -0.000978 -0.000978 -0.999999 0.000000
93.83110046 214.25399780 260.00000000 -0.490516 -0.678017 0.547436 0.000000
71.03810120 169.42799377 335.00000000 0.949175 0.314746 0.001234 0.000000
74.45700073 266.67800903 317.50000000 0.608975 -0.004124 0.793179 0.000000
64.58010101 192.22099304 312.50000000 0.833482 0.423831 0.354506 0.000000
154.23199463 132.95899963 312.50000000 -0.015369 -0.697176 0.716736 0.000000
206.65600586 164.10899353 407.50000000 0.000978 0.000978 -0.999999 0.000000
69.89839935 207.41600037 282.50000000 0.828209 0.413313 0.378474 0.000000
151.57299805 230.96899414 350.00000000 -0.623338 -0.623338 0.472124 0.000000
155.75199890 131.43899536 392.50000000 0.207973 0.382496 -0.900247 0.000000
122.32199860 271.99600220 367.50000000 -0.672704 0.672704 -0.308121 0.000000
156.13200378 230.96899414 365.00000000 -0.863703 -0.494963 0.095022 0.000000
170.94700623 173.98599243 407.50000000 -0.000978 -0.000978 -0.999999 0.000000
199.05900574 181.96400452 365.00000000 -0.553217 -0.831916 0.043198 0.000000
86.61329651 190.70100403 382.50000000 0.697293 0.152769 -0.700318 0.000000
186.90199280 113.20500183 392.50000000 -0.000978 -0.000978 -0.999999 0.000000
113.20500183 200.57800293 392.50000000 0.795987 -0.561055 -0.227204 0.000000
243.12500000 132.95899963 387.50000000 0.199743 0.896655 -0.395111 0.000000
157.27099609 137.51800537 402.50000000 -0.140995 0.372729 -0.917166 0.000000
158.79100037 117.00399780 382.50000000 0.467082 0.513624 -0.719739 0.000000
224.13099670 153.47300720 372.50000000 0.000978 0.000978 0.999999 0.000000
72.93750000 190.32099915 280.00000000 0.876321 0.391998 0.279999 0.000000
115.48400116 155.75199890 272.50000000 -0.000978 -0.000978 0.999999 0.000000
75.21679688 188.42199707 372.50000000 -0.000978 -0.000978 -0.999999 0.000000
134.09899902 169.42799377 405.00000000 0.789251 -0.340995 -0.510692 0.000000
185.00300598 180.82400513 350.00000000 0.001342 -0.854638 -0.519223 0.000000
95.73049927 212.73399353 387.50000000 0.779010 -0.135545 -0.612186 0.000000
82.05470276 257.56100464 372.50000000 0.335592 -0.193992 -0.921816 0.000000
185.38299561 170.18800354 407.50000000 -0.000978 -0.000978 -0.999999 0.000000
177.78500366 103.32800293 362.50000000 0.001112 0.988665 0.150135 0.000000
164.10899353 104.46800232 350.00000000 0.109879 0.993349 0.034407 0.000000
197.53900146 118.52300262 397.50000000 -0.000978 -0.000978 -0.999999 0.000000
155.75199890 206.65600586 392.50000000 -0.988665 0.001112 0.150135 0.000000
141.31599426 158.03100586 322.50000000 0.000978 0.000978 0.999999 0.000000
166.76899719 189.18200684 390.00000000 -0.553511 -0.832337 -0.028987 0.000000
177.78500366 173.98599243 357.50000000 0.000978 0.000978 0.999999 0.000000
82.81449890 228.68899536 377.50000000 -0.000978 -0.000978 -0.999999 0.000000
189.18200684 132.19900513 402.50000000 -0.521176 -0.020412 -0.853205 0.000000
157.27099609 133.71899414 312.50000000 -0.020939 -0.758005 0.651912 0.000000
88.13279724 216.91299438 260.00000000 -0.565870 0.565870 -0.599653 0.000000
128.39999390 232.48800659 382.50000000 -0.000978 -0.000978 -0.999999 0.000000
82.43460083 245.40400696 375.00000000 0.655928 -0.336916 -0.675460 0.000000
99.52929688 270.47698975 327.50000000 -0.576398 -0.401332 0.711827 0.000000
72.17769623 191.84100342 280.00000000 0.846613 0.424083 0.321558 0.000000
98.00980377 153.47300720 272.50000000 0.726919 0.635064 0.261311 0.000000
177.78500366 173.60600281 365.00000000 -0.971175 0.221233 0.088743 0.000000
135.23800659 259.83999634 357.50000000 -0.767621 -0.623411 -0.148717 0.000000
196.02000427 183.86300659 362.50000000 -0.698378 -0.592714 0.401196 0.000000
117.76399994 253.76199341 377.50000000 -0.000978 -0.000978 -0.999999 0.000000
215.01400757 124.60199738 397.50000000 -0.000978 -0.000978 -0.999999 0.000000
94.21089935 236.28700256 382.50000000 0.151772 -0.449533 -0.880276 0.000000
142.83599854 230.20899963 332.50000000 -0.372641 -0.694392 0.615596 0.000000
239.70599365 107.12699890 365.00000000 -0.912707 0.091681 0.398197 0.000000
168.66799927 195.25999451 342.50000000 0.535839 0.815274 0.219556 0.000000
101.42900085 157.27099609 265.00000000 0.133085 0.737203 0.662436 0.000000
125.36100006 162.58999634 282.50000000 0.000978 0.000978 0.999999 0.000000
136.75799561 155.75199890 312.50000000 -0.884290 0.283753 0.370831 0.000000
180.82400513 160.31100464 412.50000000 -0.000978 -0.000978 -0.999999 0.000000
222.61099243 154.99200439 402.50000000 -0.864150 0.358907 -0.352746 0.000000
155.75199890 205.13699341 392.50000000 -0.988665 0.001112 0.150135 0.000000
119.28299713 230.96899414 312.50000000 -0.085474 -0.945474 0.314281 0.000000
152.71299744 179.30499268 407.50000000 -0.000978 -0.000978 -0.999999 0.000000
170.18800354 153.47300720 412.50000000 -0.000978 -0.000978 -0.999999 0.000000
150.43400574 186.14300537 402.50000000 0.112451 -0.562254 -0.819284 0.000000
101.04900360 136.75799561 297.50000000 0.672704 0.672704 0.308121 0.000000
113.96499634 217.29299927 387.50000000 -0.000978 -0.000978 -0.999999 0.000000
118.52300262 137.89700317 275.00000000 0.004125 0.782336 0.622844 0.000000
92.31150055 261.35900879 310.00000000 -0.718082 -0.525709 0.456057 0.000000
189.94099426 186.52200317 395.00000000 -0.613932 -0.717604 -0.328834 0.000000
230.20899963 167.90800476 382.50000000 0.000978 0.000978 0.999999 0.000000
159.93099976 219.57200623 380.00000000 -0.730673 -0.663834 -0.159502 0.000000
145.87500000 143.59599304 397.50000000 -0.000978 -0.000978 -0.999999 0.000000
147.39500427 243.12500000 372.50000000 -0.729937 -0.484970 -0.481659 0.000000
70.65820313 186.14300537 362.50000000 0.507076 0.510423 -0.694509 0.000000
218.81199646 140.55700684 397.50000000 -0.426925 -0.760614 -0.489083 0.000000
235.52699280 134.47900391 377.50000000 0.000978 0.000978 0.999999 0.000000
215.01400757 167.14799500 372.50000000 0.000978 0.000978 0.999999 0.000000
168.66799927 107.12699890 322.50000000 -0.404957 0.808313 0.427365 0.000000
156.51199341 153.47300720 322.50000000 0.000978 0.000978 0.999999 0.000000
101.04900360 158.79100037 262.50000000 0.970072 0.242814 0.001184 0.000000
147.01499939 229.44900513 380.00000000 -0.632726 -0.619299 -0.464894 0.000000
102.56800079 140.55700684 377.50000000 0.702440 0.255288 -0.664384 0.000000
96.49019623 214.25399780 387.50000000 0.577998 -0.477477 -0.661766 0.000000
62.30080032 234.00799561 337.50000000 0.976356 -0.214727 -0.024913 0.000000
60.78120041 206.65600586 327.50000000 0.973072 0.148435 0.176346 0.000000
62.68069839 193.74000549 340.00000000 0.988665 -0.001112 -0.150135 0.000000
120.04299927 164.10899353 397.50000000 0.343561 -0.101047 -0.933678 0.000000
96.49019623 282.63299561 362.50000000 -0.000978 -0.000978 -0.999999 0.000000
164.10899353 188.42199707 342.50000000 0.000978 0.000978 0.999999 0.000000
104.08799744 279.21398926 345.00000000 -0.603907 -0.711923 0.358416 0.000000
125.36100006 250.72300720 337.50000000 -0.796839 -0.187402 0.574394 0.000000
62.30080032 215.77299500 352.50000000 0.920295 -0.082435 -0.382443 0.000000
221.85200500 109.40599823 387.50000000 -0.000978 -0.000978 -0.999999 0.000000
85.85350037 167.14799500 272.50000000 0.849166 0.344341 0.400432 0.000000
94.21089935 228.68899536 272.50000000 -0.184449 -0.869126 0.458910 0.000000
88.13279724 206.65600586 382.50000000 -0.000978 -0.000978 -0.999999 0.000000
143.59599304 224.13099670 382.50000000 0.088803 -0.624532 -0.775934 0.000000
72.17769623 166.38900757 342.50000000 0.918970 0.393844 -0.019497 0.000000
71.79789734 231.72900391 285.00000000 0.872743 -0.318330 0.370116 0.000000
177.02499390 169.80799866 370.00000000 -0.707424 -0.429093 0.561632 0.000000
139.79699707 217.29299927 317.50000000 -0.598183 -0.470839 0.648450 0.000000
106.36699677 159.55099487 262.50000000 0.000978 0.000978 0.999999 0.000000
118.14399719 192.22099304 280.00000000 -0.733371 0.199168 0.649999 0.000000
132.95899963 112.82499695 335.00000000 0.000978 0.000978 0.999999 0.000000
132.19900513 153.47300720 402.50000000 -0.000978 -0.000978 -0.999999 0.000000
135.99800110 172.84700012 405.00000000 0.797009 -0.278246 -0.536056 0.000000
181.58399963 116.24400330 392.50000000 0.000000 0.000000 0.000000 0.000000
85.09380341 264.39801025 302.50000000 -0.286941 -0.947041 0.144144 0.000000
220.33200073 183.10400391 387.50000000 0.000978 0.000978 0.999999 0.000000
101.42900085 223.37100220 280.00000000 -0.746505 -0.557846 0.362681 0.000000
180.82400513 105.60700226 357.50000000 -0.702968 0.702968 -0.108035 0.000000
76.73629761 231.72900391 277.50000000 0.428995 0.215240 0.877288 0.000000
82.81449890 156.89199829 300.00000000 0.623338 0.623338 0.472124 0.000000
168.66799927 145.11500549 412.50000000 -0.000978 -0.000978 -0.999999 0.000000
98.76950073 170.94700623 387.50000000 0.195122 0.141559 -0.970509 0.000000
99.52929688 202.47799683 390.00000000 0.589980 -0.204876 -0.780992 0.000000
132.95899963 230.96899414 322.50000000 -0.511522 -0.491528 0.704801 0.000000
101.04900360 273.51599121 332.50000000 0.000978 0.000978 0.999999 0.000000
124.60199738 208.93600464 392.50000000 -0.000978 -0.000978 -0.999999 0.000000
179.30499268 139.03700256 412.50000000 0.074411 0.147640 -0.986238 0.000000
134.47900391 131.05999756 385.00000000 0.352956 0.821454 -0.447922 0.000000
71.41799927 230.96899414 287.50000000 0.881514 -0.208197 0.423777 0.000000
84.33399963 246.16400146 282.50000000 0.045254 -0.489564 0.870792 0.000000
220.71200562 133.71899414 360.00000000 -0.369577 -0.652098 0.661953 0.000000
174.74600220 137.89700317 325.00000000 -0.702355 -0.589978 0.398276 0.000000
227.92999268 110.92600250 382.50000000 -0.213904 0.371059 -0.903637 0.000000
61.92089844 221.85200500 320.00000000 0.988665 0.001112 0.150135 0.000000
102.56800079 227.16999817 382.50000000 0.166931 -0.307649 -0.936742 0.000000
205.89599609 165.62899780 357.50000000 -0.948067 0.309970 -0.071332 0.000000
216.53300476 144.35499573 402.50000000 0.353491 0.487849 -0.798153 0.000000
114.72499847 210.83500671 285.00000000 -0.637023 0.216494 0.739819 0.000000
110.92600250 145.11500549 272.50000000 0.000978 0.000978 0.999999 0.000000
86.23339844 251.48199463 290.00000000 -0.532542 -0.593404 0.603548 0.000000
93.45120239 141.31599426 307.50000000 0.702968 0.702968 0.108035 0.000000
131.43899536 173.98599243 402.50000000 -0.000978 -0.000978 -0.999999 0.000000
88.89260101 252.24200439 377.50000000 -0.000978 -0.000978 -0.999999 0.000000
147.39500427 151.95300293 407.50000000 0.250074 0.915012 -0.316568 0.000000
122.32199860 158.03100586 397.50000000 -0.014760 0.481712 -0.876205 0.000000
67.99900055 208.93600464 285.00000000 0.917533 -0.003861 0.397641 0.000000
136.75799561 218.81199646 317.50000000 -0.382113 -0.762600 0.521950 0.000000
101.04900360 233.24800110 292.50000000 0.603104 -0.343005 0.720148 0.000000
182.34399414 106.36699677 352.50000000 0.574268 0.765161 0.291111 0.000000
154.23199463 172.46699524 407.50000000 -0.000978 -0.000978 -0.999999 0.000000
66.85939789 246.16400146 307.50000000 0.846613 -0.424083 0.321558 0.000000
85.09380341 255.28100586 372.50000000 -0.000978 -0.000978 -0.999999 0.000000
111.68599701 177.02499390 397.50000000 0.000978 0.000978 -0.999999 0.000000
217.29299927 115.48400116 392.50000000 -0.000978 -0.000978 -0.999999 0.000000
175.50599670 160.69000244 335.00000000 0.081444 -0.555821 0.827302 0.000000
100.28900146 161.83000183 262.50000000 0.000978 0.000978 0.999999 0.000000
227.16999817 183.10400391 387.50000000 0.012164 -0.517634 0.855516 0.000000
161.44999695 210.45500183 355.00000000 -0.999999 -0.000978 -0.000978 0.000000
222.61099243 157.27099609 407.50000000 -0.200963 -0.459983 -0.864887 0.000000
173.98599243 153.47300720 412.50000000 -0.000978 -0.000978 -0.999999 0.000000
88.89260101 264.39801025 372.50000000 -0.116767 -0.318088 -0.940843 0.000000
104.84799957 130.67999268 307.50000000 0.461405 0.875079 0.146088 0.000000
166.38900757 126.12100220 312.50000000 -0.146764 -0.367610 0.918326 0.000000
125.36100006 218.05299377 302.50000000 -0.341858 -0.788039 0.511984 0.000000
133.71899414 239.32600403 332.50000000 -0.000978 -0.000978 0.999999 0.000000
110.92600250 196.39900208 395.00000000 0.751108 -0.577404 -0.320065 0.000000
154.23199463 195.63999939 395.00000000 -0.809104 -0.229631 -0.540944 0.000000
72.17769623 240.08599854 287.50000000 0.628640 -0.344527 0.697218 0.000000
94.21089935 273.51599121 367.50000000 0.266728 -0.513179 -0.815784 0.000000
90.41210175 246.92399597 292.50000000 -0.804336 -0.590037 0.070004 0.000000
236.28700256 159.55099487 382.50000000 0.000978 0.000978 0.999999 0.000000
142.07600403 236.28700256 337.50000000 -0.598727 -0.277924 0.751188 0.000000
183.10400391 116.24400330 392.50000000 0.000000 0.000000 0.000000 0.000000
74.07710266 177.02499390 365.00000000 0.855912 0.116912 -0.503732 0.000000
172.46699524 118.52300262 392.50000000 0.328167 0.258158 -0.908659 0.000000
231.72900391 171.70700073 397.50000000 -0.000978 -0.000978 -0.999999 0.000000
179.30499268 165.62899780 412.50000000 -0.000978 -0.000978 -0.999999 0.000000
67.61910248 224.89100647 287.50000000 0.850419 -0.288618 0.439872 0.000000
167.90800476 147.39500427 322.50000000 0.000978 0.000978 0.999999 0.000000
126.88099670 206.27600098 295.00000000 -0.786002 -0.403535 0.468360 0.000000
179.30499268 132.19900513 327.50000000 0.000978 0.000978 0.999999 0.000000
139.79699707 135.61799622 390.00000000 0.204587 0.861656 -0.464428 0.000000
99.52929688 133.71899414 312.50000000 0.645228 0.750510 0.142883 0.000000
111.68599701 190.70100403 272.50000000 0.000978 0.000978 0.999999 0.000000
165.24899292 215.01400757 375.00000000 -0.950029 -0.308152 -0.049867 0.000000
201.33799744 119.28299713 397.50000000 -0.000978 -0.000978 -0.999999 0.000000
154.61199951 223.37100220 345.00000000 -0.875664 -0.383957 0.292900 0.000000
139.79699707 110.92600250 322.50000000 0.001112 0.988665 0.150135 0.000000
230.20899963 130.67999268 367.50000000 -0.974711 -0.020232 -0.222553 0.000000
122.32199860 136.75799561 277.50000000 -0.483358 0.206293 0.850770 0.000000
139.41700745 207.41600037 310.00000000 -0.795211 0.001369 0.606331 0.000000
157.27099609 181.58399963 407.50000000 -0.000978 -0.000978 -0.999999 0.000000
120.80300140 147.39500427 277.50000000 0.000978 0.000978 0.999999 0.000000
190.70100403 177.02499390 407.50000000 -0.088450 -0.318155 -0.943904 0.000000
77.49610138 226.41000366 272.50000000 0.624484 -0.314662 0.714848 0.000000
196.02000427 148.91400146 412.50000000 -0.000978 -0.000978 -0.999999 0.000000
150.43400574 184.62300110 342.50000000 0.000978 0.000978 0.999999 0.000000
118.52300262 126.50099945 370.00000000 0.357392 0.799726 -0.482400 0.000000
175.50599670 166.38900757 362.50000000 -0.890946 0.033595 0.452864 0.000000
163.35000610 104.46800232 330.00000000 -0.001112 0.988665 0.150135 0.000000
82.43460083 156.51199341 365.00000000 0.732641 0.579259 -0.357346 0.000000
162.21000671 195.25999451 385.00000000 -0.731941 -0.616624 -0.289893 0.000000
94.21089935 234.00799561 282.50000000 -0.702406 -0.468827 0.535563 0.000000
177.78500366 173.22700500 372.50000000 -0.065516 -0.299316 0.951902 0.000000
91.55180359 233.24800110 275.00000000 -0.658429 -0.523712 0.540552 0.000000
105.60700226 163.35000610 262.50000000 0.000978 0.000978 0.999999 0.000000
160.31100464 139.79699707 317.50000000 0.000978 0.000978 0.999999 0.000000
62.30080032 197.53900146 347.50000000 0.925382 0.202030 -0.320705 0.000000
233.24800110 164.10899353 397.50000000 -0.219497 -0.434515 -0.873509 0.000000
173.22700500 191.08099365 380.00000000 0.814383 -0.562206 -0.143889 0.000000
224.89100647 118.52300262 392.50000000 -0.000978 -0.000978 -0.999999 0.000000
145.11500549 145.87500000 322.50000000 0.000978 0.000978 0.999999 0.000000
164.86900330 129.91999817 397.50000000 -0.001342 0.854638 -0.519223 0.000000
156.51199341 177.02499390 407.50000000 -0.000978 -0.000978 -0.999999 0.000000
222.61099243 155.75199890 402.50000000 -0.818138 0.440047 -0.370148 0.000000
186.90199280 154.23199463 412.50000000 -0.000978 -0.000978 -0.999999 0.000000
98.76950073 164.10899353 262.50000000 -0.000978 -0.000978 0.999999 0.000000
119.28299713 170.18800354 397.50000000 -0.000978 -0.000978 -0.999999 0.000000
75.97660065 231.72900391 372.50000000 0.000978 0.000978 -0.999999 0.000000
101.04900360 142.45599365 285.00000000 0.653787 0.559669 0.509248 0.000000
234.00799561 112.44499969 357.50000000 -0.000978 -0.000978 0.999999 0.000000
65.33979797 188.80200195 315.00000000 0.833482 0.423831 0.354506 0.000000
66.85939789 199.81799316 362.50000000 0.922844 0.185134 -0.337764 0.000000
146.63499451 185.38299561 402.50000000 0.144301 -0.575718 -0.804815 0.000000
66.47949982 199.05900574 360.00000000 0.891531 0.135513 -0.432214 0.000000
197.53900146 151.19299316 347.50000000 0.000978 0.000978 0.999999 0.000000
156.51199341 218.43299866 340.00000000 -0.781106 -0.586216 0.214998 0.000000
129.91999817 144.35499573 287.50000000 -0.894424 -0.114092 0.432422 0.000000
201.33799744 123.84200287 337.50000000 -0.291359 -0.123728 0.948579 0.000000
216.53300476 138.27699280 357.50000000 -0.589068 -0.538431 0.602570 0.000000
207.41600037 132.95899963 347.50000000 -0.514112 -0.256279 0.818541 0.000000
245.40400696 136.75799561 377.50000000 -0.850097 0.212902 0.481671 0.000000
203.61700439 126.50099945 340.00000000 -0.340594 -0.708891 0.617632 0.000000
68.37889862 256.80099487 322.50000000 0.976516 -0.195796 0.089894 0.000000
149.67399597 158.79100037 412.50000000 0.988497 0.145806 -0.040183 0.000000
163.35000610 216.15299988 380.00000000 -0.702968 -0.702968 -0.108035 0.000000
148.15400696 191.46099854 402.50000000 0.000978 0.000978 -0.999999 0.000000
101.04900360 234.00799561 292.50000000 0.000978 0.000978 0.999999 0.000000
101.04900360 164.86900330 262.50000000 0.000978 0.000978 0.999999 0.000000
222.61099243 145.87500000 367.50000000 -0.635315 -0.537574 0.554426 0.000000
120.04299927 204.37699890 392.50000000 -0.210826 -0.502039 -0.838754 0.000000
66.47949982 183.10400391 320.00000000 0.936133 0.344613 0.069979 0.000000
185.38299561 177.02499390 367.50000000 -0.650101 0.758215 -0.049789 0.000000
210.45500183 160.31100464 362.50000000 -0.741252 -0.524300 0.419112 0.000000
145.87500000 138.27699280 317.50000000 0.000978 0.000978 0.999999 0.000000
186.14300537 139.79699707 407.50000000 -0.358551 0.640152 -0.679446 0.000000
183.86300659 162.58999634 412.50000000 -0.000978 -0.000978 -0.999999 0.000000
140.55700684 230.20899963 332.50000000 -0.464868 -0.615908 0.636047 0.000000
175.50599670 183.10400391 392.50000000 0.266763 -0.937163 0.224863 0.000000
92.69139862 254.52099609 302.50000000 -0.810515 -0.345544 0.472933 0.000000
237.04699707 122.32199860 387.50000000 -0.056181 0.255934 -0.965060 0.000000
142.83599854 175.50599670 407.50000000 0.322963 0.016337 -0.946270 0.000000
229.82899475 132.95899963 370.00000000 -0.679374 -0.494853 0.541822 0.000000
146.63499451 189.18200684 307.50000000 -0.787357 0.122609 0.604182 0.000000
218.81199646 158.03100586 407.50000000 -0.000978 -0.000978 -0.999999 0.000000
121.56199646 252.24200439 377.50000000 -0.000978 -0.000978 -0.999999 0.000000
145.11500549 189.94099426 307.50000000 -0.787357 0.122609 0.604182 0.000000
215.77299500 110.16600037 387.50000000 -0.000978 -0.000978 -0.999999 0.000000
142.07600403 237.04699707 342.50000000 -0.892121 -0.446748 0.067356 0.000000
137.51800537 196.02000427 397.50000000 -0.000978 -0.000978 -0.999999 0.000000
155.75199890 139.79699707 402.50000000 0.404545 0.327046 -0.854040 0.000000
174.74600220 131.43899536 322.50000000 0.000978 0.000978 0.999999 0.000000
66.09960175 189.18200684 312.50000000 0.833482 0.423831 0.354506 0.000000
139.79699707 167.14799500 407.50000000 -0.000978 -0.000978 -0.999999 0.000000
202.85699463 121.56199646 397.50000000 -0.000978 -0.000978 -0.999999 0.000000
183.10400391 120.04299927 397.50000000 -0.000978 -0.000978 -0.999999 0.000000
170.18800354 185.38299561 397.50000000 0.000978 0.000978 -0.999999 0.000000
106.36699677 165.62899780 262.50000000 0.000978 0.000978 0.999999 0.000000
103.32800293 133.71899414 367.50000000 0.001294 0.909655 -0.415362 0.000000
125.36100006 239.32600403 327.50000000 -0.189519 -0.544297 0.817204 0.000000
144.35499573 180.06399536 407.50000000 0.465211 -0.406857 -0.786159 0.000000
91.93160248 166.00900269 265.00000000 0.293788 0.682294 0.669451 0.000000
170.18800354 186.14300537 392.50000000 -0.559975 -0.812189 -0.163639 0.000000
118.52300262 149.67399597 392.50000000 -0.000978 -0.000978 -0.999999 0.000000
113.58499908 244.64500427 320.00000000 -0.724708 -0.411053 0.553023 0.000000
61.54100037 228.68899536 342.50000000 0.988665 -0.001112 0.150135 0.000000
146.63499451 174.74600220 317.50000000 -0.886685 0.355574 0.295562 0.000000
176.26600647 115.48400116 392.50000000 0.091506 0.471607 -0.877048 0.000000
134.47900391 142.07600403 312.50000000 -0.669268 -0.279527 0.688436 0.000000
65.71970367 201.33799744 300.00000000 0.922541 0.307514 0.233138 0.000000
149.67399597 226.41000366 337.50000000 0.001219 -0.956644 -0.291258 0.000000
157.27099609 132.19900513 312.50000000 -0.194880 -0.254842 0.947142 0.000000
110.92600250 223.37100220 292.50000000 -0.679828 -0.579607 0.449321 0.000000
227.92999268 111.30599976 385.00000000 -0.156557 0.915365 -0.370941 0.000000
133.71899414 260.60000610 367.50000000 -0.702968 -0.702968 -0.108035 0.000000
85.09380341 243.88499451 377.50000000 0.308805 -0.175867 -0.934725 0.000000
64.58010101 225.64999390 297.50000000 0.863156 0.430817 -0.263361 0.000000
125.36100006 215.77299500 392.50000000 -0.345223 -0.254143 -0.903456 0.000000
240.46600342 150.43400574 395.00000000 -0.766047 0.354682 -0.536071 0.000000
102.56800079 237.04699707 302.50000000 -0.410909 0.410909 0.813823 0.000000
238.56599426 117.76399994 382.50000000 -0.554036 0.530460 -0.641604 0.000000
203.61700439 112.44499969 392.50000000 -0.000978 -0.000978 -0.999999 0.000000
170.18800354 177.78500366 352.50000000 -0.282277 0.381904 0.880039 0.000000
145.87500000 172.46699524 407.50000000 -0.000978 -0.000978 -0.999999 0.000000
82.81449890 153.47300720 307.50000000 0.735567 0.614302 0.285611 0.000000
135.99800110 241.60499573 337.50000000 -0.899005 -0.300656 0.318428 0.000000
211.97500610 184.24299622 390.00000000 -0.170408 -0.960362 0.220606 0.000000
90.79199982 167.14799500 265.00000000 0.507076 0.694509 0.510423 0.000000
149.67399597 189.18200684 312.50000000 -0.686096 0.001380 0.727510 0.000000
121.56199646 246.92399597 382.50000000 -0.000978 -0.000978 -0.999999 0.000000
198.29899597 158.03100586 412.50000000 -0.185144 -0.421312 -0.887816 0.000000
65.33979797 212.73399353 292.50000000 0.988665 0.001112 0.150135 0.000000
236.28700256 116.24400330 367.50000000 -0.422746 -0.375247 0.824909 0.000000
220.33200073 135.99800110 362.50000000 -0.284420 -0.252976 0.924721 0.000000
98.00980377 253.76199341 377.50000000 -0.000978 -0.000978 -0.999999 0.000000
68.75879669 177.78500366 350.00000000 0.954238 0.203230 -0.219380 0.000000
115.10399628 129.91999817 285.00000000 0.237573 0.954319 -0.181200 0.000000
97.25000000 274.27499390 332.50000000 -0.207519 -0.937320 0.279942 0.000000
109.40599823 248.44299316 317.50000000 -0.672704 -0.672704 0.308121 0.000000
189.18200684 152.33299255 340.00000000 -0.945651 -0.021463 0.324476 0.000000
185.38299561 169.42799377 407.50000000 -0.000978 -0.000978 -0.999999 0.000000
164.10899353 154.23199463 322.50000000 -0.357449 -0.599012 0.716530 0.000000
139.03700256 161.83000183 312.50000000 -0.886398 0.442483 0.136039 0.000000
139.03700256 226.02999878 385.00000000 -0.267257 0.804897 -0.529825 0.000000
118.90299988 126.12100220 370.00000000 0.373736 0.774976 -0.509640 0.000000
90.79199982 162.58999634 380.00000000 0.665374 0.182863 -0.723767 0.000000
71.03810120 254.52099609 355.00000000 0.935986 -0.340480 -0.089459 0.000000
173.22700500 116.24400330 392.50000000 0.272253 0.355565 -0.894121 0.000000
66.85939789 203.61700439 362.50000000 0.839833 -0.057484 -0.539793 0.000000
215.01400757 148.15400696 362.50000000 -0.453150 -0.105876 0.885125 0.000000
96.49019623 180.82400513 387.50000000 0.264950 0.008469 -0.964225 0.000000
83.57420349 256.80099487 292.50000000 0.000978 0.000978 0.999999 0.000000
168.66799927 170.94700623 357.50000000 0.000978 0.000978 0.999999 0.000000
202.85699463 148.91400146 347.50000000 0.084991 0.574766 0.813892 0.000000
104.08799744 182.34399414 392.50000000 -0.000978 -0.000978 -0.999999 0.000000
179.30499268 104.08799744 357.50000000 -0.702968 0.702968 -0.108035 0.000000
154.23199463 144.35499573 402.50000000 0.192980 0.261413 -0.945739 0.000000
84.33399963 214.25399780 382.50000000 0.454733 0.093745 -0.885680 0.000000
156.89199829 214.25399780 335.00000000 -0.709601 -0.533447 0.460327 0.000000
75.97660065 271.99600220 322.50000000 0.680355 -0.680355 0.272461 0.000000
131.43899536 115.48400116 317.50000000 0.000978 0.000978 0.999999 0.000000
231.72900391 111.30599976 350.00000000 -0.926702 -0.371474 0.056845 0.000000
98.00980377 228.68899536 382.50000000 -0.000978 -0.000978 -0.999999 0.000000
167.90800476 180.44400024 405.00000000 -0.577616 -0.331684 -0.745885 0.000000
133.33900452 139.79699707 310.00000000 -0.768112 -0.119879 0.628994 0.000000
211.97500610 147.39500427 402.50000000 -0.456211 0.569846 -0.683481 0.000000
229.44900513 162.58999634 402.50000000 0.126662 -0.639269 -0.758480 0.000000
155.75199890 151.19299316 407.50000000 -0.000978 -0.000978 -0.999999 0.000000
152.71299744 221.09199524 382.50000000 -0.256659 -0.769978 -0.584175 0.000000
144.35499573 136.75799561 392.50000000 0.000978 0.000978 -0.999999 0.000000
75.21679688 237.80700684 282.50000000 0.670996 -0.683808 0.286655 0.000000
201.33799744 163.35000610 352.50000000 -0.590884 -0.657839 0.467016 0.000000
145.11500549 131.43899536 387.50000000 -0.000978 -0.000978 -0.999999 0.000000
89.65229797 168.66799927 262.50000000 0.370295 0.502889 0.781015 0.000000
129.91999817 211.21499634 392.50000000 -0.000978 -0.000978 -0.999999 0.000000
139.03700256 225.64999390 327.50000000 -0.565848 -0.485253 0.666593 0.000000
179.30499268 119.28299713 327.50000000 0.001380 0.738126 0.674661 0.000000
128.39999390 199.05900574 292.50000000 -0.421800 -0.061032 0.904632 0.000000
240.84599304 116.62400055 380.00000000 -0.538868 0.501936 -0.676522 0.000000
88.13279724 231.34899902 270.00000000 -0.672217 -0.435356 0.598823 0.000000
153.47300720 232.48800659 377.50000000 -0.000978 -0.000978 -0.999999 0.000000
94.21089935 168.66799927 262.50000000 0.049867 0.742299 0.668211 0.000000
87.37300110 226.41000366 267.50000000 -0.133840 -0.306886 0.942289 0.000000
117.00399780 126.88099670 292.50000000 0.345078 0.918787 0.191710 0.000000
232.48800659 119.28299713 387.50000000 -0.054595 0.533355 -0.844128 0.000000
102.56800079 168.66799927 262.50000000 0.000978 0.000978 0.999999 0.000000
135.23800659 218.81199646 387.50000000 -0.000978 -0.000978 -0.999999 0.000000
175.50599670 142.07600403 327.50000000 0.000978 0.000978 0.999999 0.000000
174.74600220 194.50000000 337.50000000 -0.209301 0.976335 -0.054442 0.000000
100.28900146 224.89100647 387.50000000 0.560105 -0.566873 -0.604101 0.000000
206.65600586 179.30499268 402.50000000 -0.434873 -0.654808 -0.618152 0.000000
79.39550018 161.07000732 365.00000000 0.755009 0.502793 -0.420905 0.000000
148.91400146 175.50599670 407.50000000 -0.000978 -0.000978 -0.999999 0.000000
180.82400513 184.62300110 392.50000000 0.517441 -0.517441 -0.681549 0.000000
88.89260101 169.04800415 265.00000000 0.694202 0.700305 0.166303 0.000000
63.44039917 236.28700256 345.00000000 0.901274 -0.414783 -0.125138 0.000000
63.82030106 234.76800537 317.50000000 0.988665 0.001112 0.150135 0.000000
139.79699707 170.18800354 407.50000000 -0.000978 -0.000978 -0.999999 0.000000
211.59500122 114.72499847 335.00000000 -0.511246 -0.429052 0.744676 0.000000
126.12100220 193.74000549 397.50000000 -0.000978 -0.000978 -0.999999 0.000000
125.36100006 120.80300140 307.50000000 -0.008554 0.959291 0.282288 0.000000
66.47949982 248.44299316 315.00000000 0.000978 0.000978 -0.999999 0.000000
113.20500183 134.09899902 280.00000000 0.680107 0.337607 0.650750 0.000000
101.80899811 169.42799377 262.50000000 0.000978 0.000978 0.999999 0.000000
183.10400391 117.76399994 397.50000000 -0.000978 -0.000978 -0.999999 0.000000
215.01400757 113.96499634 337.50000000 -0.381144 0.111454 0.917773 0.000000
170.94700623 166.76899719 355.00000000 0.702968 -0.702968 0.108035 0.000000
227.92999268 151.95300293 372.50000000 0.000978 0.000978 0.999999 0.000000
188.42199707 205.13699341 377.50000000 -0.844128 -0.519351 -0.133129 0.000000
115.48400116 181.58399963 397.50000000 -0.000978 -0.000978 -0.999999 0.000000
93.45120239 224.13099670 267.50000000 -0.810227 -0.354972 0.466398 0.000000
69.13870239 257.56100464 347.50000000 -0.000978 -0.000978 -0.999999 0.000000
70.27829742 264.39801025 335.00000000 0.933747 -0.350983 0.070197 0.000000
107.88700104 147.01499939 385.00000000 0.525012 0.508238 -0.682683 0.000000
209.69500732 176.26600647 402.50000000 -0.168879 -0.263451 -0.949775 0.000000
143.59599304 129.91999817 312.50000000 0.000978 0.000978 0.999999 0.000000
104.84799957 203.61700439 392.50000000 0.594607 -0.029243 -0.803485 0.000000
73.69730377 249.20300293 292.50000000 0.982897 0.166817 -0.078008 0.000000
62.30080032 202.09800720 317.50000000 0.969909 0.030348 0.241567 0.000000
154.23199463 188.42199707 402.50000000 -0.000978 -0.000978 -0.999999 0.000000
124.60199738 233.24800110 382.50000000 -0.000978 -0.000978 -0.999999 0.000000
131.43899536 138.65699768 390.00000000 0.485466 0.613132 -0.623211 0.000000
110.16600037 192.97999573 397.50000000 0.275958 -0.225529 -0.934336 0.000000
175.12600708 119.28299713 395.00000000 0.499955 0.651457 -0.570656 0.000000
183.10400391 171.70700073 342.50000000 0.000978 0.000978 0.999999 0.000000
133.71899414 184.62300110 402.50000000 -0.000978 -0.000978 -0.999999 0.000000
105.60700226 259.83999634 377.50000000 -0.000978 -0.000978 -0.999999 0.000000
83.57420349 171.70700073 272.50000000 0.751459 0.528804 0.394557 0.000000
66.85939789 244.26499939 305.00000000 0.803261 -0.389606 0.450532 0.000000
246.16400146 144.35499573 387.50000000 0.000978 0.000978 -0.999999 0.000000
60.40140152 218.05299377 345.00000000 0.971963 0.191851 -0.135948 0.000000
93.45120239 279.59399414 362.50000000 0.707106 -0.707106 -0.001384 0.000000
75.97660065 180.82400513 282.50000000 0.752758 0.586544 0.298866 0.000000
134.47900391 236.28700256 382.50000000 -0.000978 -0.000978 -0.999999 0.000000
103.32800293 169.42799377 387.50000000 -0.000978 -0.000978 -0.999999 0.000000
83.19429779 170.18800354 275.00000000 0.800494 0.436487 0.410716 0.000000
187.66200256 159.55099487 342.50000000 0.000978 0.000978 0.999999 0.000000
81.29489899 250.72300720 287.50000000 0.113516 -0.611808 0.782819 0.000000
75.21679688 176.26600647 367.50000000 0.826191 0.063771 -0.559769 0.000000
72.93750000 244.64500427 362.50000000 0.839877 -0.152034 -0.521049 0.000000
104.08799744 204.37699890 392.50000000 0.606321 0.018037 -0.795016 0.000000
129.91999817 226.41000366 317.50000000 -0.673370 -0.673370 0.305197 0.000000
146.63499451 114.72499847 372.50000000 -0.001112 0.988665 -0.150135 0.000000
222.61099243 155.75199890 372.50000000 0.000978 0.000978 0.999999 0.000000
74.45700073 172.08700562 300.00000000 0.956644 0.001219 0.291258 0.000000
99.52929688 240.08599854 382.50000000 0.000978 0.000978 -0.999999 0.000000
130.67999268 253.76199341 342.50000000 -0.517846 -0.639296 0.568450 0.000000
128.77999878 142.07600403 285.00000000 -0.831626 -0.165728 0.530031 0.000000
198.29899597 137.51800537 342.50000000 -0.063519 -0.543441 0.837041 0.000000
172.46699524 179.30499268 402.50000000 -0.514112 -0.256279 -0.818541 0.000000
195.25999451 115.48400116 392.50000000 -0.000978 -0.000978 -0.999999 0.000000
110.16600037 154.99200439 387.50000000 -0.000978 -0.000978 -0.999999 0.000000
194.50000000 173.98599243 352.50000000 -0.539026 -0.806209 0.243882 0.000000
123.08200073 147.39500427 277.50000000 -0.000978 -0.000978 0.999999 0.000000
157.27099609 123.84200287 387.50000000 -0.000978 -0.000978 -0.999999 0.000000
187.66200256 104.84799957 382.50000000 0.307514 0.922541 -0.233138 0.000000
72.93750000 173.98599243 362.50000000 0.448915 0.528427 -0.720583 0.000000
104.84799957 171.70700073 262.50000000 0.000978 0.000978 0.999999 0.000000
101.04900360 130.30000305 335.00000000 0.702968 0.702968 0.108035 0.000000
94.97070313 175.50599670 387.50000000 0.202949 -0.197644 -0.959035 0.000000
190.70100403 178.92500305 405.00000000 0.496701 -0.580888 -0.644870 0.000000
106.36699677 182.34399414 392.50000000 -0.000978 -0.000978 -0.999999 0.000000
113.20500183 243.12500000 317.50000000 -0.536782 -0.340123 0.772128 0.000000
93.45120239 282.63299561 342.50000000 0.000978 0.000978 0.999999 0.000000
199.81799316 176.26600647 357.50000000 -0.765892 -0.512221 0.388637 0.000000
80.91500092 241.60499573 375.00000000 0.801613 -0.312708 -0.509540 0.000000
151.19299316 231.34899902 350.00000000 -0.623338 -0.623338 0.472124 0.000000
135.23800659 257.56100464 352.50000000 0.000978 0.000978 0.999999 0.000000
220.33200073 138.27699280 397.50000000 -0.283284 -0.905628 -0.315575 0.000000
104.84799957 276.55499268 342.50000000 -0.472780 -0.696640 0.539604 0.000000
97.25000000 134.47900391 322.50000000 0.701727 0.704682 0.104890 0.000000
139.79699707 186.90199280 297.50000000 0.486245 -0.812520 0.321523 0.000000
140.55700684 122.32199860 377.50000000 0.085555 0.610484 -0.787394 0.000000
105.60700226 172.46699524 262.50000000 0.000978 0.000978 0.999999 0.000000
175.50599670 189.18200684 387.50000000 0.000978 0.000978 -0.999999 0.000000
224.13099670 154.99200439 372.50000000 0.000978 0.000978 0.999999 0.000000
110.16600037 186.90199280 272.50000000 0.000978 0.000978 0.999999 0.000000
114.72499847 184.62300110 277.50000000 0.000978 0.000978 0.999999 0.000000
96.11039734 234.00799561 285.00000000 -0.702406 -0.468827 0.535563 0.000000
197.15899658 180.82400513 360.00000000 -0.520859 -0.648966 0.554571 0.000000
201.33799744 156.51199341 347.50000000 0.000978 0.000978 0.999999 0.000000
88.13279724 173.22700500 262.50000000 0.804897 0.267257 0.529825 0.000000
123.08200073 196.02000427 287.50000000 -0.279698 -0.338893 0.898288 0.000000
131.43899536 114.72499847 317.50000000 0.000978 0.000978 0.999999 0.000000
126.88099670 226.41000366 387.50000000 -0.000978 -0.000978 -0.999999 0.000000
126.50099945 217.29299927 305.00000000 -0.717294 -0.538384 0.442303 0.000000
85.09380341 278.45401001 330.00000000 0.001112 -0.988665 0.150135 0.000000
154.99200439 126.12100220 307.50000000 -0.000978 -0.000978 0.999999 0.000000
202.85699463 154.99200439 412.50000000 -0.000978 -0.000978 -0.999999 0.000000
126.88099670 223.37100220 387.50000000 -0.000978 -0.000978 -0.999999 0.000000
190.32099915 145.11500549 340.00000000 -0.909655 -0.001294 0.415362 0.000000
80.53520203 234.38800049 275.00000000 0.639430 -0.202822 0.741615 0.000000
110.16600037 189.18200684 272.50000000 0.000978 0.000978 0.999999 0.000000
138.27699280 156.13200378 315.00000000 -0.831913 0.311772 0.459041 0.000000
108.64600372 139.79699707 277.50000000 0.000978 0.000978 0.999999 0.000000
104.84799957 280.35400391 347.50000000 -0.579183 -0.707891 0.404273 0.000000
230.96899414 127.64099884 367.50000000 0.000978 0.000978 0.999999 0.000000
183.86300659 179.30499268 352.50000000 0.934602 -0.109239 0.338506 0.000000
69.89839935 191.84100342 290.00000000 0.956644 -0.001219 0.291258 0.000000
220.71200562 144.35499573 365.00000000 -0.632060 -0.561269 0.534301 0.000000
229.44900513 161.83000183 377.50000000 -0.486368 -0.042472 0.872721 0.000000
98.00980377 144.35499573 377.50000000 0.442483 0.363185 -0.819942 0.000000
106.36699677 173.98599243 262.50000000 0.000978 0.000978 0.999999 0.000000
179.30499268 189.56199646 340.00000000 -0.505584 0.673552 0.539178 0.000000
119.66300201 125.36100006 295.00000000 0.345078 0.918787 0.191710 0.000000
126.88099670 168.66799927 287.50000000 -0.691001 -0.240827 0.681557 0.000000
77.11620331 161.83000183 315.00000000 0.918053 0.382865 0.102921 0.000000
205.13699341 140.55700684 402.50000000 -0.000978 -0.000978 -0.999999 0.000000
112.44499969 124.98100281 360.00000000 0.427530 0.831397 -0.354961 0.000000
71.03810120 238.56599426 290.00000000 0.787161 -0.194115 0.585403 0.000000
145.11500549 208.93600464 392.50000000 -0.000978 -0.000978 -0.999999 0.000000
166.38900757 146.63499451 412.50000000 -0.000978 -0.000978 -0.999999 0.000000
83.19429779 150.43400574 355.00000000 0.759690 0.581314 -0.291453 0.000000
160.31100464 164.86900330 412.50000000 -0.000978 -0.000978 -0.999999 0.000000
112.44499969 189.94099426 397.50000000 -0.000978 -0.000978 -0.999999 0.000000
94.21089935 230.20899963 382.50000000 -0.000978 -0.000978 -0.999999 0.000000
64.95999908 210.45500183 295.00000000 0.988665 0.001112 0.150135 0.000000
180.82400513 175.50599670 357.50000000 0.676373 0.133475 0.724364 0.000000
123.08200073 242.36500549 382.50000000 -0.000978 -0.000978 -0.999999 0.000000
230.20899963 151.95300293 372.50000000 0.000978 0.000978 0.999999 0.000000
112.44499969 202.85699463 277.50000000 0.000978 0.000978 0.999999 0.000000
66.85939789 225.64999390 362.50000000 -0.000978 -0.000978 -0.999999 0.000000
190.70100403 125.74099731 400.00000000 -0.312229 0.648726 -0.694023 0.000000
102.56800079 175.50599670 262.50000000 -0.313118 0.023893 0.949414 0.000000
199.05900574 144.35499573 347.50000000 0.000978 0.000978 0.999999 0.000000
66.09960175 240.08599854 352.50000000 0.964992 -0.157576 -0.209668 0.000000
126.88099670 208.17599487 297.50000000 -0.733972 -0.389153 0.556637 0.000000
221.09199524 181.58399963 387.50000000 0.000978 0.000978 0.999999 0.000000
163.35000610 174.36599731 350.00000000 -0.669528 0.521863 0.528575 0.000000
221.09199524 149.67399597 402.50000000 -0.450479 0.154988 -0.879231 0.000000
145.87500000 241.60499573 377.50000000 -0.496051 0.170286 -0.851431 0.000000
120.04299927 202.09800720 397.50000000 0.697536 -0.681932 -0.220028 0.000000
