156.69900513 141.79200745 102.50000000 -0.646975 -0.692377 0.319434 0.000000
174.03300476 131.73800659 116.25000000 -0.711499 -0.647831 0.272184 0.000000
84.93650055 260.70300293 105.00000000 0.040649 -0.814385 0.578900 0.000000
52.69530106 226.03500366 161.25000000 0.812503 -0.090920 -0.575823 0.000000
89.44329834 162.93899536 76.25000000 -0.865024 0.475690 -0.159539 0.000000
133.81799316 146.99200439 163.75000000 0.001375 0.768784 -0.639507 0.000000
135.89799500 201.07400513 111.25000000 -0.735716 -0.631739 0.244188 0.000000
196.91400146 142.83200073 151.25000000 -0.423416 -0.014420 0.905821 0.000000
90.13670349 161.89900208 175.00000000 0.178280 0.458224 -0.870774 0.000000
201.07400513 125.84500122 157.50000000 -0.323968 0.218357 -0.920524 0.000000
59.62889862 244.06199646 111.25000000 0.747723 -0.619184 0.239836 0.000000
95.68350220 139.71200562 155.00000000 -0.209344 0.624931 -0.752088 0.000000
148.37899780 153.23199463 138.75000000 -0.000978 -0.000978 0.999999 0.000000
128.61799622 151.84599304 97.50000000 -0.745657 -0.110741 0.657064 0.000000
79.73629761 162.93899536 173.75000000 0.215497 0.615485 -0.758116 0.000000
95.68350220 236.43499756 103.75000000 -0.832253 -0.281566 0.477573 0.000000
146.99200439 158.77900696 116.25000000 -0.299946 -0.821317 0.485253 0.000000
104.69699860 189.97999573 108.75000000 -0.123071 -0.206810 -0.970610 0.000000
114.05799866 176.11300659 120.00000000 -0.119634 -0.195192 0.973441 0.000000
72.45600128 174.72599792 47.50000000 -0.472718 0.205595 0.856895 0.000000
109.55100250 242.67599487 118.75000000 -0.489413 -0.342748 0.801872 0.000000
62.40230179 244.75599670 106.25000000 0.678874 -0.588802 0.438683 0.000000
110.93699646 194.14100647 183.75000000 -0.322014 -0.208529 -0.923484 0.000000
85.28320313 217.02099609 178.75000000 0.161054 -0.439634 -0.883620 0.000000
201.07400513 149.76600647 161.25000000 -0.457154 -0.408693 -0.789924 0.000000
123.41799927 197.60699463 176.25000000 0.357909 0.131279 0.924482 0.000000
67.25579834 219.10099792 171.25000000 0.419214 0.217754 -0.881387 0.000000
79.73629761 203.84800720 53.75000000 -0.754189 -0.129930 0.643674 0.000000
105.04399872 216.32800293 92.50000000 -0.576449 -0.485696 0.657119 0.000000
185.12699890 144.21899414 141.25000000 -0.825135 -0.066749 0.560978 0.000000
134.51199341 177.50000000 126.25000000 0.399166 0.322107 0.858437 0.000000
74.18939972 159.47300720 51.25000000 -0.837334 0.045977 0.544755 0.000000
114.40399933 214.24800110 98.75000000 -0.189009 -0.754500 0.628494 0.000000
63.78900146 207.31399536 171.25000000 0.620382 0.015267 -0.784151 0.000000
145.60499573 205.92799377 158.75000000 -0.511352 -0.326564 -0.794906 0.000000
152.53900146 144.21899414 138.75000000 0.500851 -0.359131 0.787511 0.000000
123.41799927 204.54100037 173.75000000 -0.523567 0.004038 -0.851975 0.000000
115.79100037 172.64599609 116.25000000 -0.860541 -0.347615 0.372335 0.000000
90.83000183 261.39599609 163.75000000 0.172504 -0.470330 -0.865466 0.000000
139.36500549 228.80799866 141.25000000 -0.000978 -0.000978 0.999999 0.000000
69.33589935 154.61900330 153.75000000 0.559233 0.807781 -0.186411 0.000000
113.01799774 183.74000549 121.25000000 -0.562406 -0.280411 0.777862 0.000000
156.69900513 139.71200562 142.50000000 -0.040258 0.837097 0.545571 0.000000
99.84369659 230.19500732 103.75000000 -0.577998 -0.477477 0.661766 0.000000
97.76360321 222.56799316 91.25000000 -0.658057 -0.658057 0.365952 0.000000
117.87100220 148.37899780 83.75000000 -0.203341 -0.700052 0.684529 0.000000
85.62979889 192.05999756 187.50000000 0.525045 -0.471707 -0.708393 0.000000
186.16700745 131.73800659 140.00000000 -0.545779 -0.388437 0.742456 0.000000
73.14939880 260.70300293 120.00000000 0.536015 -0.779222 0.324809 0.000000
186.51400757 128.27099609 146.25000000 0.344527 -0.697218 0.628640 0.000000
75.57610321 232.96899414 173.75000000 -0.000978 -0.000978 -0.999999 0.000000
126.19100189 257.23599243 138.75000000 -0.577697 -0.517064 0.631593 0.000000
110.93699646 244.75599670 168.75000000 0.410056 -0.282009 -0.867367 0.000000
115.79100037 260.01000977 133.75000000 -0.506922 -0.255786 0.823167 0.000000
145.60499573 119.95099640 158.75000000 0.176918 0.498047 -0.848910 0.000000
104.00399780 183.74000549 186.25000000 -0.000978 -0.000978 -0.999999 0.000000
120.64399719 156.35200500 90.00000000 -0.265796 -0.508277 0.819150 0.000000
63.78900146 160.85899353 108.75000000 0.851775 0.522145 -0.042935 0.000000
110.59100342 140.05900574 155.00000000 0.932455 0.106914 -0.345103 0.000000
130.00500488 164.32600403 130.00000000 -0.519065 -0.266547 0.812111 0.000000
117.17800140 188.59399414 123.75000000 0.134203 0.361103 0.922819 0.000000
150.45899963 140.05900574 93.75000000 -0.438546 -0.681997 0.585284 0.000000
120.64399719 203.15400696 176.25000000 -0.401605 -0.536020 -0.742560 0.000000
180.27299500 113.71099854 153.75000000 -0.109048 0.551057 -0.827312 0.000000
135.20500183 178.88699341 168.75000000 -0.297508 0.297508 -0.907181 0.000000
125.49800110 193.44700623 96.25000000 -0.887295 0.444357 0.123511 0.000000
55.81539917 203.84800720 162.50000000 0.650855 0.012490 -0.759099 0.000000
158.08599854 144.21899414 106.25000000 -0.415165 -0.415165 0.809491 0.000000
185.12699890 132.43200684 138.75000000 -0.807824 -0.322177 0.493582 0.000000
151.15199280 140.05900574 138.75000000 0.948187 -0.317711 -0.001236 0.000000
203.84800720 149.07200623 156.25000000 -0.975728 -0.039703 0.215358 0.000000
67.94920349 193.44700623 176.25000000 0.699001 -0.199936 -0.686602 0.000000
58.24219894 212.86099243 43.75000000 -0.567537 -0.437719 0.697355 0.000000
136.59199524 188.59399414 106.25000000 -0.520851 0.390230 0.759234 0.000000
166.40600586 121.33799744 161.25000000 0.169009 0.465877 -0.868559 0.000000
170.56599426 191.36700439 148.75000000 -0.519173 -0.452825 -0.724851 0.000000
160.85899353 151.15199280 163.75000000 -0.000978 -0.000978 -0.999999 0.000000
169.87300110 132.43200684 106.25000000 -0.617548 -0.738200 0.271467 0.000000
87.70989990 194.14100647 57.50000000 -0.491704 0.042459 0.869727 0.000000
124.80500031 155.31199646 131.25000000 -0.802721 0.141481 0.579329 0.000000
130.69799805 247.52900696 137.50000000 -0.740554 -0.341919 0.578507 0.000000
102.61699677 221.87500000 98.75000000 -0.645917 -0.629226 0.432280 0.000000
115.79100037 161.55299377 173.75000000 -0.364878 0.457292 -0.811017 0.000000
113.71099854 262.78298950 161.25000000 0.365068 -0.607356 -0.705581 0.000000
137.28500366 200.72700500 115.00000000 -0.770441 -0.608082 0.191461 0.000000
201.07400513 144.21899414 161.25000000 -0.243673 0.345811 -0.906112 0.000000
102.61699677 137.97799683 71.25000000 0.000978 0.000978 0.999999 0.000000
46.10839844 166.40600586 50.00000000 0.917428 0.304846 -0.255724 0.000000
93.60350037 177.15299988 67.50000000 -0.777398 0.404117 0.482019 0.000000
117.87100220 186.51400757 178.75000000 -0.436787 0.069831 -0.896851 0.000000
128.27099609 112.67099762 145.00000000 0.254624 0.872349 -0.417341 0.000000
183.74000549 109.89700317 120.00000000 -0.055844 0.982619 0.177038 0.000000
116.48400116 210.43400574 95.00000000 -0.564935 -0.642509 0.517717 0.000000
82.50969696 176.80700684 186.25000000 0.386943 0.604290 -0.696498 0.000000
66.56250000 157.04600525 102.50000000 0.779289 0.591025 -0.208325 0.000000
91.52339935 170.56599426 181.25000000 -0.055821 0.682732 -0.728534 0.000000
115.09799957 178.19299316 178.75000000 -0.493832 -0.039671 -0.868652 0.000000
60.32220078 230.19500732 168.75000000 0.571272 -0.037712 -0.819894 0.000000
122.72499847 248.91600037 131.25000000 -0.578782 -0.183813 0.794496 0.000000
108.16400146 153.23199463 81.25000000 -0.787878 -0.474021 0.393130 0.000000
104.00399780 278.03698730 148.75000000 -0.001327 -0.874782 -0.484515 0.000000
169.87300110 152.53900146 126.25000000 -0.587835 -0.431301 0.684419 0.000000
53.04199982 182.35299683 130.00000000 0.807808 0.582373 -0.091041 0.000000
49.92179871 229.50199890 153.75000000 0.915471 -0.258877 -0.308050 0.000000
148.72599792 160.85899353 122.50000000 0.345603 0.579250 0.738260 0.000000
179.58000183 111.28399658 112.50000000 -0.203928 0.961753 0.182878 0.000000
160.85899353 161.55299377 133.75000000 -0.137885 -0.935162 0.326283 0.000000
102.61699677 215.63499451 178.75000000 -0.308068 -0.188186 -0.932567 0.000000
176.80700684 108.85700226 131.25000000 0.054675 0.994200 0.092613 0.000000
169.17999268 134.51199341 108.75000000 -0.691280 -0.619033 0.372733 0.000000
82.50969696 240.59599304 88.75000000 -0.635151 -0.061651 0.769924 0.000000
111.97699738 201.07400513 115.00000000 -0.666235 0.592765 0.452505 0.000000
174.72599792 160.51300049 147.50000000 -0.304846 -0.917428 0.255724 0.000000
69.33589935 252.72900391 110.00000000 0.604883 -0.664872 0.438249 0.000000
130.69799805 250.30299377 157.50000000 -0.932276 -0.135529 -0.335400 0.000000
128.96499634 216.32800293 168.75000000 -0.575802 -0.397617 -0.714390 0.000000
202.46099854 111.28399658 145.00000000 -0.609121 0.609121 -0.507882 0.000000
78.34960175 146.29899597 136.25000000 0.849400 0.484294 0.209710 0.000000
138.67199707 148.03199768 165.00000000 -0.097121 0.569681 -0.816108 0.000000
139.01800537 197.60699463 122.50000000 -0.958014 -0.193202 -0.211856 0.000000
121.33799744 185.82000732 176.25000000 -0.371222 0.110956 -0.921891 0.000000
171.95300293 175.41999817 143.75000000 -0.668888 0.001379 -0.743362 0.000000
73.49610138 243.36900330 171.25000000 -0.000978 -0.000978 -0.999999 0.000000
141.44500732 181.66000366 146.25000000 0.524379 -0.615429 -0.588451 0.000000
79.04290009 241.28900146 173.75000000 0.000978 0.000978 -0.999999 0.000000
112.32399750 178.19299316 181.25000000 -0.453725 0.090745 -0.886509 0.000000
108.16400146 227.42199707 173.75000000 -0.207607 -0.504623 -0.838007 0.000000
176.11300659 153.23199463 136.25000000 0.000978 0.000978 0.999999 0.000000
109.55100250 250.30299377 123.75000000 -0.316958 -0.527202 0.788413 0.000000
203.15400696 128.27099609 151.25000000 -0.000978 -0.000978 0.999999 0.000000
174.03300476 141.44500732 163.75000000 -0.000978 -0.000978 -0.999999 0.000000
165.01899719 128.27099609 163.75000000 -0.000978 -0.000978 -0.999999 0.000000
123.41799927 224.64799500 116.25000000 -0.424687 -0.431146 0.796087 0.000000
167.44599915 192.05999756 130.00000000 -0.606638 -0.525528 0.596499 0.000000
58.93550110 157.04600525 75.00000000 0.693792 0.693792 -0.193149 0.000000
52.69530106 205.23399353 38.75000000 -0.509752 -0.330779 0.794190 0.000000
98.45700073 132.77799988 142.50000000 0.447738 0.894164 -0.001313 0.000000
61.01559830 166.75300598 162.50000000 0.875821 0.348805 -0.333574 0.000000
80.42960358 219.10099792 176.25000000 -0.000978 -0.000978 -0.999999 0.000000
48.88180161 176.11300659 82.50000000 0.929190 0.348959 -0.121794 0.000000
67.25579834 244.06199646 168.75000000 -0.533368 -0.687192 -0.493240 0.000000
140.05900574 196.56700134 147.50000000 -0.906853 0.337332 -0.252634 0.000000
87.70989990 137.28500366 130.00000000 0.693792 0.693792 -0.193149 0.000000
152.88600159 151.15199280 110.00000000 -0.752549 -0.503339 0.424641 0.000000
99.84369659 168.48599243 178.75000000 0.021209 0.305658 -0.951905 0.000000
83.54979706 154.61900330 65.00000000 -0.420372 -0.141074 0.896318 0.000000
71.41600037 211.82099915 175.00000000 0.625563 -0.215765 -0.749744 0.000000
149.07200623 176.11300659 156.25000000 -0.373216 -0.652718 -0.659294 0.000000
156.00599670 118.91100311 160.00000000 0.128577 0.422467 -0.897212 0.000000
97.76360321 142.13900757 161.25000000 -0.188696 0.828754 -0.526840 0.000000
128.27099609 149.07200623 111.25000000 -0.887295 -0.444357 0.123511 0.000000
122.72499847 177.50000000 176.25000000 -0.588844 0.113070 -0.800299 0.000000
135.20500183 182.35299683 116.25000000 0.505577 0.505577 0.699131 0.000000
64.48239899 158.77900696 153.75000000 0.693792 0.693792 -0.193149 0.000000
34.32130051 206.62100220 40.00000000 0.639507 -0.001375 0.768784 0.000000
108.51100159 124.11100006 147.50000000 0.609121 0.609121 -0.507882 0.000000
88.05660248 273.52999878 127.50000000 0.233309 -0.937426 0.258456 0.000000
62.05559921 163.63299561 110.00000000 0.829462 0.553449 -0.075406 0.000000
97.76360321 129.65800476 138.75000000 0.724142 0.465638 -0.508722 0.000000
149.07200623 173.68600464 157.50000000 -0.615135 -0.594911 -0.517387 0.000000
174.72599792 151.15199280 163.75000000 -0.316183 -0.243995 -0.916785 0.000000
99.84369659 165.01899719 178.75000000 0.033973 0.485132 -0.873781 0.000000
94.29679871 172.99299622 72.50000000 -0.665985 0.575397 0.474745 0.000000
141.44500732 184.43400574 111.25000000 0.117160 0.668852 0.734106 0.000000
185.82000732 108.16400146 143.75000000 -0.017132 0.985656 -0.167893 0.000000
34.32130051 207.31399536 40.00000000 0.639507 -0.001375 0.768784 0.000000
115.79100037 217.02099609 103.75000000 0.200212 -0.805435 0.557844 0.000000
129.65800476 166.40600586 166.25000000 -0.415165 0.415165 -0.809491 0.000000
56.85540009 235.74200439 163.75000000 0.790385 -0.187317 -0.583270 0.000000
166.40600586 189.28700256 123.75000000 0.000978 0.000978 0.999999 0.000000
134.51199341 187.89999390 171.25000000 -0.374600 -0.185147 -0.908513 0.000000
67.25579834 239.55599976 70.00000000 -0.725979 -0.627054 0.282414 0.000000
149.07200623 112.32399750 153.75000000 0.032039 0.809344 -0.586461 0.000000
104.00399780 224.64799500 176.25000000 -0.000978 -0.000978 -0.999999 0.000000
60.32220078 239.90199280 166.25000000 0.741158 -0.182604 -0.646019 0.000000
108.16400146 239.90199280 116.25000000 -0.439667 -0.407457 0.800420 0.000000
172.30000305 156.00599670 130.00000000 -0.577291 -0.587448 0.567133 0.000000
142.13900757 200.38099670 146.25000000 -0.887295 0.444357 -0.123511 0.000000
127.57800293 110.59100342 122.50000000 -0.000978 0.999999 -0.000978 0.000000
98.45700073 239.20899963 173.75000000 -0.000978 -0.000978 -0.999999 0.000000
117.17800140 117.87100220 88.75000000 0.368021 0.924805 0.096419 0.000000
63.09569931 220.48800659 171.25000000 0.300439 0.133379 -0.944429 0.000000
105.04399872 142.83200073 72.50000000 -0.472230 -0.429746 0.769621 0.000000
85.97650146 140.40499878 142.50000000 0.504463 0.847675 0.164209 0.000000
107.12400055 203.15400696 82.50000000 -0.777168 -0.283326 0.561904 0.000000
149.07200623 129.65800476 153.75000000 0.203768 -0.203768 -0.957579 0.000000
195.52699280 137.97799683 161.25000000 -0.343423 0.169609 -0.923739 0.000000
122.37799835 156.00599670 90.00000000 -0.023033 -0.499942 0.865753 0.000000
69.33589935 252.38299561 108.75000000 0.604883 -0.664872 0.438249 0.000000
92.21679688 128.61799622 82.50000000 0.410535 0.911572 0.022297 0.000000
88.05660248 132.77799988 90.00000000 0.741127 0.670274 -0.038261 0.000000
134.16499329 110.24400330 110.00000000 0.104797 0.987913 0.114216 0.000000
146.29899597 214.94099426 143.75000000 -0.992058 -0.123590 -0.023382 0.000000
46.10839844 211.47500610 127.50000000 0.999999 0.000978 0.000978 0.000000
56.85540009 205.23399353 163.75000000 0.736673 0.098517 -0.669034 0.000000
74.88279724 147.33900452 100.00000000 0.708486 0.705724 -0.001381 0.000000
76.26950073 228.80799866 173.75000000 0.188204 -0.377844 -0.906539 0.000000
49.22850037 174.72599792 83.75000000 0.982432 0.163135 -0.090630 0.000000
91.52339935 228.11500549 176.25000000 -0.000978 -0.000978 -0.999999 0.000000
115.09799957 222.22200012 107.50000000 -0.174949 -0.463102 0.868867 0.000000
59.62889862 251.68899536 141.25000000 0.705614 -0.705614 0.064934 0.000000
84.24310303 189.28700256 187.50000000 0.607080 -0.178016 -0.774445 0.000000
144.91200256 176.80700684 116.25000000 0.187892 0.409284 0.892851 0.000000
142.48500061 201.07400513 140.00000000 -0.942327 0.334293 -0.016399 0.000000
57.20209885 155.31199646 57.50000000 0.894688 0.446689 0.001310 0.000000
106.77700043 178.19299316 183.75000000 -0.505577 0.505577 -0.699131 0.000000
47.14839935 192.05999756 118.75000000 0.981430 0.175040 -0.078466 0.000000
90.48339844 138.67199707 150.00000000 0.383694 0.921134 0.065509 0.000000
161.55299377 197.60699463 143.75000000 -0.176713 -0.880643 0.439591 0.000000
147.68499756 146.29899597 163.75000000 0.079389 0.305844 -0.948766 0.000000
94.99019623 167.79299927 178.75000000 -0.026460 0.594653 -0.803547 0.000000
123.76499939 226.03500366 170.00000000 -0.532156 -0.318015 -0.784650 0.000000
46.80170059 207.31399536 110.00000000 0.994348 0.070466 -0.079414 0.000000
189.97999573 139.36500549 146.25000000 0.000978 0.000978 0.999999 0.000000
66.21579742 163.63299561 167.50000000 0.420524 0.784220 -0.456244 0.000000
73.49610138 198.99400330 178.75000000 -0.117254 -0.991534 -0.055781 0.000000
197.60699463 137.28500366 161.25000000 -0.000978 -0.000978 -0.999999 0.000000
76.26950073 208.00799561 51.25000000 -0.746505 -0.557846 0.362681 0.000000
110.24400330 149.76600647 81.25000000 -0.834271 -0.500563 0.231147 0.000000
67.60250092 156.00599670 102.50000000 0.000978 0.000978 0.999999 0.000000
56.85540009 232.62199402 97.50000000 0.745285 -0.580384 0.328184 0.000000
36.74800110 208.00799561 58.75000000 0.942865 -0.026721 -0.332102 0.000000
134.51199341 145.60499573 88.75000000 -0.006762 -0.845309 0.534235 0.000000
91.17669678 254.46299744 105.00000000 -0.706734 0.032445 0.706734 0.000000
165.01899719 135.20500183 163.75000000 -0.000978 -0.000978 -0.999999 0.000000
48.88180161 230.88900757 135.00000000 0.932619 -0.335524 0.132840 0.000000
91.52339935 135.55200195 135.00000000 0.564446 0.697649 -0.441234 0.000000
135.89799500 226.72799683 133.75000000 -0.838353 -0.418393 0.349444 0.000000
81.81639862 270.41000366 153.75000000 0.343952 -0.689533 -0.637370 0.000000
95.68350220 134.16499329 140.00000000 0.667693 0.604420 -0.434583 0.000000
190.67399597 123.76499939 160.00000000 -0.053861 0.487516 -0.871451 0.000000
131.39199829 253.07600403 142.50000000 -0.938387 -0.181044 0.294369 0.000000
79.04290009 164.32600403 176.25000000 0.092339 0.675687 -0.731383 0.000000
146.29899597 112.67099762 95.00000000 -0.077672 0.983446 0.163709 0.000000
109.20400238 234.35499573 115.00000000 -0.649853 -0.492008 0.579327 0.000000
108.16400146 184.43400574 81.25000000 -0.877468 0.266401 0.398849 0.000000
140.75199890 120.64399719 156.25000000 0.306011 0.194226 -0.932005 0.000000
196.22099304 144.91200256 161.25000000 -0.000978 -0.000978 -0.999999 0.000000
70.02929688 212.16799927 48.75000000 -0.271495 -0.254437 0.928199 0.000000
82.50969696 203.84800720 181.25000000 0.693792 -0.693792 -0.193149 0.000000
113.71099854 275.26400757 151.25000000 -0.305448 -0.825493 -0.474619 0.000000
158.77900696 188.24699402 152.50000000 0.597877 -0.302946 -0.742137 0.000000
182.35299683 119.25800323 158.75000000 -0.265966 0.683229 -0.680044 0.000000
162.24600220 183.74000549 156.25000000 -0.000978 -0.000978 -0.999999 0.000000
128.96499634 125.49800110 156.25000000 0.272968 0.662467 -0.697586 0.000000
162.24600220 170.56599426 156.25000000 -0.149804 0.362609 -0.919823 0.000000
102.61699677 167.10000610 88.75000000 -0.917428 0.304846 0.255724 0.000000
185.82000732 144.91200256 163.75000000 -0.000978 -0.000978 -0.999999 0.000000
150.45899963 149.76600647 131.25000000 0.861722 0.089144 -0.499488 0.000000
127.23100281 207.31399536 172.50000000 -0.315895 -0.211069 -0.925019 0.000000
180.27299500 140.75199890 136.25000000 -0.617807 -0.142111 0.773381 0.000000
107.47100067 195.52699280 111.25000000 -0.487518 0.685206 -0.541128 0.000000
146.99200439 161.89900208 127.50000000 0.964929 0.262509 0.001199 0.000000
111.63099670 189.97999573 101.25000000 -0.637460 0.723303 -0.265476 0.000000
165.71299744 136.93800354 145.00000000 -0.251197 0.706195 0.661959 0.000000
113.71099854 175.76699829 115.00000000 -0.839064 -0.529705 0.124036 0.000000
53.04199982 211.47500610 40.00000000 -0.525127 -0.105025 0.844519 0.000000
154.61900330 116.48400116 158.75000000 0.049200 0.574936 -0.816718 0.000000
187.20700073 146.99200439 143.75000000 -0.639399 -0.373120 0.672273 0.000000
62.74900055 153.23199463 75.00000000 0.703673 0.703673 -0.098426 0.000000
149.07200623 162.93899536 166.25000000 -0.339530 -0.450074 -0.825926 0.000000
142.83200073 189.28700256 163.75000000 -0.703133 0.055850 -0.708861 0.000000
154.61900330 181.66000366 146.25000000 0.915671 -0.247361 -0.316796 0.000000
195.52699280 124.11100006 158.75000000 -0.435377 0.403246 -0.804885 0.000000
136.59199524 134.51199341 123.75000000 -0.979686 0.146645 -0.136786 0.000000
131.73800659 235.04899597 133.75000000 -0.695992 -0.383372 0.607142 0.000000
53.73529816 181.66000366 135.00000000 0.708486 0.705724 -0.001381 0.000000
132.77799988 204.54100037 110.00000000 -0.726870 -0.617760 0.300055 0.000000
122.03099823 247.52900696 131.25000000 -0.577946 -0.141144 0.803776 0.000000
60.32220078 229.50199890 168.75000000 0.566122 -0.040537 -0.823324 0.000000
178.19299316 137.97799683 163.75000000 -0.000978 -0.000978 -0.999999 0.000000
127.57800293 158.08599854 131.25000000 -0.382487 0.485775 0.785955 0.000000
195.87399292 127.57800293 160.00000000 -0.517703 0.256520 -0.816199 0.000000
156.69900513 144.91200256 138.75000000 0.387855 -0.815613 0.429354 0.000000
71.41600037 201.76699829 48.75000000 -0.495219 -0.074353 0.865581 0.000000
126.88500214 240.59599304 163.75000000 -0.834070 -0.191550 -0.517335 0.000000
71.41600037 152.88600159 145.00000000 0.508833 0.849033 0.142239 0.000000
101.23000336 255.50300598 167.50000000 -0.494970 -0.862988 -0.101276 0.000000
147.68499756 177.15299988 155.00000000 0.415165 -0.415165 -0.809491 0.000000
108.85700226 240.59599304 118.75000000 -0.439667 -0.407457 0.800420 0.000000
171.95300293 158.08599854 133.75000000 -0.543290 -0.736970 0.402133 0.000000
58.93550110 250.64900208 137.50000000 0.705614 -0.705614 0.064934 0.000000
118.56400299 145.60499573 161.25000000 0.017976 0.587665 -0.808904 0.000000
166.40600586 130.35200500 91.25000000 -0.704179 -0.707059 -0.064802 0.000000
78.34960175 178.88699341 186.25000000 0.390023 0.192836 -0.900387 0.000000
76.96289825 167.10000610 53.75000000 -0.682438 0.568976 0.458852 0.000000
56.16210175 216.32800293 43.75000000 -0.656814 -0.414042 0.630209 0.000000
46.80170059 219.10099792 82.50000000 0.844633 -0.401240 -0.354403 0.000000
68.98919678 244.75599670 82.50000000 0.513485 -0.856730 0.048442 0.000000
165.71299744 164.67300415 147.50000000 0.601424 -0.798658 -0.020835 0.000000
88.05660248 201.07400513 61.25000000 -0.248127 -0.788075 0.563357 0.000000
105.39099884 260.70300293 163.75000000 0.001379 -0.668888 -0.743362 0.000000
158.08599854 124.80500031 163.75000000 -0.187402 0.796839 -0.574394 0.000000
147.68499756 158.08599854 116.25000000 -0.152693 -0.871079 0.466805 0.000000
158.08599854 129.65800476 73.75000000 -0.214634 -0.883698 0.415945 0.000000
92.21679688 137.28500366 138.75000000 0.479591 0.841199 -0.249755 0.000000
54.77539825 244.40899658 140.00000000 0.744296 -0.390960 0.541455 0.000000
169.17999268 111.28399658 110.00000000 0.001203 0.963362 0.268202 0.000000
201.76699829 119.95099640 153.75000000 -0.598078 0.759039 -0.257221 0.000000
50.26850128 229.50199890 122.50000000 0.945258 -0.314210 -0.088084 0.000000
50.61520004 223.26199341 158.75000000 0.888465 -0.197599 -0.414227 0.000000
141.44500732 165.01899719 131.25000000 0.175709 0.302994 0.936654 0.000000
116.48400116 272.83700562 152.50000000 -0.358148 -0.717931 -0.596913 0.000000
171.95300293 108.51100159 140.00000000 0.110475 0.989624 -0.091869 0.000000
79.04290009 221.18200684 176.25000000 -0.000978 -0.000978 -0.999999 0.000000
65.52239990 239.90199280 67.50000000 -0.609701 -0.722908 0.325066 0.000000
143.52499390 177.50000000 161.25000000 -0.566909 -0.009562 -0.823725 0.000000
194.14100647 137.28500366 161.25000000 -0.450181 0.120711 -0.884741 0.000000
124.80500031 154.61900330 121.25000000 -0.701902 -0.640587 -0.311419 0.000000
114.40399933 176.46000671 180.00000000 -0.441691 0.253479 -0.860615 0.000000
111.63099670 194.83399963 121.25000000 -0.697369 0.419084 0.581417 0.000000
171.95300293 131.39199829 110.00000000 -0.704478 -0.692358 0.156046 0.000000
94.99019623 153.23199463 171.25000000 0.001375 0.768784 -0.639507 0.000000
63.09569931 156.00599670 88.75000000 0.581467 0.812938 0.032071 0.000000
107.81700134 180.96699524 105.00000000 -0.980479 -0.136553 -0.141474 0.000000
128.96499634 184.77999878 117.50000000 0.411851 0.867774 -0.278113 0.000000
56.16210175 228.80799866 83.75000000 0.573944 -0.573944 -0.584103 0.000000
61.70899963 157.04600525 87.50000000 0.693792 0.693792 -0.193149 0.000000
69.68260193 148.37899780 65.00000000 0.309779 0.926507 0.213592 0.000000
189.97999573 144.21899414 163.75000000 -0.000978 -0.000978 -0.999999 0.000000
149.76600647 148.37899780 103.75000000 -0.643676 -0.637023 0.424127 0.000000
162.93899536 112.32399750 153.75000000 -0.212422 0.854207 -0.474560 0.000000
145.60499573 156.00599670 166.25000000 -0.000978 -0.000978 -0.999999 0.000000
77.65619659 146.29899597 141.25000000 0.784424 0.601441 0.151485 0.000000
183.04699707 120.64399719 161.25000000 -0.229952 0.749299 -0.621026 0.000000
92.56340027 166.40600586 77.50000000 -0.503485 0.756048 0.418204 0.000000
38.13470078 217.02099609 53.75000000 0.609121 -0.609121 0.507882 0.000000
47.49509811 218.40800476 127.50000000 0.967806 -0.242886 0.066015 0.000000
141.44500732 109.20400238 140.00000000 -0.000978 0.999999 -0.000978 0.000000
87.36319733 185.47399902 57.50000000 -0.605973 0.164716 0.778245 0.000000
37.09469986 202.46099854 60.00000000 0.963362 -0.001203 -0.268202 0.000000
88.40329742 225.34199524 85.00000000 -0.704014 -0.652929 0.279371 0.000000
98.45700073 222.56799316 176.25000000 0.079066 -0.239709 -0.967620 0.000000
129.65800476 117.87100220 151.25000000 0.874782 -0.001327 -0.484515 0.000000
75.57610321 230.88900757 73.75000000 -0.916279 -0.336973 0.216523 0.000000
146.99200439 195.52699280 156.25000000 -0.289696 0.450811 0.844302 0.000000
36.74800110 215.63499451 38.75000000 0.505577 -0.505577 0.699131 0.000000
128.27099609 151.49899292 122.50000000 -0.693792 -0.693792 -0.193149 0.000000
81.12300110 182.35299683 186.25000000 -0.000978 -0.000978 -0.999999 0.000000
76.96289825 143.87199402 105.00000000 0.693792 0.693792 0.193149 0.000000
187.20700073 139.36500549 141.25000000 -0.963362 -0.001203 0.268202 0.000000
49.57519913 219.79499817 157.50000000 0.147560 0.296474 -0.943573 0.000000
153.92599487 176.80700684 156.25000000 -0.271288 -0.116641 -0.955405 0.000000
54.42869949 241.28900146 132.50000000 0.859824 -0.442847 0.254143 0.000000
47.84180069 215.63499451 38.75000000 -0.162636 -0.031143 0.986195 0.000000
186.51400757 132.43200684 163.75000000 -0.000978 -0.000978 -0.999999 0.000000
153.23199463 149.41900635 107.50000000 -0.653094 -0.698024 0.293651 0.000000
103.30999756 189.28700256 118.75000000 -0.182732 0.228081 0.956341 0.000000
201.76699829 111.63099670 146.25000000 -0.617035 0.492619 -0.613672 0.000000
121.68499756 124.11100006 152.50000000 0.283630 0.503012 -0.816415 0.000000
122.72499847 158.08599854 91.25000000 -0.023033 -0.499942 0.865753 0.000000
184.43400574 156.35200500 147.50000000 -0.544375 -0.685075 0.484075 0.000000
76.61620331 210.08799744 177.50000000 0.393938 -0.130378 -0.909843 0.000000
75.57610321 143.52499390 83.75000000 0.705614 0.705614 -0.064934 0.000000
49.92179871 175.76699829 92.50000000 0.000978 0.000978 -0.999999 0.000000
128.96499634 211.47500610 171.25000000 -0.344693 -0.201667 -0.916797 0.000000
51.30860138 233.31500244 50.00000000 -0.318537 -0.635457 0.703369 0.000000
104.69699860 239.20899963 173.75000000 -0.192770 -0.431157 -0.881444 0.000000
54.42869949 240.59599304 122.50000000 0.894688 -0.446689 -0.001310 0.000000
140.05900574 207.31399536 126.25000000 -0.000978 -0.000978 0.999999 0.000000
187.20700073 118.21800232 157.50000000 -0.154171 0.386135 -0.909468 0.000000
94.29679871 264.86300659 161.25000000 0.927398 -0.298750 0.225124 0.000000
128.96499634 213.55499268 111.25000000 -0.592565 -0.788579 -0.164350 0.000000
194.14100647 139.36500549 148.75000000 -0.517221 -0.273455 0.810990 0.000000
149.07200623 143.52499390 163.75000000 -0.000978 -0.000978 -0.999999 0.000000
76.61620331 143.52499390 107.50000000 0.990471 0.001102 0.137718 0.000000
69.33589935 243.36900330 76.25000000 0.146103 -0.950342 0.274781 0.000000
116.48400116 155.31199646 161.25000000 -0.150576 0.021511 -0.988364 0.000000
191.02000427 118.56400299 120.00000000 -0.869289 -0.432384 0.239544 0.000000
151.49899292 160.85899353 165.00000000 -0.665769 -0.741523 -0.083039 0.000000
185.82000732 108.51100159 130.00000000 0.018302 0.995832 0.089356 0.000000
109.55100250 140.05900574 153.75000000 0.723303 0.265476 -0.637460 0.000000
131.73800659 255.15600586 146.25000000 -0.916617 -0.307464 0.255498 0.000000
84.58979797 141.44500732 153.75000000 0.195033 0.967417 0.161451 0.000000
101.57700348 224.64799500 100.00000000 -0.624027 -0.653981 0.427667 0.000000
110.24400330 195.52699280 108.75000000 0.282985 0.899328 -0.333359 0.000000
105.39099884 214.24800110 91.25000000 -0.602306 -0.478154 0.639216 0.000000
162.24600220 126.88500214 163.75000000 -0.066151 0.186426 -0.980239 0.000000
111.63099670 193.44700623 88.75000000 -0.592692 -0.354309 0.723313 0.000000
130.35200500 114.75099945 87.50000000 0.208110 0.934399 0.289119 0.000000
89.44329834 212.16799927 181.25000000 -0.000978 -0.000978 -0.999999 0.000000
101.57700348 273.87701416 122.50000000 -0.894256 -0.215855 0.392063 0.000000
192.05999756 137.97799683 146.25000000 -0.467796 -0.191574 0.862824 0.000000
85.97650146 140.40499878 140.00000000 0.490473 0.870896 -0.031249 0.000000
195.18099976 154.61900330 152.50000000 -0.165560 -0.627307 0.760970 0.000000
117.17800140 174.03300476 121.25000000 -0.466065 0.088175 0.880346 0.000000
46.80170059 200.38099670 117.50000000 0.990782 0.070032 0.115955 0.000000
43.68159866 222.56799316 63.75000000 0.838353 -0.418393 -0.349444 0.000000
38.82809830 217.71499634 38.75000000 0.567899 -0.359615 0.740384 0.000000
62.40230179 208.70100403 46.25000000 -0.227425 -0.682275 0.694823 0.000000
90.48339844 150.45899963 67.50000000 -0.487565 -0.176353 0.855091 0.000000
156.00599670 147.68499756 108.75000000 -0.647270 -0.695694 0.311529 0.000000
130.35200500 189.28700256 171.25000000 -0.415337 0.080874 -0.906065 0.000000
68.64250183 222.56799316 56.25000000 -0.675460 -0.336916 0.655928 0.000000
171.25999451 178.19299316 148.75000000 -0.917428 0.304846 -0.255724 0.000000
63.09569931 217.71499634 48.75000000 -0.660294 -0.326091 0.676518 0.000000
45.06829834 199.68699646 101.25000000 0.963362 0.001203 -0.268202 0.000000
87.01660156 133.81799316 90.00000000 0.741127 0.670274 -0.038261 0.000000
108.16400146 217.02099609 96.25000000 -0.423341 -0.682326 0.595998 0.000000
103.65699768 121.33799744 107.50000000 0.391229 0.913790 0.109212 0.000000
76.96289825 266.25000000 126.25000000 0.434829 -0.868154 0.239231 0.000000
70.02929688 172.64599609 176.25000000 0.756048 0.503485 -0.418204 0.000000
165.01899719 148.37899780 163.75000000 -0.000978 -0.000978 -0.999999 0.000000
203.84800720 131.73800659 151.25000000 -0.460247 0.050532 0.886352 0.000000
106.08399963 198.99400330 78.75000000 -0.776848 0.245403 0.579901 0.000000
151.84599304 171.95300293 156.25000000 -0.651174 -0.641232 -0.405948 0.000000
178.88699341 129.65800476 163.75000000 -0.000978 -0.000978 -0.999999 0.000000
76.26950073 158.77900696 56.25000000 -0.963362 -0.001203 0.268202 0.000000
65.17579651 169.87300110 171.25000000 0.605037 0.497175 -0.621890 0.000000
50.61520004 232.27499390 66.25000000 0.819974 -0.483171 -0.306900 0.000000
108.51100159 174.03300476 95.00000000 -0.983747 -0.007998 0.179382 0.000000
144.21899414 169.87300110 163.75000000 -0.600400 -0.167870 -0.781882 0.000000
141.44500732 133.12500000 118.75000000 -0.342568 0.420780 -0.839995 0.000000
114.75099945 127.57800293 152.50000000 0.350063 0.319755 -0.880462 0.000000
46.10839844 208.00799561 122.50000000 0.999999 -0.000978 -0.000978 0.000000
94.99019623 187.89999390 118.75000000 -0.908836 0.130234 0.396303 0.000000
74.18939972 192.05999756 46.25000000 -0.456054 -0.332967 0.825316 0.000000
101.23000336 268.32998657 121.25000000 0.000978 0.000978 0.999999 0.000000
72.80269623 260.70300293 121.25000000 0.534441 -0.783315 0.317474 0.000000
106.77700043 188.59399414 108.75000000 -0.525710 -0.532429 -0.663437 0.000000
149.76600647 146.29899597 141.25000000 0.766476 0.395443 0.506102 0.000000
126.19100189 215.63499451 171.25000000 -0.613595 -0.361612 -0.701953 0.000000
147.68499756 135.55200195 140.00000000 0.181324 0.592732 0.784723 0.000000
166.40600586 176.11300659 131.25000000 -0.653486 0.216789 0.725230 0.000000
137.28500366 207.31399536 121.25000000 -0.808163 -0.433688 0.398481 0.000000
71.41600037 177.50000000 46.25000000 -0.589081 0.122541 0.798729 0.000000
135.20500183 208.70100403 118.75000000 -0.822212 -0.411901 0.392817 0.000000
160.16600037 182.35299683 128.75000000 -0.340622 -0.938978 -0.047920 0.000000
81.12300110 194.48699951 52.50000000 -0.540637 -0.156383 0.826593 0.000000
104.69699860 161.89900208 87.50000000 -0.668888 -0.001379 -0.743362 0.000000
45.76169968 226.72799683 63.75000000 0.818580 -0.481054 -0.313868 0.000000
58.24219894 167.44599915 105.00000000 0.761831 0.642840 -0.079811 0.000000
164.32600403 157.39300537 163.75000000 0.000978 0.000978 -0.999999 0.000000
168.48599243 174.03300476 133.75000000 -0.827479 0.096756 0.553097 0.000000
136.24499512 244.06199646 152.50000000 -0.850402 -0.352909 -0.390221 0.000000
132.43200684 162.24600220 131.25000000 -0.305145 -0.099073 0.947138 0.000000
157.39300537 117.17800140 158.75000000 0.026606 0.628734 -0.777165 0.000000
92.56340027 208.00799561 70.00000000 -0.609121 -0.609121 0.507882 0.000000
42.64160156 178.88699341 60.00000000 0.693792 0.693792 -0.193149 0.000000
141.44500732 117.17800140 156.25000000 0.186533 0.291545 -0.938193 0.000000
132.08500671 255.15600586 147.50000000 -0.930148 -0.276071 0.242093 0.000000
177.50000000 114.40399933 96.25000000 -0.693792 0.693792 -0.193149 0.000000
180.61999512 122.72499847 105.00000000 -0.504650 -0.793022 0.341240 0.000000
50.61520004 219.10099792 38.75000000 -0.403314 -0.140099 0.904273 0.000000
139.36500549 206.62100220 126.25000000 -0.000978 -0.000978 0.999999 0.000000
197.60699463 117.17800140 133.75000000 -0.612060 -0.406381 0.678408 0.000000
162.24600220 194.83399963 128.75000000 0.104769 -0.668456 0.736335 0.000000
179.58000183 119.60399628 160.00000000 -0.061853 0.668875 -0.740797 0.000000
124.11100006 132.43200684 156.25000000 -0.118223 0.553166 -0.824640 0.000000
110.24400330 190.67399597 86.25000000 -0.910559 -0.027673 0.412453 0.000000
77.65619659 270.75698853 142.50000000 0.477261 -0.874274 0.088694 0.000000
108.16400146 210.78100586 88.75000000 -0.696220 -0.512565 0.502548 0.000000
51.65520096 232.96899414 125.00000000 0.949132 -0.309528 0.057796 0.000000
101.23000336 156.69900513 173.75000000 0.432384 0.869289 -0.239544 0.000000
65.17579651 213.55499268 171.25000000 0.451387 0.093631 -0.887402 0.000000
53.04199982 165.71299744 77.50000000 0.861028 0.499538 -0.095353 0.000000
161.89900208 111.63099670 102.50000000 -0.099494 0.978968 0.178106 0.000000
96.37689972 176.80700684 71.25000000 -0.683240 0.362101 0.634086 0.000000
126.88500214 178.19299316 173.75000000 -0.402627 0.216799 -0.889320 0.000000
94.99019623 165.71299744 178.75000000 -0.032255 0.612844 -0.789545 0.000000
133.12500000 151.15199280 138.75000000 0.780734 0.335059 0.527437 0.000000
55.81539917 232.27499390 162.50000000 0.805145 -0.112926 -0.582227 0.000000
74.88279724 261.04998779 117.50000000 0.529743 -0.818414 0.222645 0.000000
170.56599426 135.20500183 163.75000000 -0.000978 -0.000978 -0.999999 0.000000
106.77700043 160.16600037 176.25000000 -0.000978 -0.000978 -0.999999 0.000000
54.08200073 216.32800293 41.25000000 -0.730422 -0.240332 0.639315 0.000000
159.47300720 193.10000610 130.00000000 0.538419 -0.548546 0.639689 0.000000
90.13670349 261.39599609 106.25000000 -0.533986 -0.299476 0.790679 0.000000
144.91200256 130.00500488 115.00000000 -0.524415 0.350148 -0.776135 0.000000
119.25800323 221.87500000 111.25000000 -0.502755 -0.703189 0.502755 0.000000
174.03300476 161.89900208 160.00000000 0.258476 -0.258476 -0.930796 0.000000
123.41799927 261.39599609 138.75000000 -0.632592 -0.432299 0.642607 0.000000
79.73629761 140.40499878 115.00000000 0.641100 0.714642 -0.279782 0.000000
163.63299561 188.59399414 123.75000000 -0.150348 -0.145378 0.977886 0.000000
144.56500244 214.24800110 157.50000000 -0.595627 -0.194459 -0.779368 0.000000
106.08399963 257.23599243 126.25000000 0.595467 -0.369091 0.713576 0.000000
151.15199280 189.28700256 116.25000000 -0.301642 -0.940412 0.156963 0.000000
100.53700256 176.80700684 183.75000000 -0.363812 0.522272 -0.771280 0.000000
133.81799316 199.68699646 171.25000000 -0.730335 -0.023830 -0.682674 0.000000
162.59300232 165.01899719 122.50000000 -0.398462 0.032876 0.916595 0.000000
188.59399414 152.53900146 148.75000000 -0.583923 -0.328356 0.742440 0.000000
47.14839935 220.48800659 38.75000000 -0.129175 -0.324977 0.936858 0.000000
117.87100220 261.74301147 135.00000000 -0.273925 -0.574768 0.771107 0.000000
113.01799774 157.73899841 172.50000000 -0.385894 0.414478 -0.824193 0.000000
122.03099823 132.43200684 78.75000000 0.293612 -0.620917 0.726810 0.000000
133.81799316 202.11399841 107.50000000 -0.779143 -0.517815 0.353276 0.000000
94.29679871 127.57800293 78.75000000 0.463655 0.885648 0.025535 0.000000
147.33900452 208.70100403 142.50000000 -0.797199 -0.436446 0.417120 0.000000
104.69699860 151.15199280 78.75000000 -0.392308 -0.389157 0.833457 0.000000
61.70899963 163.63299561 106.25000000 0.794882 0.603653 -0.061364 0.000000
106.77700043 239.20899963 116.25000000 -0.348317 -0.750096 0.562167 0.000000
39.52149963 221.18200684 38.75000000 0.480835 -0.396648 0.781964 0.000000
43.68159866 172.64599609 56.25000000 0.871786 0.407844 -0.271391 0.000000
124.11100006 154.27200317 127.50000000 -0.812111 -0.519065 0.266547 0.000000
136.59199524 157.39300537 131.25000000 -0.385816 0.370195 0.845045 0.000000
42.29489899 221.18200684 38.75000000 0.167528 -0.284661 0.943876 0.000000
109.55100250 169.87300110 178.75000000 0.049985 0.436358 -0.898384 0.000000
106.77700043 193.44700623 78.75000000 -0.856998 -0.201911 0.474116 0.000000
144.91200256 149.41900635 100.00000000 -0.261126 -0.908837 0.325314 0.000000
116.83100128 167.10000610 112.50000000 -0.833153 -0.494348 0.247944 0.000000
54.42869949 229.50199890 97.50000000 0.761800 -0.594614 0.257088 0.000000
140.05900574 189.97999573 153.75000000 -0.773241 0.329552 0.541751 0.000000
114.40399933 231.58200073 171.25000000 -0.166093 -0.072890 -0.983413 0.000000
52.00189972 168.13999939 80.00000000 0.861028 0.499538 -0.095353 0.000000
80.42960358 220.48800659 68.75000000 -0.651781 -0.651781 0.387768 0.000000
165.71299744 159.47300720 146.25000000 0.438054 -0.759622 0.480711 0.000000
80.08300018 158.77900696 170.00000000 0.249234 0.769646 -0.587815 0.000000
115.09799957 151.84599304 161.25000000 -0.000978 -0.000978 -0.999999 0.000000
170.56599426 178.19299316 151.25000000 -0.912640 0.202649 -0.354995 0.000000
45.76169968 187.89999390 98.75000000 0.970668 0.222262 -0.091667 0.000000
50.26850128 235.74200439 140.00000000 0.922649 -0.353147 0.154938 0.000000
43.33489990 228.80799866 47.50000000 0.849033 -0.508833 0.142239 0.000000
143.52499390 143.17900085 135.00000000 0.710683 -0.432373 0.554962 0.000000
159.12600708 189.97999573 152.50000000 0.586050 -0.263801 -0.766130 0.000000
135.89799500 134.51199341 138.75000000 0.001316 -0.459279 0.888291 0.000000
126.88500214 137.28500366 158.75000000 -0.000978 -0.000978 -0.999999 0.000000
142.13900757 183.04699707 156.25000000 -0.918427 0.393988 -0.035578 0.000000
66.56250000 204.54100037 46.25000000 -0.110485 -0.151765 0.982222 0.000000
129.65800476 203.84800720 103.75000000 -0.682729 -0.514983 0.518337 0.000000
117.17800140 237.82200623 121.25000000 -0.528225 -0.438807 0.726930 0.000000
77.65619659 184.43400574 186.25000000 0.174018 0.289117 -0.941344 0.000000
133.12500000 135.20500183 158.75000000 0.237781 0.554822 -0.797266 0.000000
135.20500183 146.29899597 138.75000000 -0.501419 0.113502 0.857728 0.000000
54.77539825 169.17999268 96.25000000 0.801374 0.399884 -0.444851 0.000000
162.24600220 154.61900330 121.25000000 -0.500509 -0.490532 0.713350 0.000000
48.88180161 228.80799866 67.50000000 0.773996 -0.543239 -0.325303 0.000000
157.73899841 198.99400330 147.50000000 -0.458467 -0.296838 -0.837673 0.000000
118.56400299 113.71099854 136.25000000 0.363465 0.920499 -0.143436 0.000000
92.91010284 241.28900146 173.75000000 -0.000978 -0.000978 -0.999999 0.000000
58.24219894 239.20899963 163.75000000 0.711259 -0.210109 -0.670794 0.000000
169.17999268 109.55100250 146.25000000 0.001203 0.963362 -0.268202 0.000000
135.20500183 157.39300537 166.25000000 0.083380 -0.132703 -0.987642 0.000000
119.25800323 219.10099792 173.75000000 -0.329840 -0.282509 -0.900774 0.000000
196.22099304 110.24400330 146.25000000 -0.001327 0.874782 -0.484515 0.000000
81.12300110 240.59599304 173.75000000 -0.000978 -0.000978 -0.999999 0.000000
169.17999268 144.21899414 123.75000000 -0.728175 -0.067771 0.682033 0.000000
53.04199982 182.35299683 132.50000000 0.820571 0.570651 -0.031934 0.000000
141.44500732 183.04699707 146.25000000 0.057093 -0.381063 -0.922784 0.000000
148.37899780 151.84599304 106.25000000 -0.609121 -0.609121 0.507882 0.000000
67.94920349 261.74301147 152.50000000 0.304846 -0.917428 0.255724 0.000000
145.60499573 137.28500366 116.25000000 0.677459 0.725105 -0.123580 0.000000
189.28700256 159.47300720 161.25000000 -0.000978 -0.000978 -0.999999 0.000000
89.79000092 151.15199280 67.50000000 -0.487565 -0.176353 0.855091 0.000000
173.33999634 187.89999390 146.25000000 -0.795964 -0.151398 -0.586105 0.000000
160.85899353 129.65800476 73.75000000 -0.187695 -0.515034 0.836367 0.000000
167.10000610 149.76600647 163.75000000 -0.000978 -0.000978 -0.999999 0.000000
149.07200623 115.79100037 81.25000000 -0.055548 0.969007 0.240709 0.000000
95.68350220 209.39399719 183.75000000 -0.028692 -0.515087 -0.856657 0.000000
68.64250183 237.82200623 71.25000000 -0.783901 -0.620761 0.012443 0.000000
208.70100403 124.45800018 150.00000000 0.151955 0.049878 0.987128 0.000000
171.95300293 163.63299561 153.75000000 -0.086117 -0.667044 0.740025 0.000000
121.33799744 173.33999634 176.25000000 -0.508118 0.279856 -0.814553 0.000000
91.52339935 261.04998779 165.00000000 0.360483 -0.738908 -0.569269 0.000000
72.10929871 186.51400757 46.25000000 -0.768784 -0.001375 0.639507 0.000000
121.33799744 262.78298950 156.25000000 -0.179536 -0.433513 -0.883082 0.000000
123.41799927 159.47300720 96.25000000 -0.500563 -0.834271 0.231147 0.000000
157.73899841 180.27299500 155.00000000 0.834759 -0.165166 -0.525259 0.000000
158.08599854 111.28399658 105.00000000 0.001102 0.990471 0.137718 0.000000
116.13800049 165.01899719 175.00000000 -0.347459 0.347459 -0.870944 0.000000
115.79100037 126.19100189 151.25000000 0.344858 0.648857 -0.678276 0.000000
94.99019623 170.56599426 181.25000000 0.046546 0.602279 -0.796927 0.000000
138.67199707 144.91200256 88.75000000 -0.117518 -0.712543 0.691717 0.000000
54.08200073 171.60600281 100.00000000 0.807378 0.566819 -0.163881 0.000000
84.58979797 205.23399353 183.75000000 0.365621 -0.350194 -0.862372 0.000000
146.29899597 147.33900452 165.00000000 0.087850 0.374378 -0.923105 0.000000
109.55100250 208.00799561 88.75000000 -0.511425 -0.605946 0.609322 0.000000
128.27099609 177.50000000 128.75000000 0.158000 0.588363 0.793010 0.000000
47.49509811 223.95500183 40.00000000 -0.455791 -0.234710 0.858584 0.000000
145.60499573 192.75399780 161.25000000 0.459905 0.881603 -0.106132 0.000000
156.69900513 192.40699768 150.00000000 0.814902 0.100229 -0.570867 0.000000
99.15029907 188.59399414 111.25000000 -0.442698 0.055848 -0.894930 0.000000
118.56400299 173.33999634 176.25000000 -0.459836 0.187779 -0.867923 0.000000
69.33589935 217.71499634 173.75000000 0.643790 0.657030 -0.392232 0.000000
133.12500000 210.78100586 116.25000000 -0.809726 -0.266788 0.522655 0.000000
115.09799957 158.08599854 171.25000000 -0.499729 0.607414 -0.617510 0.000000
108.51100159 215.63499451 95.00000000 -0.426928 -0.780808 0.456148 0.000000
45.06829834 224.64799500 38.75000000 -0.370219 0.294665 0.880971 0.000000
140.75199890 118.56400299 156.25000000 0.210639 0.257447 -0.943055 0.000000
72.10929871 264.17001343 156.25000000 0.347565 -0.846313 -0.403674 0.000000
144.21899414 136.59199524 78.75000000 -0.288916 -0.878849 0.379675 0.000000
150.45899963 157.39300537 116.25000000 -0.095272 -0.681561 0.725533 0.000000
140.05900574 190.32699585 152.50000000 -0.304846 0.917428 0.255724 0.000000
106.08399963 196.22099304 183.75000000 -0.463510 -0.003962 -0.886083 0.000000
98.45700073 250.30299377 171.25000000 -0.000978 -0.000978 -0.999999 0.000000
147.68499756 191.02000427 120.00000000 -0.567084 -0.751265 -0.337665 0.000000
62.40230179 174.72599792 171.25000000 0.791606 0.157720 -0.590325 0.000000
67.94920349 164.32600403 168.75000000 0.395653 0.730562 -0.556541 0.000000
198.30099487 144.21899414 151.25000000 -0.244196 -0.117576 0.962572 0.000000
94.99019623 191.71400452 117.50000000 -0.965014 0.106369 0.239652 0.000000
123.41799927 266.25000000 146.25000000 -0.796051 -0.577706 0.180438 0.000000
88.05660248 219.79499817 78.75000000 -0.639315 -0.240332 0.730422 0.000000
202.11399841 144.91200256 152.50000000 -0.204343 -0.460891 0.863611 0.000000
105.39099884 129.65800476 148.75000000 0.520641 0.374667 -0.767175 0.000000
75.22949982 171.95300293 180.00000000 0.306239 0.518860 -0.798124 0.000000
99.15029907 265.20999146 162.50000000 -0.143777 -0.286211 -0.947318 0.000000
97.07029724 126.53800201 85.00000000 0.000978 0.000978 0.999999 0.000000
167.10000610 142.48500061 147.50000000 -0.911902 0.369613 -0.178385 0.000000
75.22949982 146.99200439 100.00000000 0.708486 0.705724 -0.001381 0.000000
173.68600464 187.89999390 137.50000000 -0.891323 -0.319079 0.322075 0.000000
84.58979797 158.08599854 171.25000000 0.290015 0.648929 -0.703407 0.000000
112.32399750 241.28900146 171.25000000 0.415165 -0.415165 -0.809491 0.000000
149.76600647 123.41799927 161.25000000 0.211266 0.578283 -0.788007 0.000000
85.97650146 156.00599670 171.25000000 0.443855 0.709836 -0.546923 0.000000
56.50880051 167.10000610 97.50000000 0.801374 0.399884 -0.444851 0.000000
93.60350037 221.87500000 176.25000000 -0.043061 -0.364061 -0.930379 0.000000
40.90819931 203.84800720 73.75000000 0.963362 0.001203 -0.268202 0.000000
75.22949982 160.85899353 52.50000000 -0.867038 0.271803 0.417575 0.000000
139.36500549 194.83399963 146.25000000 -0.795851 0.530040 -0.292709 0.000000
46.10839844 202.46099854 120.00000000 0.976889 0.191426 0.095095 0.000000
194.14100647 124.11100006 143.75000000 -0.119822 -0.965018 0.233202 0.000000
155.65899658 181.66000366 120.00000000 -0.695899 0.337356 0.633968 0.000000
53.38859940 201.07400513 161.25000000 0.547779 -0.127766 -0.826809 0.000000
137.28500366 170.22000122 127.50000000 0.757854 0.344185 0.554251 0.000000
69.33589935 189.97999573 178.75000000 0.665248 -0.297992 -0.684577 0.000000
149.76600647 133.47200012 145.00000000 0.079254 0.885697 -0.457448 0.000000
123.41799927 148.37899780 161.25000000 0.000978 0.000978 -0.999999 0.000000
74.18939972 219.10099792 176.25000000 0.319834 -0.409449 -0.854434 0.000000
122.37799835 266.25000000 155.00000000 -0.116894 -0.367184 -0.922774 0.000000
48.53509903 186.51400757 116.25000000 0.923715 0.324932 -0.202905 0.000000
93.60350037 276.30398560 130.00000000 0.288645 -0.825367 0.485235 0.000000
127.57800293 214.24800110 171.25000000 -0.411557 -0.200652 -0.889022 0.000000
88.75000000 269.71701050 118.75000000 0.293908 -0.815712 0.498229 0.000000
191.36700439 127.57800293 148.75000000 -0.016195 0.310200 0.950533 0.000000
126.88500214 235.74200439 166.25000000 -0.308999 -0.102116 -0.945564 0.000000
79.38960266 167.10000610 57.50000000 -0.743021 0.453061 0.492601 0.000000
117.87100220 120.64399719 148.75000000 -0.000978 -0.000978 -0.999999 0.000000
196.22099304 139.36500549 161.25000000 -0.214358 0.149401 -0.965262 0.000000
156.69900513 119.95099640 76.25000000 0.114343 0.519610 0.846718 0.000000
106.77700043 225.34199524 176.25000000 -0.266083 -0.166133 -0.949526 0.000000
180.96699524 153.23199463 141.25000000 -0.819206 -0.500886 0.279310 0.000000
