160.20700073 123.29299927 162.50000000 -0.000978 -0.000978 -0.999999 0.000000
154.66999817 172.75799561 145.00000000 -0.900379 -0.387120 -0.198634 0.000000
190.47700500 129.19900513 77.50000000 -0.830983 0.433625 0.348477 0.000000
150.97799683 159.46899414 105.00000000 -0.862988 0.101276 0.494970 0.000000
165.74400330 166.11300659 150.00000000 -0.324327 -0.862311 -0.388885 0.000000
91.54679871 214.47099304 55.00000000 0.001108 -0.989410 0.145143 0.000000
129.93699646 118.86299896 152.50000000 0.390185 0.574577 -0.719456 0.000000
228.12899780 146.54899597 150.00000000 0.189351 0.700445 -0.688130 0.000000
110.00399780 225.91400146 162.50000000 0.933138 0.232229 -0.274452 0.000000
102.62100220 140.27299500 157.50000000 -0.000978 -0.000978 -0.999999 0.000000
69.39839935 162.42199707 137.50000000 0.620631 0.657236 -0.427619 0.000000
220.74600220 110.00399780 102.50000000 -0.684643 -0.598441 0.416091 0.000000
137.32000732 119.23200226 155.00000000 0.161599 0.783831 -0.599578 0.000000
62.01559830 218.53100586 132.50000000 0.865440 -0.471658 -0.168974 0.000000
126.98400116 125.50800323 157.50000000 -0.000978 -0.000978 -0.999999 0.000000
192.69099426 145.44099426 117.50000000 -0.581932 -0.531329 0.615667 0.000000
222.22300720 132.89100647 137.50000000 0.000978 0.000978 0.999999 0.000000
121.07800293 174.23399353 167.50000000 -0.000978 -0.000978 -0.999999 0.000000
186.04699707 146.54899597 110.00000000 -0.415224 -0.832027 0.367860 0.000000
214.10099792 137.32000732 132.50000000 -0.519414 -0.529500 0.670700 0.000000
104.83599854 217.05499268 122.50000000 -0.481596 -0.669536 0.565498 0.000000
127.72299957 107.05100250 137.50000000 0.275113 0.800185 -0.532933 0.000000
105.94300079 230.34399414 135.00000000 -0.780859 -0.520036 0.346154 0.000000
96.71479797 180.14100647 162.50000000 -0.000978 -0.000978 -0.999999 0.000000
211.88699341 149.87100220 137.50000000 -0.000978 -0.000978 0.999999 0.000000
163.89799500 132.89100647 72.50000000 -0.040319 -0.838365 0.543616 0.000000
126.24600220 105.94300079 135.00000000 0.338415 0.739979 -0.581297 0.000000
76.41210175 214.83999634 80.00000000 0.780859 -0.520036 0.346154 0.000000
93.76170349 129.19900513 62.50000000 0.634102 0.760023 0.142411 0.000000
183.09399414 173.49600220 162.50000000 -0.860313 0.001338 -0.509765 0.000000
106.31199646 143.96499634 157.50000000 -0.000978 -0.000978 -0.999999 0.000000
115.17199707 218.53100586 162.50000000 -0.000978 -0.000978 -0.999999 0.000000
112.95700073 212.62500000 162.50000000 -0.000978 -0.000978 -0.999999 0.000000
70.87500000 183.09399414 147.50000000 0.450074 0.339530 -0.825926 0.000000
155.03900146 153.56199646 167.50000000 -0.000978 -0.000978 -0.999999 0.000000
107.78900146 214.83999634 122.50000000 -0.577876 -0.700405 0.418918 0.000000
117.38700104 191.21499634 167.50000000 -0.000978 -0.000978 -0.999999 0.000000
103.35900116 220.00799561 162.50000000 -0.000978 -0.000978 -0.999999 0.000000
139.90400696 203.76600647 140.00000000 -0.222416 -0.848813 0.479632 0.000000
211.14799500 154.30099487 162.50000000 -0.000978 -0.000978 -0.999999 0.000000
131.41400146 146.17999268 167.50000000 0.240585 0.373423 -0.895921 0.000000
92.28510284 156.51600647 157.50000000 -0.000978 -0.000978 -0.999999 0.000000
123.29299927 177.92599487 167.50000000 -0.000978 -0.000978 -0.999999 0.000000
126.98400116 186.04699707 167.50000000 -0.000978 -0.000978 -0.999999 0.000000
178.66400146 168.32800293 162.50000000 0.369898 0.240213 -0.897482 0.000000
95.23829651 172.75799561 162.50000000 -0.000978 -0.000978 -0.999999 0.000000
136.58200073 130.67599487 162.50000000 0.194733 0.306810 -0.931637 0.000000
95.23829651 131.41400146 142.50000000 0.933823 -0.205805 0.292607 0.000000
62.01559830 206.71899414 137.50000000 0.684644 0.290212 -0.668610 0.000000
157.99200439 105.57399750 147.50000000 0.000978 0.000978 -0.999999 0.000000
95.97650146 146.91799927 157.50000000 -0.000978 -0.000978 -0.999999 0.000000
132.15199280 193.42999268 167.50000000 -0.000978 -0.000978 -0.999999 0.000000
76.78119659 157.62300110 35.00000000 0.920617 0.341863 0.188663 0.000000
135.84399414 193.42999268 117.50000000 -0.303055 -0.928900 0.212844 0.000000
76.41210175 153.56199646 45.00000000 0.874641 0.292558 0.386540 0.000000
206.71899414 156.51600647 147.50000000 0.307028 -0.790637 0.529743 0.000000
90.07029724 217.42399597 70.00000000 -0.471124 -0.880439 -0.053568 0.000000
131.41400146 124.03099823 32.50000000 0.406073 -0.687838 0.601651 0.000000
115.17199707 184.57000732 32.50000000 -0.000978 -0.000978 0.999999 0.000000
175.71099854 179.40199280 147.50000000 0.000978 0.000978 0.999999 0.000000
218.89999390 126.98400116 120.00000000 -0.851987 -0.419035 0.313890 0.000000
158.72999573 112.21900177 157.50000000 0.462431 0.001317 -0.886654 0.000000
218.16200256 148.39399719 145.00000000 0.768552 0.301988 -0.564031 0.000000
141.75000000 143.22700500 167.50000000 -0.000978 -0.000978 -0.999999 0.000000
174.23399353 130.30700684 70.00000000 -0.247492 -0.647892 0.720405 0.000000
84.53320313 134.36700439 90.00000000 0.800761 0.591488 -0.094464 0.000000
90.07029724 228.86700439 157.50000000 0.286124 -0.913562 -0.289028 0.000000
69.02929688 198.59800720 75.00000000 -0.000978 -0.000978 0.999999 0.000000
197.85899353 155.77699280 142.50000000 0.000978 0.000978 0.999999 0.000000
119.60199738 175.71099854 27.50000000 0.000978 0.000978 0.999999 0.000000
171.28100586 158.72999573 117.50000000 0.000978 0.000978 0.999999 0.000000
78.99610138 210.04100037 60.00000000 0.605541 -0.756533 0.246935 0.000000
138.79699707 122.55500031 37.50000000 -0.000978 -0.000978 0.999999 0.000000
67.92189789 163.52900696 105.00000000 0.820252 0.548329 -0.162855 0.000000
216.31599426 107.78900146 92.50000000 -0.728025 -0.533225 0.430872 0.000000
149.13299561 178.66400146 162.50000000 -0.000978 -0.000978 -0.999999 0.000000
177.92599487 174.97300720 137.50000000 0.479000 -0.788657 0.385458 0.000000
164.63699341 157.99200439 167.50000000 -0.286496 -0.230044 -0.930054 0.000000
90.07029724 138.05900574 7.50000000 0.149057 -0.751306 0.642901 0.000000
182.35499573 133.62899780 162.50000000 -0.000978 -0.000978 -0.999999 0.000000
169.80499268 110.74199677 152.50000000 0.151335 0.926058 -0.345710 0.000000
183.09399414 150.60899353 117.50000000 -0.000978 -0.000978 0.999999 0.000000
160.20700073 186.04699707 152.50000000 -0.570499 -0.570499 0.590814 0.000000
146.17999268 125.50800323 157.50000000 0.007954 0.985139 -0.171576 0.000000
121.81600189 147.65600586 162.50000000 -0.000978 -0.000978 -0.999999 0.000000
172.75799561 155.03900146 162.50000000 -0.000978 -0.000978 -0.999999 0.000000
152.08599854 169.80499268 102.50000000 -0.901801 0.299616 0.311424 0.000000
138.79699707 198.59800720 132.50000000 -0.198143 -0.885041 0.421238 0.000000
173.49600220 126.98400116 67.50000000 0.570499 -0.570499 0.590814 0.000000
197.12100220 118.12500000 157.50000000 0.031553 0.522688 -0.851940 0.000000
229.60499573 132.15199280 152.50000000 0.000978 0.000978 -0.999999 0.000000
209.67199707 126.98400116 157.50000000 -0.114237 0.372990 -0.920776 0.000000
135.84399414 141.01199341 162.50000000 -0.000978 -0.000978 -0.999999 0.000000
231.08200073 114.80300140 125.00000000 -0.445841 -0.622842 0.642879 0.000000
153.56199646 136.58200073 162.50000000 -0.022048 0.380005 -0.924722 0.000000
110.00399780 172.75799561 167.50000000 0.370776 -0.159307 -0.914957 0.000000
110.74199677 160.94500732 17.50000000 0.000978 0.000978 0.999999 0.000000
107.78900146 210.04100037 115.00000000 -0.000978 -0.000978 0.999999 0.000000
114.06400299 195.64399719 45.00000000 0.000978 0.000978 0.999999 0.000000
86.37889862 202.65800476 25.00000000 0.703222 -0.703222 0.104673 0.000000
132.89100647 202.28900146 162.50000000 -0.000978 -0.000978 -0.999999 0.000000
78.99610138 141.75000000 87.50000000 0.846185 0.530090 -0.054547 0.000000
80.47260284 230.34399414 147.50000000 0.409374 -0.667927 -0.621520 0.000000
190.47700500 105.94300079 90.00000000 0.191176 0.961154 0.199087 0.000000
166.85200500 167.95899963 135.00000000 0.314699 -0.893386 -0.320665 0.000000
129.56799316 167.58999634 45.00000000 -0.975259 -0.203951 0.085289 0.000000
126.24600220 180.87899780 167.50000000 -0.000978 -0.000978 -0.999999 0.000000
98.19139862 227.39100647 127.50000000 0.000978 0.000978 0.999999 0.000000
73.08979797 211.88699341 152.50000000 0.224307 -0.216150 -0.950245 0.000000
75.67379761 146.91799927 85.00000000 0.843710 0.536659 -0.012228 0.000000
204.13499451 123.29299927 85.00000000 -0.989410 -0.001108 0.145143 0.000000
80.10350037 233.29699707 145.00000000 -0.032414 -0.737059 -0.675050 0.000000
123.29299927 122.55500031 152.50000000 -0.000978 -0.000978 -0.999999 0.000000
100.40599823 210.41000366 162.50000000 -0.000978 -0.000978 -0.999999 0.000000
113.32599640 197.85899353 85.00000000 -0.630860 -0.762726 0.142356 0.000000
124.03099823 121.81600189 22.50000000 -0.615746 0.286282 0.734097 0.000000
108.52700043 228.12899780 137.50000000 -0.473117 -0.277666 0.836099 0.000000
91.54679871 192.69099426 162.50000000 -0.000978 -0.000978 -0.999999 0.000000
126.98400116 107.05100250 87.50000000 -0.001366 0.804402 0.594083 0.000000
180.14100647 179.40199280 142.50000000 -0.329690 -0.657756 0.677245 0.000000
67.92189789 183.83200073 147.50000000 0.348201 0.218167 -0.911679 0.000000
98.92970276 120.33999634 82.50000000 0.489195 0.851229 0.189993 0.000000
214.83999634 157.99200439 157.50000000 -0.601035 -0.453706 -0.657957 0.000000
152.82400513 180.14100647 162.50000000 -0.227019 -0.213425 -0.950217 0.000000
88.59369659 139.90400696 10.00000000 0.850604 0.510363 0.126500 0.000000
140.27299500 173.49600220 167.50000000 -0.000978 -0.000978 -0.999999 0.000000
104.09799957 224.43699646 157.50000000 -0.000978 -0.000978 -0.999999 0.000000
193.42999268 141.01199341 162.50000000 -0.000978 -0.000978 -0.999999 0.000000
74.56639862 193.42999268 42.50000000 0.939071 -0.313930 0.139977 0.000000
126.98400116 218.16200256 145.00000000 -0.189265 -0.902980 0.385753 0.000000
138.79699707 198.59800720 162.50000000 -0.000978 -0.000978 -0.999999 0.000000
73.82810211 174.23399353 147.50000000 0.751386 0.107763 -0.651004 0.000000
210.41000366 138.05900574 122.50000000 -0.524040 -0.497252 0.691464 0.000000
112.21900177 211.88699341 122.50000000 -0.520924 -0.611959 0.595101 0.000000
126.24600220 107.05100250 87.50000000 -0.001366 0.804402 0.594083 0.000000
121.81600189 180.14100647 167.50000000 -0.000978 -0.000978 -0.999999 0.000000
105.20500183 205.24200439 40.00000000 -0.707106 -0.707106 -0.001384 0.000000
186.78500366 154.66999817 125.00000000 -0.448591 -0.585336 0.675388 0.000000
193.42999268 135.47500610 85.00000000 -0.521676 -0.797578 0.302858 0.000000
97.45310211 160.94500732 162.50000000 0.325014 0.367739 -0.871283 0.000000
87.48629761 141.01199341 25.00000000 0.753069 0.656993 0.035322 0.000000
141.75000000 187.52299500 107.50000000 -0.593333 -0.796510 -0.116311 0.000000
117.38700104 231.08200073 152.50000000 -0.674325 -0.674325 -0.300952 0.000000
169.80499268 146.17999268 162.50000000 -0.215445 -0.072636 -0.973811 0.000000
217.79299927 102.98999786 120.00000000 0.000000 0.000000 0.000000 0.000000
76.78119659 235.51199341 122.50000000 -0.000978 -0.000978 0.999999 0.000000
136.95100403 190.47700500 110.00000000 -0.439041 -0.873617 0.209847 0.000000
96.34570313 132.15199280 30.00000000 0.600904 0.798882 -0.026490 0.000000
118.86299896 157.25399780 22.50000000 -0.376978 -0.696339 0.610737 0.000000
71.24410248 207.45700073 80.00000000 0.857924 -0.428195 0.283928 0.000000
116.64800262 171.28100586 22.50000000 -0.839833 -0.057484 0.539793 0.000000
197.85899353 154.30099487 142.50000000 0.000978 0.000978 0.999999 0.000000
87.48629761 141.75000000 10.00000000 0.861345 0.471583 0.188931 0.000000
188.26199341 105.20500183 120.00000000 0.000978 0.000978 -0.999999 0.000000
123.29299927 129.93699646 27.50000000 -0.849755 -0.518422 0.095687 0.000000
126.24600220 147.65600586 167.50000000 -0.156252 0.669003 -0.726650 0.000000
82.68750000 203.76600647 157.50000000 -0.000978 -0.000978 -0.999999 0.000000
76.78119659 211.88699341 157.50000000 -0.000978 -0.000978 -0.999999 0.000000
207.45700073 118.86299896 157.50000000 -0.000978 -0.000978 -0.999999 0.000000
174.23399353 160.20700073 117.50000000 0.000978 0.000978 0.999999 0.000000
129.19900513 163.16000366 42.50000000 -0.936079 0.029533 0.350548 0.000000
88.59369659 183.83200073 162.50000000 -0.000978 -0.000978 -0.999999 0.000000
59.06250000 197.85899353 117.50000000 0.989624 -0.056320 0.132180 0.000000
172.75799561 157.25399780 117.50000000 0.000978 0.000978 0.999999 0.000000
132.89100647 141.75000000 162.50000000 0.094158 0.575088 -0.812655 0.000000
236.98800659 121.07800293 137.50000000 0.000978 0.000978 0.999999 0.000000
98.92970276 187.52299500 162.50000000 -0.000978 -0.000978 -0.999999 0.000000
108.52700043 204.13499451 100.00000000 0.000978 0.000978 0.999999 0.000000
228.12899780 138.79699707 152.50000000 -0.248215 0.323695 -0.913023 0.000000
101.88300323 142.48800659 7.50000000 -0.730964 0.155878 0.664375 0.000000
220.74600220 102.25199890 110.00000000 -0.188104 0.979355 -0.074028 0.000000
86.74800110 131.41400146 90.00000000 0.757036 0.641026 -0.126421 0.000000
134.36700439 146.17999268 167.50000000 -0.000978 -0.000978 -0.999999 0.000000
160.20700073 123.29299927 57.50000000 -0.250510 -0.738925 0.625487 0.000000
61.64649963 173.49600220 125.00000000 0.902354 0.430994 -0.001302 0.000000
82.68750000 208.19500732 47.50000000 0.694464 -0.665727 0.272996 0.000000
180.87899780 119.60199738 57.50000000 -0.524040 -0.691464 0.497252 0.000000
68.66010284 207.82600403 90.00000000 0.730340 -0.423696 0.535803 0.000000
76.04290009 156.51600647 142.50000000 0.559127 0.455647 -0.692650 0.000000
118.86299896 143.96499634 162.50000000 -0.000978 -0.000978 -0.999999 0.000000
190.47700500 145.81100464 115.00000000 -0.748548 0.001379 0.663079 0.000000
135.84399414 155.77699280 167.50000000 -0.000978 -0.000978 -0.999999 0.000000
101.14499664 124.03099823 142.50000000 0.232917 0.529077 -0.815982 0.000000
177.18699646 159.46899414 162.50000000 -0.000978 -0.000978 -0.999999 0.000000
95.23829651 233.29699707 152.50000000 -0.431706 -0.864926 -0.255994 0.000000
200.07400513 143.96499634 162.50000000 -0.000978 -0.000978 -0.999999 0.000000
98.92970276 226.65199280 157.50000000 -0.000978 -0.000978 -0.999999 0.000000
232.55900574 130.67599487 142.50000000 0.368035 0.108085 -0.923508 0.000000
95.97650146 151.34800720 157.50000000 -0.000978 -0.000978 -0.999999 0.000000
90.07029724 153.56199646 157.50000000 -0.000978 -0.000978 -0.999999 0.000000
68.66010284 187.52299500 147.50000000 -0.000978 -0.000978 -0.999999 0.000000
63.12300110 186.04699707 95.00000000 0.989410 0.001108 0.145143 0.000000
64.96869659 205.24200439 97.50000000 0.931430 -0.235324 0.277597 0.000000
135.84399414 202.28900146 162.50000000 -0.000978 -0.000978 -0.999999 0.000000
133.62899780 177.55700684 60.00000000 -0.788362 -0.516513 0.334214 0.000000
190.84599304 167.58999634 160.00000000 -0.660758 -0.463367 -0.590500 0.000000
73.82810211 209.30299377 75.00000000 0.959249 0.001213 0.282560 0.000000
194.90600586 126.98400116 77.50000000 0.000978 0.000978 0.999999 0.000000
121.07800293 201.55099487 117.50000000 -0.507400 -0.820840 0.262234 0.000000
84.90229797 146.91799927 142.50000000 0.892078 0.364873 -0.266581 0.000000
94.50000000 186.04699707 162.50000000 -0.000978 -0.000978 -0.999999 0.000000
116.64800262 151.34800720 162.50000000 -0.000978 -0.000978 -0.999999 0.000000
198.59800720 104.09799957 122.50000000 0.306298 0.924592 -0.226518 0.000000
121.44699860 115.17199707 50.00000000 0.283820 0.935348 0.211117 0.000000
106.31199646 228.12899780 132.50000000 0.427752 -0.644125 0.634138 0.000000
133.62899780 174.23399353 57.50000000 -0.796079 -0.488539 0.357194 0.000000
104.83599854 204.87300110 60.00000000 -0.738352 -0.673162 -0.041098 0.000000
68.66010284 198.22799683 75.00000000 -0.000978 -0.000978 0.999999 0.000000
84.16400146 189.73800659 157.50000000 -0.000978 -0.000978 -0.999999 0.000000
117.75599670 157.99200439 165.00000000 0.287272 0.882872 -0.371498 0.000000
166.11300659 121.44699860 55.00000000 0.085703 -0.765514 0.637686 0.000000
106.31199646 205.24200439 162.50000000 -0.000978 -0.000978 -0.999999 0.000000
87.11720276 222.96099854 157.50000000 -0.000978 -0.000978 -0.999999 0.000000
169.06599426 156.51600647 162.50000000 -0.000978 -0.000978 -0.999999 0.000000
195.64399719 124.03099823 162.50000000 -0.000978 -0.000978 -0.999999 0.000000
105.57399750 127.72299957 147.50000000 0.387730 0.661616 -0.641817 0.000000
188.26199341 177.92599487 152.50000000 -0.668389 -0.618633 -0.412975 0.000000
152.82400513 129.19900513 162.50000000 -0.000978 -0.000978 -0.999999 0.000000
132.89100647 186.78500366 77.50000000 -0.573357 -0.782703 0.242154 0.000000
115.91000366 130.67599487 157.50000000 0.126747 0.846436 -0.517186 0.000000
149.13299561 136.58200073 162.50000000 0.011616 0.391087 -0.920280 0.000000
96.71479797 209.30299377 35.00000000 -0.370367 -0.925245 0.082154 0.000000
106.31199646 168.32800293 162.50000000 0.600218 -0.001367 -0.799835 0.000000
97.82219696 129.19900513 50.00000000 0.550435 0.808021 0.210055 0.000000
190.47700500 123.29299927 162.50000000 -0.000978 -0.000978 -0.999999 0.000000
128.46099854 217.05499268 147.50000000 -0.183199 -0.956112 -0.228665 0.000000
191.21499634 149.13299561 162.50000000 -0.000978 -0.000978 -0.999999 0.000000
81.21089935 160.20700073 152.50000000 0.670636 0.610728 -0.421020 0.000000
126.98400116 174.97300720 167.50000000 -0.000978 -0.000978 -0.999999 0.000000
79.73439789 217.05499268 157.50000000 -0.000978 -0.000978 -0.999999 0.000000
129.19900513 107.41999817 80.00000000 0.239742 0.960277 0.142797 0.000000
132.15199280 142.85699463 60.00000000 -0.190794 -0.842799 0.503276 0.000000
149.87100220 147.65600586 167.50000000 -0.000978 -0.000978 -0.999999 0.000000
112.21900177 216.31599426 162.50000000 -0.000978 -0.000978 -0.999999 0.000000
103.35900116 210.41000366 107.50000000 -0.808364 -0.576564 0.118834 0.000000
69.76760101 229.60499573 120.00000000 0.001379 -0.748548 -0.663079 0.000000
74.56639862 226.65199280 107.50000000 0.392666 -0.852071 0.346105 0.000000
149.13299561 129.93699646 162.50000000 -0.000978 -0.000978 -0.999999 0.000000
129.19900513 210.77900696 140.00000000 -0.574113 -0.667845 0.473685 0.000000
110.74199677 151.34800720 162.50000000 -0.000978 -0.000978 -0.999999 0.000000
126.24600220 112.21900177 62.50000000 -0.560899 0.510368 0.651856 0.000000
74.56639862 149.13299561 107.50000000 0.000978 0.000978 0.999999 0.000000
109.26599884 216.31599426 162.50000000 -0.000978 -0.000978 -0.999999 0.000000
175.71099854 106.31199646 142.50000000 0.095062 0.954522 -0.282580 0.000000
76.78119659 147.28700256 135.00000000 0.521351 0.745022 -0.416094 0.000000
146.91799927 182.35499573 107.50000000 -0.703222 -0.703222 0.104673 0.000000
64.23040009 184.57000732 142.50000000 0.662838 0.558798 -0.498387 0.000000
95.97650146 178.66400146 162.50000000 -0.000978 -0.000978 -0.999999 0.000000
110.37300110 235.51199341 150.00000000 -0.648918 -0.756345 -0.082748 0.000000
183.83200073 146.17999268 162.50000000 -0.000978 -0.000978 -0.999999 0.000000
143.59599304 184.57000732 100.00000000 -0.703222 -0.703222 0.104673 0.000000
214.10099792 148.39399719 162.50000000 -0.820165 -0.350593 -0.452122 0.000000
126.24600220 146.91799927 167.50000000 -0.156252 0.669003 -0.726650 0.000000
81.94920349 222.22300720 157.50000000 -0.000978 -0.000978 -0.999999 0.000000
136.58200073 184.57000732 167.50000000 -0.000978 -0.000978 -0.999999 0.000000
141.01199341 183.09399414 162.50000000 -0.000978 -0.000978 -0.999999 0.000000
177.18699646 181.98599243 155.00000000 -0.115492 -0.874029 -0.471947 0.000000
145.44099426 165.74400330 85.00000000 -0.849797 -0.074941 0.521756 0.000000
135.84399414 180.14100647 167.50000000 -0.000978 -0.000978 -0.999999 0.000000
84.16400146 215.57800293 157.50000000 -0.000978 -0.000978 -0.999999 0.000000
161.68400574 156.51600647 167.50000000 -0.000978 -0.000978 -0.999999 0.000000
68.29100037 185.30900574 65.00000000 0.964744 -0.130441 0.228594 0.000000
189.00000000 124.03099823 67.50000000 -0.826195 -0.556065 0.090522 0.000000
82.68750000 141.75000000 137.50000000 0.846591 0.490449 -0.206743 0.000000
83.42579651 149.13299561 7.50000000 0.858296 0.287122 0.425310 0.000000
90.07029724 152.82400513 157.50000000 -0.000978 -0.000978 -0.999999 0.000000
160.94500732 131.41400146 67.50000000 -0.364239 -0.857123 0.364239 0.000000
225.91400146 121.81600189 152.50000000 -0.203311 0.034480 -0.978507 0.000000
98.19139862 160.94500732 162.50000000 0.325014 0.367739 -0.871283 0.000000
152.08599854 191.21499634 132.50000000 -0.372645 -0.592620 0.714099 0.000000
149.13299561 183.09399414 162.50000000 -0.000978 -0.000978 -0.999999 0.000000
103.35900116 149.13299561 7.50000000 -0.489430 -0.404877 0.772356 0.000000
151.34800720 134.36700439 67.50000000 -0.638691 -0.457645 0.618575 0.000000
113.69499969 220.74600220 162.50000000 -0.000978 -0.000978 -0.999999 0.000000
222.96099854 112.21900177 147.50000000 0.000978 0.000978 0.999999 0.000000
124.76899719 143.22700500 162.50000000 -0.000978 -0.000978 -0.999999 0.000000
234.77299500 131.78300476 145.00000000 0.772920 0.414936 -0.480024 0.000000
62.01559830 211.88699341 137.50000000 0.889740 -0.153800 -0.429777 0.000000
232.55900574 132.89100647 142.50000000 0.307882 0.110624 -0.944971 0.000000
107.78900146 236.98800659 157.50000000 -0.001289 -0.913864 -0.406019 0.000000
196.38299561 107.78900146 147.50000000 -0.140096 0.939870 -0.311476 0.000000
135.84399414 207.45700073 142.50000000 -0.809567 -0.537132 0.236833 0.000000
103.35900116 149.87100220 7.50000000 -0.489430 -0.404877 0.772356 0.000000
59.43159866 186.78500366 115.00000000 0.960948 0.153804 0.230049 0.000000
131.41400146 191.58399963 105.00000000 -0.337286 -0.902867 0.266589 0.000000
115.17199707 166.85200500 22.50000000 -0.645461 0.216190 0.732559 0.000000
172.75799561 182.35499573 147.50000000 0.000978 0.000978 0.999999 0.000000
75.30470276 147.65600586 107.50000000 -0.000978 -0.000978 0.999999 0.000000
178.66400146 151.34800720 117.50000000 0.000978 0.000978 0.999999 0.000000
123.66200256 183.09399414 45.00000000 -0.785399 -0.491882 0.375766 0.000000
107.78900146 203.76600647 162.50000000 -0.000978 -0.000978 -0.999999 0.000000
112.95700073 166.11300659 167.50000000 -0.000978 -0.000978 -0.999999 0.000000
94.86910248 125.50800323 135.00000000 0.601161 0.763553 -0.235780 0.000000
83.05660248 143.22700500 45.00000000 0.776516 0.620919 0.107156 0.000000
102.62100220 150.60899353 7.50000000 -0.606725 -0.064241 0.792312 0.000000
202.28900146 109.26599884 147.50000000 -0.177013 0.971664 -0.156638 0.000000
124.76899719 198.22799683 165.00000000 -0.329690 -0.677245 -0.657756 0.000000
66.44529724 220.00799561 112.50000000 0.703222 -0.703222 0.104673 0.000000
225.17599487 139.53500366 142.50000000 -0.000978 -0.000978 -0.999999 0.000000
177.18699646 157.99200439 162.50000000 -0.000978 -0.000978 -0.999999 0.000000
177.18699646 141.75000000 162.50000000 -0.000978 -0.000978 -0.999999 0.000000
105.20500183 114.43399811 95.00000000 0.423805 0.849163 0.315137 0.000000
110.00399780 228.86700439 137.50000000 -0.267623 -0.276210 0.923085 0.000000
74.56639862 155.40800476 140.00000000 0.606198 0.449221 -0.656297 0.000000
163.16000366 124.76899719 62.50000000 -0.339353 -0.423800 0.839781 0.000000
187.15400696 163.16000366 130.00000000 -0.785889 -0.180891 0.591317 0.000000
80.47260284 139.53500366 87.50000000 0.809219 0.581311 -0.085105 0.000000
152.82400513 167.22099304 110.00000000 -0.269233 0.648389 0.712113 0.000000
101.14499664 152.45500183 160.00000000 0.275801 0.706243 -0.652039 0.000000
105.57399750 204.87300110 40.00000000 -0.708486 -0.705724 0.001381 0.000000
101.14499664 152.08599854 7.50000000 -0.715359 0.001384 0.698755 0.000000
152.08599854 138.42799377 165.00000000 -0.177164 0.877034 -0.446570 0.000000
90.80860138 213.36300659 47.50000000 0.187996 -0.784082 0.591500 0.000000
190.47700500 168.69700623 140.00000000 -0.761432 -0.590466 0.267530 0.000000
124.03099823 163.16000366 167.50000000 -0.000978 -0.000978 -0.999999 0.000000
101.14499664 192.69099426 162.50000000 0.284661 -0.167528 -0.943876 0.000000
116.64800262 216.31599426 132.50000000 0.000978 0.000978 0.999999 0.000000
173.49600220 143.96499634 162.50000000 -0.000978 -0.000978 -0.999999 0.000000
143.96499634 139.53500366 167.50000000 0.673853 0.405636 -0.617561 0.000000
81.21089935 142.11900330 60.00000000 0.797053 0.597428 0.088240 0.000000
135.10499573 163.89799500 167.50000000 -0.000978 -0.000978 -0.999999 0.000000
119.60199738 146.91799927 162.50000000 -0.000978 -0.000978 -0.999999 0.000000
124.76899719 214.10099792 162.50000000 -0.000978 -0.000978 -0.999999 0.000000
222.22300720 152.82400513 147.50000000 -0.057099 0.859272 -0.508322 0.000000
98.92970276 203.76600647 162.50000000 -0.000978 -0.000978 -0.999999 0.000000
138.05900574 125.50800323 37.50000000 0.000978 0.000978 0.999999 0.000000
104.83599854 152.45500183 10.00000000 -0.606725 -0.064241 0.792312 0.000000
214.83999634 134.73599243 130.00000000 -0.626041 -0.626041 0.464915 0.000000
143.22700500 144.70300293 167.50000000 -0.000978 -0.000978 -0.999999 0.000000
190.84599304 168.32800293 140.00000000 -0.761432 -0.590466 0.267530 0.000000
194.90600586 107.05100250 77.50000000 0.262003 0.958069 0.116011 0.000000
115.17199707 212.62500000 162.50000000 -0.000978 -0.000978 -0.999999 0.000000
141.01199341 147.65600586 167.50000000 -0.000978 -0.000978 -0.999999 0.000000
78.99610138 203.02699280 157.50000000 -0.000978 -0.000978 -0.999999 0.000000
172.01899719 126.98400116 162.50000000 -0.000978 -0.000978 -0.999999 0.000000
186.04699707 129.93699646 72.50000000 0.503590 -0.380527 0.775626 0.000000
178.66400146 109.26599884 82.50000000 -0.193097 0.975449 0.105892 0.000000
93.76170349 219.26899719 157.50000000 0.452336 0.372418 -0.810368 0.000000
124.03099823 224.43699646 147.50000000 0.000978 0.000978 0.999999 0.000000
81.94920349 154.30099487 7.50000000 0.933515 0.284968 0.217586 0.000000
76.04290009 165.37500000 27.50000000 0.891912 0.222610 0.393621 0.000000
113.69499969 224.43699646 137.50000000 -0.632122 -0.233713 0.738783 0.000000
84.90229797 236.98800659 147.50000000 0.058687 -0.768654 -0.636967 0.000000
180.14100647 126.24600220 162.50000000 -0.000978 -0.000978 -0.999999 0.000000
232.55900574 115.17199707 147.50000000 0.000978 0.000978 0.999999 0.000000
132.89100647 110.37300110 60.00000000 -0.959055 0.001216 0.283219 0.000000
152.82400513 197.49000549 140.00000000 -0.489825 -0.687092 0.536634 0.000000
187.52299500 117.38700104 157.50000000 -0.000978 -0.000978 -0.999999 0.000000
76.41210175 178.66400146 20.00000000 0.975099 -0.054644 0.214935 0.000000
143.22700500 157.25399780 97.50000000 -0.001338 0.860313 0.509765 0.000000
192.69099426 124.03099823 72.50000000 0.000978 0.000978 0.999999 0.000000
163.89799500 159.46899414 167.50000000 -0.820208 0.258932 -0.510111 0.000000
73.08979797 231.82000732 117.50000000 0.000978 0.000978 0.999999 0.000000
124.76899719 187.52299500 57.50000000 -0.447293 -0.840038 0.307027 0.000000
204.50399780 116.64800262 77.50000000 -0.594486 -0.493440 0.634904 0.000000
103.35900116 155.03900146 7.50000000 -0.667022 0.223382 0.710761 0.000000
125.13899994 109.26599884 140.00000000 0.425579 0.774521 -0.467974 0.000000
72.35150146 162.42199707 142.50000000 -0.178942 0.539834 -0.822532 0.000000
225.91400146 149.87100220 157.50000000 -0.615711 0.132684 -0.776720 0.000000
203.02699280 144.70300293 162.50000000 -0.000978 -0.000978 -0.999999 0.000000
184.57000732 126.98400116 72.50000000 0.420958 -0.300684 0.855794 0.000000
107.78900146 129.93699646 152.50000000 0.331684 0.577616 -0.745885 0.000000
119.60199738 151.34800720 22.50000000 0.000978 0.000978 0.999999 0.000000
212.62500000 152.08599854 142.50000000 -0.000978 -0.000978 -0.999999 0.000000
71.98239899 199.33599854 60.00000000 0.896678 -0.399654 0.190381 0.000000
106.31199646 172.01899719 162.50000000 0.989041 0.001110 -0.147635 0.000000
228.86700439 148.39399719 152.50000000 0.325869 0.775343 -0.540974 0.000000
172.01899719 143.96499634 92.50000000 -0.001289 -0.913864 0.406019 0.000000
93.02339935 198.59800720 162.50000000 -0.000978 -0.000978 -0.999999 0.000000
225.91400146 118.12500000 152.50000000 -0.000978 -0.000978 -0.999999 0.000000
116.64800262 231.08200073 147.50000000 -0.584169 -0.631307 0.510096 0.000000
193.42999268 144.70300293 162.50000000 -0.000978 -0.000978 -0.999999 0.000000
194.16799927 134.73599243 85.00000000 -0.674976 -0.674976 0.298020 0.000000
160.94500732 145.44099426 92.50000000 -0.086877 -0.900489 0.426112 0.000000
174.23399353 166.48199463 125.00000000 -0.444939 -0.694904 0.564922 0.000000
101.88300323 207.82600403 65.00000000 -0.685157 -0.727538 -0.035317 0.000000
87.85540009 239.94099426 127.50000000 0.000978 0.000978 0.999999 0.000000
137.32000732 166.11300659 167.50000000 -0.000978 -0.000978 -0.999999 0.000000
167.58999634 149.13299561 167.50000000 -0.989410 -0.001108 -0.145143 0.000000
70.13670349 192.69099426 152.50000000 0.827902 -0.185486 -0.529314 0.000000
157.62300110 172.01899719 160.00000000 -0.965798 -0.249927 -0.069075 0.000000
107.05100250 205.24200439 162.50000000 -0.000978 -0.000978 -0.999999 0.000000
135.84399414 187.52299500 87.50000000 -0.674976 -0.674976 0.298020 0.000000
148.39399719 180.87899780 162.50000000 -0.000978 -0.000978 -0.999999 0.000000
189.73800659 108.52700043 77.50000000 0.272568 0.954646 0.119825 0.000000
98.19139862 215.57800293 107.50000000 -0.621062 -0.772976 0.129574 0.000000
203.76600647 121.07800293 82.50000000 -0.996206 -0.079305 0.035850 0.000000
136.58200073 127.72299957 157.50000000 0.511813 0.855841 -0.074727 0.000000
174.97300720 111.11100006 70.00000000 -0.001108 0.989410 0.145143 0.000000
147.65600586 115.91000366 157.50000000 0.000978 0.000978 -0.999999 0.000000
168.32800293 166.85200500 122.50000000 -0.438017 -0.790370 0.428319 0.000000
165.37500000 124.76899719 162.50000000 -0.000978 -0.000978 -0.999999 0.000000
66.44529724 188.63099670 75.00000000 0.976842 -0.195368 0.087240 0.000000
186.78500366 137.32000732 162.50000000 -0.000978 -0.000978 -0.999999 0.000000
159.46899414 152.82400513 112.50000000 0.000978 0.000978 0.999999 0.000000
221.48399353 102.25199890 110.00000000 -0.226001 0.971926 -0.065454 0.000000
80.47260284 158.72999573 7.50000000 0.923783 0.308877 0.226320 0.000000
123.66200256 191.95300293 90.00000000 -0.674976 -0.674976 0.298020 0.000000
174.97300720 127.72299957 162.50000000 -0.000978 -0.000978 -0.999999 0.000000
215.20899963 121.07800293 105.00000000 0.001379 -0.748548 0.663079 0.000000
195.27499390 160.20700073 140.00000000 -0.851798 -0.095595 0.515074 0.000000
125.50800323 187.52299500 57.50000000 -0.748380 -0.627021 0.216268 0.000000
131.41400146 216.31599426 147.50000000 -0.341976 -0.750403 0.565639 0.000000
156.51600647 132.15199280 162.50000000 -0.000978 -0.000978 -0.999999 0.000000
71.24410248 194.90600586 55.00000000 0.960952 -0.191662 0.199593 0.000000
114.06400299 231.08200073 145.00000000 -0.784202 -0.539238 0.307000 0.000000
111.48000336 212.62500000 127.50000000 -0.173179 -0.983705 0.048302 0.000000
118.86299896 145.44099426 27.50000000 -0.674976 0.674976 0.298020 0.000000
97.08399963 213.36300659 80.00000000 -0.618519 -0.767450 -0.168687 0.000000
78.25779724 220.74600220 152.50000000 -0.000978 -0.000978 -0.999999 0.000000
122.92400360 176.44900513 35.00000000 -0.962957 0.023307 0.268647 0.000000
77.51950073 153.56199646 42.50000000 0.919499 0.366962 0.140925 0.000000
142.48800659 141.01199341 167.50000000 0.667619 0.199821 -0.717187 0.000000
169.06599426 107.78900146 77.50000000 -0.335697 0.841585 0.423134 0.000000
167.58999634 144.70300293 162.50000000 -0.478619 0.875387 -0.067978 0.000000
87.85540009 228.12899780 152.50000000 0.260788 -0.599022 -0.757075 0.000000
174.97300720 175.71099854 157.50000000 0.618430 -0.158766 -0.769635 0.000000
92.65429688 222.22300720 115.00000000 -0.740203 -0.630659 0.233172 0.000000
124.40000153 128.46099854 25.00000000 -0.654910 -0.624914 0.424942 0.000000
66.81439972 168.32800293 90.00000000 0.886561 0.443995 -0.129915 0.000000
98.56050110 211.14799500 55.00000000 -0.671464 -0.740973 0.009731 0.000000
133.62899780 134.36700439 47.50000000 -0.616944 -0.708102 0.343470 0.000000
144.70300293 188.26199341 117.50000000 -0.751368 -0.587958 0.299586 0.000000
122.55500031 132.15199280 27.50000000 -0.875024 -0.423302 0.234836 0.000000
179.40199280 147.65600586 107.50000000 -0.178529 -0.965621 0.188954 0.000000
76.78119659 205.97999573 157.50000000 -0.000978 -0.000978 -0.999999 0.000000
98.19139862 148.39399719 157.50000000 -0.000978 -0.000978 -0.999999 0.000000
123.29299927 105.57399750 132.50000000 0.569086 0.378844 -0.729807 0.000000
123.29299927 134.36700439 32.50000000 -0.514693 0.514693 0.685698 0.000000
135.10499573 143.22700500 167.50000000 -0.000978 -0.000978 -0.999999 0.000000
173.12699890 177.18699646 155.00000000 -0.406134 -0.913472 -0.024973 0.000000
191.21499634 152.82400513 162.50000000 -0.000978 -0.000978 -0.999999 0.000000
68.29100037 175.71099854 65.00000000 0.993516 0.088888 0.070885 0.000000
105.20500183 160.94500732 10.00000000 -0.891912 0.222610 0.393621 0.000000
124.76899719 193.42999268 97.50000000 -0.548329 -0.820252 0.162855 0.000000
209.67199707 160.57600403 160.00000000 -0.103281 -0.986508 -0.127023 0.000000
194.90600586 120.33999634 162.50000000 -0.205401 0.216141 -0.954512 0.000000
76.78119659 220.00799561 87.50000000 0.481617 -0.736494 0.474997 0.000000
79.73439789 222.22300720 87.50000000 0.338014 -0.810916 0.477663 0.000000
72.72070313 212.62500000 85.00000000 0.773444 -0.428244 0.467323 0.000000
124.76899719 113.69499969 52.50000000 0.273271 0.955796 0.108524 0.000000
115.17199707 229.97500610 145.00000000 -0.784202 -0.539238 0.307000 0.000000
137.32000732 163.89799500 167.50000000 -0.000978 -0.000978 -0.999999 0.000000
223.69900513 103.72799683 125.00000000 -0.139458 0.985741 -0.094164 0.000000
91.54679871 189.73800659 162.50000000 -0.000978 -0.000978 -0.999999 0.000000
232.55900574 117.01799774 130.00000000 -0.376562 -0.626507 0.682415 0.000000
162.42199707 145.81100464 95.00000000 0.218048 -0.956468 0.193969 0.000000
188.63099670 171.28100586 160.00000000 -0.729136 -0.409831 -0.548087 0.000000
107.05100250 237.72599792 137.50000000 -0.349290 0.579984 0.735945 0.000000
77.88860321 160.20700073 20.00000000 0.914265 0.365422 0.174890 0.000000
125.50800323 208.19500732 132.50000000 0.000978 0.000978 0.999999 0.000000
95.97650146 131.41400146 42.50000000 0.583384 0.801968 0.128492 0.000000
121.07800293 140.27299500 32.50000000 -0.989410 -0.001108 -0.145143 0.000000
126.98400116 109.26599884 142.50000000 0.467974 0.425579 -0.774521 0.000000
83.42579651 234.77299500 122.50000000 -0.083597 -0.415243 0.905861 0.000000
108.52700043 200.81199646 162.50000000 0.068908 -0.249322 -0.965966 0.000000
139.53500366 203.02699280 137.50000000 -0.375467 -0.713223 0.591893 0.000000
172.75799561 181.98599243 155.00000000 -0.001289 -0.913864 -0.406019 0.000000
173.86500549 169.80499268 150.00000000 0.629654 -0.742149 -0.229675 0.000000
73.45899963 227.39100647 145.00000000 0.569736 -0.727357 -0.382560 0.000000
151.34800720 174.97300720 107.50000000 -0.509621 -0.822519 -0.252487 0.000000
91.54679871 205.97999573 162.50000000 -0.000978 -0.000978 -0.999999 0.000000
92.28510284 210.41000366 37.50000000 0.169013 -0.894177 0.414586 0.000000
206.71899414 110.37300110 150.00000000 -0.148996 0.769060 -0.621569 0.000000
111.48000336 225.17599487 137.50000000 -0.380303 -0.224658 0.897162 0.000000
107.78900146 121.07800293 57.50000000 0.438191 0.877857 0.193276 0.000000
206.71899414 101.88300323 97.50000000 0.160396 0.980744 0.111420 0.000000
129.19900513 182.35499573 57.50000000 -0.761544 -0.565947 0.315840 0.000000
182.35499573 136.58200073 162.50000000 -0.000978 -0.000978 -0.999999 0.000000
93.02339935 126.98400116 137.50000000 0.447035 0.737360 -0.506419 0.000000
220.00799561 112.58799744 105.00000000 0.514693 -0.514693 0.685698 0.000000
80.47260284 210.04100037 55.00000000 0.645432 -0.745664 0.165534 0.000000
115.91000366 189.00000000 167.50000000 -0.000978 -0.000978 -0.999999 0.000000
101.14499664 132.89100647 147.50000000 0.785332 0.313814 -0.533643 0.000000
136.58200073 197.12100220 127.50000000 -0.166308 -0.863920 0.475377 0.000000
79.73439789 164.63699341 7.50000000 0.954069 0.145040 0.262136 0.000000
91.91600037 125.50800323 130.00000000 0.783705 0.603887 -0.145352 0.000000
157.25399780 174.23399353 157.50000000 -0.741175 0.444045 0.503471 0.000000
197.12100220 117.38700104 157.50000000 0.030240 0.235873 -0.971313 0.000000
104.09799957 117.38700104 132.50000000 0.415126 0.806211 -0.421538 0.000000
90.80860138 190.47700500 162.50000000 -0.000978 -0.000978 -0.999999 0.000000
147.65600586 103.35900116 77.50000000 -0.001108 0.989410 0.145143 0.000000
141.01199341 129.93699646 47.50000000 -0.441234 -0.584426 0.680998 0.000000
145.81100464 153.56199646 95.00000000 -0.592772 -0.672921 0.442492 0.000000
207.45700073 149.13299561 162.50000000 -0.000978 -0.000978 -0.999999 0.000000
98.19139862 208.93400574 37.50000000 -0.370367 -0.925245 0.082154 0.000000
172.75799561 121.44699860 55.00000000 -0.045636 -0.858788 0.510294 0.000000
104.46700287 121.07800293 140.00000000 0.022179 0.917155 -0.397912 0.000000
122.92400360 159.46899414 30.00000000 -0.913864 -0.001289 0.406019 0.000000
78.25779724 142.48800659 107.50000000 -0.000978 -0.000978 0.999999 0.000000
183.83200073 133.62899780 162.50000000 -0.000978 -0.000978 -0.999999 0.000000
135.47500610 174.97300720 60.00000000 -0.796079 -0.488539 0.357194 0.000000
70.87500000 228.12899780 137.50000000 0.585559 -0.765488 -0.266737 0.000000
232.55900574 121.07800293 137.50000000 0.000978 0.000978 0.999999 0.000000
147.65600586 171.28100586 167.50000000 -0.000978 -0.000978 -0.999999 0.000000
186.04699707 181.24800110 150.00000000 -0.845976 -0.508178 0.161491 0.000000
67.92189789 221.85299683 140.00000000 0.594110 -0.296254 -0.747842 0.000000
118.86299896 225.91400146 142.50000000 0.000978 0.000978 0.999999 0.000000
101.88300323 226.65199280 127.50000000 0.000978 0.000978 0.999999 0.000000
109.26599884 121.07800293 52.50000000 0.001213 0.959249 -0.282560 0.000000
76.78119659 166.85200500 147.50000000 -0.000978 -0.000978 -0.999999 0.000000
111.48000336 113.32599640 80.00000000 0.355251 0.888878 0.289297 0.000000
98.92970276 203.02699280 22.50000000 -0.651480 -0.607936 0.453859 0.000000
177.92599487 152.08599854 162.50000000 -0.000978 -0.000978 -0.999999 0.000000
195.64399719 155.77699280 142.50000000 0.000978 0.000978 0.999999 0.000000
61.27730179 211.88699341 117.50000000 0.953007 -0.301806 0.026298 0.000000
93.02339935 159.46899414 157.50000000 -0.000978 -0.000978 -0.999999 0.000000
129.19900513 169.80499268 42.50000000 -0.626041 -0.626041 -0.464915 0.000000
176.44900513 112.21900177 62.50000000 -0.001108 0.989410 0.145143 0.000000
76.78119659 183.09399414 22.50000000 0.947621 -0.315874 0.047317 0.000000
163.89799500 123.29299927 57.50000000 0.076499 -0.772204 0.630753 0.000000
118.86299896 188.26199341 167.50000000 -0.000978 -0.000978 -0.999999 0.000000
95.60739899 163.16000366 160.00000000 0.865860 0.358340 -0.349112 0.000000
177.18699646 161.68400574 122.50000000 0.000978 0.000978 0.999999 0.000000
91.54679871 236.98800659 127.50000000 -0.123124 -0.372140 0.919974 0.000000
234.03500366 121.07800293 147.50000000 0.000978 0.000978 0.999999 0.000000
97.45310211 216.31599426 112.50000000 -0.000978 -0.000978 -0.999999 0.000000
93.76170349 215.94700623 80.00000000 -0.000978 -0.000978 -0.999999 0.000000
86.37889862 217.79299927 157.50000000 -0.000978 -0.000978 -0.999999 0.000000
115.91000366 152.82400513 162.50000000 -0.000978 -0.000978 -0.999999 0.000000
122.55500031 131.04499817 25.00000000 -0.810750 -0.446152 0.378990 0.000000
225.17599487 145.44099426 157.50000000 -0.000978 -0.000978 -0.999999 0.000000
142.85699463 182.35499573 90.00000000 -0.900459 -0.306067 0.309025 0.000000
117.75599670 166.11300659 25.00000000 -0.782822 -0.211532 0.585187 0.000000
121.44699860 132.89100647 25.00000000 -0.857342 -0.441661 0.264385 0.000000
62.38470078 176.44900513 135.00000000 0.819194 0.215900 -0.531328 0.000000
225.91400146 129.19900513 152.50000000 0.000978 0.000978 -0.999999 0.000000
78.99610138 168.32800293 7.50000000 0.000978 0.000978 0.999999 0.000000
100.40599823 168.32800293 7.50000000 0.000978 0.000978 0.999999 0.000000
143.96499634 103.72799683 85.00000000 0.193075 0.970487 0.144486 0.000000
151.34800720 101.51399994 115.00000000 -0.239742 0.960277 -0.142797 0.000000
214.10099792 127.72299957 157.50000000 0.000978 0.000978 -0.999999 0.000000
95.23829651 165.37500000 162.50000000 0.523035 0.096009 -0.846887 0.000000
186.04699707 170.54299927 137.50000000 -0.389615 -0.852186 0.349256 0.000000
197.85899353 105.20500183 85.00000000 0.306298 0.924592 0.226518 0.000000
60.90819931 212.62500000 135.00000000 0.918854 -0.207207 -0.335817 0.000000
81.21089935 239.94099426 127.50000000 0.001289 -0.913864 0.406019 0.000000
105.57399750 237.72599792 152.50000000 -0.877857 -0.438191 -0.193276 0.000000
180.87899780 130.67599487 72.50000000 -0.345856 -0.526023 0.776970 0.000000
129.19900513 175.71099854 47.50000000 -0.921454 -0.265942 0.283192 0.000000
117.38700104 203.02699280 117.50000000 -0.559838 -0.790634 0.247950 0.000000
75.30470276 214.83999634 82.50000000 0.780245 -0.530310 0.331644 0.000000
58.69329834 198.59800720 135.00000000 0.989410 -0.001108 -0.145143 0.000000
137.32000732 193.05999756 120.00000000 -0.336470 -0.921389 0.194500 0.000000
64.59960175 211.88699341 105.00000000 0.901801 -0.299616 0.311424 0.000000
149.50199890 177.18699646 105.00000000 -0.408225 -0.811647 -0.417830 0.000000
84.53320313 155.03900146 150.00000000 0.728072 0.557148 -0.399371 0.000000
87.11720276 129.56799316 110.00000000 0.722037 0.690952 0.035325 0.000000
117.38700104 113.69499969 142.50000000 0.000978 0.000978 -0.999999 0.000000
161.68400574 137.32000732 162.50000000 -0.258049 0.278008 -0.925269 0.000000
208.93400574 125.50800323 97.50000000 -0.742386 0.247462 0.622596 0.000000
193.42999268 107.78900146 147.50000000 -0.083826 0.955618 -0.282430 0.000000
192.69099426 126.24600220 72.50000000 0.166447 -0.484611 0.858748 0.000000
103.35900116 169.80499268 7.50000000 -0.457181 -0.088081 0.885001 0.000000
125.50800323 113.32599640 55.00000000 0.241623 0.967743 0.071360 0.000000
72.72070313 152.82400513 80.00000000 0.932726 0.310909 -0.182641 0.000000
119.60199738 193.79899597 70.00000000 -0.000978 -0.000978 0.999999 0.000000
111.48000336 171.28100586 17.50000000 0.011552 -0.378658 0.925465 0.000000
225.91400146 143.96499634 147.50000000 -0.228121 0.780579 -0.581943 0.000000
129.93699646 221.48399353 157.50000000 -0.269588 -0.903047 -0.334407 0.000000
115.17199707 142.48800659 17.50000000 -0.633212 0.097980 0.767751 0.000000
127.72299957 105.57399750 97.50000000 0.254805 0.961015 0.107354 0.000000
146.17999268 103.72799683 75.00000000 -0.001108 0.989410 0.145143 0.000000
172.75799561 143.22700500 87.50000000 -0.000978 -0.000978 0.999999 0.000000
183.83200073 108.52700043 82.50000000 0.139965 0.982189 0.125360 0.000000
104.46700287 170.54299927 10.00000000 -0.819640 -0.130966 0.557708 0.000000
111.11100006 222.96099854 150.00000000 -0.765079 0.494284 -0.412719 0.000000
112.95700073 222.22300720 137.50000000 0.000978 0.000978 0.999999 0.000000
150.97799683 160.94500732 110.00000000 -0.001376 -0.645448 0.763803 0.000000
83.42579651 204.50399780 157.50000000 -0.000978 -0.000978 -0.999999 0.000000
101.14499664 171.28100586 7.50000000 -0.482479 0.001329 0.875906 0.000000
111.48000336 208.19500732 162.50000000 -0.000978 -0.000978 -0.999999 0.000000
179.40199280 166.11300659 162.50000000 -0.000978 -0.000978 -0.999999 0.000000
212.62500000 154.30099487 147.50000000 -0.000978 -0.000978 -0.999999 0.000000
148.39399719 174.97300720 167.50000000 0.000978 0.000978 -0.999999 0.000000
172.75799561 158.72999573 117.50000000 0.000978 0.000978 0.999999 0.000000
78.25779724 172.01899719 7.50000000 0.808757 0.043603 0.586525 0.000000
75.30470276 226.65199280 107.50000000 0.517926 -0.726420 0.451737 0.000000
86.37889862 138.79699707 52.50000000 0.775767 0.601334 0.191264 0.000000
128.09199524 195.64399719 115.00000000 -0.803012 -0.575716 0.154023 0.000000
112.21900177 197.49000549 40.00000000 -0.779252 -0.608087 0.151646 0.000000
139.53500366 208.19500732 162.50000000 -0.000978 -0.000978 -0.999999 0.000000
92.28510284 174.97300720 162.50000000 -0.000978 -0.000978 -0.999999 0.000000
115.91000366 115.17199707 142.50000000 -0.000978 -0.000978 -0.999999 0.000000
124.03099823 207.45700073 162.50000000 -0.000978 -0.000978 -0.999999 0.000000
104.09799957 172.01899719 7.50000000 -0.596203 -0.171427 0.784318 0.000000
189.00000000 152.82400513 162.50000000 -0.000978 -0.000978 -0.999999 0.000000
126.98400116 198.22799683 120.00000000 -0.473185 -0.858302 0.198529 0.000000
78.25779724 229.60499573 107.50000000 0.570499 -0.570499 0.590814 0.000000
95.23829651 182.35499573 162.50000000 -0.000978 -0.000978 -0.999999 0.000000
215.57800293 101.14499664 97.50000000 -0.205268 0.934180 0.291844 0.000000
100.40599823 172.75799561 7.50000000 -0.332857 -0.042410 0.942023 0.000000
98.19139862 212.25599670 80.00000000 -0.563560 -0.795159 -0.223880 0.000000
162.42199707 164.26800537 155.00000000 -0.434634 -0.876686 -0.206192 0.000000
70.13670349 163.89799500 137.50000000 0.620631 0.657236 -0.427619 0.000000
194.16799927 166.11300659 142.50000000 -0.635138 -0.766546 0.094906 0.000000
103.72799683 172.75799561 10.00000000 -0.715906 -0.336038 0.612011 0.000000
116.64800262 229.60499573 147.50000000 -0.584169 -0.631307 0.510096 0.000000
78.25779724 173.49600220 7.50000000 0.719980 -0.691238 0.061795 0.000000
147.65600586 193.42999268 162.50000000 -0.000978 -0.000978 -0.999999 0.000000
114.06400299 191.95300293 35.00000000 -0.876819 -0.377078 0.298330 0.000000
79.73439789 173.49600220 7.50000000 0.719980 -0.691238 0.061795 0.000000
118.86299896 169.06599426 167.50000000 -0.000978 -0.000978 -0.999999 0.000000
101.88300323 195.64399719 17.50000000 -0.394717 -0.592901 0.701902 0.000000
196.38299561 118.86299896 67.50000000 0.000978 0.000978 0.999999 0.000000
175.71099854 104.46700287 115.00000000 -0.155016 0.987802 0.014710 0.000000
93.76170349 244.37100220 142.50000000 -0.150712 -0.943650 -0.294636 0.000000
148.39399719 134.73599243 65.00000000 -0.468832 -0.826337 0.312032 0.000000
80.47260284 205.97999573 157.50000000 -0.000978 -0.000978 -0.999999 0.000000
174.23399353 172.01899719 137.50000000 0.503023 -0.804520 0.315778 0.000000
123.66200256 112.95700073 60.00000000 -0.560899 0.510368 0.651856 0.000000
169.80499268 140.27299500 162.50000000 -0.000978 -0.000978 -0.999999 0.000000
152.82400513 190.47700500 132.50000000 -0.238009 -0.508265 0.827658 0.000000
66.44529724 211.14799500 97.50000000 0.790865 -0.512864 0.333921 0.000000
88.59369659 220.74600220 92.50000000 -0.575187 -0.811086 0.106300 0.000000
174.23399353 170.91200256 135.00000000 0.465545 -0.815100 0.344789 0.000000
101.14499664 174.23399353 7.50000000 -0.446426 0.033515 0.894193 0.000000
59.43159866 208.19500732 125.00000000 0.989154 -0.140654 0.042311 0.000000
67.18360138 190.47700500 147.50000000 -0.000978 -0.000978 -0.999999 0.000000
102.62100220 116.64800262 92.50000000 0.550942 0.825682 0.121295 0.000000
146.91799927 143.96499634 72.50000000 -0.533447 -0.709601 0.460327 0.000000
133.62899780 125.50800323 32.50000000 -0.289997 -0.620050 0.728999 0.000000
124.40000153 195.64399719 105.00000000 -0.674976 -0.674976 0.298020 0.000000
68.66010284 227.75999451 135.00000000 0.448776 -0.881679 -0.145744 0.000000
132.89100647 180.14100647 62.50000000 -0.826616 -0.482844 0.289081 0.000000
127.72299957 160.20700073 167.50000000 -0.000978 -0.000978 -0.999999 0.000000
104.46700287 203.02699280 75.00000000 -0.542419 -0.836997 0.072228 0.000000
89.33200073 207.45700073 32.50000000 0.299616 -0.901801 0.311424 0.000000
193.79899597 167.58999634 155.00000000 -0.866254 -0.482854 -0.128281 0.000000
101.88300323 174.97300720 7.50000000 -0.544392 -0.127661 0.829060 0.000000
