195.50399780 200.85299683 136.00000000 -0.530996 -0.845969 0.048779 0.000000
203.28500366 154.65199280 139.00000000 -0.876824 0.234517 0.419740 0.000000
150.76199341 177.02299500 131.00000000 0.449351 0.649805 0.613055 0.000000
238.30099487 209.12100220 217.00000000 -0.179528 -0.553669 -0.813155 0.000000
100.18399811 272.34399414 179.00000000 0.846013 -0.139292 0.514646 0.000000
149.78900146 318.54501343 220.00000000 0.092452 -0.510618 -0.854823 0.000000
162.91999817 222.73800659 128.00000000 -0.873730 -0.482010 -0.065287 0.000000
158.54299927 321.94900513 157.00000000 -0.523848 -0.201947 0.827527 0.000000
104.07399750 293.74200439 201.00000000 0.882737 -0.345550 -0.318389 0.000000
213.98399353 216.90199280 153.00000000 0.864881 0.243012 0.439233 0.000000
115.74600220 284.01599121 129.00000000 0.547929 -0.697819 0.461327 0.000000
147.84399414 283.52899170 144.00000000 -0.504305 -0.521059 0.688603 0.000000
177.99600220 142.49400330 162.00000000 0.450488 0.863309 0.227504 0.000000
271.37100220 180.91400146 191.00000000 -0.566980 -0.060798 0.821485 0.000000
168.26899719 149.30299377 156.00000000 0.473397 0.797553 0.373903 0.000000
110.88300323 268.93899536 122.00000000 0.940610 -0.253508 0.225802 0.000000
178.96899414 325.35299683 206.00000000 -0.402029 -0.746625 -0.530022 0.000000
243.16400146 209.12100220 193.00000000 -0.588123 -0.635308 0.500495 0.000000
166.81100464 209.12100220 130.00000000 -0.928044 0.371477 0.027181 0.000000
140.06199646 180.91400146 137.00000000 0.344185 0.757854 0.554251 0.000000
231.49200439 194.53100586 223.00000000 0.097976 -0.339560 -0.935468 0.000000
224.68400574 235.38299561 179.00000000 0.814634 -0.503849 -0.287241 0.000000
282.07000732 178.96899414 195.00000000 -0.182246 -0.469690 0.863816 0.000000
215.44299316 240.24600220 188.00000000 -0.774730 -0.631314 0.035151 0.000000
194.53100586 260.67199707 221.00000000 -0.540861 -0.314306 -0.780180 0.000000
161.46099854 148.33000183 194.00000000 0.899331 -0.001305 0.437266 0.000000
156.59800720 148.33000183 200.00000000 0.000978 0.999999 0.000978 0.000000
149.78900146 212.03900146 103.00000000 -0.796240 0.336687 0.502637 0.000000
179.94099426 211.06599426 147.00000000 -0.628407 -0.467535 0.621704 0.000000
239.27299500 186.26400757 158.00000000 -0.321139 -0.535232 0.781279 0.000000
229.05999756 144.92599487 200.00000000 0.899331 -0.001305 -0.437266 0.000000
142.00799561 262.61700439 115.00000000 -0.423389 -0.317930 0.848329 0.000000
173.13299561 320.97601318 167.00000000 -0.671715 -0.223905 0.706162 0.000000
278.17999268 171.18699646 217.00000000 -0.285931 0.605407 -0.742782 0.000000
117.20500183 279.15200806 118.00000000 0.665999 -0.675721 0.315985 0.000000
123.52700043 174.10499573 199.00000000 0.832401 0.553553 0.026228 0.000000
115.74600220 298.60501099 219.00000000 0.680712 -0.104839 -0.725010 0.000000
173.13299561 337.99798584 192.00000000 -0.267522 -0.886261 -0.378118 0.000000
111.36900330 257.75399780 112.00000000 0.974541 0.022664 0.223059 0.000000
139.08999634 337.99798584 170.00000000 0.937477 -0.311577 0.155102 0.000000
201.33999634 236.35499573 147.00000000 0.423902 0.663282 0.616736 0.000000
144.43899536 332.64801025 204.00000000 -0.080020 -0.734730 -0.673624 0.000000
286.93399048 147.84399414 197.00000000 -0.470803 0.334476 -0.816376 0.000000
271.37100220 117.69100189 181.00000000 -0.195830 0.821272 -0.535876 0.000000
155.62500000 302.49600220 227.00000000 -0.123496 -0.378812 -0.917197 0.000000
109.91000366 302.49600220 155.00000000 0.275651 -0.384105 0.881181 0.000000
253.86300659 193.55900574 225.00000000 -0.000978 -0.000978 -0.999999 0.000000
210.09399414 260.18499756 188.00000000 -0.949363 0.154861 0.273363 0.000000
100.66999817 238.30099487 198.00000000 0.894688 -0.446689 0.001310 0.000000
214.95700073 257.26800537 198.00000000 -0.711656 0.411143 0.569655 0.000000
167.29699707 211.55299377 132.00000000 -0.960571 0.248941 -0.123819 0.000000
156.59800720 156.11099243 224.00000000 0.004147 0.736861 -0.676032 0.000000
264.07598877 189.66799927 186.00000000 -0.789487 -0.300227 0.535326 0.000000
138.11700439 282.07000732 233.00000000 0.124882 -0.355433 -0.926322 0.000000
282.07000732 206.68899536 214.00000000 -0.274698 -0.479558 -0.833406 0.000000
129.85000610 216.90199280 104.00000000 0.899331 -0.001305 -0.437266 0.000000
162.43400574 302.49600220 227.00000000 -0.245489 -0.388319 -0.888225 0.000000
152.70700073 216.41600037 104.00000000 -0.767738 0.396094 0.503675 0.000000
185.77699280 311.73599243 180.00000000 -0.775574 -0.101162 0.623098 0.000000
167.29699707 249.00000000 239.00000000 -0.364043 -0.449888 -0.815521 0.000000
239.75999451 227.60200500 154.00000000 -0.729201 -0.159181 0.665528 0.000000
117.69100189 324.86700439 179.00000000 0.731462 -0.657856 0.179415 0.000000
105.53299713 212.03900146 196.00000000 0.913403 0.341985 0.220775 0.000000
174.10499573 219.82000732 159.00000000 -0.445690 -0.829960 0.335449 0.000000
98.23829651 242.67799377 192.00000000 0.986110 0.153969 -0.062293 0.000000
237.32800293 231.49200439 205.00000000 -0.532430 -0.354414 -0.768706 0.000000
128.39100647 262.61700439 235.00000000 0.530246 -0.463758 -0.709766 0.000000
228.57400513 241.70500183 166.00000000 0.441425 -0.694619 0.568022 0.000000
173.13299561 160.97500610 224.00000000 -0.493509 0.493509 -0.716169 0.000000
111.36900330 260.67199707 114.00000000 0.943556 -0.230035 0.238299 0.000000
198.42199707 234.41000366 151.00000000 0.423902 0.663282 0.616736 0.000000
218.84800720 182.85899353 225.00000000 -0.275099 -0.028373 -0.960997 0.000000
259.69900513 159.51600647 209.00000000 -0.159281 0.717521 -0.678080 0.000000
274.28900146 224.19700623 202.00000000 -0.193934 -0.974674 0.111356 0.000000
135.19900513 260.67199707 109.00000000 -0.561030 -0.483993 0.671562 0.000000
171.18699646 284.01599121 229.00000000 -0.000978 -0.000978 -0.999999 0.000000
104.56099701 271.37100220 214.00000000 0.899331 0.001305 -0.437266 0.000000
279.15200806 224.19700623 206.00000000 -0.080268 -0.961944 0.261190 0.000000
270.88500977 122.55500031 158.00000000 0.083348 0.911363 -0.403077 0.000000
228.57400513 114.77300262 165.00000000 0.139608 0.969574 -0.201087 0.000000
160.48800659 149.78900146 207.00000000 -0.304391 0.879856 -0.364966 0.000000
292.76901245 210.09399414 207.00000000 -0.834366 -0.221176 0.504891 0.000000
197.44900513 291.79699707 207.00000000 -0.698460 -0.192732 -0.689209 0.000000
111.36900330 263.58999634 118.00000000 0.947370 -0.244703 0.206425 0.000000
203.77099609 187.72300720 150.00000000 -0.840909 -0.526114 -0.126792 0.000000
107.47799683 226.62899780 160.00000000 0.917310 0.364951 0.159226 0.000000
132.28100586 249.00000000 237.00000000 0.299287 -0.087564 -0.950137 0.000000
125.47299957 313.19500732 217.00000000 0.453962 -0.346403 -0.820928 0.000000
269.42599487 120.60900116 187.00000000 -0.223384 0.840349 -0.493876 0.000000
284.98800659 160.00199890 204.00000000 -0.058580 0.638663 -0.767253 0.000000
259.69900513 134.71299744 158.00000000 -0.574202 -0.374622 0.727977 0.000000
200.36700439 177.99600220 133.00000000 -0.726984 0.095462 0.679987 0.000000
262.61700439 118.66400146 147.00000000 0.286351 0.862116 -0.418042 0.000000
115.74600220 215.92999268 225.00000000 0.561879 0.093887 -0.821874 0.000000
125.95899963 210.09399414 122.00000000 0.779939 0.511885 0.360096 0.000000
126.93199921 170.21499634 192.00000000 0.859740 0.510428 0.017601 0.000000
107.47799683 239.27299500 138.00000000 0.898379 0.298470 0.322228 0.000000
241.70500183 214.95700073 192.00000000 -0.395040 0.646279 -0.652891 0.000000
186.75000000 324.38101196 190.00000000 0.000978 0.000978 0.999999 0.000000
104.56099701 266.50799561 144.00000000 0.899331 0.001305 0.437266 0.000000
111.85500336 265.53500366 117.00000000 0.932871 -0.191036 0.305379 0.000000
292.28298950 210.09399414 206.00000000 -0.834366 -0.221176 0.504891 0.000000
144.92599487 291.79699707 231.00000000 0.137636 -0.104125 -0.984995 0.000000
108.93699646 225.16999817 154.00000000 0.916771 0.367554 0.156316 0.000000
250.94500732 220.30700684 168.00000000 -0.758448 0.161984 0.631283 0.000000
156.59800720 149.30299377 208.00000000 -0.067393 0.934255 -0.350180 0.000000
287.90600586 212.52499390 216.00000000 -0.000978 -0.000978 -0.999999 0.000000
285.96099854 198.42199707 201.00000000 -0.066526 -0.093588 0.993386 0.000000
158.54299927 332.16198730 162.00000000 -0.364124 -0.516247 0.775179 0.000000
263.58999634 133.25399780 161.00000000 -0.665999 -0.315985 0.675721 0.000000
173.13299561 220.79299927 159.00000000 -0.680443 -0.654460 0.329666 0.000000
246.08200073 170.21499634 221.00000000 -0.152585 0.663215 -0.732709 0.000000
142.97999573 173.61900330 146.00000000 0.710145 0.612194 0.347726 0.000000
101.15599823 284.50201416 192.00000000 0.970853 -0.239437 -0.010721 0.000000
141.03500366 299.57800293 143.00000000 0.358136 -0.698284 0.619788 0.000000
235.38299561 179.94099426 225.00000000 0.284220 -0.195488 -0.938618 0.000000
124.50000000 246.08200073 233.00000000 0.389922 0.517177 -0.761898 0.000000
150.76199341 197.44900513 243.00000000 0.090157 0.299217 -0.949916 0.000000
209.12100220 166.32400513 163.00000000 -0.713039 -0.365535 0.598297 0.000000
122.55500031 187.72300720 167.00000000 0.775343 0.540974 0.325869 0.000000
136.17199707 301.52301025 227.00000000 -0.045357 -0.094033 -0.994535 0.000000
263.10299683 132.28100586 160.00000000 -0.650431 -0.305041 0.695622 0.000000
159.51600647 333.62100220 163.00000000 -0.362869 -0.548372 0.753401 0.000000
177.99600220 277.20700073 145.00000000 -0.392412 -0.737209 0.550033 0.000000
145.89799500 156.59800720 217.00000000 0.582927 0.582927 -0.566031 0.000000
188.20899963 260.67199707 138.00000000 -0.721447 -0.442819 0.532378 0.000000
253.37699890 140.06199646 156.00000000 -0.601568 -0.138823 0.786666 0.000000
142.97999573 181.88699341 235.00000000 0.461025 0.380707 -0.801573 0.000000
100.18399811 255.80900574 173.00000000 0.993349 0.109879 0.034407 0.000000
199.39399719 196.47700500 139.00000000 -0.744062 -0.650488 -0.152435 0.000000
195.99000549 245.10899353 144.00000000 -0.705197 0.175917 0.686841 0.000000
195.99000549 167.29699707 128.00000000 -0.749730 -0.079758 0.656920 0.000000
151.73399353 148.33000183 200.00000000 -0.000978 0.999999 -0.000978 0.000000
141.03500366 197.44900513 239.00000000 0.338229 0.338229 -0.878181 0.000000
190.15400696 305.41400146 184.00000000 -0.862116 -0.286351 0.418042 0.000000
285.96099854 219.82000732 215.00000000 0.285611 -0.735567 -0.614302 0.000000
237.32800293 130.82200623 194.00000000 0.271722 0.545014 -0.793176 0.000000
178.48199463 279.15200806 148.00000000 -0.406622 -0.765887 0.498072 0.000000
240.24600220 203.28500366 175.00000000 -0.983667 -0.043380 0.174692 0.000000
112.82800293 284.98800659 221.00000000 0.660161 0.001378 -0.751123 0.000000
189.66799927 266.99398804 146.00000000 -0.569092 -0.629885 0.528563 0.000000
116.23200226 324.86700439 192.00000000 0.818605 -0.559944 -0.127861 0.000000
168.75599670 313.19500732 164.00000000 -0.562392 -0.081568 0.822838 0.000000
165.35200500 184.80499268 243.00000000 0.072203 0.033407 -0.996830 0.000000
123.52700043 254.83599854 235.00000000 0.456129 -0.001314 -0.889912 0.000000
286.93399048 135.19900513 187.00000000 -0.989393 0.141991 -0.030670 0.000000
228.08799744 217.87500000 218.00000000 -0.584467 -0.320410 -0.745477 0.000000
269.42599487 115.74600220 145.00000000 -0.309566 0.309566 -0.899076 0.000000
297.63299561 201.33999634 213.00000000 -0.936900 -0.241555 -0.252726 0.000000
107.96499634 221.76600647 213.00000000 0.876217 0.045109 -0.479801 0.000000
104.56099701 233.43699646 212.00000000 0.705724 0.708486 0.001381 0.000000
268.45300293 161.94700623 210.00000000 -0.162970 0.686910 -0.708234 0.000000
177.99600220 211.06599426 145.00000000 -0.628407 -0.467535 0.621704 0.000000
263.58999634 214.95700073 197.00000000 -0.185504 -0.177721 0.966439 0.000000
113.80100250 311.25000000 207.00000000 0.873103 -0.396313 -0.283948 0.000000
219.82000732 142.00799561 197.00000000 0.097652 0.482601 -0.870380 0.000000
260.67199707 108.45099640 158.00000000 -0.210240 0.944021 -0.254212 0.000000
285.96099854 215.92999268 203.00000000 0.118695 -0.183665 0.975797 0.000000
118.17800140 234.41000366 104.00000000 0.960258 0.126384 0.248859 0.000000
171.18699646 191.61300659 129.00000000 0.225923 -0.618561 0.752557 0.000000
282.07000732 183.83200073 221.00000000 -0.000978 -0.000978 -0.999999 0.000000
114.28700256 321.94900513 182.00000000 0.740662 -0.606287 0.289546 0.000000
211.06599426 193.07200623 172.00000000 -0.678893 -0.237849 0.694645 0.000000
165.35200500 152.70700073 205.00000000 -0.676096 0.710132 -0.196485 0.000000
243.16400146 232.46499634 163.00000000 -0.732614 -0.487858 0.474628 0.000000
155.13900757 177.02299500 238.00000000 0.261648 0.543663 -0.797477 0.000000
113.80100250 228.57400513 223.00000000 0.869858 -0.300109 -0.391512 0.000000
152.70700073 244.13699341 241.00000000 -0.151455 -0.272083 -0.950280 0.000000
138.11700439 175.07800293 153.00000000 0.668277 0.668277 0.326821 0.000000
224.68400574 185.77699280 225.00000000 -0.120273 0.239253 -0.963479 0.000000
282.07000732 165.83799744 210.00000000 -0.381472 0.551743 -0.741660 0.000000
161.94700623 312.22299194 160.00000000 -0.537456 0.111547 0.835882 0.000000
180.42799377 184.80499268 124.00000000 0.273251 -0.097127 0.957027 0.000000
116.23200226 203.28500366 160.00000000 0.866701 0.450565 0.214056 0.000000
275.26199341 222.73800659 207.00000000 0.183715 -0.937914 -0.294221 0.000000
104.56099701 217.87500000 192.00000000 0.937401 0.313379 0.151900 0.000000
190.64100647 157.57000732 213.00000000 0.338402 0.362902 -0.868209 0.000000
168.26899719 160.97500610 136.00000000 0.542364 0.692557 0.475611 0.000000
136.17199707 314.65399170 220.00000000 0.132337 -0.599234 -0.789561 0.000000
190.64100647 195.99000549 232.00000000 -0.733995 0.254136 -0.629815 0.000000
250.94500732 178.96899414 225.00000000 -0.011362 0.339592 -0.940504 0.000000
238.30099487 208.14799500 185.00000000 -0.257186 0.839321 -0.478952 0.000000
281.09799194 157.57000732 203.00000000 -0.150417 0.564436 -0.811657 0.000000
138.11700439 196.96299744 118.00000000 0.658053 0.614738 0.434815 0.000000
194.04499817 263.58999634 150.00000000 -0.816376 -0.334476 0.470803 0.000000
105.53299713 234.41000366 152.00000000 0.930809 0.344795 0.121291 0.000000
142.97999573 248.02699280 239.00000000 -0.152533 -0.635807 -0.756626 0.000000
108.45099640 285.96099854 216.00000000 0.816222 -0.357992 -0.453457 0.000000
212.52499390 254.83599854 208.00000000 -0.555778 0.186269 0.810194 0.000000
156.59800720 340.91598511 186.00000000 -0.017004 -0.987361 -0.157570 0.000000
243.16400146 236.84199524 172.00000000 -0.905343 -0.424583 -0.009145 0.000000
109.42400360 211.06599426 214.00000000 0.771085 0.514597 -0.374991 0.000000
234.41000366 215.44299316 204.00000000 0.038755 -0.179681 -0.982961 0.000000
291.79699707 205.22999573 215.00000000 -0.764253 0.541279 -0.350619 0.000000
160.48800659 175.07800293 239.00000000 0.101140 0.637622 -0.763681 0.000000
122.55500031 177.50999451 188.00000000 0.707106 0.707106 -0.001384 0.000000
241.21899414 192.10000610 168.00000000 0.073846 0.699361 -0.710944 0.000000
195.99000549 170.21499634 128.00000000 -0.750249 -0.101306 0.653348 0.000000
243.16400146 208.14799500 181.00000000 -0.300103 0.815462 -0.494934 0.000000
179.94099426 274.77499390 144.00000000 -0.450060 -0.746802 0.489625 0.000000
265.53500366 175.07800293 221.00000000 -0.191370 0.308706 -0.931707 0.000000
187.23599243 258.72698975 228.00000000 -0.565712 -0.366816 -0.738523 0.000000
302.98199463 180.91400146 206.00000000 -0.213144 -0.679882 0.701663 0.000000
224.68400574 205.22999573 221.00000000 -0.169316 -0.184826 -0.968076 0.000000
132.28100586 199.39399719 125.00000000 0.741823 0.559220 0.370096 0.000000
190.15400696 254.83599854 138.00000000 -0.763709 -0.277857 0.582705 0.000000
187.72300720 188.69500732 123.00000000 -0.297767 -0.294833 0.907969 0.000000
250.94500732 130.82200623 196.00000000 -0.044547 0.306735 -0.950752 0.000000
145.89799500 241.21899414 103.00000000 -0.495389 -0.502061 0.708890 0.000000
144.92599487 167.29699707 229.00000000 -0.038324 0.088692 -0.995322 0.000000
146.87100220 240.73199463 104.00000000 -0.562264 -0.452147 0.692403 0.000000
241.70500183 236.35499573 192.00000000 -0.698386 -0.695329 -0.169630 0.000000
173.61900330 215.92999268 150.00000000 -0.499765 -0.816230 0.289832 0.000000
276.23400879 156.11099243 204.00000000 -0.113953 0.434708 -0.893333 0.000000
139.08999634 292.76901245 229.00000000 0.670777 -0.667529 -0.323207 0.000000
160.00199890 207.17599487 120.00000000 -0.554426 0.537574 0.635315 0.000000
218.84800720 199.39399719 223.00000000 -0.000978 -0.000978 -0.999999 0.000000
163.89300537 286.93399048 230.00000000 -0.305541 -0.188347 -0.933365 0.000000
179.45500183 216.90199280 162.00000000 -0.594493 -0.510287 0.621439 0.000000
144.92599487 239.27299500 243.00000000 0.116245 0.048530 -0.992034 0.000000
244.13699341 113.31400299 172.00000000 0.082520 0.921244 -0.380132 0.000000
209.60699463 196.47700500 172.00000000 -0.380471 -0.065414 0.922476 0.000000
152.70700073 180.91400146 239.00000000 0.329259 0.429129 -0.841093 0.000000
169.24200439 301.52301025 165.00000000 -0.338460 -0.416446 0.843811 0.000000
117.69100189 292.76901245 221.00000000 0.574901 -0.235258 -0.783673 0.000000
166.32400513 188.20899963 128.00000000 0.205810 -0.620524 0.756699 0.000000
203.28500366 212.03900146 167.00000000 -0.452150 0.268225 0.850656 0.000000
238.30099487 206.20300293 149.00000000 -0.165111 -0.516157 0.840429 0.000000
268.93899536 191.61300659 192.00000000 -0.548034 -0.293873 0.783133 0.000000
250.94500732 161.94700623 212.00000000 -0.192487 0.632896 -0.749928 0.000000
145.89799500 245.10899353 241.00000000 0.227473 -0.456452 -0.860179 0.000000
240.24600220 178.96899414 157.00000000 -0.390154 -0.065696 0.918403 0.000000
143.46699524 244.13699341 104.00000000 -0.483993 -0.561030 0.671562 0.000000
249.48599243 165.35200500 216.00000000 -0.120369 0.753421 -0.646427 0.000000
126.93199921 170.21499634 196.00000000 0.858436 0.512919 0.001339 0.000000
204.25799561 254.83599854 163.00000000 -0.690181 -0.315188 0.651389 0.000000
166.32400513 294.22799683 228.00000000 -0.150455 -0.199321 -0.968315 0.000000
164.37899780 267.48001099 235.00000000 -0.226851 -0.342444 -0.911740 0.000000
153.67999268 160.48800659 227.00000000 0.377338 0.624503 -0.683822 0.000000
188.69500732 314.65399170 186.00000000 -0.666826 -0.670071 0.326112 0.000000
189.66799927 233.92399597 140.00000000 -0.745961 0.001379 0.665988 0.000000
191.12699890 302.49600220 184.00000000 -0.781030 -0.276122 0.560133 0.000000
157.57000732 259.69900513 237.00000000 0.154392 -0.129689 -0.979461 0.000000
170.21499634 301.52301025 225.00000000 -0.438429 -0.250314 -0.863205 0.000000
213.01199341 241.70500183 168.00000000 0.000978 0.000978 0.999999 0.000000
125.47299957 191.61300659 225.00000000 0.589606 0.207824 -0.780496 0.000000
226.14300537 188.69500732 164.00000000 -0.831239 0.499358 -0.244301 0.000000
271.37100220 135.19900513 167.00000000 -0.342568 -0.300682 0.890077 0.000000
197.44900513 165.35200500 129.00000000 -0.599711 0.119353 0.791265 0.000000
213.01199341 143.46699524 198.00000000 -0.001305 0.899331 -0.437266 0.000000
112.82800293 314.16799927 167.00000000 0.885292 -0.176475 0.430249 0.000000
138.11700439 248.02699280 103.00000000 -0.654085 -0.265772 0.708194 0.000000
133.25399780 235.38299561 241.00000000 0.330883 -0.168932 -0.928428 0.000000
139.57600403 248.02699280 104.00000000 -0.504147 -0.457865 0.732253 0.000000
188.20899963 313.19500732 208.00000000 -0.652226 -0.544365 -0.527511 0.000000
260.67199707 152.70700073 205.00000000 -0.157417 0.437589 -0.885288 0.000000
144.92599487 258.72698975 115.00000000 -0.384499 -0.554660 0.737911 0.000000
112.82800293 287.90600586 221.00000000 0.869771 -0.331705 -0.365335 0.000000
126.93199921 209.12100220 122.00000000 0.776839 0.511971 0.366616 0.000000
184.80499268 275.74798584 150.00000000 -0.629833 -0.653099 0.420443 0.000000
180.91400146 225.65600586 241.00000000 -0.422765 -0.296704 -0.856292 0.000000
214.95700073 120.12300110 156.00000000 0.610062 0.782244 -0.126168 0.000000
203.28500366 284.01599121 195.00000000 -0.876084 -0.467340 0.118621 0.000000
182.85899353 270.39801025 225.00000000 -0.437759 -0.313130 -0.842803 0.000000
201.33999634 192.58599854 143.00000000 -0.798144 -0.587089 -0.135253 0.000000
192.10000610 177.02299500 124.00000000 -0.421372 0.092564 0.902151 0.000000
169.24200439 255.80900574 237.00000000 -0.266629 -0.269480 -0.925359 0.000000
156.59800720 275.26199341 233.00000000 -0.131026 -0.467951 -0.873988 0.000000
118.17800140 200.36700439 160.00000000 0.833071 0.511375 0.210923 0.000000
106.01999664 214.47099304 190.00000000 0.934701 0.355414 0.003794 0.000000
258.72698975 169.24200439 173.00000000 -0.607791 -0.332259 0.721245 0.000000
192.58599854 176.05099487 213.00000000 0.724949 -0.015365 -0.688631 0.000000
114.77300262 251.91799927 103.00000000 0.918156 0.046372 0.393496 0.000000
122.06800079 177.99600220 188.00000000 0.707106 0.707106 -0.001384 0.000000
106.99199677 253.86300659 133.00000000 0.976470 0.069661 0.204093 0.000000
210.09399414 249.00000000 211.00000000 -0.149183 0.760982 0.631389 0.000000
240.24600220 200.36700439 151.00000000 -0.240709 0.408158 0.880605 0.000000
180.42799377 159.51600647 204.00000000 0.540551 0.346921 -0.766453 0.000000
143.95300293 250.94500732 109.00000000 -0.580941 -0.631457 0.513585 0.000000
174.10499573 144.92599487 159.00000000 -0.110935 0.687795 0.717378 0.000000
154.65199280 262.61700439 237.00000000 -0.000978 -0.000978 -0.999999 0.000000
161.94700623 148.81599426 168.00000000 0.368812 0.921338 0.122937 0.000000
137.14500427 267.48001099 117.00000000 -0.420164 -0.669274 0.612809 0.000000
290.82400513 181.88699341 215.00000000 -0.570084 0.137709 -0.809963 0.000000
176.05099487 267.48001099 133.00000000 -0.384355 -0.611999 0.691179 0.000000
134.22700500 319.51699829 154.00000000 0.081096 -0.530681 0.843683 0.000000
267.48001099 113.31400299 174.00000000 0.086439 0.980051 -0.178966 0.000000
102.12899780 239.75999451 210.00000000 0.947938 0.197771 -0.249601 0.000000
155.62500000 209.12100220 115.00000000 -0.391703 0.735877 0.552317 0.000000
259.69900513 118.17800140 144.00000000 0.459343 0.689850 -0.559563 0.000000
113.80100250 231.97799683 124.00000000 0.862116 -0.286351 0.418042 0.000000
234.41000366 205.71699524 182.00000000 -0.273549 0.889409 -0.366227 0.000000
195.99000549 286.93399048 210.00000000 -0.663232 -0.216916 -0.716290 0.000000
119.63700104 221.76600647 119.00000000 0.804468 0.475004 0.356653 0.000000
274.28900146 137.14500427 199.00000000 -0.315137 0.423805 -0.849163 0.000000
170.21499634 295.68701172 163.00000000 -0.323499 -0.356913 0.876334 0.000000
99.69719696 280.12500000 198.00000000 0.943440 -0.275227 -0.184854 0.000000
168.26899719 209.12100220 245.00000000 -0.140432 0.210004 -0.967563 0.000000
225.16999817 190.64100647 176.00000000 0.229052 0.914766 -0.332773 0.000000
187.72300720 180.91400146 123.00000000 -0.119957 0.034754 0.992171 0.000000
249.97300720 225.16999817 186.00000000 -0.919439 -0.108574 -0.377946 0.000000
142.97999573 319.03100586 153.00000000 0.152335 -0.405753 0.901198 0.000000
276.23400879 169.72799683 216.00000000 -0.219895 0.634734 -0.740783 0.000000
245.59599304 226.62899780 194.00000000 -0.856669 0.154289 -0.492254 0.000000
289.85198975 170.70100403 212.00000000 -0.342914 0.583442 -0.736210 0.000000
176.05099487 333.62100220 199.00000000 -0.405333 -0.740101 -0.536615 0.000000
264.56201172 159.02900696 208.00000000 -0.079907 0.722064 -0.687196 0.000000
103.58799744 290.82400513 164.00000000 0.958801 -0.206122 0.195484 0.000000
225.65600586 191.61300659 179.00000000 -0.740021 0.659292 0.133054 0.000000
157.57000732 173.13299561 235.00000000 0.241401 0.568459 -0.786498 0.000000
178.96899414 255.80900574 233.00000000 -0.407024 -0.561924 -0.720120 0.000000
250.94500732 175.07800293 167.00000000 -0.787618 -0.015226 0.615975 0.000000
223.71099854 115.74600220 159.00000000 0.315348 0.917244 -0.243350 0.000000
284.01599121 221.76600647 205.00000000 -0.484903 -0.672824 0.558729 0.000000
188.69500732 263.58999634 225.00000000 -0.701266 -0.244261 -0.669748 0.000000
209.60699463 249.00000000 186.00000000 -0.987455 -0.123874 -0.097920 0.000000
178.96899414 286.93399048 223.00000000 -0.542014 -0.303591 -0.783615 0.000000
114.77300262 292.76901245 219.00000000 0.600583 -0.253790 -0.758216 0.000000
165.35200500 316.60000610 162.00000000 -0.533609 0.063357 0.843355 0.000000
255.80900574 168.26899719 171.00000000 -0.613391 -0.310721 0.726088 0.000000
212.03900146 243.64999390 200.00000000 -0.734256 -0.626417 -0.261668 0.000000
249.48599243 225.65600586 188.00000000 -0.946699 -0.044837 -0.318983 0.000000
133.25399780 223.22500610 240.00000000 0.450498 0.087868 -0.888443 0.000000
299.57800293 197.44900513 211.00000000 -0.931994 -0.223510 -0.285362 0.000000
154.65199280 263.58999634 237.00000000 0.007357 -0.072515 -0.997340 0.000000
129.36300659 260.67199707 103.00000000 -0.618056 -0.490066 0.614688 0.000000
275.26199341 180.91400146 193.00000000 -0.467312 0.143232 0.872413 0.000000
213.01199341 229.54699707 219.00000000 0.163937 -0.491810 -0.855130 0.000000
127.41799927 201.33999634 231.00000000 0.723688 0.123848 -0.678924 0.000000
177.02299500 171.18699646 233.00000000 -0.344358 0.621803 -0.703405 0.000000
261.64401245 140.54899597 160.00000000 -0.504598 0.129421 0.853599 0.000000
159.02900696 193.55900574 124.00000000 -0.923630 -0.256325 0.284965 0.000000
240.24600220 213.49800110 192.00000000 -0.012532 0.666987 -0.744964 0.000000
147.84399414 166.81100464 228.00000000 0.365633 0.627971 -0.686997 0.000000
282.55700684 180.91400146 196.00000000 0.689850 -0.459343 0.559563 0.000000
101.64299774 285.96099854 172.00000000 0.890150 -0.410726 -0.197324 0.000000
183.83200073 223.71099854 241.00000000 -0.410299 -0.359994 -0.837890 0.000000
283.04299927 124.01399994 180.00000000 -0.781190 0.621822 0.055494 0.000000
117.69100189 308.81799316 152.00000000 0.491343 -0.387561 0.779986 0.000000
210.09399414 133.25399780 187.00000000 0.145954 0.741808 -0.654537 0.000000
204.25799561 177.02299500 223.00000000 0.479801 -0.045109 -0.876217 0.000000
244.13699341 161.94700623 156.00000000 -0.531202 -0.409502 0.741709 0.000000
219.82000732 137.14500427 141.00000000 0.361743 -0.402458 0.840934 0.000000
185.77699280 274.28900146 223.00000000 -0.574471 -0.026301 -0.818102 0.000000
127.41799927 185.77699280 225.00000000 0.676577 0.283107 -0.679776 0.000000
107.96499634 223.71099854 163.00000000 0.901431 0.389222 0.189547 0.000000
153.67999268 311.25000000 223.00000000 -0.040089 -0.529449 -0.847394 0.000000
217.87500000 177.50999451 172.00000000 -0.483851 -0.160303 0.860343 0.000000
266.50799561 122.06800079 156.00000000 0.081616 0.895011 -0.438514 0.000000
219.33399963 231.49200439 214.00000000 -0.539527 -0.590266 -0.600414 0.000000
233.92399597 225.65600586 146.00000000 -0.697264 -0.009742 0.716748 0.000000
239.27299500 190.64100647 223.00000000 -0.309566 0.309566 -0.899076 0.000000
144.92599487 151.24800110 196.00000000 0.679183 0.731095 -0.064890 0.000000
171.18699646 160.48800659 133.00000000 0.514597 0.771085 0.374991 0.000000
234.41000366 193.07200623 170.00000000 -0.203059 0.921575 -0.330858 0.000000
110.39600372 257.75399780 224.00000000 0.763225 -0.229436 -0.604025 0.000000
253.86300659 124.01399994 142.00000000 -0.696030 -0.423598 0.579748 0.000000
172.64599609 219.82000732 246.00000000 -0.073082 0.221724 -0.972367 0.000000
228.57400513 219.33399963 216.00000000 -0.638526 -0.540810 -0.547549 0.000000
155.62500000 158.54299927 153.00000000 0.560557 0.737059 0.377518 0.000000
202.79899597 202.31199646 168.00000000 -0.701680 -0.123651 0.701680 0.000000
235.38299561 168.26899719 151.00000000 -0.518337 -0.403878 0.753796 0.000000
225.65600586 118.66400146 175.00000000 0.316723 0.837833 -0.444660 0.000000
250.94500732 209.12100220 217.00000000 -0.063808 -0.571437 -0.818162 0.000000
117.69100189 268.45300293 103.00000000 0.230132 -0.721707 0.652824 0.000000
210.09399414 169.24200439 165.00000000 -0.711290 -0.336927 0.616885 0.000000
161.46099854 154.16600037 218.00000000 -0.001211 0.960094 -0.279674 0.000000
165.35200500 226.62899780 143.00000000 -0.857410 -0.403214 -0.319791 0.000000
176.05099487 186.75000000 241.00000000 -0.463831 0.238759 -0.853144 0.000000
258.72698975 160.48800659 211.00000000 -0.092410 0.702613 -0.705546 0.000000
264.56201172 168.26899719 179.00000000 -0.772288 -0.222208 0.595143 0.000000
202.79899597 261.64401245 168.00000000 -0.899880 -0.195626 0.389803 0.000000
206.68899536 250.94500732 164.00000000 -0.676116 -0.206720 0.707202 0.000000
116.23200226 321.94900513 174.00000000 0.775451 -0.604821 0.181294 0.000000
160.48800659 293.74200439 229.00000000 -0.119691 -0.034677 -0.992205 0.000000
109.91000366 254.83599854 223.00000000 0.805773 -0.128628 -0.578087 0.000000
293.74200439 176.53700256 200.00000000 -0.707106 -0.254685 0.659649 0.000000
103.58799744 261.64401245 212.00000000 0.856968 -0.054168 -0.512514 0.000000
138.11700439 291.30999756 230.00000000 -0.132254 -0.247485 -0.959823 0.000000
105.53299713 269.42599487 142.00000000 0.959654 -0.096609 0.264066 0.000000
129.85000610 290.82400513 132.00000000 -0.227164 -0.653291 0.722224 0.000000
169.24200439 227.60200500 159.00000000 0.097222 0.584781 0.805344 0.000000
147.84399414 325.83999634 157.00000000 0.000978 0.000978 0.999999 0.000000
154.65199280 294.71499634 153.00000000 -0.680242 -0.189727 0.708007 0.000000
162.43400574 324.86700439 161.00000000 -0.540480 -0.365189 0.757970 0.000000
121.58200073 269.91198730 104.00000000 -0.178873 -0.741480 0.646693 0.000000
286.93399048 176.05099487 195.00000000 -0.380417 -0.428169 0.819728 0.000000
198.42199707 149.30299377 206.00000000 -0.001305 0.899331 -0.437266 0.000000
255.80900574 126.44499969 147.00000000 -0.750919 -0.422289 0.507733 0.000000
265.53500366 195.50399780 191.00000000 -0.587924 -0.180783 0.788456 0.000000
206.20300293 232.95100403 142.00000000 0.496300 0.453431 0.740329 0.000000
244.62300110 115.74600220 130.00000000 0.319545 0.682885 -0.656932 0.000000
234.41000366 211.06599426 151.00000000 -0.022813 -0.236535 0.971355 0.000000
196.96299744 293.74200439 190.00000000 -0.625652 -0.537960 0.564942 0.000000
198.42199707 275.26199341 213.00000000 -0.749655 -0.205575 -0.629092 0.000000
187.72300720 175.07800293 123.00000000 -0.337586 -0.187862 0.922358 0.000000
246.08200073 144.92599487 151.00000000 -0.634859 -0.046869 0.771205 0.000000
211.06599426 188.69500732 171.00000000 -0.585758 -0.249693 0.771065 0.000000
227.60200500 232.46499634 143.00000000 -0.597908 -0.510327 0.618119 0.000000
289.85198975 219.82000732 209.00000000 -0.623718 -0.606906 0.492586 0.000000
156.59800720 259.69900513 237.00000000 -0.766512 -0.568908 -0.297999 0.000000
109.42400360 219.82000732 216.00000000 0.880902 -0.142732 -0.451264 0.000000
160.48800659 210.09399414 117.00000000 -0.531637 0.514867 0.672513 0.000000
122.55500031 306.38699341 147.00000000 0.617985 -0.463907 0.634732 0.000000
175.07800293 239.27299500 157.00000000 -0.749197 0.373783 0.546800 0.000000
191.12699890 252.89100647 138.00000000 -0.798011 -0.200652 0.568258 0.000000
165.35200500 146.38499451 180.00000000 0.335951 0.940921 0.042477 0.000000
224.19700623 238.30099487 202.00000000 0.722839 -0.633482 -0.276051 0.000000
170.70100403 158.54299927 216.00000000 -0.797967 0.593734 0.103575 0.000000
123.04100037 175.07800293 210.00000000 0.668638 0.391277 -0.632317 0.000000
212.03900146 231.49200439 217.00000000 0.080564 -0.507409 -0.857931 0.000000
120.12300110 182.85899353 212.00000000 0.713331 0.428660 -0.554445 0.000000
211.55299377 268.45300293 190.00000000 -0.977177 -0.173029 0.123236 0.000000
212.52499390 224.68400574 220.00000000 0.252291 -0.195014 -0.947797 0.000000
142.97999573 270.88500977 236.00000000 -0.082257 -0.246772 -0.965576 0.000000
195.99000549 257.75399780 150.00000000 -0.909138 -0.252457 0.331259 0.000000
299.57800293 175.07800293 203.00000000 -0.566240 -0.001358 0.824239 0.000000
218.84800720 204.25799561 155.00000000 0.916522 0.054698 0.396226 0.000000
232.46499634 159.51600647 213.00000000 -0.254491 0.719214 -0.646502 0.000000
150.27499390 163.40600586 152.00000000 0.586877 0.715102 0.379744 0.000000
101.64299774 240.24600220 172.00000000 0.975083 0.123919 0.184002 0.000000
128.39100647 335.07998657 198.00000000 0.412952 -0.741998 -0.528118 0.000000
182.85899353 254.83599854 131.00000000 -0.477387 -0.313531 0.820853 0.000000
201.82600403 163.40600586 134.00000000 -0.602681 -0.026446 0.797544 0.000000
203.28500366 282.55700684 204.00000000 -0.761017 -0.284388 -0.583075 0.000000
206.68899536 148.81599426 144.00000000 -0.969644 -0.155400 0.188792 0.000000
294.71499634 171.18699646 199.00000000 -0.742362 -0.044002 0.668552 0.000000
212.03900146 211.06599426 163.00000000 0.779829 0.595979 0.191510 0.000000
175.07800293 333.62100220 177.00000000 -0.819617 -0.479814 0.313059 0.000000
241.21899414 221.76600647 199.00000000 -0.699061 0.515537 -0.495516 0.000000
97.26560211 249.97300720 199.00000000 0.970852 0.128514 -0.202314 0.000000
267.48001099 139.57600403 200.00000000 0.111301 0.196340 -0.974198 0.000000
207.17599487 178.96899414 163.00000000 -0.899331 0.001305 0.437266 0.000000
126.44499969 274.77499390 114.00000000 -0.609142 -0.534897 0.585518 0.000000
160.48800659 276.23400879 233.00000000 -0.080865 -0.175006 -0.981241 0.000000
161.46099854 315.14099121 159.00000000 -0.499506 0.051196 0.864796 0.000000
109.91000366 237.81399536 220.00000000 0.493138 0.489818 -0.718953 0.000000
209.12100220 264.56201172 183.00000000 -0.910151 -0.230804 0.344028 0.000000
134.22700500 241.21899414 239.00000000 0.531882 -0.205742 -0.821445 0.000000
136.17199707 307.35900879 223.00000000 0.289962 -0.334571 -0.896652 0.000000
157.57000732 251.91799927 119.00000000 -0.617006 -0.401964 0.676556 0.000000
159.51600647 154.16600037 218.00000000 -0.001211 0.960094 -0.279674 0.000000
190.64100647 191.12699890 226.00000000 -0.956117 0.289235 -0.046732 0.000000
119.15000153 180.91400146 184.00000000 0.499731 0.831860 0.241408 0.000000
154.16600037 229.54699707 244.00000000 -0.020664 -0.256473 -0.966331 0.000000
276.23400879 144.92599487 201.00000000 -0.252754 0.362133 -0.897204 0.000000
183.34599304 253.86300659 232.00000000 -0.434240 -0.395783 -0.809192 0.000000
299.57800293 182.85899353 209.00000000 -0.607976 0.282445 -0.742018 0.000000
145.89799500 175.07800293 139.00000000 0.340521 0.676155 0.653345 0.000000
148.81599426 181.88699341 127.00000000 0.540704 0.703747 0.460846 0.000000
103.10199738 282.07000732 159.00000000 0.960442 -0.191560 0.202129 0.000000
241.21899414 205.22999573 177.00000000 -0.991878 -0.118484 0.046265 0.000000
274.77499390 194.53100586 222.00000000 -0.267904 -0.212380 -0.939746 0.000000
145.89799500 277.20700073 137.00000000 -0.274641 -0.805090 0.525741 0.000000
100.66999817 263.58999634 164.00000000 0.990787 0.093427 0.098041 0.000000
211.06599426 151.24800110 208.00000000 -0.012413 0.804057 -0.594423 0.000000
111.85500336 282.55700684 134.00000000 0.741661 -0.572881 0.348922 0.000000
122.06800079 176.05099487 210.00000000 0.668638 0.391277 -0.632317 0.000000
150.76199341 210.09399414 105.00000000 -0.867410 0.239858 0.435968 0.000000
151.24800110 210.09399414 106.00000000 -0.867410 0.239858 0.435968 0.000000
111.85500336 297.63299561 215.00000000 0.701663 -0.213144 -0.679882 0.000000
105.04699707 297.14599609 200.00000000 0.882737 -0.345550 -0.318389 0.000000
132.76800537 211.06599426 106.00000000 0.802568 0.548963 0.233503 0.000000
205.22999573 201.33999634 223.00000000 0.305379 -0.191036 -0.932871 0.000000
151.24800110 211.06599426 106.00000000 -0.835862 0.360475 0.413996 0.000000
139.08999634 296.66000366 141.00000000 -0.370624 -0.506574 0.778473 0.000000
105.53299713 301.52301025 190.00000000 0.979553 -0.191573 0.061448 0.000000
133.25399780 176.53700256 162.00000000 0.668277 0.668277 0.326821 0.000000
192.58599854 147.84399414 205.00000000 0.226320 0.308877 -0.923783 0.000000
240.24600220 212.03900146 153.00000000 -0.460052 -0.529808 0.712500 0.000000
257.75399780 132.28100586 197.00000000 -0.055903 0.336716 -0.939945 0.000000
280.12500000 154.65199280 185.00000000 -0.721047 -0.193000 0.665464 0.000000
175.56399536 321.94900513 170.00000000 -0.720746 -0.226699 0.655082 0.000000
119.63700104 185.29100037 178.00000000 0.879399 0.418124 0.227662 0.000000
195.50399780 188.69500732 127.00000000 0.378474 -0.413313 0.828209 0.000000
178.96899414 272.34399414 227.00000000 -0.505847 -0.300987 -0.808409 0.000000
149.30299377 228.57400513 244.00000000 -0.026203 -0.153803 -0.987754 0.000000
117.69100189 185.29100037 188.00000000 0.874782 0.484515 -0.001327 0.000000
240.24600220 110.39600372 152.00000000 0.145117 0.984634 -0.097144 0.000000
130.82200623 213.98399353 106.00000000 0.748377 0.525665 0.404484 0.000000
173.13299561 201.33999634 243.00000000 -0.268912 0.151179 -0.951226 0.000000
130.33599854 214.95700073 105.00000000 0.809733 0.525781 0.260550 0.000000
146.87100220 266.50799561 123.00000000 -0.423187 -0.763044 0.488544 0.000000
192.58599854 232.46499634 233.00000000 -0.668277 -0.668277 -0.326821 0.000000
144.92599487 152.70700073 185.00000000 0.553935 0.805583 0.210219 0.000000
116.71900177 201.33999634 163.00000000 0.864118 0.440382 0.243648 0.000000
283.04299927 136.17199707 195.00000000 -0.495950 0.423930 -0.757837 0.000000
109.91000366 249.97300720 123.00000000 0.954965 0.164281 0.247089 0.000000
176.05099487 189.66799927 241.00000000 -0.472734 0.149820 -0.868376 0.000000
215.92999268 236.35499573 207.00000000 -0.448121 0.441603 -0.777286 0.000000
114.77300262 290.82400513 139.00000000 0.714341 -0.555230 0.425953 0.000000
221.76600647 160.48800659 217.00000000 -0.192658 0.713607 -0.673534 0.000000
171.18699646 159.51600647 215.00000000 -0.797967 0.593734 0.103575 0.000000
125.47299957 243.16400146 231.00000000 0.738900 0.107664 -0.665158 0.000000
168.26899719 158.05700684 140.00000000 0.543224 0.693655 0.473023 0.000000
189.66799927 203.77099609 144.00000000 -0.420117 -0.766673 0.485505 0.000000
109.91000366 283.04299927 139.00000000 0.849163 -0.315137 0.423805 0.000000
131.30900574 332.64801025 165.00000000 0.668277 -0.668277 0.326821 0.000000
98.72460175 263.58999634 186.00000000 0.911334 -0.382902 0.151183 0.000000
196.47700500 203.77099609 164.00000000 -0.772557 -0.599850 -0.208174 0.000000
121.58200073 328.75799561 199.00000000 0.585198 -0.615555 -0.527859 0.000000
283.04299927 161.46099854 207.00000000 -0.357826 0.609449 -0.707483 0.000000
211.06599426 255.32200623 190.00000000 -0.906550 0.335380 0.256295 0.000000
284.01599121 177.99600220 219.00000000 -0.377134 0.506622 -0.775309 0.000000
284.50201416 177.02299500 218.00000000 -0.377134 0.506622 -0.775309 0.000000
147.35699463 165.35200500 154.00000000 0.609542 0.725953 0.318514 0.000000
237.32800293 213.01199341 215.00000000 -0.270970 -0.587895 -0.762204 0.000000
273.31600952 192.58599854 195.00000000 -0.586050 -0.171120 0.792000 0.000000
122.55500031 205.22999573 229.00000000 0.556351 0.304479 -0.773153 0.000000
263.58999634 202.31199646 221.00000000 -0.049537 -0.413698 -0.909065 0.000000
179.94099426 224.68400574 165.00000000 0.121289 -0.072773 0.989946 0.000000
238.30099487 136.17199707 141.00000000 -0.099694 -0.547595 0.830783 0.000000
227.60200500 245.10899353 189.00000000 0.668277 -0.668277 0.326821 0.000000
147.35699463 306.38699341 150.00000000 -0.597920 -0.288596 0.747799 0.000000
123.52700043 332.16198730 198.00000000 0.554923 -0.668926 -0.494569 0.000000
237.32800293 159.51600647 149.00000000 -0.366428 -0.378902 0.849802 0.000000
184.80499268 243.16400146 235.00000000 -0.448466 -0.278943 -0.849158 0.000000
147.84399414 214.95700073 245.00000000 0.107060 0.052967 -0.992841 0.000000
250.94500732 157.57000732 209.00000000 -0.149239 0.634645 -0.758257 0.000000
231.49200439 212.52499390 218.00000000 -0.409174 -0.431638 -0.803906 0.000000
109.42400360 245.10899353 222.00000000 0.676912 0.052951 -0.734157 0.000000
208.14799500 221.76600647 219.00000000 0.406768 -0.270675 -0.872511 0.000000
249.97300720 169.24200439 165.00000000 -0.674536 -0.269496 0.687294 0.000000
240.24600220 198.90800476 164.00000000 -0.187668 0.891785 -0.411705 0.000000
244.13699341 217.87500000 161.00000000 -0.788070 0.103809 0.606770 0.000000
222.73800659 164.37899780 221.00000000 0.802412 0.180505 -0.568817 0.000000
114.77300262 252.89100647 229.00000000 0.612853 -0.236677 -0.753919 0.000000
130.33599854 286.44699097 128.00000000 -0.567016 -0.567016 0.597483 0.000000
142.97999573 268.45300293 237.00000000 -0.062755 -0.380537 -0.922634 0.000000
160.48800659 165.35200500 137.00000000 0.440957 0.776150 0.450720 0.000000
223.71099854 198.90800476 160.00000000 -0.315996 0.556602 0.768336 0.000000
226.14300537 120.60900116 178.00000000 0.305400 0.805433 -0.507945 0.000000
286.93399048 212.03900146 203.00000000 0.000978 0.000978 0.999999 0.000000
180.42799377 199.39399719 130.00000000 0.343952 -0.637370 0.689533 0.000000
115.26000214 238.30099487 224.00000000 0.702413 0.185978 -0.687043 0.000000
222.73800659 136.65800476 194.00000000 0.051735 0.543914 -0.837544 0.000000
226.14300537 239.27299500 160.00000000 0.056646 -0.931371 0.359638 0.000000
269.91198730 159.51600647 182.00000000 -0.707513 -0.390864 0.588770 0.000000
101.15599823 242.67799377 172.00000000 0.976067 0.120918 0.180753 0.000000
193.55900574 273.31600952 159.00000000 -0.701761 -0.565722 0.433001 0.000000
123.04100037 323.89401245 162.00000000 0.524218 -0.707278 0.474292 0.000000
180.91400146 174.10499573 209.00000000 0.180746 0.160236 -0.970389 0.000000
179.94099426 256.78100586 131.00000000 -0.485253 -0.299946 0.821317 0.000000
223.71099854 180.91400146 223.00000000 -0.161162 0.249068 -0.954983 0.000000
209.60699463 250.94500732 186.00000000 -0.998623 0.052451 -0.001028 0.000000
243.16400146 220.79299927 195.00000000 -0.716138 0.486841 -0.500133 0.000000
191.61300659 197.44900513 231.00000000 -0.945500 -0.016323 -0.325212 0.000000
146.87100220 192.58599854 241.00000000 -0.000978 -0.000978 -0.999999 0.000000
240.73199463 219.82000732 156.00000000 -0.735394 0.205910 0.645598 0.000000
216.41600037 118.66400146 154.00000000 0.791353 0.593889 0.145106 0.000000
251.91799927 188.69500732 225.00000000 0.084932 -0.080402 -0.993137 0.000000
253.86300659 113.31400299 172.00000000 0.061071 0.980724 -0.185607 0.000000
173.13299561 175.07800293 239.00000000 -0.336916 0.675460 -0.655928 0.000000
235.38299561 214.95700073 151.00000000 -0.139375 0.169510 0.975623 0.000000
263.58999634 212.52499390 196.00000000 -0.293966 -0.270796 0.916653 0.000000
209.12100220 172.64599609 148.00000000 -0.670777 -0.667529 -0.323207 0.000000
236.35499573 172.16000366 155.00000000 -0.557132 -0.523469 0.644658 0.000000
156.59800720 198.42199707 119.00000000 -0.890013 -0.102316 0.444306 0.000000
202.31199646 145.89799500 139.00000000 -0.790030 0.177416 0.586836 0.000000
221.27900696 237.32800293 144.00000000 -0.000978 -0.000978 0.999999 0.000000
124.98600006 172.16000366 210.00000000 0.656911 0.579627 -0.482183 0.000000
114.77300262 319.03100586 173.00000000 0.793372 -0.580182 0.184257 0.000000
268.45300293 219.33399963 198.00000000 -0.117199 -0.519436 0.846434 0.000000
145.89799500 275.26199341 235.00000000 -0.152769 -0.253729 -0.955135 0.000000
132.28100586 161.94700623 202.00000000 0.675172 0.726072 -0.130244 0.000000
215.92999268 238.30099487 197.00000000 -0.668868 -0.742401 -0.038181 0.000000
135.19900513 248.02699280 237.00000000 0.224875 -0.159122 -0.961307 0.000000
193.55900574 186.75000000 127.00000000 -0.370148 -0.440047 0.818138 0.000000
177.99600220 327.29901123 204.00000000 -0.484298 -0.682039 -0.547977 0.000000
162.43400574 229.54699707 115.00000000 -0.817536 0.324168 0.475973 0.000000
117.20500183 307.35900879 152.00000000 0.557793 -0.356142 0.749687 0.000000
212.03900146 243.64999390 194.00000000 -0.696903 -0.696903 -0.169270 0.000000
142.00799561 178.96899414 233.00000000 0.380143 0.380143 -0.843198 0.000000
142.97999573 184.80499268 129.00000000 0.530256 0.661557 0.530256 0.000000
231.49200439 200.36700439 149.00000000 0.160511 0.387783 0.907668 0.000000
220.79299927 200.36700439 173.00000000 0.382552 -0.586142 0.714207 0.000000
160.48800659 235.38299561 243.00000000 -0.063152 -0.236512 -0.969574 0.000000
119.63700104 293.74200439 223.00000000 0.564966 -0.262812 -0.782140 0.000000
278.17999268 221.76600647 201.00000000 -0.290698 -0.853637 0.432202 0.000000
184.31799316 257.75399780 134.00000000 -0.478174 -0.335198 0.811783 0.000000
144.92599487 224.68400574 245.00000000 -0.070592 -0.173488 -0.982303 0.000000
124.98600006 208.14799500 126.00000000 0.787236 0.467169 0.402509 0.000000
147.84399414 312.22299194 223.00000000 0.031217 -0.487249 -0.872705 0.000000
103.58799744 231.49200439 168.00000000 0.281079 0.440818 0.852452 0.000000
224.68400574 214.95700073 221.00000000 -0.417545 -0.339353 -0.842909 0.000000
179.94099426 231.49200439 165.00000000 0.166612 0.340224 0.925466 0.000000
230.51899719 215.92999268 151.00000000 -0.160435 0.344587 0.924944 0.000000
117.69100189 236.35499573 105.00000000 0.960258 0.126384 0.248859 0.000000
163.40600586 217.87500000 247.00000000 -0.000978 -0.000978 -0.999999 0.000000
190.15400696 136.17199707 164.00000000 0.279493 0.953951 0.108910 0.000000
184.80499268 202.79899597 140.00000000 -0.066243 -0.993650 -0.090944 0.000000
250.94500732 144.92599487 155.00000000 -0.546629 -0.115157 0.829419 0.000000
148.81599426 151.73399353 211.00000000 0.313379 0.937401 -0.151900 0.000000
167.78300476 238.30099487 126.00000000 -0.983919 0.178584 0.003412 0.000000
148.81599426 333.13500977 160.00000000 -0.096756 -0.553097 0.827479 0.000000
179.94099426 169.72799683 226.00000000 -0.819944 0.386886 -0.421913 0.000000
120.60900116 234.89599609 230.00000000 0.769192 -0.191914 -0.609519 0.000000
232.46499634 179.94099426 223.00000000 0.271320 -0.013384 -0.962396 0.000000
179.94099426 297.63299561 221.00000000 -0.542740 -0.156131 -0.825262 0.000000
203.28500366 195.50399780 223.00000000 0.673925 0.076813 -0.734796 0.000000
187.72300720 294.71499634 175.00000000 -0.697487 -0.372540 0.612148 0.000000
182.85899353 180.42799377 216.00000000 -0.556434 0.718245 -0.417738 0.000000
248.02699280 114.77300262 131.00000000 0.319545 0.682885 -0.656932 0.000000
297.14599609 194.53100586 206.00000000 -0.769061 -0.225281 0.598159 0.000000
251.91799927 207.66200256 218.00000000 -0.063808 -0.571437 -0.818162 0.000000
111.85500336 317.08599854 201.00000000 0.674771 -0.611770 -0.412821 0.000000
176.53700256 230.51899719 242.00000000 -0.697411 -0.510097 -0.503407 0.000000
189.18200684 322.92199707 196.00000000 -0.628697 -0.628697 -0.457691 0.000000
191.12699890 193.55900574 226.00000000 -0.972881 0.225826 -0.050048 0.000000
260.18499756 149.78900146 162.00000000 -0.980934 -0.168959 0.096027 0.000000
202.79899597 278.17999268 206.00000000 -0.685925 -0.233874 -0.689064 0.000000
268.45300293 146.87100220 169.00000000 -0.331455 -0.222405 0.916883 0.000000
184.80499268 148.33000183 202.00000000 -0.000978 0.999999 -0.000978 0.000000
190.64100647 205.22999573 159.00000000 -0.770245 -0.588272 0.246290 0.000000
264.56201172 138.11700439 199.00000000 0.006035 0.264338 -0.964411 0.000000
215.92999268 177.02299500 225.00000000 0.000978 0.000978 -0.999999 0.000000
99.69719696 236.35499573 192.00000000 0.951169 0.292567 -0.098397 0.000000
159.02900696 181.88699341 242.00000000 0.166150 0.666125 -0.727098 0.000000
194.53100586 201.82600403 148.00000000 -0.636967 -0.768654 0.058687 0.000000
189.66799927 228.57400513 163.00000000 0.525939 0.295347 0.797595 0.000000
213.01199341 185.77699280 171.00000000 -0.657861 -0.308726 0.686955 0.000000
111.36900330 218.84800720 220.00000000 0.875310 0.139877 -0.462890 0.000000
272.34399414 157.57000732 205.00000000 -0.208398 0.260842 -0.942620 0.000000
146.87100220 255.80900574 113.00000000 -0.492992 -0.700216 0.516388 0.000000
191.61300659 137.63099670 150.00000000 0.490786 0.812716 0.314040 0.000000
132.28100586 195.01800537 130.00000000 0.689111 0.592802 0.416788 0.000000
