123.98400116 224.60899353 8.75000000 0.797182 0.254287 -0.547575 0.000000
164.86300659 178.78900146 82.50000000 -0.928180 0.284831 0.239485 0.000000
150.03900146 150.48800659 67.50000000 0.704658 -0.704658 0.083158 0.000000
103.31999969 278.51599121 153.75000000 -0.742386 0.247462 0.622596 0.000000
191.36700439 256.95300293 143.75000000 0.459124 -0.876246 0.146282 0.000000
166.21099854 199.45300293 63.75000000 0.103817 0.796904 -0.595119 0.000000
167.10899353 177.89100647 151.25000000 -0.853020 -0.054270 0.519048 0.000000
206.64100647 198.55499268 96.25000000 0.479950 0.680626 -0.553531 0.000000
192.71499634 146.44500732 57.50000000 -0.179983 -0.976873 -0.115437 0.000000
181.03500366 240.78100586 122.50000000 0.927129 0.374688 -0.006394 0.000000
118.59400177 225.95700073 10.00000000 -0.430783 0.122879 -0.894051 0.000000
139.25799561 269.53100586 171.25000000 -0.260442 0.476193 0.839887 0.000000
113.20300293 283.00799561 76.25000000 -0.063151 0.846227 -0.529067 0.000000
198.55499268 149.58999634 105.00000000 -0.316071 -0.871868 0.374094 0.000000
154.53100586 205.74200439 68.75000000 -0.001379 0.743362 -0.668888 0.000000
122.18800354 226.40600586 8.75000000 -0.110248 0.219229 -0.969424 0.000000
164.41400146 251.56300354 88.75000000 0.500313 0.581171 -0.641815 0.000000
238.53500366 175.19500732 107.50000000 0.486363 0.401778 -0.775903 0.000000
163.51600647 218.77000427 85.00000000 0.424946 -0.715959 -0.553917 0.000000
119.49199677 227.30499268 8.75000000 -0.349958 -0.104042 -0.930970 0.000000
154.53100586 263.24200439 91.25000000 0.404875 0.519617 -0.752379 0.000000
156.32800293 235.39100647 176.25000000 0.000978 0.000978 0.999999 0.000000
97.92970276 274.02398682 151.25000000 -0.752366 -0.376999 0.540202 0.000000
197.65600586 204.84399414 98.75000000 0.117518 0.691717 -0.712543 0.000000
142.85200500 238.08599854 53.75000000 0.676522 0.501936 -0.538868 0.000000
101.52300262 217.42199707 136.25000000 -0.894688 -0.446689 0.001310 0.000000
122.18800354 199.45300293 158.75000000 -0.494685 -0.494685 0.714545 0.000000
132.52000427 165.31300354 87.50000000 -0.561020 -0.818826 0.121579 0.000000
195.85899353 177.89100647 156.25000000 0.000978 0.000978 0.999999 0.000000
147.34399414 216.52400208 43.75000000 0.743465 0.199391 -0.638360 0.000000
98.37899780 226.40600586 130.00000000 -0.981256 -0.188202 0.041428 0.000000
97.48049927 260.54699707 85.00000000 -0.708486 0.705724 -0.001381 0.000000
129.37500000 184.17999268 146.25000000 -0.555098 -0.792773 0.251749 0.000000
180.13699341 256.05499268 115.00000000 0.828004 0.009549 -0.560642 0.000000
121.28900146 229.10200500 8.75000000 -0.280276 0.571636 -0.771154 0.000000
258.75000000 193.16400146 141.25000000 -0.019901 0.439147 -0.898195 0.000000
107.36299896 291.99200439 97.50000000 -0.815545 0.517288 -0.259421 0.000000
132.07000732 266.83599854 171.25000000 0.000978 0.000978 0.999999 0.000000
115.00000000 255.15600586 36.25000000 -0.598344 0.675012 -0.431674 0.000000
213.82800293 146.44500732 103.75000000 -0.572458 -0.001360 0.819933 0.000000
106.91400146 188.22300720 70.00000000 -0.831642 -0.543262 0.115061 0.000000
136.56300354 216.52400208 173.75000000 -0.001363 0.811146 0.584843 0.000000
256.95300293 160.82000732 143.75000000 -0.012196 -0.849682 0.527155 0.000000
111.85600281 304.57000732 142.50000000 -0.704639 0.653509 0.276423 0.000000
191.36700439 184.17999268 63.75000000 -0.811146 0.001363 -0.584843 0.000000
259.64898682 191.36700439 151.25000000 0.000978 0.000978 0.999999 0.000000
145.09800720 265.03900146 87.50000000 0.562344 0.562344 -0.606250 0.000000
139.25799561 180.58599854 46.25000000 -0.216910 0.866143 -0.450274 0.000000
105.56600189 193.16400146 40.00000000 -0.924836 -0.366393 0.102154 0.000000
180.58599854 156.32800293 116.25000000 -0.163863 -0.955200 0.246460 0.000000
98.37899780 238.08599854 67.50000000 -0.999999 0.000978 0.000978 0.000000
173.39900208 253.36000061 101.25000000 0.384585 0.770792 -0.507911 0.000000
185.52699280 208.43800354 160.00000000 0.065289 -0.371747 0.926036 0.000000
137.46099854 266.83599854 171.25000000 -0.070184 0.276908 0.958330 0.000000
141.95300293 302.77398682 103.75000000 0.364920 0.374237 -0.852514 0.000000
120.39099884 274.47299194 65.00000000 0.344395 0.870936 -0.350517 0.000000
130.27400208 279.41400146 166.25000000 -0.352181 0.411660 0.840538 0.000000
222.81300354 153.63299561 126.25000000 -0.084267 -0.932282 0.351779 0.000000
243.47700500 185.07800293 153.75000000 -0.348112 -0.697859 0.625948 0.000000
181.93400574 289.29699707 145.00000000 0.684002 0.687161 0.244850 0.000000
247.07000732 140.60600281 87.50000000 0.410379 -0.756994 -0.508478 0.000000
205.74200439 167.10899353 56.25000000 -0.001360 0.572458 -0.819933 0.000000
120.39099884 273.12500000 61.25000000 0.376011 0.804823 -0.459213 0.000000
250.66400146 193.61300659 140.00000000 0.365008 0.527234 -0.767329 0.000000
148.24200439 290.19500732 103.75000000 0.594110 0.296254 -0.747842 0.000000
254.25799561 201.25000000 151.25000000 0.273314 0.080839 0.958522 0.000000
244.82400513 182.38299561 125.00000000 0.703181 0.499409 -0.506090 0.000000
244.37500000 189.12100220 130.00000000 0.735286 0.487437 -0.470914 0.000000
180.13699341 264.14099121 117.50000000 0.916105 0.228667 -0.329338 0.000000
182.83200073 274.02398682 152.50000000 0.635151 0.061651 0.769924 0.000000
131.62100220 265.93798828 72.50000000 0.643253 0.619862 -0.449441 0.000000
176.99200439 203.94500732 103.75000000 0.562344 0.562344 0.606250 0.000000
108.26200104 246.17199707 37.50000000 -0.852863 0.284288 -0.437956 0.000000
123.98400116 265.93798828 168.75000000 -0.113520 0.626572 0.771052 0.000000
186.87500000 171.60200500 46.25000000 0.530422 0.684361 -0.500303 0.000000
180.13699341 237.18800354 102.50000000 0.852769 0.515067 -0.086554 0.000000
111.40599823 233.59399414 171.25000000 0.753777 0.376074 0.538877 0.000000
167.10899353 287.50000000 113.75000000 0.000978 0.000978 -0.999999 0.000000
106.46499634 293.78900146 105.00000000 -0.894688 0.446689 -0.001310 0.000000
181.48399353 249.76600647 121.25000000 0.926036 -0.371747 0.065289 0.000000
100.17600250 229.10200500 155.00000000 -0.917290 -0.252796 0.307689 0.000000
127.57800293 265.93798828 63.75000000 0.761563 0.544897 -0.350869 0.000000
152.73399353 270.42999268 168.75000000 0.198039 0.380177 0.903463 0.000000
142.85200500 252.01199341 70.00000000 0.674536 0.687294 -0.269496 0.000000
221.91400146 139.70700073 82.50000000 -0.143313 -0.967043 0.210451 0.000000
131.17199707 185.97700500 153.75000000 -0.000978 -0.000978 0.999999 0.000000
197.20700073 226.40600586 102.50000000 0.073955 0.478616 -0.874904 0.000000
194.96099854 219.21899414 163.75000000 0.296254 -0.594110 0.747842 0.000000
249.76600647 146.44500732 91.25000000 0.924238 0.269986 -0.269986 0.000000
113.20300293 193.16400146 11.25000000 0.122128 -0.484202 -0.866391 0.000000
194.06300354 149.14100647 101.25000000 -0.238601 -0.871870 0.427682 0.000000
152.73399353 221.91400146 51.25000000 0.651809 0.457439 -0.604892 0.000000
158.12500000 179.68800354 48.75000000 0.369059 0.618379 -0.693832 0.000000
147.34399414 159.02400208 101.25000000 -0.453678 -0.843873 0.286452 0.000000
173.39900208 258.75000000 166.25000000 0.532800 0.136502 0.835160 0.000000
223.71099854 195.41000366 157.50000000 0.474516 0.454813 0.753644 0.000000
108.71099854 256.05499268 46.25000000 -0.826280 0.302603 -0.475072 0.000000
247.07000732 162.61700439 106.25000000 0.589296 0.619689 -0.518378 0.000000
147.34399414 316.25000000 113.75000000 0.346535 0.346535 -0.871681 0.000000
144.64900208 203.94500732 38.75000000 0.628153 -0.181874 -0.756535 0.000000
134.76600647 159.02400208 68.75000000 -0.602766 -0.728813 0.324815 0.000000
160.37100220 172.50000000 72.50000000 -0.267230 0.766903 -0.583479 0.000000
116.79699707 194.06300354 11.25000000 0.139709 -0.459456 -0.877144 0.000000
176.09399414 216.52400208 166.25000000 0.535713 -0.714836 0.449468 0.000000
247.96899414 145.99600220 110.00000000 -0.178489 -0.983438 0.031498 0.000000
182.38299561 169.35600281 150.00000000 0.001368 -0.603278 0.797530 0.000000
160.82000732 263.24200439 168.75000000 0.334740 0.252882 0.907744 0.000000
103.31999969 196.75799561 51.25000000 -0.938103 -0.298926 -0.174947 0.000000
236.28900146 185.07800293 116.25000000 0.287241 0.814634 -0.503849 0.000000
183.28100586 154.08200073 107.50000000 -0.052820 -0.984794 0.165502 0.000000
107.81300354 206.64100647 148.75000000 -0.834049 -0.542060 0.102630 0.000000
176.99200439 195.85899353 156.25000000 -0.593288 -0.197763 0.780320 0.000000
213.37899780 220.11700439 135.00000000 0.965014 -0.106369 0.239652 0.000000
106.46499634 195.85899353 12.50000000 -0.876824 0.419740 -0.234517 0.000000
181.48399353 225.50799561 166.25000000 0.162130 -0.047822 0.985610 0.000000
119.49199677 265.93798828 168.75000000 -0.189715 0.491466 0.849982 0.000000
207.98800659 185.07800293 82.50000000 0.687161 0.684002 -0.244850 0.000000
274.92199707 170.25399780 137.50000000 0.646615 -0.132907 -0.751149 0.000000
158.12500000 195.85899353 56.25000000 0.423964 0.539440 -0.727502 0.000000
122.18800354 300.97698975 96.25000000 0.612421 -0.001370 -0.790530 0.000000
140.15600586 212.03100586 31.25000000 0.787394 0.085555 -0.610484 0.000000
159.47300720 217.42199707 62.50000000 0.804435 -0.574597 -0.150738 0.000000
168.90600586 287.50000000 156.25000000 0.227785 0.454062 0.861360 0.000000
165.31300354 260.99600220 167.50000000 0.407000 0.210112 0.888934 0.000000
104.66799927 205.74200439 95.00000000 -0.687161 -0.684002 0.244850 0.000000
100.17600250 257.85198975 67.50000000 -0.935151 0.208277 -0.286556 0.000000
169.35600281 198.55499268 160.00000000 0.876502 -0.478715 0.050752 0.000000
138.35899353 251.56300354 176.25000000 0.000978 0.000978 0.999999 0.000000
176.99200439 253.36000061 108.75000000 0.863506 0.208020 -0.459439 0.000000
195.85899353 233.14500427 120.00000000 -0.083535 0.994620 -0.061259 0.000000
175.19500732 185.07800293 88.75000000 0.686099 -0.192724 -0.701517 0.000000
128.47700500 200.80099487 165.00000000 -0.825267 -0.078665 0.559237 0.000000
181.93400574 245.27400208 140.00000000 0.940919 -0.001250 -0.338631 0.000000
261.44500732 199.90199280 145.00000000 0.697466 -0.265323 0.665691 0.000000
200.80099487 214.72700500 162.50000000 0.412805 -0.104244 0.904835 0.000000
162.61700439 247.07000732 171.25000000 0.628627 0.684432 0.369298 0.000000
176.09399414 228.20300293 168.75000000 0.459374 0.014647 0.888122 0.000000
132.07000732 249.76600647 48.75000000 0.807145 0.540679 -0.237031 0.000000
95.68360138 274.92199707 107.50000000 -0.984910 0.140018 0.101722 0.000000
115.89800262 191.81700134 120.00000000 -0.779135 -0.607334 0.155224 0.000000
230.44900513 180.58599854 105.00000000 0.752366 0.376999 -0.540202 0.000000
234.49200439 183.28100586 113.75000000 0.076700 0.768443 -0.635304 0.000000
199.45300293 164.86300659 147.50000000 -0.318187 -0.812088 0.489152 0.000000
151.83599854 197.65600586 61.25000000 -0.082209 0.794688 -0.601425 0.000000
194.06300354 231.34800720 112.50000000 -0.001250 0.940919 -0.338631 0.000000
121.73799896 191.36700439 145.00000000 -0.685677 -0.685677 0.244322 0.000000
126.68000031 304.12100220 100.00000000 0.203399 0.334257 -0.920273 0.000000
155.42999268 276.71899414 166.25000000 0.181716 0.071002 0.980784 0.000000
264.14099121 194.96099854 143.75000000 0.382832 0.398586 -0.833408 0.000000
134.76600647 174.74600220 120.00000000 -0.623450 -0.572763 0.532214 0.000000
105.11699677 296.03500366 137.50000000 -0.777959 0.628191 0.012481 0.000000
185.07800293 203.94500732 158.75000000 -0.045912 -0.106381 0.993265 0.000000
240.78100586 170.70300293 106.25000000 0.660167 0.456267 -0.596657 0.000000
203.94500732 193.16400146 88.75000000 0.461552 0.694827 -0.551530 0.000000
117.69499969 273.12500000 61.25000000 0.054998 0.910817 -0.409130 0.000000
123.53500366 166.21099854 60.00000000 -0.685677 -0.685677 0.244322 0.000000
154.53100586 253.36000061 83.75000000 0.567418 0.411916 -0.712995 0.000000
206.64100647 149.58999634 107.50000000 0.562344 -0.562344 0.606250 0.000000
162.61700439 174.29699707 78.75000000 -0.992979 0.001085 0.118289 0.000000
212.03100586 199.90199280 102.50000000 0.513912 0.604899 -0.608269 0.000000
192.26600647 161.71899414 43.75000000 0.378590 0.475251 -0.794233 0.000000
154.53100586 308.16400146 111.25000000 0.345386 0.479084 -0.806962 0.000000
92.98829651 265.03900146 122.50000000 -0.977892 0.147864 -0.147864 0.000000
180.58599854 261.89498901 160.00000000 0.446058 0.462397 0.766304 0.000000
94.33599854 239.43400574 122.50000000 -0.942538 -0.314179 0.113639 0.000000
266.83599854 170.70300293 148.75000000 0.296254 -0.594110 0.747842 0.000000
141.50399780 221.91400146 37.50000000 0.775728 0.311891 -0.548608 0.000000
206.64100647 225.05900574 155.00000000 0.158837 0.766955 0.621733 0.000000
156.32800293 225.05900574 60.00000000 0.783297 0.334783 -0.523800 0.000000
183.73100281 149.14100647 92.50000000 -0.683470 -0.686627 0.247817 0.000000
113.20300293 305.91799927 140.00000000 -0.708486 0.705724 0.001381 0.000000
123.08599854 172.05099487 87.50000000 -0.685677 -0.685677 -0.244322 0.000000
212.48100281 194.96099854 97.50000000 0.417849 0.752129 -0.509612 0.000000
266.83599854 169.80499268 133.75000000 0.243469 0.531910 -0.811046 0.000000
144.64900208 307.26599121 151.25000000 0.100747 0.597181 0.795754 0.000000
144.64900208 204.84399414 51.25000000 0.001363 -0.811146 -0.584843 0.000000
158.12500000 287.50000000 108.75000000 0.549746 0.333717 -0.765776 0.000000
157.22700500 214.72700500 178.75000000 -0.635815 -0.129545 0.760893 0.000000
177.89100647 163.06599426 137.50000000 -0.123121 -0.988487 0.087944 0.000000
260.09799194 198.55499268 150.00000000 -0.168741 0.524143 0.834746 0.000000
195.85899353 232.24600220 142.50000000 -0.102376 0.984012 0.145735 0.000000
136.56300354 263.69198608 77.50000000 0.634263 0.630916 -0.446829 0.000000
181.48399353 236.73800659 135.00000000 0.786874 0.473417 -0.395861 0.000000
140.60600281 253.36000061 70.00000000 0.630438 0.723009 -0.282500 0.000000
165.76199341 153.63299561 75.00000000 -0.793490 -0.594747 0.129035 0.000000
115.89800262 255.15600586 36.25000000 -0.327214 0.749529 -0.575445 0.000000
124.88300323 191.36700439 151.25000000 -0.651781 -0.651781 0.387768 0.000000
230.00000000 179.68800354 158.75000000 0.108093 0.848887 0.517403 0.000000
226.40600586 167.55900574 85.00000000 0.544897 0.561767 -0.622499 0.000000
147.79299927 257.85198975 82.50000000 0.666345 0.511927 -0.542139 0.000000
183.28100586 179.68800354 158.75000000 0.230857 -0.673727 0.701995 0.000000
106.01599884 237.18800354 36.25000000 -0.972119 -0.001178 -0.234487 0.000000
210.23399353 140.60600281 72.50000000 0.000978 -0.999999 0.000978 0.000000
190.46899414 201.25000000 158.75000000 -0.062368 -0.107727 0.992222 0.000000
230.00000000 165.31300354 153.75000000 0.006927 -0.732924 0.680275 0.000000
163.51600647 311.75799561 121.25000000 0.342178 0.569215 -0.747602 0.000000
244.37500000 175.19500732 118.75000000 0.644289 0.610820 -0.460207 0.000000
117.69499969 260.09799194 40.00000000 -0.063763 0.820417 -0.568199 0.000000
230.00000000 192.26600647 113.75000000 0.940919 0.001250 -0.338631 0.000000
108.71099854 208.43800354 11.25000000 -0.642604 0.561646 -0.521167 0.000000
160.37100220 217.42199707 75.00000000 0.608433 -0.793061 -0.029373 0.000000
111.85600281 302.77398682 107.50000000 -0.689784 0.614056 -0.383579 0.000000
224.60899353 140.15600586 86.25000000 -0.208505 -0.953740 0.216576 0.000000
212.92999268 221.01600647 156.25000000 0.001363 0.811146 0.584843 0.000000
199.45300293 204.84399414 161.25000000 0.000978 0.000978 0.999999 0.000000
119.49199677 266.83599854 51.25000000 0.324553 0.781806 -0.532395 0.000000
115.00000000 173.84800720 45.00000000 -0.822094 -0.569351 -0.001359 0.000000
238.98399353 217.42199707 153.75000000 -0.310887 0.543654 0.779609 0.000000
222.81300354 213.37899780 135.00000000 0.473380 0.847822 -0.238973 0.000000
182.38299561 183.28100586 161.25000000 0.506310 -0.476429 0.718794 0.000000
152.73399353 303.67199707 108.75000000 0.419897 0.332484 -0.844477 0.000000
114.10199738 273.12500000 61.25000000 -0.117030 0.853887 -0.507131 0.000000
165.31300354 255.15600586 168.75000000 0.259443 0.580209 0.772040 0.000000
106.46499634 189.57000732 32.50000000 -0.943523 -0.309154 -0.119111 0.000000
250.21499634 142.85200500 90.00000000 0.918336 -0.240003 -0.314735 0.000000
183.28100586 247.96899414 146.25000000 0.328862 -0.322855 -0.887476 0.000000
219.21899414 216.97300720 142.50000000 0.161491 0.845976 -0.508178 0.000000
185.07800293 166.21099854 41.25000000 -0.093749 0.888520 -0.449158 0.000000
110.05899811 211.13299561 12.50000000 -0.672399 0.355014 -0.649495 0.000000
191.36700439 197.20700073 87.50000000 0.018050 0.781689 -0.623407 0.000000
174.74600220 248.86700439 167.50000000 -0.365307 0.497269 0.786940 0.000000
212.03100586 223.71099854 113.75000000 0.882899 0.442174 -0.158023 0.000000
141.05499268 325.68399048 127.50000000 0.001250 0.940919 -0.338631 0.000000
248.86700439 181.48399353 153.75000000 -0.372641 0.615596 0.694392 0.000000
106.91400146 187.32400513 60.00000000 -0.984462 -0.001133 -0.175594 0.000000
161.71899414 194.51199341 167.50000000 0.213673 -0.373564 0.902659 0.000000
103.76999664 242.57800293 162.50000000 -0.881525 -0.064838 0.467664 0.000000
202.14900208 145.09800720 55.00000000 -0.240220 -0.919164 -0.312142 0.000000
165.31300354 239.88299561 173.75000000 -0.348112 -0.697859 0.625948 0.000000
149.14100647 235.39100647 178.75000000 -0.056145 0.258266 0.964441 0.000000
115.00000000 193.61300659 125.00000000 -0.683470 -0.686627 0.247817 0.000000
181.48399353 220.56700134 100.00000000 -0.114498 -0.938883 -0.324635 0.000000
137.46099854 222.81300354 31.25000000 0.828097 -0.114973 -0.548669 0.000000
95.23439789 252.46099854 91.25000000 -0.991266 0.009946 -0.131506 0.000000
110.05899811 301.87500000 110.00000000 -0.684002 0.687161 -0.244850 0.000000
132.07000732 196.30900574 40.00000000 0.770863 -0.636557 -0.023783 0.000000
98.37899780 223.71099854 65.00000000 -0.951294 -0.271607 0.145838 0.000000
151.83599854 264.14099121 91.25000000 0.426925 0.489083 -0.760614 0.000000
247.96899414 155.42999268 133.75000000 0.115743 -0.807273 0.578717 0.000000
224.60899353 208.88699341 127.50000000 0.575669 0.769145 -0.277527 0.000000
202.59800720 238.98399353 127.50000000 -0.821809 0.560917 -0.100009 0.000000
253.36000061 162.61700439 146.25000000 0.017768 -0.843303 0.537144 0.000000
146.44500732 321.19198608 120.00000000 0.425330 0.852207 -0.304691 0.000000
179.68800354 249.76600647 166.25000000 0.365822 0.152776 0.918060 0.000000
135.66400146 268.63299561 81.25000000 0.589471 0.552312 -0.589471 0.000000
103.76999664 200.35200500 35.00000000 -0.943138 -0.185333 -0.275940 0.000000
127.57800293 281.21099854 86.25000000 0.565498 0.669536 -0.481596 0.000000
92.53910065 257.40200806 130.00000000 0.000978 0.000978 -0.999999 0.000000
156.32800293 183.28100586 148.75000000 -0.590874 0.758791 0.274052 0.000000
128.02699280 182.38299561 127.50000000 -0.642294 -0.751106 0.152639 0.000000
168.90600586 225.05900574 107.50000000 -0.049378 -0.811213 -0.582662 0.000000
104.66799927 198.55499268 32.50000000 -0.977758 -0.153203 -0.143238 0.000000
120.39099884 172.50000000 31.25000000 0.000978 0.000978 -0.999999 0.000000
237.18800354 149.14100647 73.75000000 0.425330 0.852207 -0.304691 0.000000
140.15600586 325.68399048 127.50000000 0.001250 0.940919 -0.338631 0.000000
168.45700073 171.60200500 45.00000000 -0.596860 0.346407 -0.723713 0.000000
166.66000366 206.64100647 172.50000000 0.289550 -0.421302 0.859456 0.000000
224.60899353 152.73399353 123.75000000 -0.203503 -0.930502 0.304553 0.000000
98.37899780 222.81300354 87.50000000 -0.934818 -0.327118 0.138238 0.000000
111.85600281 217.42199707 12.50000000 -0.736147 0.370522 -0.566393 0.000000
152.73399353 304.57000732 108.75000000 0.365926 0.276312 -0.888679 0.000000
92.53910065 265.48800659 127.50000000 -0.924788 0.308263 -0.223029 0.000000
208.43800354 191.36700439 91.25000000 0.377752 0.504209 -0.776580 0.000000
199.45300293 199.45300293 93.75000000 0.214545 0.859679 -0.463597 0.000000
159.02400208 241.67999268 73.75000000 0.290875 0.777258 -0.557909 0.000000
214.72700500 216.52400208 133.75000000 0.668888 -0.001379 0.743362 0.000000
95.68360138 238.98399353 137.50000000 -0.997518 -0.035282 0.060942 0.000000
180.58599854 201.69900513 102.50000000 0.547994 -0.230003 0.804239 0.000000
194.96099854 177.89100647 58.75000000 0.335529 0.598116 -0.727789 0.000000
141.05499268 316.25000000 111.25000000 0.222841 0.533282 -0.816059 0.000000
197.65600586 209.33599854 103.75000000 -0.233828 0.701483 -0.673235 0.000000
177.89100647 154.98100281 110.00000000 -0.235052 -0.938817 0.251742 0.000000
94.78520203 276.71899414 125.00000000 -0.942538 0.314179 -0.113639 0.000000
145.54699707 195.41000366 170.00000000 -0.117284 -0.699251 0.705190 0.000000
187.77400208 260.54699707 156.25000000 0.519544 0.654053 0.549808 0.000000
144.64900208 187.32400513 52.50000000 -0.193488 0.499469 -0.844448 0.000000
106.91400146 189.57000732 73.75000000 -0.862063 -0.468998 0.192066 0.000000
261.44500732 170.25399780 150.00000000 -0.064694 -0.455612 0.887824 0.000000
152.73399353 286.60198975 161.25000000 -0.872551 0.352994 0.337712 0.000000
170.70300293 248.86700439 93.75000000 0.827245 0.552940 0.099616 0.000000
172.50000000 303.67199707 141.25000000 0.623097 0.685571 0.376488 0.000000
190.02000427 176.09399414 55.00000000 0.554690 0.694611 -0.458077 0.000000
241.67999268 215.17599487 150.00000000 0.782458 0.621156 0.043863 0.000000
108.71099854 260.54699707 163.75000000 -0.709064 0.269285 0.651701 0.000000
172.50000000 297.38299561 121.25000000 0.241064 0.791623 -0.561446 0.000000
252.46099854 163.51600647 148.75000000 0.148530 -0.906740 0.394665 0.000000
126.68000031 261.44500732 171.25000000 0.222571 0.359314 0.906287 0.000000
125.78099823 221.01600647 11.25000000 0.807008 -0.004110 -0.590527 0.000000
271.32800293 168.00799561 136.25000000 0.559975 -0.163639 -0.812189 0.000000
168.00799561 218.77000427 175.00000000 0.204289 -0.204289 0.957357 0.000000
228.65199280 216.52400208 150.00000000 0.363335 0.889648 -0.276613 0.000000
231.34800720 186.87500000 112.50000000 0.642962 0.322291 -0.694787 0.000000
259.19900513 153.63299561 110.00000000 0.624631 0.693488 -0.359040 0.000000
136.56300354 175.19500732 38.75000000 0.450064 0.499522 -0.740216 0.000000
206.19200134 218.32000732 105.00000000 0.418537 -0.060952 -0.906152 0.000000
175.19500732 207.53900146 88.75000000 0.517140 0.847414 -0.120231 0.000000
108.71099854 252.46099854 166.25000000 -0.598461 0.168175 0.783302 0.000000
104.21900177 200.80099487 85.00000000 0.000978 0.000978 0.999999 0.000000
131.17199707 167.10899353 31.25000000 -0.010021 0.141414 -0.989900 0.000000
185.97700500 235.39100647 161.25000000 0.738465 0.610869 0.285497 0.000000
135.66400146 273.12500000 86.25000000 0.999999 -0.000978 -0.000978 0.000000
205.74200439 189.57000732 86.25000000 0.504318 0.615639 -0.605519 0.000000
255.15600586 176.99200439 151.25000000 0.497074 -0.039711 0.866799 0.000000
231.79699707 162.61700439 148.75000000 -0.052840 -0.735472 0.675492 0.000000
107.81300354 252.01199341 165.00000000 -0.588241 0.214608 0.779690 0.000000
186.87500000 235.83999634 130.00000000 0.708843 0.638119 0.300575 0.000000
240.78100586 151.38699341 125.00000000 -0.001250 -0.940919 0.338631 0.000000
240.78100586 150.93800354 123.75000000 -0.001250 -0.940919 0.338631 0.000000
234.49200439 216.07400513 155.00000000 0.162389 0.736064 0.657145 0.000000
126.23100281 223.71099854 12.50000000 0.863875 0.086246 -0.496268 0.000000
127.12899780 199.45300293 162.50000000 -0.825267 -0.078665 0.559237 0.000000
187.77400208 147.79299927 57.50000000 -0.427669 -0.902556 0.049917 0.000000
115.89800262 224.60899353 11.25000000 -0.725816 0.275970 -0.630104 0.000000
215.17599487 160.82000732 60.00000000 0.773572 0.575059 -0.266260 0.000000
240.78100586 156.32800293 136.25000000 -0.087863 -0.885605 0.456052 0.000000
231.34800720 201.25000000 125.00000000 0.758479 0.414461 -0.502923 0.000000
206.64100647 187.77400208 161.25000000 0.000978 0.000978 0.999999 0.000000
103.31999969 213.82800293 138.75000000 -0.894688 -0.446689 0.001310 0.000000
115.89800262 225.50799561 11.25000000 -0.731327 0.261755 -0.629798 0.000000
208.43800354 221.91400146 108.75000000 -0.001360 0.572458 -0.819933 0.000000
266.83599854 155.42999268 128.75000000 0.298470 -0.898379 0.322228 0.000000
196.75799561 175.19500732 58.75000000 0.387764 0.655074 -0.648473 0.000000
226.40600586 211.13299561 133.75000000 0.562344 0.562344 0.606250 0.000000
235.83999634 217.42199707 152.50000000 -0.185743 0.920210 0.344547 0.000000
238.08599854 216.97300720 147.50000000 -0.275522 0.549469 0.788779 0.000000
173.39900208 176.09399414 46.25000000 0.549940 0.358515 -0.754342 0.000000
116.79699707 221.91400146 173.75000000 -0.416641 -0.665629 0.619151 0.000000
181.48399353 162.61700439 38.75000000 -0.067791 0.656275 -0.751471 0.000000
133.41799927 168.90600586 107.50000000 -0.525604 -0.792376 0.309646 0.000000
160.82000732 206.64100647 68.75000000 0.026749 0.694070 -0.719411 0.000000
239.88299561 177.89100647 153.75000000 0.575633 0.404097 0.710881 0.000000
172.50000000 208.43800354 163.75000000 0.749456 -0.449674 0.485911 0.000000
223.71099854 160.37100220 70.00000000 0.555154 0.675913 -0.484712 0.000000
139.25799561 237.18800354 46.25000000 0.758422 0.483228 -0.437362 0.000000
96.58209991 277.61700439 112.50000000 0.001363 0.811146 0.584843 0.000000
183.28100586 275.82000732 128.75000000 0.834162 0.187874 -0.518533 0.000000
134.76600647 324.78500366 127.50000000 -0.153148 0.977407 0.145677 0.000000
107.81300354 260.54699707 161.25000000 -0.763777 0.568429 0.305831 0.000000
169.80499268 220.56700134 90.00000000 0.476667 -0.872230 -0.109562 0.000000
212.03100586 141.50399780 57.50000000 -0.684953 -0.684953 -0.248355 0.000000
201.69900513 191.36700439 85.00000000 0.468336 0.736429 -0.488195 0.000000
204.84399414 170.70300293 58.75000000 0.216878 0.659995 -0.719285 0.000000
275.37100220 166.21099854 140.00000000 0.912755 0.269314 0.307163 0.000000
156.32800293 169.80499268 46.25000000 -0.000978 -0.000978 -0.999999 0.000000
150.93800354 317.59799194 142.50000000 0.812439 -0.001365 0.583045 0.000000
258.75000000 173.39900208 133.75000000 0.149662 0.666675 -0.730168 0.000000
104.21900177 235.39100647 41.25000000 -0.946003 0.158344 -0.282853 0.000000
224.60899353 163.96499634 150.00000000 -0.052052 -0.820165 0.569754 0.000000
119.49199677 181.93400574 105.00000000 -0.839969 -0.488069 0.237150 0.000000
166.21099854 157.67599487 85.00000000 -0.105674 -0.272666 0.956288 0.000000
256.95300293 180.58599854 151.25000000 0.201618 -0.206958 0.957350 0.000000
181.93400574 244.37500000 162.50000000 0.894526 0.052939 0.443870 0.000000
171.60200500 260.09799194 105.00000000 0.573823 0.460062 -0.677547 0.000000
223.71099854 167.10899353 153.75000000 -0.101384 -0.742016 0.662672 0.000000
178.33999634 269.53100586 157.50000000 0.377535 0.227696 0.897564 0.000000
238.98399353 204.84399414 156.25000000 0.000978 0.000978 0.999999 0.000000
208.43800354 153.63299561 121.25000000 -0.112287 -0.949820 0.291947 0.000000
135.66400146 185.97700500 51.25000000 0.693260 0.519527 -0.499481 0.000000
168.90600586 169.35600281 147.50000000 0.001250 -0.940919 0.338631 0.000000
136.56300354 315.80099487 145.00000000 -0.322291 0.642962 0.694787 0.000000
105.11699677 260.99600220 57.50000000 -0.831397 0.354961 -0.427530 0.000000
210.23399353 229.10200500 151.25000000 0.803443 0.226691 0.550536 0.000000
117.24600220 230.00000000 12.50000000 -0.675480 0.373075 -0.636036 0.000000
99.27739716 216.52400208 75.00000000 -0.970181 -0.238569 0.042820 0.000000
128.47700500 194.06300354 161.25000000 -0.768922 -0.319448 0.553816 0.000000
94.78520203 237.18800354 120.00000000 -0.960711 -0.264803 0.083151 0.000000
152.73399353 154.98100281 92.50000000 0.001250 -0.940919 0.338631 0.000000
258.75000000 173.39900208 151.25000000 -0.035343 -0.244964 0.968888 0.000000
123.08599854 230.00000000 11.25000000 0.563578 0.262166 -0.783358 0.000000
177.89100647 247.07000732 108.75000000 0.900850 -0.001304 -0.434129 0.000000
189.12100220 261.44500732 130.00000000 0.940919 0.001250 -0.338631 0.000000
150.93800354 306.81698608 110.00000000 0.152533 0.457600 -0.875977 0.000000
143.75000000 263.69198608 85.00000000 0.552426 0.630137 -0.545668 0.000000
101.07399750 210.23399353 37.50000000 -0.979514 -0.163868 -0.117049 0.000000
163.51600647 219.21899414 91.25000000 0.005597 -0.988498 0.151129 0.000000
97.48049927 247.07000732 152.50000000 -0.940919 0.001250 0.338631 0.000000
136.56300354 184.62899780 157.50000000 -0.555924 -0.733032 0.391934 0.000000
210.68400574 237.18800354 130.00000000 0.992680 0.089830 -0.080733 0.000000
117.69499969 194.51199341 140.00000000 -0.000978 -0.000978 0.999999 0.000000
121.28900146 302.77398682 151.25000000 -0.365917 0.648148 0.667839 0.000000
103.31999969 218.32000732 161.25000000 -0.642509 -0.564935 0.517717 0.000000
178.33999634 282.10998535 152.50000000 0.388613 0.388613 0.835440 0.000000
165.31300354 271.32800293 163.75000000 0.346558 0.365041 0.864085 0.000000
227.30499268 159.02400208 141.25000000 -0.122566 -0.863730 0.488822 0.000000
96.13289642 233.14500427 117.50000000 -0.958944 -0.282623 -0.023449 0.000000
110.05899811 272.22698975 62.50000000 -0.454042 0.638340 -0.621585 0.000000
263.24200439 191.36700439 141.25000000 0.366768 0.357483 -0.858887 0.000000
139.25799561 162.61700439 98.75000000 -0.477082 -0.713129 0.513653 0.000000
227.30499268 210.23399353 156.25000000 0.000978 0.000978 0.999999 0.000000
194.96099854 163.51600647 46.25000000 0.328521 0.587453 -0.739576 0.000000
112.75399780 188.67199707 92.50000000 -0.789259 -0.503133 0.352032 0.000000
225.50799561 217.87100220 150.00000000 0.389739 0.910330 -0.139293 0.000000
176.99200439 194.51199341 95.00000000 0.725040 -0.414544 0.549973 0.000000
116.79699707 179.23800659 85.00000000 -0.814289 -0.578832 0.043447 0.000000
125.78099823 231.34800720 12.50000000 0.537628 -0.108685 -0.836148 0.000000
138.35899353 323.43798828 118.75000000 -0.170354 0.854730 -0.490322 0.000000
119.04299927 232.69500732 12.50000000 -0.559893 0.373806 -0.739451 0.000000
242.57800293 162.16799927 147.50000000 0.289028 -0.913562 0.286124 0.000000
219.21899414 176.99200439 86.25000000 0.597373 0.553374 -0.580450 0.000000
254.25799561 150.93800354 101.25000000 0.740803 0.374490 -0.557646 0.000000
132.07000732 197.65600586 166.25000000 -0.292910 -0.190183 0.937035 0.000000
112.30500031 186.87500000 88.75000000 -0.751309 -0.594986 0.285529 0.000000
235.39100647 145.54699707 106.25000000 -0.130239 -0.930865 0.341363 0.000000
93.88680267 273.12500000 122.50000000 -0.940919 -0.001250 0.338631 0.000000
125.33200073 232.69500732 12.50000000 0.414943 0.014399 -0.909733 0.000000
124.43399811 187.77400208 142.50000000 -0.687161 -0.684002 0.244850 0.000000
108.71099854 185.97700500 73.75000000 -0.858171 -0.463020 0.221707 0.000000
181.03500366 247.07000732 137.50000000 0.683470 0.686627 0.247817 0.000000
121.28900146 233.59399414 11.25000000 0.032030 0.202855 -0.978685 0.000000
206.64100647 159.02400208 136.25000000 -0.228803 -0.951765 0.204433 0.000000
142.85200500 223.26199341 40.00000000 0.840578 0.302981 -0.449033 0.000000
146.44500732 308.16400146 151.25000000 0.001380 0.730182 0.683251 0.000000
131.17199707 183.28100586 146.25000000 -0.535058 -0.793906 0.288837 0.000000
120.83999634 316.25000000 127.50000000 -0.783326 0.620775 0.032230 0.000000
95.68360138 263.24200439 147.50000000 -0.886593 -0.233158 0.399487 0.000000
178.78900146 297.38299561 131.25000000 0.808246 0.401722 -0.430531 0.000000
185.97700500 234.94200134 140.00000000 0.253271 0.952783 -0.167507 0.000000
129.37500000 254.25799561 48.75000000 0.797126 0.531944 -0.285703 0.000000
119.94100189 275.82000732 165.00000000 -0.457835 0.328823 0.825992 0.000000
145.54699707 213.82800293 38.75000000 0.822838 0.081568 -0.562392 0.000000
201.25000000 234.94200134 142.50000000 -0.708486 0.705724 -0.001381 0.000000
153.18400574 166.21099854 125.00000000 -0.686627 -0.683470 0.247817 0.000000
144.64900208 168.90600586 121.25000000 -0.382266 -0.810916 0.443045 0.000000
161.71899414 182.38299561 141.25000000 -0.888043 0.050473 0.456981 0.000000
192.26600647 207.53900146 161.25000000 0.000978 0.000978 0.999999 0.000000
170.70300293 254.25799561 166.25000000 0.337347 0.355665 0.871607 0.000000
191.36700439 177.44099426 57.50000000 0.397316 0.528120 -0.750486 0.000000
152.28500366 262.34399414 90.00000000 0.475798 0.436557 -0.763566 0.000000
210.23399353 141.95300293 88.75000000 -0.314179 -0.942538 0.113639 0.000000
204.39500427 223.71099854 157.50000000 0.210826 0.838754 0.502039 0.000000
257.85198975 203.04699707 148.75000000 0.414069 0.345318 0.842201 0.000000
122.18800354 315.35198975 136.25000000 -0.536849 0.760671 0.364928 0.000000
198.10600281 210.23399353 162.50000000 0.169021 -0.300939 0.938545 0.000000
243.47700500 174.29699707 153.75000000 0.469352 0.327124 0.820182 0.000000
113.20300293 185.97700500 13.75000000 0.358286 -0.714936 -0.600415 0.000000
224.16000366 157.22700500 65.00000000 0.598411 0.668420 -0.441724 0.000000
166.21099854 244.37500000 171.25000000 0.154298 0.238700 0.958757 0.000000
255.15600586 164.41400146 148.75000000 0.288764 -0.863238 0.414048 0.000000
217.42199707 171.60200500 156.25000000 -0.209302 -0.437902 0.874319 0.000000
99.72660065 216.07400513 82.50000000 -0.967901 -0.241039 0.071188 0.000000
203.94500732 245.27400208 133.75000000 -0.962885 0.259384 -0.074652 0.000000
164.41400146 216.07400513 95.00000000 -0.937612 -0.347682 0.001255 0.000000
184.17999268 272.22698975 151.25000000 0.585820 0.164150 0.793643 0.000000
168.00799561 210.23399353 83.75000000 0.446689 0.894688 0.001310 0.000000
176.09399414 153.18400574 95.00000000 -0.376355 -0.847971 0.373232 0.000000
111.40599823 253.36000061 38.75000000 -0.641168 0.570488 -0.513271 0.000000
115.00000000 186.87500000 13.75000000 0.671852 -0.391226 -0.628933 0.000000
179.68800354 195.41000366 100.00000000 0.710871 -0.165921 0.683471 0.000000
230.00000000 199.45300293 121.25000000 0.681175 0.493726 -0.540588 0.000000
125.78099823 282.10998535 86.25000000 0.358455 0.792458 -0.493478 0.000000
173.39900208 247.07000732 168.75000000 0.774947 0.158615 0.611800 0.000000
99.72660065 287.94900513 130.00000000 -0.835160 0.532800 -0.136502 0.000000
262.34399414 187.32400513 140.00000000 0.359027 0.310551 -0.880146 0.000000
248.86700439 188.22300720 135.00000000 0.598698 0.387587 -0.700955 0.000000
137.46099854 259.19900513 72.50000000 0.649211 0.625846 -0.432251 0.000000
204.39500427 242.57800293 130.00000000 -0.944689 0.307790 -0.113256 0.000000
156.32800293 281.21099854 103.75000000 0.405593 0.405593 -0.819139 0.000000
238.98399353 185.52699280 120.00000000 0.717837 0.432692 -0.545424 0.000000
220.11700439 168.00799561 76.25000000 0.630351 0.630351 -0.453117 0.000000
157.22700500 287.94900513 107.50000000 0.487148 0.138146 -0.862324 0.000000
190.46899414 170.70300293 48.75000000 0.514590 0.632693 -0.578703 0.000000
125.78099823 169.80499268 86.25000000 -0.643551 -0.765342 0.009688 0.000000
123.08599854 242.57800293 176.25000000 0.424928 0.851401 0.307493 0.000000
230.00000000 194.06300354 113.75000000 0.940919 0.001250 -0.338631 0.000000
213.82800293 183.28100586 161.25000000 0.000978 0.000978 0.999999 0.000000
219.21899414 191.36700439 101.25000000 0.582688 0.552287 -0.596200 0.000000
158.57400513 185.97700500 147.50000000 -0.684953 0.684953 0.248355 0.000000
164.41400146 155.42999268 68.75000000 0.001085 -0.992979 0.118289 0.000000
125.33200073 265.03900146 57.50000000 0.781208 0.524549 -0.338470 0.000000
125.78099823 317.14898682 113.75000000 -0.425330 0.852207 -0.304691 0.000000
106.01599884 190.46899414 53.75000000 -0.873136 -0.486286 -0.034054 0.000000
163.51600647 190.46899414 163.75000000 0.592692 -0.723313 0.354309 0.000000
206.64100647 167.10899353 56.25000000 -0.001360 0.572458 -0.819933 0.000000
170.70300293 199.45300293 156.25000000 0.318060 -0.946452 0.055371 0.000000
98.37899780 276.71899414 97.50000000 -0.816222 0.453457 -0.357992 0.000000
108.71099854 271.32800293 63.75000000 -0.749027 0.567837 -0.341349 0.000000
263.24200439 173.39900208 151.25000000 -0.067079 -0.340657 0.937792 0.000000
132.96899414 316.69900513 142.50000000 -0.322291 0.642962 0.694787 0.000000
154.53100586 233.59399414 63.75000000 0.521387 0.471413 -0.711284 0.000000
117.69499969 191.81700134 130.00000000 -0.582083 -0.812111 0.040676 0.000000
248.86700439 145.09800720 87.50000000 0.922430 0.169884 -0.346789 0.000000
123.98400116 295.58599854 156.25000000 0.000978 0.000978 0.999999 0.000000
224.16000366 152.73399353 60.00000000 0.562344 0.562344 -0.606250 0.000000
145.54699707 185.07800293 163.75000000 -0.108031 -0.708863 0.697024 0.000000
212.03100586 185.07800293 161.25000000 0.000978 0.000978 0.999999 0.000000
184.62899780 240.78100586 150.00000000 0.744401 0.650785 0.149484 0.000000
214.27699280 199.45300293 105.00000000 0.629340 0.655908 -0.416792 0.000000
132.07000732 322.53900146 118.75000000 -0.396977 0.899333 -0.183331 0.000000
221.91400146 158.12500000 138.75000000 -0.161905 -0.898355 0.408343 0.000000
224.60899353 191.36700439 106.25000000 0.001380 0.680398 -0.732842 0.000000
210.23399353 172.50000000 156.25000000 0.141086 -0.565831 0.812361 0.000000
161.27000427 213.82800293 82.50000000 0.340522 0.889557 -0.304520 0.000000
262.34399414 172.50000000 133.75000000 0.211250 0.509129 -0.834363 0.000000
179.68800354 148.69099426 77.50000000 -0.225537 -0.974177 -0.010627 0.000000
157.22700500 292.89099121 108.75000000 -0.000978 -0.000978 -0.999999 0.000000
204.84399414 143.30099487 57.50000000 -0.203083 -0.908830 -0.364396 0.000000
170.25399780 265.93798828 107.50000000 0.698089 0.426150 -0.575385 0.000000
153.63299561 240.78100586 176.25000000 0.000978 0.000978 0.999999 0.000000
240.33200073 186.87500000 122.50000000 0.743109 0.456411 -0.489365 0.000000
97.03130341 251.56300354 81.25000000 -0.940919 -0.001250 -0.338631 0.000000
233.59399414 210.23399353 156.25000000 0.000978 0.000978 0.999999 0.000000
158.12500000 266.83599854 98.75000000 0.013780 0.945801 -0.324454 0.000000
252.01199341 151.83599854 100.00000000 0.658384 0.543883 -0.520309 0.000000
159.02400208 200.80099487 62.50000000 0.136777 0.707936 -0.692906 0.000000
97.48049927 226.40600586 92.50000000 -0.918779 -0.388766 0.068606 0.000000
203.94500732 235.83999634 115.00000000 -0.684953 0.684953 -0.248355 0.000000
133.86700439 216.52400208 173.75000000 -0.001380 -0.680398 0.732842 0.000000
106.46499634 208.43800354 147.50000000 -0.853402 -0.503288 0.135669 0.000000
119.49199677 296.48498535 153.75000000 -0.246147 0.584795 0.772933 0.000000
157.22700500 289.29699707 108.75000000 0.484478 0.112902 -0.867487 0.000000
118.14499664 191.36700439 127.50000000 -0.655615 -0.735083 0.172691 0.000000
181.48399353 203.94500732 101.25000000 0.794943 -0.436977 0.420852 0.000000
180.13699341 197.65600586 100.00000000 0.972845 -0.037464 -0.228407 0.000000
114.10199738 300.97698975 98.75000000 -0.550500 0.644775 -0.530298 0.000000
111.40599823 190.91799927 92.50000000 -0.799110 -0.478826 0.363523 0.000000
106.91400146 266.83599854 158.75000000 -0.368984 -0.001268 0.929435 0.000000
159.92199707 186.42599487 152.50000000 0.687161 -0.684002 -0.244850 0.000000
155.42999268 166.21099854 46.25000000 0.466610 0.061939 -0.882292 0.000000
174.29699707 173.39900208 153.75000000 -0.376999 -0.752366 0.540202 0.000000
157.22700500 194.96099854 168.75000000 -0.001250 -0.940919 0.338631 0.000000
172.50000000 155.42999268 53.75000000 -0.255388 -0.942864 -0.213974 0.000000
110.95700073 201.25000000 147.50000000 -0.700929 -0.706807 -0.095514 0.000000
243.47700500 194.06300354 133.75000000 0.714513 0.488001 -0.501325 0.000000
240.78100586 176.99200439 153.75000000 0.496069 0.443330 0.746575 0.000000
245.27400208 140.60600281 92.50000000 0.110592 -0.993097 0.039098 0.000000
139.25799561 220.11700439 178.75000000 0.000978 0.000978 0.999999 0.000000
180.13699341 260.54699707 115.00000000 0.815573 0.163115 -0.555188 0.000000
260.54699707 159.02400208 138.75000000 0.262262 -0.656450 0.707313 0.000000
238.98399353 206.64100647 156.25000000 0.000978 0.000978 0.999999 0.000000
128.02699280 185.97700500 147.50000000 -0.633468 -0.744983 0.209091 0.000000
120.39099884 199.45300293 13.75000000 0.814985 -0.094092 -0.571792 0.000000
172.50000000 189.57000732 156.25000000 -0.783358 0.262166 0.563578 0.000000
127.57800293 190.91799927 155.00000000 -0.651781 -0.651781 0.387768 0.000000
119.04299927 176.99200439 90.00000000 -0.759282 -0.620671 0.195596 0.000000
224.60899353 203.94500732 121.25000000 0.553146 0.610660 -0.566679 0.000000
187.77400208 212.92999268 106.25000000 0.025535 0.463655 -0.885648 0.000000
111.40599823 178.33999634 57.50000000 -0.701371 -0.701371 -0.127114 0.000000
212.92999268 234.49200439 141.25000000 0.968270 0.171478 0.181792 0.000000
96.13289642 263.24200439 91.25000000 -0.958273 0.195376 -0.208667 0.000000
122.18800354 237.18800354 176.25000000 -0.335897 0.485539 0.807109 0.000000
155.42999268 301.87500000 111.25000000 0.559061 0.436300 -0.705048 0.000000
270.42999268 155.42999268 121.25000000 0.133389 0.265456 -0.954851 0.000000
138.35899353 155.87899780 67.50000000 -0.505221 -0.782850 0.363178 0.000000
140.15600586 175.19500732 128.75000000 -0.545010 -0.815237 0.195839 0.000000
166.66000366 193.16400146 162.50000000 0.767121 -0.622438 0.155233 0.000000
113.20300293 176.54299927 57.50000000 -0.701371 -0.701371 0.127114 0.000000
159.92199707 160.37100220 117.50000000 -0.001380 -0.680398 0.732842 0.000000
144.64900208 178.78900146 46.25000000 0.391525 0.692190 -0.606285 0.000000
177.89100647 231.79699707 91.25000000 0.916105 0.228667 -0.329338 0.000000
131.17199707 161.27000427 67.50000000 -0.579984 -0.735945 0.349290 0.000000
155.42999268 243.47700500 176.25000000 0.000978 0.000978 0.999999 0.000000
162.61700439 227.30499268 66.25000000 0.879960 -0.001323 -0.475046 0.000000
179.68800354 264.14099121 116.25000000 0.936687 0.199029 -0.288104 0.000000
203.94500732 175.19500732 156.25000000 -0.318330 -0.370116 0.872743 0.000000
106.46499634 300.07800293 120.00000000 -0.894394 0.384575 -0.228387 0.000000
246.17199707 190.46899414 133.75000000 0.710544 0.494219 -0.500875 0.000000
170.70300293 279.86300659 157.50000000 0.508800 0.214151 0.833824 0.000000
172.94900513 306.36700439 135.00000000 0.679560 0.733025 0.029546 0.000000
158.12500000 302.77398682 111.25000000 0.409231 0.614674 -0.674319 0.000000
209.33599854 154.98100281 125.00000000 0.001250 -0.940919 0.338631 0.000000
244.82400513 179.68800354 122.50000000 0.673370 0.545749 -0.498730 0.000000
195.85899353 176.99200439 156.25000000 0.000978 0.000978 0.999999 0.000000
106.46499634 204.84399414 15.00000000 -0.683470 0.686627 0.247817 0.000000
132.52000427 244.37500000 42.50000000 0.749290 0.554247 -0.362455 0.000000
271.32800293 176.99200439 138.75000000 -0.000978 -0.000978 -0.999999 0.000000
150.93800354 213.82800293 178.75000000 -0.247679 -0.708330 0.661003 0.000000
131.17199707 321.64099121 118.75000000 -0.501148 0.792550 -0.347441 0.000000
153.63299561 317.59799194 120.00000000 0.562344 0.562344 0.606250 0.000000
141.95300293 283.45700073 97.50000000 0.575866 0.626529 -0.525204 0.000000
188.67199707 233.59399414 146.25000000 0.868550 0.492961 -0.051091 0.000000
117.69499969 262.79299927 45.00000000 -0.196163 0.816586 -0.542870 0.000000
106.46499634 210.23399353 157.50000000 -0.608818 -0.474643 0.635653 0.000000
142.85200500 250.21499634 67.50000000 0.596217 0.695311 -0.401332 0.000000
209.33599854 194.96099854 93.75000000 0.495238 0.569104 -0.656400 0.000000
212.03100586 181.48399353 161.25000000 0.000978 0.000978 0.999999 0.000000
242.57800293 140.15600586 88.75000000 0.154975 -0.985450 0.069798 0.000000
178.33999634 152.73399353 55.00000000 -0.552940 -0.827245 -0.099616 0.000000
122.63700104 206.64100647 15.00000000 0.834389 -0.254481 -0.488912 0.000000
232.69500732 159.02400208 78.75000000 0.685677 0.685677 -0.244322 0.000000
149.14100647 176.99200439 46.25000000 0.158164 0.607047 -0.778767 0.000000
163.96499634 217.42199707 87.50000000 0.882188 -0.438907 -0.170605 0.000000
234.49200439 185.97700500 156.25000000 0.644582 0.421393 0.637920 0.000000
94.78520203 243.47700500 92.50000000 -0.984525 -0.173875 -0.021878 0.000000
179.68800354 199.00399780 112.50000000 0.296538 -0.941542 -0.159885 0.000000
146.44500732 203.49600220 45.00000000 -0.175304 -0.979494 0.099298 0.000000
190.46899414 265.48800659 145.00000000 0.888984 0.457230 0.025476 0.000000
178.78900146 228.20300293 91.25000000 0.844845 0.312733 -0.434092 0.000000
159.02400208 168.90600586 68.75000000 -0.129496 0.763580 -0.632595 0.000000
238.08599854 194.06300354 126.25000000 0.780907 0.401006 -0.478935 0.000000
189.12100220 234.49200439 130.00000000 0.708843 0.638119 0.300575 0.000000
244.37500000 168.90600586 108.75000000 0.668420 0.441724 -0.598411 0.000000
205.29299927 227.30499268 107.50000000 0.805227 0.537337 -0.250757 0.000000
259.64898682 181.48399353 136.25000000 -0.940919 -0.001250 -0.338631 0.000000
164.86300659 261.44500732 167.50000000 0.417311 0.224249 0.880661 0.000000
179.68800354 149.14100647 86.25000000 -0.266323 -0.901967 0.339893 0.000000
228.20300293 185.97700500 158.75000000 0.257231 0.138509 0.956372 0.000000
159.02400208 203.04699707 63.75000000 -0.243153 0.597685 -0.763970 0.000000
137.46099854 302.77398682 153.75000000 0.012295 0.558750 0.829245 0.000000
139.25799561 229.10200500 178.75000000 0.000978 0.000978 0.999999 0.000000
151.83599854 291.09399414 158.75000000 0.192181 0.619590 0.761035 0.000000
106.01599884 289.74600220 97.50000000 -0.815545 0.517288 -0.259421 0.000000
102.42199707 291.54299927 127.50000000 -0.815237 0.545010 -0.195839 0.000000
98.82820129 220.56700134 87.50000000 -0.981554 -0.190761 -0.012717 0.000000
234.04299927 164.41400146 90.00000000 0.484970 0.729937 -0.481659 0.000000
219.21899414 169.80499268 156.25000000 -0.130964 -0.311883 0.941051 0.000000
123.98400116 212.03100586 13.75000000 0.838994 -0.317162 -0.442151 0.000000
94.33599854 259.64898682 98.75000000 -0.992515 0.098910 -0.071625 0.000000
201.25000000 172.05099487 155.00000000 0.343365 -0.613500 0.711139 0.000000
154.53100586 216.52400208 51.25000000 0.930042 -0.037722 -0.365513 0.000000
206.64100647 155.42999268 126.25000000 -0.147198 -0.956127 0.253287 0.000000
101.97299957 251.56300354 157.50000000 -0.839008 0.066275 0.540067 0.000000
144.64900208 150.48800659 62.50000000 -0.000978 -0.000978 -0.999999 0.000000
186.42599487 194.06300354 80.00000000 0.683470 0.686627 -0.247817 0.000000
134.76600647 291.09399414 98.75000000 0.558523 0.206577 -0.803355 0.000000
152.73399353 213.82800293 48.75000000 0.795373 0.032150 -0.605267 0.000000
103.76999664 256.95300293 55.00000000 -0.727504 0.518699 -0.449097 0.000000
127.57800293 184.62899780 142.50000000 -0.634932 -0.743600 0.209574 0.000000
109.60900116 214.72700500 13.75000000 -0.819067 0.236002 -0.522907 0.000000
205.74200439 226.40600586 108.75000000 0.562344 -0.562344 -0.606250 0.000000
150.93800354 222.36300659 50.00000000 0.656956 0.456359 -0.600120 0.000000
178.33999634 202.14900208 97.50000000 0.868135 0.365934 0.335312 0.000000
117.24600220 300.97698975 150.00000000 -0.416310 0.605392 0.678370 0.000000
193.16400146 228.20300293 103.75000000 -0.130146 0.662696 -0.737493 0.000000
116.79699707 207.53900146 163.75000000 -0.220067 -0.869789 0.441631 0.000000
121.73799896 168.90600586 62.50000000 -0.685677 -0.685677 0.244322 0.000000
171.60200500 203.94500732 71.25000000 0.444455 0.574296 -0.687491 0.000000
230.89900208 216.07400513 155.00000000 -0.444029 0.476799 0.758618 0.000000
101.52300262 285.70300293 103.75000000 -0.685677 0.685677 -0.244322 0.000000
226.40600586 138.80900574 82.50000000 -0.091839 -0.969976 0.225195 0.000000
119.49199677 235.39100647 176.25000000 -0.149013 0.026163 0.988489 0.000000
215.62500000 185.97700500 161.25000000 0.000978 0.000978 0.999999 0.000000
118.59400177 176.99200439 86.25000000 -0.804481 -0.587834 0.085214 0.000000
