162.91799927 137.74600220 113.50000000 0.123402 -0.762715 0.634852 0.000000
100.68800354 202.07400513 83.50000000 -0.537257 -0.547362 0.641677 0.000000
134.60000610 208.36700439 113.00000000 -0.667759 -0.286640 0.686975 0.000000
169.56100464 178.30099487 162.00000000 0.497538 -0.842337 0.207182 0.000000
181.09800720 162.21899414 177.50000000 -0.779487 -0.094704 -0.619218 0.000000
63.62889862 192.28500366 49.50000000 -0.359681 0.212342 0.908593 0.000000
266.75201416 127.95700073 131.00000000 -0.811487 -0.209367 0.545576 0.000000
118.16799927 144.38900757 99.00000000 -0.597330 0.793994 0.113008 0.000000
55.93750000 152.08000183 104.00000000 0.811558 0.553680 -0.186582 0.000000
58.03519821 209.76600647 164.50000000 0.670988 -0.152979 -0.725515 0.000000
65.37699890 189.48800659 177.00000000 0.396555 -0.393395 -0.829448 0.000000
163.61700439 132.85200500 183.50000000 -0.553358 0.377067 -0.742708 0.000000
58.73440170 206.61900330 67.00000000 0.807049 -0.434812 0.399513 0.000000
120.96499634 174.10499573 192.50000000 0.312331 -0.430426 -0.846867 0.000000
90.19920349 237.03500366 83.50000000 -0.522327 -0.295091 0.800060 0.000000
218.15600586 159.42199707 155.50000000 0.122354 -0.972528 0.198037 0.000000
190.88699341 112.92400360 97.00000000 -0.223813 -0.715262 0.662048 0.000000
56.98630142 143.33999634 127.00000000 0.900215 0.236435 0.365666 0.000000
153.82800293 98.24019623 107.00000000 0.001360 0.819933 0.572458 0.000000
211.16400146 89.84960175 111.00000000 -0.105973 0.966528 -0.233652 0.000000
59.78319931 200.67599487 62.00000000 0.863827 -0.444728 0.236686 0.000000
64.32810211 192.98399353 49.50000000 -0.359681 0.212342 0.908593 0.000000
244.02699280 107.68000031 137.50000000 -0.613055 0.649805 -0.449351 0.000000
177.60200500 148.23399353 180.50000000 -0.476070 0.222166 -0.850881 0.000000
92.29689789 125.16000366 186.50000000 -0.015038 0.545455 -0.838005 0.000000
227.24600220 136.34800720 158.50000000 -0.322472 0.349723 -0.879606 0.000000
146.13699341 225.49800110 149.00000000 -0.844549 -0.473622 0.249839 0.000000
73.41799927 183.89500427 183.50000000 0.532374 0.195659 -0.823587 0.000000
93.69529724 260.10900879 125.50000000 0.194297 -0.971486 -0.135881 0.000000
151.72999573 218.50599670 149.00000000 -0.798115 -0.602377 0.012406 0.000000
177.60200500 103.83399963 163.00000000 0.079549 0.782470 -0.617587 0.000000
234.93800354 90.89839935 95.50000000 -0.538472 -0.149823 0.829217 0.000000
161.52000427 104.88300323 164.50000000 0.548052 0.043231 -0.835326 0.000000
95.79299927 179.00000000 71.50000000 -0.295648 -0.174639 0.939198 0.000000
122.36299896 225.14799500 170.50000000 -0.340565 -0.663205 -0.666464 0.000000
174.80499268 163.26800537 180.00000000 -0.047746 -0.462458 -0.885355 0.000000
208.01800537 132.15199280 170.00000000 -0.398000 0.810385 -0.429968 0.000000
159.42199707 182.49600220 143.50000000 -0.134938 0.281899 0.949908 0.000000
104.18399811 102.08599854 116.50000000 0.341409 0.938550 -0.050627 0.000000
61.18159866 221.65199280 158.00000000 0.871894 -0.485313 -0.065357 0.000000
88.10160065 220.60400391 179.00000000 0.251069 -0.652148 -0.715310 0.000000
116.06999969 258.71099854 125.50000000 -0.427529 -0.853514 0.297881 0.000000
151.03100586 107.68000031 167.50000000 -0.114354 0.705432 -0.699492 0.000000
119.91600037 174.10499573 83.00000000 -0.326447 0.435783 0.838765 0.000000
97.19139862 151.72999573 68.50000000 -0.733949 0.654272 0.182338 0.000000
112.92400360 135.64799500 122.00000000 0.406879 0.799284 -0.442260 0.000000
244.02699280 108.37899780 107.50000000 -0.409595 -0.645070 0.645070 0.000000
70.27149963 126.55899811 161.00000000 0.809329 0.513885 0.284444 0.000000
227.24600220 153.12899780 161.50000000 -0.000978 -0.000978 -0.999999 0.000000
63.62889862 228.64500427 92.50000000 0.772088 -0.630128 0.082569 0.000000
155.92599487 149.63299561 113.50000000 -0.458359 0.245169 0.854283 0.000000
65.02729797 194.38299561 49.50000000 0.000978 0.000978 0.999999 0.000000
174.10499573 167.81199646 173.50000000 -0.405024 -0.596790 -0.692674 0.000000
74.11720276 246.47500610 104.00000000 0.711598 -0.684287 0.159313 0.000000
119.21700287 95.79299927 108.00000000 0.377798 0.799003 -0.467827 0.000000
74.81639862 139.49400330 187.00000000 0.502755 0.502755 -0.703189 0.000000
146.83599854 177.60200500 183.50000000 -0.000978 -0.000978 -0.999999 0.000000
251.71899414 144.03900146 155.50000000 -0.517304 -0.071887 -0.852777 0.000000
264.30499268 143.33999634 140.50000000 -0.349555 -0.526749 0.774820 0.000000
183.19500732 103.13500214 163.00000000 0.012526 0.702864 -0.711214 0.000000
158.02299500 105.93199921 161.00000000 0.548052 0.043231 -0.835326 0.000000
200.67599487 106.98000336 95.50000000 -0.314662 -0.624484 0.714848 0.000000
119.56600189 247.17399597 112.00000000 -0.706424 -0.570764 0.418561 0.000000
198.57800293 157.67399597 151.00000000 -0.014987 -0.983370 0.180995 0.000000
140.54299927 211.86300659 170.50000000 -0.337855 -0.507583 -0.792599 0.000000
72.36910248 122.36299896 112.00000000 0.999999 -0.000978 -0.000978 0.000000
202.77299500 131.80299377 173.00000000 -0.260910 0.141713 -0.954905 0.000000
166.41400146 122.01399994 174.00000000 0.324503 -0.892758 -0.312540 0.000000
244.72700500 98.93949890 129.00000000 -0.525756 0.751782 -0.398002 0.000000
134.94900513 214.66000366 116.50000000 -0.890770 -0.434696 0.132547 0.000000
196.47999573 123.76200104 107.50000000 -0.647753 -0.556899 0.519885 0.000000
105.23200226 102.78500366 118.00000000 0.372858 0.927629 -0.021933 0.000000
223.05099487 149.98199463 138.00000000 -0.087788 -0.816001 0.571345 0.000000
133.55099487 146.13699341 137.50000000 -0.711819 0.052993 0.700361 0.000000
134.94900513 141.24200439 195.50000000 -0.312566 0.133957 -0.940403 0.000000
159.42199707 116.06999969 173.50000000 -0.585412 0.629275 -0.511181 0.000000
212.56199646 111.52500153 158.00000000 -0.368816 0.203934 -0.906855 0.000000
249.62100220 161.52000427 149.50000000 0.348730 0.254559 -0.901991 0.000000
149.63299561 132.85200500 189.50000000 -0.864871 0.494010 -0.089177 0.000000
102.78500366 135.99800110 100.00000000 -0.504035 0.850835 0.148419 0.000000
213.26199341 100.68800354 95.50000000 -0.067520 -0.622042 0.780067 0.000000
211.86300659 159.77099609 159.00000000 -0.130697 -0.874665 -0.466775 0.000000
256.61300659 120.96499634 140.50000000 -0.614252 0.754921 -0.229758 0.000000
166.41400146 118.51799774 98.00000000 -0.044321 -0.431127 0.901202 0.000000
185.29299927 119.91600037 99.00000000 -0.795373 -0.032150 0.605267 0.000000
230.74200439 149.63299561 137.50000000 0.029531 -0.670768 0.741079 0.000000
59.08399963 141.94099426 73.00000000 0.890013 0.444306 -0.102316 0.000000
51.39260101 200.67599487 141.00000000 0.886783 -0.229468 -0.401199 0.000000
102.78500366 220.25399780 180.50000000 0.067435 -0.455529 -0.887663 0.000000
72.71880341 125.85900116 83.50000000 0.844442 0.523987 0.111149 0.000000
111.17600250 211.86300659 183.50000000 0.182356 -0.129536 -0.974662 0.000000
127.95700073 176.90199280 189.50000000 -0.427496 -0.613798 -0.663701 0.000000
47.54690170 168.16200256 122.00000000 0.814716 0.052243 0.577502 0.000000
90.89839935 244.72700500 89.50000000 -0.310933 -0.620256 0.720141 0.000000
254.16600037 113.27300262 118.00000000 -0.627563 -0.610738 0.482870 0.000000
158.72300720 155.22700500 110.50000000 -0.494420 0.776482 0.390673 0.000000
176.20300293 169.21099854 125.50000000 -0.655679 -0.123404 0.744887 0.000000
112.57399750 136.34800720 198.50000000 0.081455 -0.356533 -0.930725 0.000000
62.92969894 216.05900574 68.50000000 0.725562 -0.557745 0.403090 0.000000
151.03100586 209.76600647 137.50000000 -0.799350 -0.591840 0.103755 0.000000
137.04699707 203.47300720 177.50000000 -0.592079 -0.625816 -0.507737 0.000000
65.72660065 145.08799744 161.00000000 0.772667 0.580681 -0.256507 0.000000
187.39100647 130.05499268 177.50000000 -0.671779 0.001379 -0.740750 0.000000
123.41200256 177.60200500 81.00000000 -0.526798 -0.500040 0.687346 0.000000
213.26199341 113.27300262 107.50000000 -0.018023 -0.969630 0.243910 0.000000
50.34379959 203.47300720 92.50000000 0.907926 -0.381758 0.173006 0.000000
170.25999451 122.36299896 177.00000000 0.227427 0.496066 -0.837971 0.000000
65.72660065 234.23800659 101.50000000 0.812111 -0.582083 -0.040676 0.000000
134.60000610 235.63699341 121.00000000 -0.755888 -0.267809 0.597421 0.000000
116.06999969 217.45700073 180.50000000 -0.169200 -0.644791 -0.745396 0.000000
99.98829651 208.36700439 86.50000000 -0.495574 -0.271867 0.824921 0.000000
217.45700073 87.75199890 101.00000000 0.139714 0.982860 -0.120276 0.000000
82.15820313 237.03500366 79.00000000 -0.570424 -0.231589 0.788025 0.000000
230.04299927 91.59770203 95.50000000 -0.334107 -0.352415 0.874172 0.000000
137.74600220 179.69900513 183.50000000 -0.000978 -0.000978 -0.999999 0.000000
139.84399414 215.35899353 167.50000000 -0.587563 -0.493283 -0.641437 0.000000
109.07800293 146.83599854 201.50000000 -0.032273 0.357581 -0.933324 0.000000
63.62889862 224.79899597 147.00000000 0.900123 -0.421364 0.110591 0.000000
97.19139862 110.82599640 162.00000000 0.493454 0.834722 -0.244421 0.000000
67.12500000 167.81199646 177.50000000 0.889022 -0.200652 -0.411557 0.000000
155.92599487 175.85400391 129.00000000 0.042639 -0.987619 0.150966 0.000000
83.90619659 123.41200256 180.00000000 0.678049 0.678049 -0.283723 0.000000
49.99409866 170.60899353 112.00000000 0.968545 0.236811 0.076431 0.000000
185.99200439 164.66600037 158.00000000 -0.973818 -0.060021 -0.219262 0.000000
107.33000183 237.73399353 98.00000000 -0.324944 -0.725870 0.606238 0.000000
94.74410248 109.77700043 150.00000000 0.535117 0.843678 -0.043087 0.000000
132.50199890 181.09800720 94.00000000 -0.793372 0.184257 0.580182 0.000000
134.94900513 134.25000000 125.50000000 -0.001172 0.974073 -0.226229 0.000000
74.11720276 154.52699280 59.50000000 -0.471878 -0.076558 0.878334 0.000000
194.73199463 110.47699738 162.00000000 -0.349381 0.295399 -0.889197 0.000000
109.07800293 219.55499268 92.50000000 -0.186550 -0.805349 0.562683 0.000000
162.21899414 109.77700043 167.50000000 0.136002 0.843795 -0.519146 0.000000
137.04699707 211.86300659 113.50000000 -0.489413 -0.324691 0.809352 0.000000
152.08000183 96.49220276 117.00000000 0.576853 0.780081 0.242310 0.000000
211.16400146 117.46900177 161.50000000 -0.621439 -0.510287 0.594493 0.000000
131.45300293 197.87899780 183.50000000 -0.035218 -0.239241 -0.970321 0.000000
52.09180069 158.02299500 121.00000000 0.981917 0.183591 0.046194 0.000000
156.97500610 155.22700500 109.00000000 -0.029243 0.594607 0.803485 0.000000
124.46099854 181.09800720 189.50000000 -0.518752 -0.224946 -0.824800 0.000000
246.47500610 98.58979797 103.00000000 -0.476152 -0.749651 0.459676 0.000000
97.89060211 239.13299561 89.50000000 -0.444366 -0.310277 0.840397 0.000000
139.84399414 232.83999634 137.50000000 -0.842472 0.092972 0.530657 0.000000
217.10699463 102.08599854 147.00000000 -0.694827 0.461552 -0.551530 0.000000
145.08799744 143.33999634 140.00000000 -0.379083 0.391667 0.838387 0.000000
96.49220276 101.73600006 102.00000000 0.858338 0.483092 0.172850 0.000000
105.58200073 193.68400574 80.50000000 -0.370947 -0.510255 0.775911 0.000000
182.49600220 138.44500732 177.50000000 -0.251851 -0.015665 -0.967639 0.000000
63.27930069 232.14100647 130.00000000 0.767288 -0.626693 -0.136108 0.000000
122.01399994 220.25399780 174.00000000 -0.031582 -0.525903 -0.849958 0.000000
117.81800079 223.75000000 102.00000000 -0.565893 -0.294902 0.769934 0.000000
109.07800293 262.55700684 131.00000000 -0.083733 -0.971054 -0.223705 0.000000
63.62889862 131.10400391 133.00000000 0.721974 0.670078 0.172480 0.000000
197.87899780 157.67399597 158.00000000 -0.109403 -0.950355 0.291302 0.000000
255.56399536 113.97299957 134.00000000 -0.562642 0.656696 -0.502179 0.000000
137.39599609 109.77700043 119.00000000 0.490055 0.621410 -0.611306 0.000000
146.13699341 157.32400513 113.50000000 0.330298 0.885319 0.327282 0.000000
218.15600586 130.75399780 161.50000000 -0.338777 0.360238 -0.869171 0.000000
180.39799500 139.49400330 119.00000000 -0.190403 -0.802739 0.565116 0.000000
81.80860138 245.42599487 89.50000000 -0.073535 -0.883813 0.462025 0.000000
241.92999268 109.77700043 143.50000000 -0.435907 0.538668 -0.720987 0.000000
222.35200500 132.15199280 161.50000000 -0.449683 0.030874 -0.892654 0.000000
76.91410065 216.05900574 177.50000000 0.548758 -0.439338 -0.711230 0.000000
107.68000031 141.94099426 198.50000000 -0.177620 0.447719 -0.876355 0.000000
129.35499573 185.99200439 92.50000000 -0.530485 -0.412234 0.740708 0.000000
143.68899536 173.40600586 110.00000000 -0.813176 -0.122050 0.569076 0.000000
130.75399780 103.48400116 107.50000000 0.762118 0.046834 -0.645742 0.000000
196.47999573 144.73800659 128.50000000 -0.304993 -0.647102 0.698741 0.000000
124.81099701 152.42999268 92.00000000 -0.682726 0.685894 0.251864 0.000000
63.62889862 207.66799927 59.50000000 0.843014 -0.474483 0.253365 0.000000
138.44500732 133.55099487 122.50000000 -0.003957 0.890428 -0.455107 0.000000
151.03100586 111.52500153 171.00000000 -0.379911 0.758191 -0.529919 0.000000
214.66000366 153.47900391 142.00000000 0.257631 -0.855212 0.449710 0.000000
203.47300720 112.92400360 161.00000000 -0.763446 -0.035279 -0.644907 0.000000
136.34800720 162.56799316 192.00000000 -0.113547 -0.023150 -0.993263 0.000000
213.26199341 132.85200500 167.50000000 -0.469290 0.094422 -0.877981 0.000000
66.42579651 176.20300293 177.50000000 0.784216 -0.392916 -0.480231 0.000000
118.86699677 212.56199646 98.50000000 -0.635092 -0.244266 0.732798 0.000000
125.85900116 103.13500214 149.00000000 0.275431 0.910816 -0.307492 0.000000
136.34800720 233.88900757 158.00000000 -0.554593 -0.490924 -0.671878 0.000000
109.77700043 155.22700500 74.50000000 -0.534534 0.365563 0.761995 0.000000
185.99200439 112.22499847 168.00000000 -0.151595 0.510712 -0.846281 0.000000
62.92969894 224.10000610 151.00000000 0.838145 -0.484433 -0.250675 0.000000
61.88090134 220.25399780 80.00000000 0.785548 -0.422738 0.451893 0.000000
77.61329651 113.62300110 114.00000000 0.672338 0.736232 0.076963 0.000000
147.18600464 110.47699738 120.00000000 0.281482 -0.239047 0.929314 0.000000
156.62500000 192.63499451 132.00000000 -0.863587 -0.128743 0.487486 0.000000
161.16999817 100.68800354 152.00000000 0.170600 0.920677 -0.351070 0.000000
153.47900391 145.43800354 143.00000000 0.015229 -0.207344 0.978150 0.000000
190.18800354 112.57399750 167.50000000 -0.358339 -0.255114 -0.898059 0.000000
86.35350037 116.76999664 99.00000000 -0.180243 -0.561934 0.807306 0.000000
62.92969894 209.06599426 59.50000000 0.967165 -0.251291 -0.038000 0.000000
104.18399811 221.65199280 180.50000000 0.045657 -0.518834 -0.853655 0.000000
95.44339752 106.28099823 130.00000000 0.016021 0.996484 -0.082239 0.000000
185.29299927 166.06399536 151.00000000 -0.984669 -0.135858 -0.109408 0.000000
99.98829651 140.19299316 83.00000000 -0.453990 0.790040 0.411984 0.000000
220.95300293 119.91600037 118.00000000 -0.156224 -0.729550 0.665847 0.000000
162.91799927 174.10499573 173.50000000 -0.770668 0.201512 -0.604536 0.000000
251.36900330 120.26599884 121.00000000 -0.668638 -0.391277 0.632317 0.000000
75.51560211 117.81800079 108.00000000 0.807502 0.449323 0.382164 0.000000
106.28099823 261.85699463 120.00000000 -0.319185 -0.845451 0.428175 0.000000
51.04299927 166.76400757 72.00000000 0.867811 0.398064 0.297404 0.000000
59.78319931 141.24200439 73.00000000 0.890013 0.444306 -0.102316 0.000000
67.12500000 138.44500732 62.50000000 -0.703651 0.265259 0.659176 0.000000
54.88869858 174.80499268 52.00000000 0.962182 -0.015853 0.271947 0.000000
185.64300537 158.02299500 150.00000000 -0.278944 -0.795858 0.537401 0.000000
94.74410248 232.14100647 82.00000000 -0.535132 -0.096123 0.839282 0.000000
54.88869858 161.52000427 152.00000000 0.981157 -0.043791 -0.188183 0.000000
141.94099426 219.90400696 163.00000000 -0.657280 -0.446549 -0.607106 0.000000
91.59770203 128.30700684 191.00000000 0.343511 0.818412 -0.460654 0.000000
162.56799316 95.79299927 144.00000000 0.000978 0.000978 -0.999999 0.000000
244.37699890 116.76999664 111.00000000 -0.176188 -0.669513 0.721603 0.000000
84.60549927 155.92599487 195.50000000 0.949552 0.016221 -0.313190 0.000000
108.02899933 135.64799500 112.00000000 -0.716165 0.686263 0.127086 0.000000
117.46900177 242.27900696 162.00000000 0.006932 -0.711237 -0.702918 0.000000
70.62110138 238.43400574 95.50000000 0.665939 -0.632890 0.394937 0.000000
206.96899414 130.40400696 168.00000000 -0.618388 0.674756 -0.402864 0.000000
62.92969894 231.44099426 128.50000000 0.761102 -0.476303 0.440294 0.000000
241.22999573 108.37899780 107.50000000 -0.401196 -0.698378 0.592714 0.000000
202.77299500 95.79299927 152.50000000 -0.321643 0.615810 -0.719253 0.000000
138.44500732 111.87500000 177.50000000 0.264734 0.493861 0.828262 0.000000
140.89300537 232.14100647 139.00000000 -0.846878 0.089972 0.524122 0.000000
178.30099487 108.02899933 92.00000000 -0.178970 -0.653163 0.735764 0.000000
98.58979797 133.20100403 101.00000000 -0.405434 0.849704 0.337085 0.000000
235.63699341 143.68899536 134.00000000 0.454420 -0.855648 0.247728 0.000000
151.38099670 195.08200073 122.00000000 -0.918731 -0.227891 0.322488 0.000000
121.66400146 234.23800659 107.50000000 -0.981822 -0.130503 0.137821 0.000000
241.92999268 137.04699707 128.50000000 -0.230479 -0.377281 0.896961 0.000000
155.92599487 149.98199463 111.00000000 -0.417303 0.282788 0.863649 0.000000
262.55700684 144.03900146 139.00000000 -0.363178 -0.505221 0.782850 0.000000
76.91410065 218.15600586 65.50000000 -0.498564 -0.508569 0.701991 0.000000
183.89500427 155.22700500 177.50000000 -0.428936 0.044373 -0.902244 0.000000
204.17199707 97.54100037 153.00000000 -0.371243 0.523632 -0.766804 0.000000
133.89999390 244.02699280 133.00000000 -0.857070 -0.423150 0.293897 0.000000
106.28099823 193.68400574 189.50000000 -0.000978 -0.000978 -0.999999 0.000000
147.18600464 187.39100647 179.00000000 -0.679193 -0.423458 -0.599483 0.000000
55.23830032 184.94299316 52.00000000 0.701920 -0.297152 0.647309 0.000000
67.47460175 133.55099487 110.00000000 0.874320 0.424413 0.235452 0.000000
121.31400299 258.71099854 131.00000000 -0.579734 -0.774549 -0.252946 0.000000
209.76600647 87.40229797 98.50000000 0.022482 0.996688 -0.078151 0.000000
56.63669968 185.64300537 52.00000000 0.579278 -0.363884 0.729401 0.000000
244.02699280 145.78700256 131.00000000 0.088339 -0.792156 0.603892 0.000000
255.91400146 121.66400146 125.50000000 -0.000978 -0.000978 0.999999 0.000000
227.24600220 144.03900146 161.50000000 -0.658195 -0.082819 -0.748279 0.000000
144.73800659 190.88699341 180.50000000 -0.761388 -0.323550 -0.561786 0.000000
188.08999634 99.63870239 159.00000000 0.162045 0.755704 -0.634549 0.000000
181.09800720 132.85200500 110.50000000 -0.223572 -0.730127 0.645701 0.000000
193.68400574 99.63870239 160.00000000 0.032445 0.706734 -0.706734 0.000000
91.59770203 136.69700623 198.00000000 -0.070475 0.121309 -0.990110 0.000000
157.32400513 108.37899780 95.50000000 0.312831 -0.938494 0.146170 0.000000
59.08399963 188.08999634 167.00000000 0.838605 0.046047 -0.542791 0.000000
98.58979797 225.84800720 89.50000000 -0.429239 -0.066770 0.900720 0.000000
71.32029724 153.82800293 59.50000000 -0.462450 -0.096988 0.881325 0.000000
65.02729797 233.18899536 100.00000000 0.812111 -0.582083 -0.040676 0.000000
160.47099304 104.88300323 163.00000000 0.548052 0.043231 -0.835326 0.000000
198.57800293 153.47900391 169.00000000 -0.382266 -0.443045 -0.810916 0.000000
162.91799927 177.95100403 168.00000000 -0.324944 -0.725870 -0.606238 0.000000
112.57399750 216.75799561 180.50000000 -0.196092 -0.643860 -0.739590 0.000000
57.68550110 165.01600647 169.00000000 0.969574 -0.139608 -0.201087 0.000000
77.96289825 120.96499634 97.00000000 0.683483 0.699052 0.210183 0.000000
89.50000000 178.64999390 61.00000000 -0.556416 -0.108959 0.823729 0.000000
137.04699707 183.54499817 98.00000000 -0.607400 -0.431004 0.667308 0.000000
134.60000610 111.87500000 112.00000000 0.925131 -0.217427 -0.311219 0.000000
246.82400513 140.54299927 131.50000000 -0.000978 -0.000978 0.999999 0.000000
57.33589935 150.33200073 149.50000000 0.904835 0.104244 -0.412805 0.000000
62.23049927 231.79100037 119.00000000 0.694928 -0.688710 -0.206768 0.000000
49.99409866 179.00000000 107.00000000 0.884595 0.357153 -0.299888 0.000000
182.49600220 136.69700623 111.00000000 -0.209768 -0.734966 0.644843 0.000000
155.92599487 176.90199280 177.50000000 -0.548325 -0.454993 -0.701656 0.000000
246.82400513 99.98829651 104.50000000 -0.463461 -0.395638 0.792890 0.000000
162.56799316 188.08999634 159.00000000 -0.914950 -0.100137 -0.390946 0.000000
227.24600220 90.19920349 113.50000000 -0.111503 0.953675 -0.279412 0.000000
168.51199341 161.52000427 116.50000000 -0.551067 0.147050 0.821402 0.000000
117.81800079 244.02699280 108.00000000 -0.715356 -0.326047 0.618029 0.000000
182.49600220 145.08799744 179.00000000 -0.329269 0.422899 -0.844238 0.000000
118.86699677 214.66000366 98.50000000 -0.602189 -0.278056 0.748367 0.000000
110.47699738 247.52299500 104.50000000 -0.712657 -0.463476 0.526602 0.000000
107.33000183 148.23399353 78.00000000 -0.595588 0.602337 0.531474 0.000000
230.39300537 137.04699707 151.00000000 -0.587815 0.249234 -0.769646 0.000000
87.75199890 224.44900513 80.00000000 -0.771720 -0.148928 0.618279 0.000000
84.25589752 197.87899780 67.00000000 -0.808734 -0.365286 0.460994 0.000000
90.54879761 112.57399750 153.00000000 0.506441 0.849940 -0.145327 0.000000
164.31599426 167.46299744 178.00000000 -0.057421 -0.847307 -0.527991 0.000000
79.01170349 119.21700287 153.00000000 0.560185 0.765640 -0.316208 0.000000
124.11100006 184.59399414 87.00000000 -0.432549 -0.323241 0.841675 0.000000
152.42999268 169.56100464 109.00000000 -0.115638 -0.982311 0.147286 0.000000
111.17600250 181.79699707 192.50000000 -0.082341 -0.611055 -0.787294 0.000000
165.71499634 133.89999390 182.00000000 -0.474890 0.422669 -0.771901 0.000000
53.14059830 176.20300293 149.50000000 0.831455 0.389695 -0.396006 0.000000
190.88699341 145.78700256 121.00000000 -0.530906 -0.541018 0.652256 0.000000
123.76200104 216.05900574 177.50000000 -0.331644 -0.530310 -0.780245 0.000000
261.85699463 116.76999664 127.00000000 -0.934336 0.275958 0.225529 0.000000
185.99200439 91.94730377 128.00000000 0.000978 0.999999 0.000978 0.000000
131.45300293 158.37300110 108.00000000 -0.406352 0.874639 -0.264356 0.000000
52.79100037 150.33200073 51.00000000 0.995212 0.016244 0.096381 0.000000
242.97900391 106.28099823 138.00000000 -0.669491 0.262389 -0.694934 0.000000
173.05700684 135.64799500 180.00000000 -0.268986 0.495991 -0.825615 0.000000
232.14100647 91.24800110 122.00000000 -0.536119 0.830168 -0.152965 0.000000
119.21700287 148.23399353 119.00000000 -0.990141 0.139535 0.012279 0.000000
86.70310211 106.63099670 114.00000000 -0.237435 0.728028 -0.643118 0.000000
156.62500000 204.87100220 137.50000000 -0.762028 -0.504211 0.406306 0.000000
72.71880341 149.63299561 186.50000000 0.733006 -0.009736 -0.680152 0.000000
153.47900391 148.93400574 112.00000000 -0.652446 -0.213330 0.727189 0.000000
64.32810211 216.75799561 167.50000000 0.663570 -0.290814 -0.689277 0.000000
201.37500000 102.78500366 92.50000000 -0.600593 -0.583674 0.546455 0.000000
80.75980377 111.87500000 122.00000000 0.571262 0.812102 0.118952 0.000000
101.03700256 162.21899414 70.00000000 -0.566934 -0.020691 0.823503 0.000000
249.62100220 121.31400299 120.00000000 -0.333612 -0.469587 0.817429 0.000000
84.60549927 143.68899536 68.00000000 -0.947624 0.265117 -0.178104 0.000000
74.46679688 248.22300720 109.00000000 0.810995 -0.567845 0.140849 0.000000
72.36910248 140.54299927 181.00000000 0.739147 0.240105 -0.629295 0.000000
105.58200073 213.96099854 183.50000000 -0.074531 -0.152612 -0.985472 0.000000
95.09380341 206.96899414 186.50000000 -0.000978 -0.000978 -0.999999 0.000000
219.20500183 133.55099487 161.00000000 -0.348227 0.329980 -0.877412 0.000000
54.88869858 150.33200073 128.00000000 0.948065 0.246906 -0.200526 0.000000
211.16400146 139.14500427 128.50000000 0.012526 -0.700058 0.713976 0.000000
135.64799500 155.92599487 195.50000000 -0.000978 -0.000978 -0.999999 0.000000
78.31250000 129.35499573 77.50000000 -0.449196 0.532073 0.717719 0.000000
126.55899811 133.55099487 125.50000000 -0.651845 -0.326735 -0.684356 0.000000
138.79499817 168.51199341 192.00000000 -0.348673 -0.224250 -0.910022 0.000000
86.00389862 251.36900330 149.00000000 0.352402 -0.852284 -0.386555 0.000000
120.26599884 119.21700287 110.00000000 0.054782 0.830152 -0.554839 0.000000
79.01170349 113.97299957 137.50000000 0.741563 0.661634 0.111012 0.000000
223.75000000 88.45120239 108.00000000 0.040092 0.937633 -0.345308 0.000000
64.67769623 227.24600220 84.00000000 0.839650 -0.480458 0.253276 0.000000
82.50779724 148.93400574 195.50000000 0.546420 -0.153355 -0.823352 0.000000
138.09599304 197.87899780 108.00000000 -0.395520 -0.321648 0.860294 0.000000
215.35899353 139.84399414 164.50000000 -0.581331 -0.049265 -0.812174 0.000000
104.53299713 148.23399353 71.00000000 -0.562600 0.589632 0.579495 0.000000
96.49220276 259.41000366 140.50000000 0.110905 -0.942026 -0.316681 0.000000
129.70500183 179.69900513 90.00000000 -0.545264 -0.318204 0.775522 0.000000
58.38479996 137.04699707 133.00000000 0.900696 0.379777 0.210987 0.000000
61.18159866 225.14799500 152.00000000 0.799704 -0.600124 -0.018018 0.000000
89.50000000 248.92199707 92.50000000 0.338284 -0.564885 0.752641 0.000000
50.34379959 166.41400146 77.50000000 0.946995 0.320695 -0.018864 0.000000
97.89060211 156.97500610 202.00000000 0.623130 -0.582602 -0.521808 0.000000
98.58979797 128.65600586 192.50000000 0.361982 0.808479 -0.464038 0.000000
142.99000549 188.78900146 109.00000000 -0.923704 0.125271 0.362048 0.000000
158.02299500 112.92400360 172.00000000 -0.591581 0.632031 -0.500569 0.000000
92.29689789 251.71899414 98.50000000 -0.063481 -0.908992 0.411950 0.000000
81.80860138 215.35899353 71.50000000 -0.797144 0.049556 0.601752 0.000000
187.39100647 95.79299927 152.50000000 -0.340378 0.769480 -0.540410 0.000000
255.21499634 149.63299561 140.50000000 -0.266424 -0.578566 0.770896 0.000000
72.01950073 147.88499451 181.00000000 0.790812 0.006877 -0.612020 0.000000
190.18800354 156.97500610 152.00000000 -0.181404 -0.945210 0.271424 0.000000
141.24200439 128.65600586 189.50000000 -0.693230 0.696305 -0.185989 0.000000
192.28500366 157.67399597 154.00000000 -0.124962 -0.956285 0.264392 0.000000
148.23399353 111.87500000 128.50000000 -0.246348 0.522133 -0.816511 0.000000
77.61329651 117.46900177 104.50000000 0.739085 0.579898 0.342741 0.000000
94.39450073 134.60000610 90.00000000 -0.621746 0.757511 0.199020 0.000000
67.47460175 239.13299561 137.00000000 0.764284 -0.583894 -0.273750 0.000000
176.90199280 178.64999390 133.00000000 -0.467190 -0.801126 0.374073 0.000000
204.87100220 119.21700287 110.00000000 -0.504050 -0.325963 0.799801 0.000000
62.23049927 205.22099304 51.00000000 0.946320 -0.319720 -0.047509 0.000000
79.71089935 133.89999390 188.00000000 0.765887 0.498072 -0.406622 0.000000
121.31400299 246.82400513 118.00000000 -0.690814 -0.543619 0.476712 0.000000
174.45500183 148.23399353 183.00000000 -0.439014 0.028022 -0.898043 0.000000
241.22999573 93.34570313 124.00000000 -0.697819 0.547929 -0.461327 0.000000
211.16400146 96.84179688 148.00000000 -0.426248 0.812586 -0.397513 0.000000
149.98199463 196.47999573 121.00000000 -0.876651 -0.456438 0.152146 0.000000
84.60549927 230.04299927 77.50000000 -0.842288 -0.226946 0.488923 0.000000
129.35499573 110.47699738 104.50000000 0.872338 -0.194017 -0.448758 0.000000
165.01600647 110.47699738 92.50000000 0.253528 -0.763732 0.593664 0.000000
127.25800323 235.63699341 116.50000000 -0.675481 -0.330416 0.659204 0.000000
77.61329651 204.17199707 183.50000000 0.068325 -0.044465 -0.996672 0.000000
132.50199890 233.53900146 123.00000000 -0.763282 -0.343719 0.547045 0.000000
192.98399353 158.02299500 155.50000000 -0.137663 -0.950274 0.279335 0.000000
71.66989899 220.95300293 172.00000000 0.615715 -0.205238 -0.760771 0.000000
52.09180069 158.02299500 72.00000000 0.962442 0.237688 -0.131183 0.000000
54.18949890 170.60899353 51.00000000 0.718585 0.311656 0.621697 0.000000
52.09180069 160.12100220 118.00000000 0.996360 0.082761 0.020422 0.000000
150.33200073 170.25999451 111.00000000 -0.182148 -0.963156 0.197873 0.000000
174.80499268 104.88300323 164.50000000 -0.018193 0.687126 -0.726310 0.000000
49.99409866 183.89500427 83.00000000 0.968805 0.068577 0.238149 0.000000
83.90619659 126.55899811 89.50000000 -0.723980 0.576229 0.379228 0.000000
52.09180069 163.61700439 81.00000000 0.911510 0.404965 -0.071783 0.000000
137.04699707 106.28099823 113.50000000 0.840234 -0.438044 -0.319569 0.000000
99.28910065 258.01199341 143.50000000 0.085186 -0.881186 -0.465032 0.000000
156.97500610 134.94900513 114.00000000 0.314063 -0.782766 0.537255 0.000000
157.32400513 209.06599426 146.50000000 -0.841033 -0.399373 0.364917 0.000000
105.58200073 135.64799500 195.50000000 -0.162119 0.522052 -0.837365 0.000000
247.52299500 129.35499573 125.50000000 0.049635 -0.611218 0.789904 0.000000
77.61329651 197.17999268 183.50000000 0.361841 0.016622 -0.932092 0.000000
233.53900146 138.44500732 155.50000000 -0.240467 -0.025376 -0.970326 0.000000
128.65600586 155.22700500 107.50000000 -0.638409 0.651675 -0.409577 0.000000
155.92599487 94.74410248 139.00000000 -0.310933 0.620256 -0.720141 0.000000
66.07620239 175.50399780 51.00000000 -0.484025 -0.031184 0.874498 0.000000
126.20899963 196.47999573 181.00000000 -0.427870 -0.132199 -0.894120 0.000000
120.96499634 123.06199646 195.50000000 0.634692 0.286171 -0.717825 0.000000
114.32199860 103.48400116 142.00000000 0.354487 0.882447 -0.309234 0.000000
155.22700500 169.91000366 113.50000000 0.013026 -0.974548 0.223803 0.000000
105.58200073 133.89999390 112.00000000 -0.571948 0.725996 0.381845 0.000000
79.71089935 133.55099487 186.50000000 0.979335 -0.196821 0.046521 0.000000
54.18949890 155.22700500 139.00000000 0.979572 0.193037 -0.056352 0.000000
60.13280106 144.38900757 102.00000000 0.704848 0.282898 0.650506 0.000000
58.38479996 213.26199341 157.00000000 0.880473 0.042186 -0.472216 0.000000
62.92969894 184.59399414 173.50000000 0.691826 0.691826 -0.206770 0.000000
117.46900177 230.74200439 170.50000000 -0.798915 -0.590757 0.112874 0.000000
54.88869858 171.30900574 157.00000000 0.999999 0.000978 0.000978 0.000000
130.75399780 111.17600250 177.50000000 -0.139377 0.883676 -0.446867 0.000000
149.28300476 179.00000000 132.00000000 -0.876414 -0.402758 0.263980 0.000000
217.45700073 127.25800323 122.50000000 -0.358515 -0.549940 0.754342 0.000000
164.31599426 178.30099487 137.50000000 0.345109 -0.855808 0.385346 0.000000
97.19139862 258.36099243 108.00000000 -0.203059 -0.921575 0.330858 0.000000
183.89500427 93.34570313 132.00000000 -0.099082 0.989656 -0.103745 0.000000
132.15199280 231.79100037 120.00000000 -0.733281 -0.370724 0.569967 0.000000
123.06199646 219.90400696 174.00000000 -0.139662 -0.677288 -0.722340 0.000000
95.79299927 110.12699890 159.00000000 0.511819 0.839023 -0.184615 0.000000
80.06050110 251.71899414 113.00000000 0.575088 -0.812655 -0.094158 0.000000
57.68550110 143.33999634 142.00000000 0.791345 0.611179 0.015245 0.000000
190.18800354 94.04489899 148.00000000 -0.083256 0.910357 -0.405362 0.000000
153.12899780 146.83599854 189.50000000 -0.188955 0.015070 -0.981870 0.000000
238.43400574 90.54879761 102.00000000 -0.418001 0.901708 -0.110442 0.000000
117.46900177 259.41000366 137.50000000 -0.285052 -0.879286 -0.381577 0.000000
141.94099426 233.53900146 149.50000000 -0.740196 -0.574262 -0.349763 0.000000
116.06999969 202.42399597 91.00000000 -0.478377 -0.341698 0.808949 0.000000
250.32000732 97.54100037 107.00000000 -0.648552 -0.457506 0.608332 0.000000
234.93800354 121.66400146 119.50000000 -0.004147 -0.673148 0.739496 0.000000
192.98399353 90.54879761 110.00000000 -0.987880 0.090664 0.125987 0.000000
191.23599243 144.73800659 171.00000000 -0.541904 -0.216455 -0.812088 0.000000
203.47300720 157.67399597 152.00000000 0.038097 -0.987046 0.155849 0.000000
67.47460175 133.55099487 94.00000000 0.892919 0.406402 0.193733 0.000000
173.40600586 137.74600220 113.50000000 -0.023882 -0.686964 0.726299 0.000000
98.58979797 123.06199646 110.50000000 -0.314469 -0.598298 0.736987 0.000000
97.89060211 195.78100586 77.50000000 -0.442073 -0.451860 0.774851 0.000000
209.76600647 95.44339752 149.00000000 -0.503590 0.775626 0.380527 0.000000
165.71499634 170.95899963 111.00000000 -0.556403 -0.690073 0.462834 0.000000
98.58979797 254.16600037 104.00000000 -0.346689 -0.839269 0.418850 0.000000
203.47300720 109.07800293 98.50000000 0.600218 -0.799835 0.001367 0.000000
207.31799316 145.43800354 131.00000000 -0.086019 -0.683779 0.724601 0.000000
251.02000427 124.11100006 123.00000000 -0.423871 -0.526128 0.737239 0.000000
207.66799927 157.32400513 152.50000000 0.012443 -0.987484 0.157228 0.000000
54.18949890 153.12899780 80.00000000 0.970140 0.234172 0.063189 0.000000
57.68550110 190.18800354 51.00000000 0.637974 -0.450433 0.624579 0.000000
134.25000000 104.88300323 110.50000000 0.698613 -0.325803 -0.637018 0.000000
60.13280106 227.59599304 130.00000000 0.876814 -0.467539 -0.112266 0.000000
54.18949890 158.02299500 87.00000000 0.873478 0.431513 -0.225462 0.000000
92.29689789 105.93199921 124.00000000 0.173793 0.980778 -0.088720 0.000000
67.12500000 147.88499451 58.00000000 -0.555559 0.112278 0.823861 0.000000
130.40400696 245.42599487 127.00000000 -0.678337 -0.500797 0.537645 0.000000
154.52699280 158.72300720 186.50000000 -0.398518 -0.456602 -0.795423 0.000000
52.09180069 207.66799927 94.00000000 0.884722 -0.410499 0.220810 0.000000
197.17999268 98.24019623 151.00000000 -0.325920 0.643732 -0.692377 0.000000
128.65600586 142.64100647 198.50000000 -0.000978 -0.000978 -0.999999 0.000000
197.17999268 146.83599854 173.50000000 -0.467878 -0.319795 -0.823906 0.000000
90.89839935 122.01399994 107.00000000 -0.580716 -0.580716 0.570558 0.000000
81.80860138 138.79499817 69.00000000 -0.509032 0.800814 0.315568 0.000000
80.41020203 113.62300110 100.00000000 0.733790 0.398906 0.549932 0.000000
102.08599854 188.78900146 77.50000000 -0.576046 -0.284056 0.766475 0.000000
236.33599854 143.33999634 131.50000000 0.190671 -0.447855 0.873539 0.000000
210.46499634 92.64649963 133.00000000 -0.057677 0.985225 -0.161261 0.000000
226.54699707 149.63299561 161.50000000 -0.000978 -0.000978 -0.999999 0.000000
118.16799927 141.94099426 198.50000000 0.000978 0.000978 -0.999999 0.000000
122.36299896 177.60200500 192.50000000 0.837733 -0.514029 -0.184331 0.000000
232.14100647 91.24800110 124.00000000 -0.536119 0.830168 -0.152965 0.000000
141.24200439 172.70700073 104.50000000 -0.855706 -0.068850 0.512862 0.000000
134.25000000 244.72700500 149.50000000 -0.565841 -0.452339 -0.689358 0.000000
68.87300110 124.46099854 122.00000000 0.439996 0.897377 -0.033434 0.000000
124.46099854 211.16400146 180.50000000 -0.264134 -0.536082 -0.801779 0.000000
125.16000366 152.42999268 107.50000000 -0.602942 0.606319 -0.518496 0.000000
182.84599304 170.60899353 161.00000000 -0.801335 -0.534746 -0.268157 0.000000
149.63299561 111.52500153 121.00000000 0.930480 -0.364101 0.040456 0.000000
179.69900513 121.66400146 177.50000000 -0.085982 0.733031 -0.674739 0.000000
242.62899780 96.49220276 125.50000000 -0.572097 0.682179 -0.455342 0.000000
94.39450073 177.25199890 70.00000000 -0.368427 -0.266998 0.890490 0.000000
131.10400391 132.85200500 197.00000000 -0.684712 0.304496 -0.662157 0.000000
58.38479996 212.56199646 147.00000000 0.346928 -0.927444 -0.139600 0.000000
101.38700104 142.64100647 80.50000000 -0.455419 0.768825 0.448889 0.000000
225.84800720 140.54299927 131.50000000 -0.217153 -0.412147 0.884861 0.000000
96.49220276 123.41200256 182.00000000 0.084469 0.441734 -0.893161 0.000000
106.98000336 165.01600647 74.50000000 -0.562648 -0.301248 0.769855 0.000000
116.06999969 165.71499634 80.50000000 -0.574202 -0.374622 0.727977 0.000000
65.72660065 158.02299500 173.50000000 0.521346 0.521346 -0.675571 0.000000
96.49220276 184.59399414 71.50000000 -0.000978 -0.000978 0.999999 0.000000
263.60501099 140.54299927 149.50000000 -0.414783 0.125138 -0.901274 0.000000
198.57800293 147.53500366 131.50000000 -0.322477 -0.659538 0.678984 0.000000
83.20700073 155.22700500 62.50000000 -0.557471 -0.279525 0.781723 0.000000
76.21479797 153.82800293 62.50000000 -0.844691 0.078081 0.529529 0.000000
133.55099487 242.27900696 129.00000000 -0.827288 -0.409690 0.384381 0.000000
190.18800354 113.97299957 98.50000000 -0.327227 -0.562573 0.759232 0.000000
125.51000214 151.72999573 132.00000000 -0.001203 0.963362 -0.268202 0.000000
132.15199280 142.64100647 134.50000000 -0.232901 -0.211109 0.949310 0.000000
137.39599609 117.46900177 119.00000000 0.884179 -0.176253 -0.432622 0.000000
141.24200439 183.54499817 101.00000000 -0.841462 -0.349434 0.412113 0.000000
99.63870239 137.74600220 88.00000000 -0.396634 0.881576 0.255941 0.000000
118.51799774 107.68000031 177.00000000 0.137312 0.961183 -0.239315 0.000000
104.53299713 220.25399780 91.00000000 -0.120869 -0.960454 -0.250836 0.000000
225.84800720 157.67399597 147.00000000 -0.112396 -0.874983 0.470926 0.000000
115.37100220 162.91799927 77.50000000 -0.580151 0.031999 0.813880 0.000000
181.09800720 151.03100586 180.50000000 0.159458 -0.258617 -0.952728 0.000000
118.86699677 106.63099670 173.00000000 0.101478 0.962116 -0.253053 0.000000
160.12100220 130.05499268 183.50000000 -0.586978 0.733316 -0.343081 0.000000
58.73440170 145.43800354 52.50000000 0.029550 0.682471 0.730315 0.000000
145.43800354 147.18600464 131.00000000 0.127023 0.986508 0.103281 0.000000
240.53100586 141.94099426 131.50000000 0.000978 0.000978 0.999999 0.000000
213.26199341 95.79299927 143.50000000 -0.438629 0.869773 -0.226051 0.000000
253.81599426 110.12699890 129.00000000 -0.885265 0.392622 -0.249307 0.000000
208.36700439 141.24200439 167.50000000 -0.485314 -0.048119 -0.873015 0.000000
261.50799561 152.42999268 152.50000000 -0.619647 0.236878 -0.748282 0.000000
76.91410065 160.12100220 62.50000000 -0.940034 0.154171 0.304249 0.000000
49.99409866 194.38299561 137.00000000 0.962720 -0.269266 -0.025820 0.000000
126.90799713 247.52299500 152.00000000 -0.848800 0.028796 -0.527929 0.000000
87.40229797 196.47999573 71.50000000 -0.701001 -0.322169 0.636243 0.000000
88.80079651 112.92400360 152.00000000 0.559495 0.809835 -0.176445 0.000000
53.14059830 206.61900330 82.00000000 0.989041 0.135342 -0.058995 0.000000
142.64100647 207.31799316 171.00000000 -0.598857 -0.445389 -0.665582 0.000000
221.65199280 99.63870239 98.00000000 -0.302981 -0.449033 0.840578 0.000000
184.59399414 109.77700043 167.50000000 0.062426 0.024335 -0.997753 0.000000
152.77900696 99.28910065 148.00000000 0.257902 0.829301 -0.495728 0.000000
106.98000336 121.66400146 189.50000000 0.413791 0.723722 -0.552271 0.000000
110.82599640 104.88300323 142.00000000 0.354487 0.882447 -0.309234 0.000000
223.75000000 134.25000000 158.50000000 -0.325463 -0.301684 -0.896137 0.000000
193.68400574 91.24800110 121.00000000 0.068429 0.989315 -0.128739 0.000000
181.79699707 163.26800537 131.00000000 0.023488 -0.285567 0.958071 0.000000
152.08000183 123.76200104 102.00000000 0.570924 -0.221252 0.790629 0.000000
77.61329651 230.39300537 161.00000000 0.326485 -0.801082 -0.501672 0.000000
110.47699738 226.19700623 177.00000000 -0.194226 -0.976076 -0.097731 0.000000
65.02729797 233.18899536 102.00000000 0.748879 -0.660102 0.058708 0.000000
53.49020004 179.00000000 150.00000000 0.896843 0.242987 -0.369635 0.000000
113.27300262 124.81099701 111.00000000 -0.593201 0.278312 -0.755417 0.000000
132.15199280 98.93949890 133.00000000 0.287044 0.923966 -0.252770 0.000000
169.91000366 141.24200439 119.50000000 -0.606223 -0.555563 0.569072 0.000000
82.15820313 118.16799927 151.00000000 0.513298 0.830111 -0.217809 0.000000
79.71089935 216.75799561 68.50000000 -0.725302 0.070938 0.684766 0.000000
170.60899353 130.05499268 107.50000000 -0.077042 -0.705005 0.705005 0.000000
105.93199921 181.79699707 72.00000000 -0.647562 -0.563463 0.513004 0.000000
90.89839935 258.71099854 110.50000000 0.256407 -0.944730 0.204303 0.000000
237.03500366 106.98000336 143.50000000 -0.473998 0.520567 -0.710166 0.000000
146.13699341 94.74410248 133.00000000 0.117084 0.987528 -0.105258 0.000000
204.17199707 125.16000366 113.50000000 -0.792890 -0.395638 0.463461 0.000000
130.75399780 212.21299744 109.00000000 -0.660895 -0.169421 0.731105 0.000000
74.11720276 134.60000610 182.00000000 0.289321 0.730495 -0.618603 0.000000
122.01399994 149.63299561 99.00000000 -0.639902 0.736432 0.219528 0.000000
123.06199646 256.26400757 133.00000000 -0.777011 -0.583926 0.235127 0.000000
100.33799744 187.39100647 190.00000000 0.364455 -0.480053 -0.797948 0.000000
133.89999390 160.12100220 118.00000000 -0.856168 -0.221970 0.466589 0.000000
87.40229797 139.14500427 71.50000000 -0.158888 0.900364 0.405092 0.000000
262.55700684 148.93400574 147.00000000 -0.956675 -0.230829 0.177458 0.000000
172.70700073 91.94730377 118.00000000 0.000978 0.999999 0.000978 0.000000
68.52339935 241.22999573 104.50000000 0.875510 -0.420544 0.237959 0.000000
229.69299316 127.25800323 153.00000000 0.406808 0.558331 -0.723031 0.000000
59.78319931 220.95300293 88.00000000 0.822366 -0.556521 0.118316 0.000000
69.22270203 230.39300537 78.00000000 0.578200 -0.748922 0.323728 0.000000
64.67769623 229.34399414 88.00000000 0.809792 -0.563399 0.163761 0.000000
125.16000366 223.05099487 173.50000000 -0.206520 -0.486904 -0.848690 0.000000
59.43360138 148.23399353 52.50000000 -0.454609 0.234101 0.859376 0.000000
224.44900513 88.45120239 110.00000000 0.001251 0.941713 -0.336415 0.000000
124.46099854 159.42199707 195.50000000 -0.325463 -0.301684 -0.896137 0.000000
174.80499268 179.69900513 131.50000000 -0.373799 -0.680084 0.630683 0.000000
137.39599609 112.57399750 178.00000000 0.264734 0.493861 0.828262 0.000000
111.87500000 169.21099854 198.50000000 -0.151973 -0.511987 -0.845443 0.000000
174.80499268 182.84599304 138.00000000 -0.114462 -0.953852 0.277604 0.000000
162.91799927 98.58979797 149.50000000 -0.285984 0.861010 -0.420565 0.000000
246.12500000 158.37300110 147.00000000 0.079799 -0.744305 0.663055 0.000000
221.30299377 111.17600250 109.00000000 -0.182613 -0.685948 0.704363 0.000000
156.27499390 159.42199707 182.00000000 -0.192875 -0.488915 -0.850742 0.000000
185.99200439 102.78500366 161.50000000 -0.032390 0.643581 -0.764692 0.000000
113.27300262 248.22300720 155.50000000 -0.265013 -0.798175 -0.541003 0.000000
120.96499634 122.01399994 193.00000000 0.075339 0.837260 -0.541589 0.000000
66.77539825 150.33200073 170.00000000 0.867021 0.278848 -0.412939 0.000000
123.76200104 253.46699524 144.00000000 -0.195586 -0.883813 -0.424995 0.000000
126.55899811 226.19700623 170.00000000 -0.318509 -0.492818 -0.809742 0.000000
118.16799927 258.01199341 140.50000000 -0.289550 -0.859456 -0.421302 0.000000
104.53299713 237.03500366 94.00000000 -0.152930 -0.932734 0.326526 0.000000
72.36910248 125.85900116 88.00000000 0.849958 0.525903 0.031582 0.000000
171.30900574 94.04489899 142.00000000 0.079424 0.991076 -0.107050 0.000000
96.49220276 199.62699890 187.00000000 0.041534 -0.424720 -0.904372 0.000000
117.46900177 205.22099304 94.00000000 -0.423247 -0.372521 0.825887 0.000000
249.27099609 101.38700104 127.00000000 -0.534897 0.585518 -0.609142 0.000000
206.96899414 159.07200623 162.00000000 0.107558 -0.859028 -0.500502 0.000000
138.44500732 123.41200256 111.00000000 0.020933 0.632187 -0.774533 0.000000
129.35499573 213.96099854 177.50000000 -0.385998 -0.395451 -0.833441 0.000000
108.02899933 141.94099426 91.00000000 -0.582974 0.689271 0.430171 0.000000
151.72999573 216.05900574 158.50000000 -0.859588 -0.472252 -0.195158 0.000000
52.09180069 218.15600586 112.00000000 0.983099 0.146316 -0.110039 0.000000
217.45700073 95.44339752 139.00000000 -0.290459 0.782493 -0.550761 0.000000
222.35200500 113.27300262 110.50000000 -0.120688 -0.686880 0.716680 0.000000
197.52900696 128.65600586 112.00000000 -0.982483 -0.108085 0.151805 0.000000
154.87699890 125.85900116 103.00000000 0.630745 0.058641 0.773771 0.000000
134.94900513 120.96499634 189.50000000 -0.001313 0.447738 -0.894164 0.000000
167.11300659 91.94730377 122.00000000 0.000978 0.999999 0.000978 0.000000
130.75399780 132.85200500 198.50000000 -0.900798 0.251283 -0.354147 0.000000
95.09380341 123.41200256 182.00000000 0.132872 0.512508 -0.848340 0.000000
144.38900757 187.39100647 111.00000000 -0.825017 0.356293 0.438637 0.000000
216.75799561 107.33000183 101.00000000 -0.376074 -0.538877 0.753777 0.000000
49.99409866 195.78100586 99.00000000 0.985490 -0.148596 -0.082025 0.000000
64.67769623 135.64799500 117.00000000 0.993074 0.112319 0.034474 0.000000
193.68400574 120.26599884 167.50000000 -0.185796 0.661801 -0.726292 0.000000
164.66600037 193.68400574 153.00000000 -0.980762 -0.026950 -0.193340 0.000000
168.51199341 156.62500000 183.50000000 -0.000978 -0.000978 -0.999999 0.000000
240.53100586 160.82000732 155.50000000 -0.135245 -0.859459 -0.492989 0.000000
131.45300293 215.35899353 110.50000000 -0.629338 -0.354718 0.691454 0.000000
139.84399414 185.29299927 183.50000000 -0.000978 -0.000978 -0.999999 0.000000
50.69340134 182.49600220 147.00000000 0.835916 0.257087 -0.484924 0.000000
82.50779724 210.11500549 69.00000000 0.000978 0.000978 0.999999 0.000000
153.12899780 108.37899780 167.50000000 -0.122858 0.777115 -0.617251 0.000000
133.55099487 101.38700104 146.50000000 0.100010 0.957241 -0.271456 0.000000
237.73399353 89.84960175 100.00000000 -0.392856 0.904283 0.167142 0.000000
149.28300476 223.05099487 153.00000000 -0.919771 -0.321848 0.224579 0.000000
93.69529724 258.36099243 142.00000000 0.353028 -0.892252 -0.281528 0.000000
110.47699738 199.27699280 189.50000000 -0.277533 -0.433933 -0.857133 0.000000
164.31599426 183.19500732 140.50000000 -0.254208 -0.836574 0.485306 0.000000
50.69340134 197.87899780 128.00000000 0.952479 -0.294167 -0.079049 0.000000
137.04699707 170.25999451 102.00000000 -0.711708 -0.055848 0.700252 0.000000
190.88699341 141.94099426 177.50000000 -0.422490 -0.231399 -0.876331 0.000000
70.62110138 129.35499573 101.50000000 0.870269 0.426839 0.245847 0.000000
49.99409866 167.81199646 92.00000000 0.925561 0.378228 0.016781 0.000000
147.18600464 113.27300262 110.00000000 0.997999 0.001036 0.063217 0.000000
253.81599426 137.39599609 150.00000000 -0.406108 0.731652 -0.547506 0.000000
48.94530106 180.39799500 104.50000000 0.882809 0.297288 -0.363687 0.000000
220.60400391 109.07800293 150.00000000 -0.526253 0.408215 -0.745935 0.000000
66.07620239 190.18800354 177.00000000 0.359104 -0.431874 -0.827363 0.000000
133.55099487 95.79299927 125.50000000 0.128306 0.922975 -0.362844 0.000000
209.76600647 154.87699890 141.00000000 0.682177 -0.487748 0.544736 0.000000
111.17600250 163.26800537 72.00000000 -0.514884 -0.057209 0.855349 0.000000
188.08999634 91.24800110 103.00000000 0.136511 0.988244 -0.068839 0.000000
165.71499634 157.67399597 111.00000000 -0.761066 0.298363 0.575985 0.000000
189.13900757 152.42999268 132.00000000 -0.092065 -0.908280 0.408108 0.000000
99.98829651 168.16200256 198.00000000 0.260174 -0.373164 -0.890538 0.000000
48.94530106 192.63499451 91.00000000 0.727252 -0.673271 0.133455 0.000000
84.60549927 243.67799377 84.00000000 0.080643 -0.510738 0.855946 0.000000
53.14059830 178.30099487 149.50000000 0.887024 0.236243 -0.396709 0.000000
225.14799500 152.77900696 143.00000000 -0.499333 -0.583396 0.640559 0.000000
156.97500610 143.33999634 141.00000000 0.502657 -0.113782 0.856965 0.000000
59.78319931 223.75000000 124.00000000 0.976067 -0.180753 0.120918 0.000000
146.83599854 171.65800476 114.00000000 -0.406808 -0.910216 -0.077552 0.000000
190.18800354 91.24800110 120.00000000 0.070899 0.993712 -0.086654 0.000000
169.21099854 182.49600220 137.50000000 0.032390 -0.643581 0.764692 0.000000
55.23830032 217.80700684 99.00000000 0.678049 -0.678049 0.283723 0.000000
51.04299927 183.89500427 68.50000000 0.836065 -0.445380 0.320361 0.000000
147.18600464 192.28500366 174.00000000 -0.607356 -0.365068 -0.705581 0.000000
102.08599854 103.13500214 113.00000000 0.201836 0.964907 0.167980 0.000000
