76.50000000 248.62500000 382.50000000 0.395867 -0.641007 -0.657570 0.000000
84.86720276 145.82800293 396.00000000 0.296084 0.536751 -0.790084 0.000000
149.81199646 137.06199646 400.50000000 -0.000978 -0.000978 -0.999999 0.000000
63.35160065 160.96899414 264.00000000 0.919957 0.305695 0.245417 0.000000
76.50000000 220.73399353 250.50000000 0.307170 -0.741389 0.596649 0.000000
172.12500000 156.18800354 400.50000000 -0.000978 -0.000978 -0.999999 0.000000
71.71880341 139.85200500 336.00000000 0.693230 0.696305 0.185989 0.000000
184.07800293 131.48399353 370.50000000 -0.040566 0.569323 0.821112 0.000000
104.39099884 145.03100586 397.50000000 0.196755 0.326981 -0.924322 0.000000
152.20300293 155.39100647 400.50000000 -0.000978 -0.000978 -0.999999 0.000000
133.87500000 200.01600647 394.50000000 -0.421496 0.041481 -0.905881 0.000000
79.68750000 166.54699707 400.50000000 0.115645 -0.120414 -0.985965 0.000000
105.98400116 272.13299561 360.00000000 -0.425603 -0.882132 -0.201756 0.000000
105.98400116 149.81199646 397.50000000 0.053511 0.348474 -0.935790 0.000000
68.92970276 160.17199707 393.00000000 0.918326 0.367610 0.146764 0.000000
127.50000000 117.14099884 397.50000000 -0.000978 -0.000978 -0.999999 0.000000
109.96900177 254.20300293 346.50000000 -0.677098 0.015357 0.735733 0.000000
151.40600586 96.42189789 397.50000000 0.117210 0.235708 -0.964730 0.000000
172.92199707 145.82800293 364.50000000 -0.179763 -0.431138 0.884198 0.000000
92.43750000 270.53900146 339.00000000 -0.674836 -0.681248 0.283720 0.000000
144.23399353 160.17199707 358.50000000 -0.554988 0.347879 0.755625 0.000000
183.28100586 133.07800293 370.50000000 -0.076462 0.613142 0.786264 0.000000
69.72660065 148.21899414 387.00000000 0.738037 0.568598 -0.363316 0.000000
44.62500000 206.39100647 340.50000000 0.966452 -0.001195 -0.256844 0.000000
143.43800354 97.21880341 397.50000000 -0.000978 -0.000978 -0.999999 0.000000
92.03910065 162.56199646 276.00000000 -0.662002 0.662002 0.351433 0.000000
90.44529724 255.79699707 327.00000000 -0.600218 -0.001367 0.799835 0.000000
96.42189789 241.45300293 388.50000000 -0.284388 -0.583075 -0.761017 0.000000
70.12500000 206.39100647 244.50000000 0.817446 -0.239516 0.523845 0.000000
94.82810211 206.39100647 244.50000000 -0.905594 -0.398235 0.145972 0.000000
169.73399353 156.18800354 376.50000000 0.306884 -0.309849 0.899897 0.000000
107.57800293 115.54699707 385.50000000 0.554144 0.305019 -0.774524 0.000000
75.70310211 126.30500031 312.00000000 0.613672 0.617035 0.492619 0.000000
87.65619659 255.00000000 379.50000000 0.018198 -0.715339 -0.698541 0.000000
155.39100647 132.28100586 367.50000000 0.160138 0.017036 0.986948 0.000000
153.79699707 182.48399353 367.50000000 -0.832502 -0.124363 0.539883 0.000000
42.23440170 218.34399414 367.50000000 0.959437 0.018427 -0.281320 0.000000
45.02339935 230.29699707 372.00000000 0.801869 -0.058189 -0.594660 0.000000
166.54699707 155.39100647 400.50000000 -0.000978 -0.000978 -0.999999 0.000000
68.53119659 239.06199646 385.50000000 0.416700 -0.622560 -0.662404 0.000000
157.78100586 129.89100647 367.50000000 0.727822 -0.172419 0.663737 0.000000
68.13279724 214.35899353 252.00000000 0.782227 -0.383825 0.490714 0.000000
123.51599884 122.71900177 397.50000000 0.695622 0.305041 -0.650431 0.000000
87.65619659 127.10199738 333.00000000 -0.653536 0.566174 0.502332 0.000000
215.55499268 137.06199646 381.00000000 -0.221043 0.196929 0.955175 0.000000
91.64060211 223.12500000 397.50000000 -0.000978 -0.000978 -0.999999 0.000000
96.42189789 96.82029724 360.00000000 0.861004 0.497119 -0.107446 0.000000
109.96900177 148.21899414 397.50000000 -0.000978 -0.000978 -0.999999 0.000000
189.65600586 151.40600586 370.50000000 0.001338 -0.860313 0.509765 0.000000
141.84399414 223.12500000 376.50000000 -0.750768 -0.654553 -0.088926 0.000000
122.31999969 164.15600586 348.00000000 -0.530007 -0.057336 0.846053 0.000000
94.82810211 260.57800293 376.50000000 0.166280 -0.709360 -0.684952 0.000000
71.71880341 132.28100586 319.50000000 0.968233 0.137220 0.209036 0.000000
140.25000000 196.82800293 358.50000000 -0.833205 -0.476339 0.280838 0.000000
42.23440170 208.78100586 352.50000000 0.971021 0.175270 0.162477 0.000000
114.75000000 197.22700500 303.00000000 -0.694716 -0.694716 0.186387 0.000000
84.86720276 249.42199707 315.00000000 -0.818289 -0.470081 0.330798 0.000000
68.92970276 265.35900879 327.00000000 0.515521 -0.797867 0.312485 0.000000
70.12500000 210.37500000 244.50000000 0.896137 -0.196713 0.397797 0.000000
67.73439789 166.54699707 394.50000000 0.781002 -0.001373 -0.624527 0.000000
116.34400177 222.32800293 394.50000000 -0.000978 -0.000978 -0.999999 0.000000
58.17190170 223.92199707 388.50000000 0.780859 -0.520036 -0.346154 0.000000
93.23439789 210.37500000 244.50000000 -0.924622 -0.359652 0.125396 0.000000
91.64060211 219.14100647 259.50000000 -0.902362 -0.430881 0.009168 0.000000
52.99219894 176.10899353 375.00000000 0.738170 0.589567 -0.327896 0.000000
155.39100647 105.98400116 397.50000000 0.000978 0.000978 -0.999999 0.000000
153.79699707 88.85160065 381.00000000 -0.214999 0.137754 0.966850 0.000000
140.64799500 223.12500000 369.00000000 -0.910810 -0.388743 0.138937 0.000000
54.18750000 178.89799500 327.00000000 0.846348 0.477310 0.236368 0.000000
152.20300293 170.53100586 397.50000000 -0.557639 -0.150191 -0.816383 0.000000
58.17190170 223.92199707 286.50000000 0.843541 -0.292531 0.450404 0.000000
47.01559830 192.04699707 343.50000000 0.919957 0.305695 0.245417 0.000000
145.82800293 212.36700439 384.00000000 -0.848149 -0.469156 -0.246040 0.000000
45.42190170 215.95300293 376.50000000 0.642083 -0.088814 -0.761473 0.000000
160.57000732 168.93800354 375.00000000 -0.933663 -0.302847 0.191199 0.000000
66.93750000 217.54699707 256.50000000 0.669637 -0.640022 0.376774 0.000000
72.51560211 264.56201172 370.50000000 0.242364 -0.514058 -0.822802 0.000000
134.27299500 132.28100586 342.00000000 -0.731741 -0.189482 0.654715 0.000000
113.15599823 255.79699707 349.50000000 -0.726670 0.070789 0.683330 0.000000
131.48399353 125.90599823 397.50000000 -0.000978 -0.000978 -0.999999 0.000000
90.44529724 220.73399353 270.00000000 -0.888502 -0.443543 0.117617 0.000000
88.45310211 264.56201172 373.50000000 0.386821 -0.600808 -0.699571 0.000000
121.12500000 184.87500000 403.50000000 -0.000978 -0.000978 -0.999999 0.000000
54.98440170 240.65600586 313.50000000 0.760402 -0.508570 0.403912 0.000000
103.99199677 219.93800354 318.00000000 0.001360 -0.564391 0.825507 0.000000
94.03119659 243.84399414 328.50000000 -0.800161 -0.223552 0.556567 0.000000
100.40599823 246.63299561 387.00000000 -0.152412 -0.839004 -0.522343 0.000000
121.92199707 108.37500000 391.50000000 0.494627 0.213279 -0.842530 0.000000
103.59400177 145.82800293 334.50000000 -0.346154 0.780859 0.520036 0.000000
112.35900116 219.14100647 397.50000000 -0.188254 -0.196153 -0.962333 0.000000
172.92199707 113.15599823 397.50000000 0.000978 0.000978 -0.999999 0.000000
102.79699707 141.84399414 394.50000000 0.151937 0.621287 -0.768711 0.000000
105.98400116 261.77301025 375.00000000 -0.178769 -0.621871 -0.762442 0.000000
111.56199646 268.14801025 354.00000000 -0.360030 -0.360030 0.860672 0.000000
92.03910065 259.78100586 330.00000000 -0.840318 -0.203668 0.502380 0.000000
73.31250000 214.35899353 244.50000000 0.439338 -0.711230 0.548758 0.000000
115.54699707 190.05499268 405.00000000 -0.494554 0.176732 -0.850989 0.000000
99.21089935 269.34399414 369.00000000 -0.130293 -0.684412 -0.717359 0.000000
111.96099854 102.79699707 381.00000000 0.419613 0.448776 -0.789003 0.000000
77.29689789 204.79699707 397.50000000 0.171978 0.060489 -0.983242 0.000000
94.82810211 100.40599823 352.50000000 0.068143 0.874736 0.479784 0.000000
41.83589935 231.09399414 351.00000000 0.929158 -0.295577 0.222036 0.000000
136.66400146 219.93800354 357.00000000 -0.949333 -0.188780 0.251254 0.000000
112.35900116 248.22700500 384.00000000 -0.303207 -0.336067 -0.891698 0.000000
105.18800354 169.33599854 285.00000000 -0.737925 0.534133 0.412515 0.000000
180.09399414 117.14099884 397.50000000 -0.307946 0.016208 -0.951266 0.000000
167.34399414 104.39099884 397.50000000 -0.288696 0.223915 -0.930869 0.000000
117.14099884 170.53100586 403.50000000 -0.624186 0.046708 -0.779878 0.000000
66.14060211 246.23399353 298.50000000 0.632549 -0.581945 0.511099 0.000000
105.18800354 198.82000732 285.00000000 -0.919957 -0.305695 0.245417 0.000000
81.28119659 164.95300293 400.50000000 0.215342 -0.104523 -0.970929 0.000000
165.75000000 156.18800354 373.50000000 -0.460253 -0.641007 0.614229 0.000000
153.00000000 192.04699707 370.50000000 -0.740216 -0.450064 0.499522 0.000000
77.29689789 141.04699707 388.50000000 0.548509 0.565386 -0.616017 0.000000
64.94529724 154.59399414 276.00000000 0.915570 0.383680 0.120506 0.000000
137.06199646 137.06199646 400.50000000 0.117943 0.211789 -0.970173 0.000000
62.15620041 192.04699707 253.50000000 0.916879 -0.126227 0.378681 0.000000
171.72700500 108.37500000 381.00000000 -0.653509 0.276423 0.704639 0.000000
81.28119659 202.40600586 400.50000000 0.915120 -0.120812 -0.384656 0.000000
110.76599884 251.01600647 346.50000000 -0.712386 -0.136478 0.688390 0.000000
107.57800293 222.32800293 397.50000000 -0.000978 -0.000978 -0.999999 0.000000
107.57800293 162.56199646 403.50000000 0.091814 0.333988 -0.938095 0.000000
96.02339935 210.37500000 267.00000000 -0.856842 -0.513552 0.045680 0.000000
56.57809830 216.75000000 283.50000000 0.847940 -0.340732 0.406078 0.000000
75.70310211 190.45300293 400.50000000 0.713354 -0.415434 -0.564394 0.000000
72.51560211 229.10200500 264.00000000 0.550673 -0.677880 0.487070 0.000000
160.17199707 124.31199646 397.50000000 -0.000978 -0.000978 -0.999999 0.000000
65.34380341 149.81199646 298.50000000 0.945180 0.315934 -0.082589 0.000000
185.67199707 145.03100586 397.50000000 -0.647425 0.417747 -0.637439 0.000000
153.00000000 92.83589935 396.00000000 -0.043518 0.576963 -0.815610 0.000000
160.96899414 101.20300293 397.50000000 -0.113830 0.317385 -0.941440 0.000000
105.98400116 198.82000732 288.00000000 -0.623546 -0.742915 0.243450 0.000000
116.34400177 113.55500031 390.00000000 0.458253 0.030909 -0.888284 0.000000
85.66410065 153.00000000 279.00000000 -0.769969 0.537526 0.343823 0.000000
102.79699707 95.62500000 364.50000000 0.179181 0.672312 -0.718256 0.000000
84.46880341 216.75000000 244.50000000 -0.001366 -0.804402 0.594083 0.000000
184.87500000 157.78100586 376.50000000 -0.000978 -0.000978 0.999999 0.000000
72.51560211 213.56199646 394.50000000 -0.000978 -0.000978 -0.999999 0.000000
162.56199646 139.45300293 367.50000000 0.000978 0.000978 0.999999 0.000000
61.75780106 261.37500000 363.00000000 0.598499 -0.608615 -0.520947 0.000000
185.67199707 146.62500000 400.50000000 -0.203349 0.687660 -0.696974 0.000000
150.60899353 158.57800293 361.50000000 -0.594902 0.188105 0.781478 0.000000
72.51560211 227.10899353 262.50000000 0.569768 -0.617108 0.542717 0.000000
160.96899414 124.31199646 361.50000000 0.000978 0.000978 0.999999 0.000000
109.96900177 99.60939789 376.50000000 0.496178 0.617279 -0.610552 0.000000
149.81199646 121.12500000 361.50000000 0.000978 0.000978 0.999999 0.000000
62.55469894 212.76600647 264.00000000 0.309109 -0.918700 0.245849 0.000000
85.26560211 133.07800293 385.50000000 0.398594 0.663221 -0.633451 0.000000
50.60160065 201.60899353 384.00000000 0.402409 0.340261 -0.849876 0.000000
106.78099823 262.17199707 346.50000000 -0.856130 -0.189093 0.480922 0.000000
68.92970276 144.23399353 348.00000000 0.903639 0.427199 0.030609 0.000000
43.03120041 209.57800293 373.50000000 0.745981 0.370542 -0.553364 0.000000
129.89100647 245.43800354 370.50000000 -0.986241 -0.165311 0.001125 0.000000
84.46880341 217.54699707 244.50000000 -0.464621 -0.879815 0.100268 0.000000
78.89060211 146.62500000 271.50000000 -0.569215 0.747602 0.342178 0.000000
156.98399353 129.89100647 400.50000000 0.052808 0.437358 -0.897735 0.000000
161.76600647 143.43800354 400.50000000 -0.000978 -0.000978 -0.999999 0.000000
177.70300293 124.31199646 373.50000000 0.000978 0.000978 0.999999 0.000000
84.46880341 139.45300293 295.50000000 -0.893974 0.379754 0.237901 0.000000
135.07000732 192.84399414 396.00000000 -0.831527 -0.291737 -0.472707 0.000000
199.21899414 146.62500000 397.50000000 -0.000978 -0.000978 -0.999999 0.000000
96.42189789 132.67999268 390.00000000 0.182601 0.682834 -0.707386 0.000000
102.00000000 108.37500000 376.50000000 0.714923 0.432935 -0.549047 0.000000
151.40600586 201.21099854 387.00000000 -0.767844 -0.487442 -0.415712 0.000000
141.04699707 98.01560211 397.50000000 0.392701 0.179808 -0.901917 0.000000
71.71880341 246.63299561 294.00000000 -0.112182 -0.820240 0.560910 0.000000
107.97699738 132.28100586 393.00000000 0.143996 0.565591 -0.812017 0.000000
82.07810211 218.34399414 244.50000000 -0.321341 -0.589395 0.741184 0.000000
182.48399353 129.89100647 397.50000000 -0.000978 -0.000978 -0.999999 0.000000
105.18800354 146.62500000 334.50000000 -0.250794 0.875526 0.412984 0.000000
96.42189789 167.34399414 403.50000000 0.157272 0.182844 -0.970481 0.000000
95.62500000 227.10899353 394.50000000 -0.005943 -0.238894 -0.971027 0.000000
102.00000000 145.82800293 334.50000000 -0.374429 0.730873 0.570637 0.000000
97.21880341 272.53100586 346.50000000 -0.488526 -0.833731 0.257362 0.000000
111.56199646 116.34400177 388.50000000 0.301824 0.516736 -0.801178 0.000000
105.98400116 186.46899414 406.50000000 -0.000978 -0.000978 -0.999999 0.000000
62.95309830 153.39799500 360.00000000 0.773103 0.588807 0.235835 0.000000
151.40600586 135.46899414 400.50000000 -0.000978 -0.000978 -0.999999 0.000000
90.84380341 149.81199646 295.50000000 -0.546776 0.794313 0.264771 0.000000
124.31199646 256.59399414 358.50000000 -0.776039 -0.531820 0.339015 0.000000
68.53119659 270.53900146 345.00000000 0.478685 -0.875980 0.059318 0.000000
54.18750000 211.96899414 286.50000000 0.614688 -0.618056 0.490066 0.000000
42.63280106 213.56199646 369.00000000 0.966452 -0.001195 -0.256844 0.000000
71.71880341 133.47700500 327.00000000 0.935602 0.310946 -0.167220 0.000000
78.89060211 153.39799500 258.00000000 -0.693230 0.696305 0.185989 0.000000
74.10939789 243.84399414 385.50000000 0.387258 -0.687177 -0.614669 0.000000
85.26560211 223.12500000 253.50000000 0.000978 0.000978 0.999999 0.000000
150.60899353 125.10900116 367.50000000 0.106491 -0.104150 0.988844 0.000000
99.60939789 272.13299561 366.00000000 -0.212059 -0.825352 -0.523283 0.000000
70.92189789 243.44500732 288.00000000 -0.374475 -0.877818 0.298670 0.000000
60.56250000 261.37500000 361.50000000 0.781002 0.001373 -0.624527 0.000000
209.17999268 142.64100647 375.00000000 -0.616743 -0.040928 0.786100 0.000000
72.11720276 153.79699707 249.00000000 -0.080603 0.852700 0.516145 0.000000
155.39100647 112.35900116 397.50000000 -0.000978 -0.000978 -0.999999 0.000000
151.40600586 96.42189789 376.50000000 -0.363316 0.568598 0.738037 0.000000
108.37500000 228.70300293 334.50000000 -0.901991 -0.254559 0.348730 0.000000
70.92189789 220.73399353 394.50000000 0.320053 -0.167647 -0.932449 0.000000
100.40599823 168.93800354 277.50000000 -0.713922 0.620028 0.325393 0.000000
102.79699707 207.98399353 403.50000000 -0.029550 -0.654323 -0.755638 0.000000
56.57809830 203.60200500 276.00000000 0.883337 -0.001320 0.468736 0.000000
77.29689789 155.39100647 397.50000000 0.319755 0.350063 -0.880462 0.000000
80.48439789 262.57000732 318.00000000 -0.193810 -0.801181 0.566168 0.000000
82.87500000 122.31999969 357.00000000 0.616777 0.616777 -0.489052 0.000000
74.90619659 125.10900116 331.50000000 0.935778 0.343782 -0.078313 0.000000
49.80469894 188.06199646 324.00000000 0.913011 0.396782 -0.094733 0.000000
173.71899414 160.96899414 397.50000000 -0.316077 -0.506677 -0.802106 0.000000
169.73399353 116.34400177 397.50000000 -0.000978 -0.000978 -0.999999 0.000000
62.95309830 153.00000000 307.50000000 0.888502 0.443543 0.117617 0.000000
136.26600647 121.92199707 397.50000000 -0.000978 -0.000978 -0.999999 0.000000
57.77339935 222.32800293 285.00000000 0.837418 -0.350364 0.419495 0.000000
84.46880341 158.97700500 261.00000000 -0.804726 0.561331 0.193195 0.000000
54.58589935 255.79699707 333.00000000 0.805463 -0.541631 0.240552 0.000000
54.98440170 192.84399414 388.50000000 0.536176 -0.001351 -0.844105 0.000000
55.78120041 168.14100647 370.50000000 0.883227 0.466790 -0.044910 0.000000
94.03119659 266.95300293 373.50000000 -0.014264 -0.992982 -0.117402 0.000000
59.76559830 190.45300293 259.50000000 0.967475 -0.089792 0.236494 0.000000
97.21880341 209.17999268 282.00000000 -0.794631 -0.604826 0.052409 0.000000
47.01559830 236.67199707 373.50000000 0.546836 -0.473255 -0.690652 0.000000
125.90599823 108.37500000 364.50000000 0.026123 0.537582 0.842807 0.000000
55.78120041 198.42199707 388.50000000 0.552752 0.336808 -0.762250 0.000000
129.49200439 114.75000000 366.00000000 0.031764 0.539996 0.841068 0.000000
191.25000000 126.70300293 397.50000000 -0.000978 -0.000978 -0.999999 0.000000
196.03100586 123.51599884 397.50000000 0.018661 0.113062 -0.993413 0.000000
145.03100586 194.43800354 361.50000000 -0.702421 -0.070966 0.708215 0.000000
68.53119659 255.00000000 373.50000000 0.038613 0.414096 -0.909414 0.000000
84.46880341 266.95300293 325.50000000 -0.505430 -0.439576 0.742505 0.000000
173.32000732 164.95300293 390.00000000 -0.388442 -0.732630 0.558897 0.000000
42.63280106 212.76600647 345.00000000 0.696305 0.693230 0.185989 0.000000
92.43750000 156.18800354 403.50000000 -0.000978 -0.000978 -0.999999 0.000000
129.89100647 245.43800354 373.50000000 -0.528668 -0.848828 -0.001345 0.000000
70.52339935 137.85899353 309.00000000 0.929890 0.356615 0.090163 0.000000
126.70300293 109.17199707 394.50000000 0.450407 0.361280 -0.816462 0.000000
160.96899414 107.57800293 373.50000000 -0.499506 0.333536 0.799529 0.000000
101.20300293 215.95300293 400.50000000 0.207899 -0.283245 -0.936243 0.000000
63.75000000 233.48399353 385.50000000 0.474723 -0.618986 -0.625695 0.000000
176.90600586 118.73400116 373.50000000 0.409388 0.694468 0.591706 0.000000
131.48399353 180.09399414 349.50000000 -0.688436 0.279527 0.669268 0.000000
65.74220276 144.23399353 318.00000000 0.935602 0.310946 0.167220 0.000000
74.90619659 177.70300293 400.50000000 -0.000978 -0.000978 -0.999999 0.000000
114.35199738 229.50000000 342.00000000 -0.587102 -0.295951 0.753475 0.000000
68.13279724 157.78100586 249.00000000 0.819446 0.434386 0.373922 0.000000
164.15600586 134.67199707 400.50000000 -0.000978 -0.000978 -0.999999 0.000000
90.84380341 152.20300293 400.50000000 0.428198 0.671455 -0.604809 0.000000
108.37500000 221.92999268 330.00000000 -0.707764 -0.457965 0.537901 0.000000
117.93800354 173.71899414 403.50000000 -0.000978 -0.000978 -0.999999 0.000000
75.70310211 273.32800293 337.50000000 0.493894 -0.863958 0.098209 0.000000
129.89100647 204.00000000 397.50000000 -0.349298 -0.244070 -0.904666 0.000000
58.96879959 244.64100647 307.50000000 0.839271 -0.194373 0.507782 0.000000
50.20309830 238.26600647 373.50000000 0.682135 -0.348429 -0.642876 0.000000
97.21880341 266.95300293 340.50000000 -0.656222 -0.279413 0.700928 0.000000
98.41410065 274.12500000 351.00000000 0.001346 -0.531813 0.846861 0.000000
67.33589935 159.37500000 249.00000000 0.819446 0.434386 0.373922 0.000000
94.82810211 258.18798828 379.50000000 0.089206 -0.738510 -0.668315 0.000000
80.48439789 159.37500000 247.50000000 -0.694716 0.694716 0.186387 0.000000
131.48399353 184.07800293 400.50000000 -0.254721 -0.545385 -0.798544 0.000000
77.29689789 268.14801025 324.00000000 0.279371 -0.704014 0.652929 0.000000
182.48399353 136.26600647 397.50000000 -0.722662 0.403308 -0.561339 0.000000
94.82810211 171.32800293 403.50000000 0.372354 0.165648 -0.913188 0.000000
82.07810211 233.88299561 282.00000000 -0.780496 -0.589606 0.207824 0.000000
82.87500000 262.96899414 319.50000000 -0.634049 -0.590321 0.499503 0.000000
57.37500000 171.72700500 288.00000000 0.999999 0.000978 0.000978 0.000000
79.68750000 167.34399414 400.50000000 -0.000978 -0.000978 -0.999999 0.000000
86.06250000 223.12500000 253.50000000 -0.276496 -0.775770 0.567213 0.000000
115.54699707 156.98399353 337.50000000 -0.384539 -0.618894 0.684909 0.000000
208.38299561 134.67199707 378.00000000 -0.368995 0.461643 0.806677 0.000000
102.00000000 269.34399414 346.50000000 -0.298540 -0.767901 0.566746 0.000000
87.65619659 141.84399414 391.50000000 0.317370 0.813162 -0.487897 0.000000
78.49220276 159.37500000 399.00000000 0.277131 0.315255 -0.907641 0.000000
168.93800354 113.15599823 373.50000000 0.000978 0.000978 0.999999 0.000000
90.04689789 150.60899353 397.50000000 0.082508 0.468476 -0.879615 0.000000
161.76600647 152.20300293 400.50000000 -0.000978 -0.000978 -0.999999 0.000000
207.18800354 137.46099854 375.00000000 -0.560749 0.308332 0.768434 0.000000
168.93800354 143.43800354 400.50000000 -0.000978 -0.000978 -0.999999 0.000000
151.40600586 102.00000000 397.50000000 -0.000978 -0.000978 -0.999999 0.000000
117.14099884 254.20300293 379.50000000 0.017461 -0.484885 -0.874404 0.000000
88.45310211 167.34399414 256.50000000 -0.869201 0.417156 0.265463 0.000000
116.34400177 263.76599121 367.50000000 -0.662002 -0.662002 -0.351433 0.000000
133.07800293 124.31199646 397.50000000 -0.000978 -0.000978 -0.999999 0.000000
74.50779724 251.01600647 300.00000000 -0.216835 -0.722265 0.656746 0.000000
192.04699707 127.50000000 397.50000000 -0.000978 -0.000978 -0.999999 0.000000
131.08599854 237.46899414 378.00000000 -0.378831 -0.188695 -0.906025 0.000000
120.32800293 172.92199707 301.50000000 -0.638352 0.560874 0.527188 0.000000
107.57800293 116.34400177 340.50000000 -0.290607 0.231068 0.928523 0.000000
124.31199646 187.26600647 313.50000000 -0.883337 -0.001320 -0.468736 0.000000
204.00000000 144.23399353 370.50000000 -0.359048 0.409220 0.838823 0.000000
184.07800293 122.71900177 379.50000000 -0.946096 -0.130172 -0.296578 0.000000
73.31250000 245.03900146 384.00000000 0.467180 -0.709915 -0.527033 0.000000
47.81250000 241.45300293 370.50000000 0.737480 -0.427310 -0.523000 0.000000
148.21899414 133.87500000 367.50000000 0.000978 0.000978 0.999999 0.000000
129.09399414 204.00000000 346.50000000 -0.536020 -0.401605 0.742560 0.000000
109.96900177 157.78100586 328.50000000 -0.811017 0.457292 0.364878 0.000000
122.31999969 189.65600586 327.00000000 -0.992248 -0.109998 -0.057834 0.000000
129.89100647 208.78100586 349.50000000 -0.586049 -0.327735 0.741037 0.000000
158.57800293 153.00000000 367.50000000 -0.255196 -0.005991 0.966871 0.000000
125.90599823 176.90600586 400.50000000 -0.000978 -0.000978 -0.999999 0.000000
87.65619659 142.24200439 303.00000000 -0.801582 0.572127 0.173601 0.000000
63.35160065 151.40600586 366.00000000 0.919957 0.305695 0.245417 0.000000
153.00000000 133.07800293 400.50000000 -0.041661 0.196404 -0.979638 0.000000
59.36719894 166.54699707 282.00000000 0.904847 0.425734 0.001302 0.000000
147.42199707 173.71899414 361.50000000 -0.612186 -0.135545 0.779010 0.000000
51.79690170 204.79699707 385.50000000 0.912274 -0.385369 -0.138733 0.000000
85.66410065 166.54699707 249.00000000 -0.808477 0.495212 0.318011 0.000000
125.10900116 103.59400177 391.50000000 0.212443 0.530344 -0.820734 0.000000
144.63299561 137.06199646 366.00000000 -0.367314 0.197341 0.908921 0.000000
147.42199707 210.37500000 382.50000000 -0.841033 -0.399373 -0.364917 0.000000
75.70310211 257.39099121 307.50000000 -0.376981 -0.803691 0.460398 0.000000
100.40599823 193.64100647 406.50000000 -0.000978 -0.000978 -0.999999 0.000000
109.17199707 109.17199707 382.50000000 0.375601 0.521939 -0.765835 0.000000
188.06199646 124.31199646 376.50000000 0.131629 -0.990076 0.049218 0.000000
55.78120041 183.28100586 277.50000000 0.966452 -0.001195 0.256844 0.000000
93.23439789 243.84399414 388.50000000 0.062745 -0.293236 -0.953979 0.000000
47.41410065 238.26600647 333.00000000 0.950389 -0.245393 0.191162 0.000000
68.53119659 220.73399353 391.50000000 0.601601 -0.232828 -0.764112 0.000000
115.54699707 223.12500000 340.50000000 -0.627784 -0.405823 0.664225 0.000000
156.98399353 159.37500000 367.50000000 -0.475193 0.232283 0.848667 0.000000
45.02339935 224.71899414 327.00000000 0.984406 -0.072435 0.160307 0.000000
153.00000000 89.25000000 379.50000000 0.167260 0.352792 0.920631 0.000000
99.60939789 271.73400879 367.50000000 -0.126706 -0.642472 -0.755762 0.000000
88.05470276 145.82800293 297.00000000 -0.696896 0.635166 0.333016 0.000000
63.35160065 150.60899353 315.00000000 0.894688 0.446689 0.001310 0.000000
125.90599823 103.59400177 367.50000000 -0.145002 0.435006 0.888676 0.000000
48.21089935 183.28100586 351.00000000 0.974366 0.204803 0.093092 0.000000
83.67189789 261.37500000 373.50000000 0.000978 0.000978 -0.999999 0.000000
49.80469894 186.46899414 309.00000000 0.966452 -0.001195 0.256844 0.000000
117.14099884 189.65600586 295.50000000 -0.787328 -0.262443 0.557887 0.000000
56.97660065 183.28100586 273.00000000 0.978268 0.104858 0.178876 0.000000
56.57809830 172.12500000 295.50000000 0.945180 0.315934 0.082589 0.000000
84.46880341 214.35899353 397.50000000 0.263417 -0.189715 -0.945844 0.000000
183.28100586 139.45300293 397.50000000 -0.689339 0.305117 -0.657051 0.000000
119.53099823 120.32800293 394.50000000 0.512508 0.126312 -0.849341 0.000000
150.60899353 200.01600647 388.50000000 -0.622541 -0.555057 -0.551683 0.000000
71.71880341 247.03100586 295.50000000 -0.026166 -0.838691 0.543979 0.000000
194.43800354 149.01600647 367.50000000 0.035781 -0.412140 0.910418 0.000000
44.22660065 240.65600586 348.00000000 0.813815 -0.407707 0.414102 0.000000
127.50000000 161.76600647 400.50000000 -0.000978 -0.000978 -0.999999 0.000000
131.48399353 239.46099854 360.00000000 -0.921652 0.082314 0.379186 0.000000
150.60899353 92.43750000 394.50000000 -0.110924 0.720267 -0.684771 0.000000
123.51599884 174.51600647 307.50000000 -0.694716 0.694716 0.186387 0.000000
69.32810211 158.57800293 394.50000000 0.918326 0.367610 0.146764 0.000000
51.79690170 227.90600586 379.50000000 0.609717 -0.304054 -0.731982 0.000000
90.84380341 179.29699707 403.50000000 0.153992 -0.010116 -0.988020 0.000000
112.75800323 223.12500000 336.00000000 -0.318836 0.158728 0.934424 0.000000
76.50000000 164.15600586 400.50000000 -0.000978 -0.000978 -0.999999 0.000000
95.22660065 170.53100586 267.00000000 -0.686997 0.627971 0.365633 0.000000
105.58599854 154.59399414 324.00000000 -0.616777 0.616777 0.489052 0.000000
50.20309830 251.81199646 343.50000000 0.745520 -0.660901 0.086078 0.000000
94.82810211 166.54699707 274.50000000 -0.645389 0.697149 0.312180 0.000000
196.03100586 127.10199738 378.00000000 0.691864 -0.568495 -0.445127 0.000000
121.92199707 98.81250000 370.50000000 -0.404957 0.808313 0.427365 0.000000
56.17969894 167.34399414 372.00000000 0.890436 0.419798 -0.175763 0.000000
68.53119659 229.50000000 391.50000000 -0.000978 -0.000978 -0.999999 0.000000
159.37500000 180.49200439 378.00000000 -0.939189 -0.267745 0.215028 0.000000
74.10939789 173.71899414 400.50000000 0.553967 0.176605 -0.813592 0.000000
77.29689789 251.01600647 301.50000000 -0.646218 -0.589149 0.485083 0.000000
99.60939789 174.11700439 270.00000000 -0.746437 0.499273 0.439953 0.000000
179.29699707 136.26600647 367.50000000 -0.448583 0.356648 0.819497 0.000000
89.64839935 137.06199646 324.00000000 -0.779222 0.536015 0.324809 0.000000
70.12500000 238.66400146 282.00000000 0.278842 -0.744111 0.607080 0.000000
156.98399353 172.92199707 397.50000000 -0.105707 -0.322473 -0.940658 0.000000
182.48399353 129.49200439 372.00000000 -0.095952 0.528454 0.843522 0.000000
143.43800354 192.84399414 394.50000000 -0.000978 -0.000978 -0.999999 0.000000
54.58589935 202.40600586 282.00000000 0.942718 -0.050433 0.329757 0.000000
181.68800354 139.45300293 367.50000000 -0.623753 0.337120 0.705183 0.000000
67.73439789 253.40600586 373.50000000 0.038613 0.414096 -0.909414 0.000000
58.17190170 215.95300293 388.50000000 0.328409 0.298688 -0.896065 0.000000
60.96089935 198.42199707 258.00000000 0.931200 -0.095680 0.351727 0.000000
110.76599884 205.59399414 403.50000000 -0.288764 -0.414048 -0.863238 0.000000
84.46880341 150.60899353 280.50000000 -0.732175 0.627352 0.265235 0.000000
79.68750000 204.00000000 397.50000000 0.532307 -0.219366 -0.817636 0.000000
179.29699707 159.37500000 397.50000000 -0.000978 -0.000978 -0.999999 0.000000
145.82800293 184.07800293 394.50000000 -0.369102 -0.403656 -0.837154 0.000000
66.14060211 247.82800293 298.50000000 0.632549 -0.581945 0.511099 0.000000
158.57800293 169.73399353 397.50000000 -0.221940 -0.203109 -0.953671 0.000000
92.43750000 147.42199707 304.50000000 -0.696305 0.693230 0.185989 0.000000
127.50000000 247.03100586 358.50000000 -0.811841 -0.378009 0.444998 0.000000
154.59399414 179.29699707 367.50000000 -0.838029 -0.060563 0.542254 0.000000
64.14839935 178.50000000 249.00000000 0.901177 0.167627 0.399727 0.000000
78.89060211 238.26600647 388.50000000 0.295312 -0.516401 -0.803817 0.000000
94.82810211 266.95300293 337.50000000 -0.641604 -0.554036 0.530460 0.000000
81.28119659 275.32000732 357.00000000 0.162279 -0.974934 -0.152215 0.000000
80.88279724 132.28100586 381.00000000 0.520711 0.625190 -0.581376 0.000000
141.44500732 147.42199707 357.00000000 -0.724944 0.021033 0.688487 0.000000
105.58599854 267.75000000 369.00000000 -0.230889 -0.695809 -0.680103 0.000000
218.34399414 146.62500000 382.50000000 -0.628173 0.126229 0.767767 0.000000
151.40600586 200.81199646 388.50000000 -0.622541 -0.555057 -0.551683 0.000000
115.54699707 262.96899414 370.50000000 0.443543 -0.888502 -0.117617 0.000000
47.01559830 213.56199646 313.50000000 0.993350 0.057244 0.099896 0.000000
86.46089935 164.15600586 255.00000000 -0.843713 0.322825 0.428874 0.000000
155.39100647 172.12500000 367.50000000 -0.733371 -0.199168 0.649999 0.000000
117.14099884 258.18798828 352.50000000 -0.585308 -0.274413 0.762963 0.000000
86.06250000 154.59399414 400.50000000 0.460557 0.289980 -0.838927 0.000000
107.57800293 199.21899414 292.50000000 -0.640719 -0.689629 0.337478 0.000000
59.76559830 235.07800293 292.50000000 0.865568 -0.387591 0.317120 0.000000
86.85939789 231.89100647 295.50000000 -0.945180 -0.315934 0.082589 0.000000
106.78099823 258.98400879 343.50000000 -0.764761 -0.195422 0.613963 0.000000
112.75800323 181.68800354 288.00000000 -0.588009 -0.393653 0.706599 0.000000
153.39799500 177.70300293 366.00000000 -0.896756 0.087319 0.433825 0.000000
123.91400146 237.46899414 351.00000000 -0.909843 -0.393938 0.130378 0.000000
162.16400146 102.79699707 375.00000000 -0.832222 0.009534 0.554361 0.000000
113.95300293 135.46899414 394.50000000 0.248802 -0.063763 -0.966453 0.000000
75.70310211 229.50000000 391.50000000 0.804823 -0.459213 -0.376011 0.000000
118.73400116 177.30499268 297.00000000 -0.697648 0.330122 0.635851 0.000000
118.73400116 179.29699707 295.50000000 -0.602750 0.449141 0.659519 0.000000
156.18800354 184.07800293 370.50000000 -0.853962 -0.141597 0.500699 0.000000
164.55499268 96.42189789 390.00000000 -0.670624 0.512633 -0.536163 0.000000
150.60899353 141.04699707 400.50000000 -0.000978 -0.000978 -0.999999 0.000000
162.56199646 155.39100647 400.50000000 -0.000978 -0.000978 -0.999999 0.000000
63.75000000 196.03100586 391.50000000 0.309706 -0.249205 -0.917594 0.000000
114.75000000 231.09399414 391.50000000 0.080048 -0.321505 -0.943518 0.000000
80.48439789 198.42199707 400.50000000 -0.000978 -0.000978 -0.999999 0.000000
106.78099823 119.53099823 388.50000000 0.902055 0.359355 -0.239081 0.000000
44.22660065 243.84399414 360.00000000 0.923739 -0.358693 -0.134337 0.000000
105.98400116 248.62500000 385.50000000 -0.374018 -0.650824 -0.660710 0.000000
95.62500000 233.88299561 321.00000000 -0.834614 -0.419665 0.356793 0.000000
49.40620041 186.46899414 334.50000000 0.950696 0.117680 0.286928 0.000000
109.96900177 262.17199707 373.50000000 -0.104015 -0.777918 -0.619697 0.000000
86.85939789 245.43800354 388.50000000 0.028377 -0.479700 -0.876973 0.000000
109.17199707 192.84399414 406.50000000 -0.000978 -0.000978 -0.999999 0.000000
174.11700439 164.15600586 390.00000000 -0.421398 -0.641258 0.641258 0.000000
63.35160065 185.67199707 249.00000000 0.966452 -0.001195 0.256844 0.000000
60.56250000 191.25000000 256.50000000 0.939531 -0.105881 0.325686 0.000000
83.27339935 160.17199707 255.00000000 -0.754823 0.603543 0.256860 0.000000
176.10899353 124.31199646 397.50000000 -0.000978 -0.000978 -0.999999 0.000000
63.35160065 155.39100647 297.00000000 0.911879 0.371295 0.174978 0.000000
105.98400116 109.96900177 382.50000000 0.477764 0.451495 -0.753587 0.000000
125.90599823 215.95300293 394.50000000 -0.310111 -0.151640 -0.938529 0.000000
102.00000000 98.81250000 367.50000000 0.373289 0.610089 -0.698889 0.000000
117.93800354 123.51599884 394.50000000 0.480840 0.028444 -0.876347 0.000000
76.50000000 274.12500000 340.50000000 0.443543 -0.888502 0.117617 0.000000
192.04699707 140.25000000 397.50000000 -0.000978 -0.000978 -0.999999 0.000000
119.13300323 171.32800293 303.00000000 -0.601083 0.742137 0.296534 0.000000
168.14100647 150.21099854 369.00000000 -0.074016 -0.487391 0.870041 0.000000
112.35900116 262.96899414 349.50000000 -0.740320 -0.554014 0.380782 0.000000
81.67970276 227.10899353 258.00000000 -0.305910 -0.920602 0.242717 0.000000
146.62500000 129.09399414 397.50000000 0.138810 -0.163821 -0.976675 0.000000
68.53119659 261.37500000 370.50000000 0.642607 -0.432299 -0.632592 0.000000
165.75000000 136.26600647 400.50000000 -0.000978 -0.000978 -0.999999 0.000000
206.39100647 144.23399353 373.50000000 -0.751283 0.004151 0.659967 0.000000
135.46899414 188.85899353 397.50000000 0.021313 -0.135733 -0.990516 0.000000
70.12500000 142.64100647 340.50000000 0.905422 0.387629 0.173074 0.000000
78.89060211 266.95300293 322.50000000 -0.170602 -0.795638 0.581253 0.000000
105.98400116 198.42199707 406.50000000 -0.226607 -0.491236 -0.841033 0.000000
66.93750000 149.01600647 331.50000000 0.918838 0.393036 0.035492 0.000000
153.00000000 199.61700439 384.00000000 -0.842497 -0.526379 -0.114556 0.000000
93.23439789 221.53100586 298.50000000 -0.787195 -0.576864 0.218064 0.000000
105.18800354 187.26600647 406.50000000 -0.000978 -0.000978 -0.999999 0.000000
153.00000000 112.35900116 397.50000000 -0.000978 -0.000978 -0.999999 0.000000
75.70310211 265.35900879 319.50000000 -0.219057 -0.619886 0.753495 0.000000
105.18800354 206.39100647 403.50000000 0.127840 -0.135145 -0.982544 0.000000
47.41410065 196.82800293 321.00000000 0.979069 0.173210 -0.106875 0.000000
106.78099823 156.98399353 319.50000000 -0.695215 0.695215 0.182628 0.000000
70.92189789 248.22700500 297.00000000 -0.026166 -0.838691 0.543979 0.000000
181.68800354 157.78100586 397.50000000 0.142688 -0.653360 -0.743479 0.000000
143.43800354 102.79699707 397.50000000 -0.000978 -0.000978 -0.999999 0.000000
98.01560211 192.04699707 247.50000000 -0.940014 -0.008809 0.341022 0.000000
103.19499969 247.03100586 339.00000000 -0.720385 -0.445480 0.531595 0.000000
103.19499969 191.25000000 264.00000000 -0.949190 -0.134836 0.284356 0.000000
154.59399414 196.42999268 378.00000000 -0.952810 -0.284401 -0.106159 0.000000
60.56250000 189.65600586 391.50000000 0.821454 0.109043 -0.559752 0.000000
194.43800354 130.68800354 373.50000000 -0.219707 0.113028 0.968996 0.000000
198.42199707 153.00000000 370.50000000 0.000978 0.000978 0.999999 0.000000
137.85899353 200.81199646 394.50000000 -0.078663 -0.137366 -0.987392 0.000000
121.52300262 243.84399414 351.00000000 -0.407526 -0.100845 0.907608 0.000000
215.95300293 141.04699707 379.50000000 -0.097927 0.155958 0.982897 0.000000
102.39800262 199.21899414 273.00000000 -0.882685 -0.447822 0.142554 0.000000
139.45300293 211.17199707 358.50000000 -0.701095 -0.217043 0.679234 0.000000
64.14839935 153.00000000 357.00000000 0.816375 0.556687 0.153723 0.000000
198.42199707 126.70300293 379.50000000 -0.514693 -0.514693 0.685698 0.000000
158.57800293 160.17199707 367.50000000 -0.627399 0.185612 0.756253 0.000000
135.46899414 194.43800354 394.50000000 -0.112677 -0.472101 -0.874314 0.000000
76.50000000 260.57800293 373.50000000 0.172850 -0.483092 -0.858338 0.000000
161.76600647 142.64100647 367.50000000 0.000978 0.000978 0.999999 0.000000
204.79699707 155.39100647 376.50000000 0.000978 0.000978 0.999999 0.000000
113.95300293 198.42199707 304.50000000 -0.693230 -0.696305 0.185989 0.000000
44.22660065 244.64100647 357.00000000 0.892269 -0.432658 -0.129088 0.000000
84.46880341 268.54699707 370.50000000 0.199343 -0.662932 -0.721653 0.000000
49.80469894 216.75000000 297.00000000 0.868867 -0.174949 0.463102 0.000000
56.57809830 168.14100647 346.50000000 0.864649 0.493883 0.091984 0.000000
86.06250000 137.46099854 390.00000000 0.287081 0.393407 -0.873393 0.000000
98.81250000 229.50000000 394.50000000 0.026665 -0.646970 -0.762049 0.000000
198.42199707 134.27299500 372.00000000 -0.178104 0.265117 0.947624 0.000000
94.03119659 262.96899414 334.50000000 -0.475046 -0.001323 0.879960 0.000000
104.39099884 192.04699707 406.50000000 -0.000978 -0.000978 -0.999999 0.000000
86.85939789 252.60899353 319.50000000 -0.798493 -0.216932 0.561560 0.000000
45.42190170 212.76600647 334.50000000 0.959028 0.094225 0.267185 0.000000
94.03119659 241.45300293 388.50000000 -0.364924 -0.584205 -0.724938 0.000000
204.79699707 152.20300293 397.50000000 -0.019423 -0.165665 -0.985991 0.000000
102.79699707 163.75799561 288.00000000 -0.687246 0.466525 0.556820 0.000000
105.18800354 135.46899414 334.50000000 0.000978 0.000978 0.999999 0.000000
162.56199646 162.56199646 373.50000000 -0.851332 -0.350182 0.390648 0.000000
70.92189789 217.54699707 250.50000000 0.644607 -0.463782 0.607773 0.000000
151.00799561 197.62500000 390.00000000 -0.494012 -0.428362 -0.756609 0.000000
98.41410065 203.20300293 258.00000000 -0.898297 -0.397797 0.186603 0.000000
59.76559830 205.59399414 265.50000000 0.937830 -0.134754 0.319869 0.000000
196.03100586 155.78900146 375.00000000 -0.237835 -0.697754 0.675703 0.000000
64.94529724 199.21899414 249.00000000 0.928458 0.104367 0.356474 0.000000
83.67189789 143.43800354 391.50000000 0.438478 0.857094 -0.270420 0.000000
65.34380341 151.00799561 345.00000000 0.869205 0.444327 0.216927 0.000000
97.61720276 199.21899414 249.00000000 -0.918060 -0.152776 0.365822 0.000000
80.48439789 251.81199646 307.50000000 -0.729698 -0.464955 0.501357 0.000000
110.76599884 258.18798828 346.50000000 -0.628124 -0.149123 0.763690 0.000000
88.85160065 223.92199707 264.00000000 -0.837627 -0.546160 -0.009534 0.000000
192.04699707 152.20300293 400.50000000 -0.456379 0.573400 -0.680390 0.000000
117.14099884 217.54699707 337.50000000 -0.561269 -0.632060 0.534301 0.000000
92.43750000 100.00800323 363.00000000 0.073287 0.993325 0.089072 0.000000
41.03910065 229.50000000 351.00000000 0.976201 -0.115947 0.183271 0.000000
145.82800293 193.64100647 361.50000000 -0.723266 -0.044050 0.689163 0.000000
72.51560211 225.51600647 394.50000000 0.389944 -0.487025 -0.781505 0.000000
98.81250000 233.88299561 327.00000000 -0.824110 -0.382679 0.417612 0.000000
142.64100647 192.84399414 358.50000000 -0.597207 -0.325308 0.733157 0.000000
98.81250000 102.00000000 367.50000000 0.449221 0.656297 -0.606198 0.000000
72.51560211 254.20300293 376.50000000 0.282985 -0.698669 -0.657101 0.000000
75.70310211 244.64100647 292.50000000 -0.340261 -0.849876 0.402409 0.000000
64.54689789 197.62500000 250.50000000 0.304054 0.609717 0.731982 0.000000
129.89100647 175.71099854 348.00000000 -0.644256 0.355734 0.677043 0.000000
49.00780106 180.09399414 348.00000000 0.972931 0.230400 0.017907 0.000000
75.30470276 123.51599884 327.00000000 0.927615 0.372343 -0.029839 0.000000
114.75000000 177.70300293 292.50000000 -0.745507 0.422947 0.515107 0.000000
128.29699707 98.81250000 388.50000000 0.209181 0.819930 -0.532878 0.000000
138.65600586 207.18800354 394.50000000 -0.836761 -0.502664 -0.217163 0.000000
117.14099884 202.80499268 402.00000000 -0.345201 -0.291404 -0.892143 0.000000
62.15620041 158.57800293 331.50000000 0.387428 0.001279 -0.921899 0.000000
168.14100647 129.89100647 400.50000000 0.092586 0.508510 -0.856064 0.000000
49.80469894 224.71899414 306.00000000 0.768194 -0.384909 0.511588 0.000000
66.93750000 156.98399353 388.50000000 0.687177 0.387258 -0.614669 0.000000
61.35940170 167.34399414 265.50000000 0.932941 0.284793 0.220258 0.000000
93.63279724 133.87500000 390.00000000 0.252031 0.910515 -0.327785 0.000000
68.53119659 201.60899353 394.50000000 0.590187 -0.138255 -0.795340 0.000000
96.82029724 204.00000000 249.00000000 -0.847940 -0.340732 0.406078 0.000000
69.32810211 226.31199646 265.50000000 0.623338 -0.623338 0.472124 0.000000
125.10900116 230.29699707 349.50000000 -0.387428 -0.001279 0.921899 0.000000
97.61720276 165.75000000 279.00000000 -0.487748 0.682177 0.544736 0.000000
133.87500000 195.63299561 396.00000000 -0.313283 -0.334269 -0.888886 0.000000
52.59379959 174.11700439 369.00000000 0.888502 0.443543 -0.117617 0.000000
146.62500000 198.42199707 391.50000000 -0.376488 -0.596792 -0.708587 0.000000
45.82030106 247.82800293 351.00000000 0.939471 -0.235216 0.249134 0.000000
108.37500000 156.18800354 325.50000000 -0.721613 0.628811 0.289605 0.000000
78.09380341 124.31199646 343.50000000 0.856842 0.513552 -0.045680 0.000000
66.14060211 262.96899414 325.50000000 0.542866 -0.805792 0.236634 0.000000
153.00000000 176.10899353 394.50000000 0.018191 -0.684247 -0.729024 0.000000
45.02339935 239.06199646 345.00000000 0.926060 -0.269685 0.263977 0.000000
66.93750000 206.39100647 247.50000000 0.622560 -0.416700 0.662404 0.000000
109.17199707 224.71899414 334.50000000 -0.721653 -0.479443 0.499351 0.000000
55.78120041 185.67199707 385.50000000 0.818044 0.272681 -0.506408 0.000000
110.76599884 196.03100586 406.50000000 -0.120447 -0.113292 -0.986234 0.000000
75.30470276 255.79699707 306.00000000 -0.535997 -0.607012 0.586722 0.000000
159.37500000 155.39100647 367.50000000 -0.431745 0.019805 0.901778 0.000000
70.12500000 267.75000000 331.50000000 0.526119 -0.793152 0.306770 0.000000
180.89100647 154.59399414 373.50000000 -0.308919 -0.760294 0.571421 0.000000
63.75000000 151.40600586 325.50000000 0.882213 0.328371 -0.337450 0.000000
94.82810211 207.18800354 247.50000000 -0.901358 -0.395332 0.176821 0.000000
114.75000000 250.21899414 382.50000000 -0.001367 -0.600218 -0.799835 0.000000
89.64839935 228.70300293 300.00000000 -0.845795 -0.412773 0.338007 0.000000
121.92199707 160.17199707 400.50000000 -0.000978 -0.000978 -0.999999 0.000000
87.65619659 199.21899414 403.50000000 -0.000978 -0.000978 -0.999999 0.000000
124.31199646 202.40600586 340.50000000 -0.764284 -0.273750 0.583894 0.000000
95.22660065 207.98399353 249.00000000 -0.892883 -0.401870 0.203127 0.000000
88.45310211 129.09399414 334.50000000 -0.458810 0.783057 0.419900 0.000000
67.73439789 263.76599121 322.50000000 0.513619 -0.813361 0.273202 0.000000
68.53119659 208.78100586 247.50000000 0.781526 -0.314848 0.538598 0.000000
60.56250000 232.68800354 385.50000000 0.459918 -0.657265 -0.597058 0.000000
127.50000000 206.39100647 346.50000000 -0.819226 -0.179536 0.544642 0.000000
72.51560211 196.03100586 397.50000000 -0.000978 -0.000978 -0.999999 0.000000
117.93800354 227.90600586 343.50000000 -0.581852 -0.288535 0.760392 0.000000
153.39799500 88.45310211 387.00000000 -0.304697 0.946025 -0.110436 0.000000
105.18800354 151.40600586 397.50000000 -0.049524 0.609851 -0.790967 0.000000
214.35899353 140.25000000 394.50000000 -0.749027 0.341349 -0.567837 0.000000
61.35940170 247.82800293 373.50000000 0.557873 -0.517423 -0.648885 0.000000
127.50000000 188.85899353 340.50000000 0.115638 0.147286 0.982311 0.000000
60.56250000 165.75000000 271.50000000 0.919957 0.305695 0.245417 0.000000
88.45310211 149.01600647 292.50000000 -0.722159 0.598267 0.347223 0.000000
105.98400116 139.45300293 334.50000000 0.000978 0.000978 0.999999 0.000000
89.25000000 199.21899414 403.50000000 -0.000978 -0.000978 -0.999999 0.000000
103.19499969 272.53100586 363.00000000 -0.298133 -0.888407 -0.349070 0.000000
53.78910065 258.18798828 351.00000000 0.773523 -0.632626 0.038042 0.000000
200.01600647 155.39100647 376.50000000 -0.170702 -0.356922 0.918405 0.000000
110.76599884 108.77300262 384.00000000 0.428660 0.554445 -0.713331 0.000000
76.50000000 266.95300293 367.50000000 0.293788 -0.669451 -0.682294 0.000000
93.23439789 211.17199707 247.50000000 -0.904703 -0.399092 0.149127 0.000000
93.63279724 211.17199707 249.00000000 -0.904703 -0.399092 0.149127 0.000000
109.17199707 179.29699707 406.50000000 -0.000978 -0.000978 -0.999999 0.000000
80.48439789 270.93798828 328.50000000 -0.054321 -0.851022 0.522313 0.000000
90.84380341 149.01600647 295.50000000 -0.641895 0.690646 0.333135 0.000000
70.12500000 211.96899414 247.50000000 0.870124 -0.434311 0.232935 0.000000
49.40620041 241.45300293 325.50000000 0.848329 -0.317930 0.423389 0.000000
158.97700500 172.92199707 375.00000000 -0.913807 -0.365239 0.177645 0.000000
117.93800354 168.53900146 309.00000000 -0.693230 0.696305 0.185989 0.000000
106.78099823 207.98399353 403.50000000 -0.206326 -0.690339 -0.693442 0.000000
123.51599884 226.31199646 391.50000000 -0.666212 -0.439132 -0.602763 0.000000
60.56250000 162.16400146 339.00000000 0.862905 0.492473 0.113427 0.000000
86.85939789 156.58599854 276.00000000 -0.703572 0.591528 0.393803 0.000000
96.42189789 179.29699707 406.50000000 0.354580 0.189394 -0.915643 0.000000
118.73400116 262.96899414 358.50000000 -0.761701 -0.583600 0.281464 0.000000
96.42189789 249.42199707 385.50000000 -0.237604 -0.653017 -0.719106 0.000000
140.25000000 154.59399414 355.50000000 -0.000978 -0.000978 0.999999 0.000000
66.14060211 149.81199646 382.50000000 0.730340 0.423696 -0.535803 0.000000
109.96900177 252.60899353 346.50000000 -0.664941 0.052909 0.745020 0.000000
74.90619659 154.99200439 396.00000000 0.374352 0.507239 -0.776254 0.000000
91.64060211 251.01600647 382.50000000 0.133533 -0.712674 -0.688668 0.000000
58.57030106 172.92199707 384.00000000 0.784908 0.214346 -0.581356 0.000000
112.35900116 119.13300323 390.00000000 0.253931 0.481699 -0.838741 0.000000
70.12500000 217.54699707 394.50000000 0.214518 -0.080599 -0.973389 0.000000
93.23439789 156.18800354 403.50000000 -0.000978 -0.000978 -0.999999 0.000000
156.98399353 117.93800354 397.50000000 -0.000978 -0.000978 -0.999999 0.000000
90.04689789 276.11700439 354.00000000 0.000978 -0.999999 0.000978 0.000000
109.17199707 226.31199646 394.50000000 -0.146925 -0.556532 -0.817732 0.000000
56.17969894 185.67199707 273.00000000 -0.000978 -0.000978 0.999999 0.000000
194.43800354 149.81199646 367.50000000 0.035781 -0.412140 0.910418 0.000000
141.04699707 108.37500000 397.50000000 -0.000978 -0.000978 -0.999999 0.000000
45.82030106 201.60899353 342.00000000 0.949399 0.286284 0.129161 0.000000
79.68750000 248.62500000 304.50000000 -0.794250 -0.397930 0.459150 0.000000
62.55469894 197.62500000 255.00000000 0.940416 -0.102712 0.324143 0.000000
127.50000000 196.03100586 400.50000000 -0.658770 -0.318864 -0.681431 0.000000
204.79699707 135.46899414 397.50000000 -0.000978 -0.000978 -0.999999 0.000000
107.18000031 206.39100647 306.00000000 -0.641827 -0.693823 0.326601 0.000000
140.25000000 180.09399414 397.50000000 -0.374826 -0.441817 -0.815048 0.000000
108.37500000 219.14100647 397.50000000 -0.131853 -0.208661 -0.969059 0.000000
98.81250000 263.76599121 340.50000000 -0.541183 -0.299952 0.785589 0.000000
156.18800354 104.78900146 372.00000000 -0.213904 0.146492 0.965808 0.000000
93.23439789 132.28100586 388.50000000 0.252031 0.910515 -0.327785 0.000000
48.21089935 196.03100586 330.00000000 0.986241 0.165311 0.001125 0.000000
73.31250000 215.95300293 247.50000000 0.494753 -0.665820 0.558484 0.000000
84.46880341 168.93800354 403.50000000 -0.000978 -0.000978 -0.999999 0.000000
76.50000000 232.28900146 267.00000000 -0.009297 -0.883232 0.468844 0.000000
115.54699707 108.37500000 388.50000000 0.341876 0.382097 -0.858558 0.000000
59.76559830 162.16400146 345.00000000 0.892795 0.438689 0.102314 0.000000
148.21899414 109.17199707 397.50000000 -0.000978 -0.000978 -0.999999 0.000000
121.12500000 257.78900146 375.00000000 -0.460207 -0.610820 -0.644289 0.000000
50.20309830 233.88299561 315.00000000 0.798986 -0.531081 0.282088 0.000000
102.79699707 110.76599884 379.50000000 0.698891 0.343744 -0.627210 0.000000
