145.60499573 99.12110138 217.50000000 0.401345 0.401345 -0.823313 0.000000
205.76199341 116.89499664 184.50000000 -0.864896 0.479849 0.147309 0.000000
140.13699341 86.81639862 148.50000000 0.000978 0.000978 0.999999 0.000000
136.71899414 75.19529724 199.50000000 0.175858 0.744719 -0.643792 0.000000
172.94900513 101.17199707 220.50000000 -0.000978 -0.000978 -0.999999 0.000000
35.88869858 203.02699280 159.00000000 0.636378 -0.636378 -0.435944 0.000000
139.11099243 232.42199707 174.00000000 -0.779942 -0.620770 0.079586 0.000000
47.85160065 102.53900146 130.50000000 0.530293 0.834584 0.149191 0.000000
137.06100464 233.78900146 177.00000000 -0.817940 -0.455823 -0.350999 0.000000
155.85899353 75.87889862 154.50000000 -0.286496 -0.230044 0.930054 0.000000
110.05899811 139.45300293 121.50000000 -0.675566 0.622710 0.394769 0.000000
50.92770004 149.70700073 174.00000000 0.879985 0.177168 -0.440725 0.000000
125.78099823 247.11900330 171.00000000 -0.520612 -0.850756 -0.071954 0.000000
67.67579651 254.29699707 166.50000000 0.000978 0.000978 -0.999999 0.000000
34.86330032 115.86900330 93.00000000 0.709863 0.704328 0.004151 0.000000
72.46089935 200.97700500 73.50000000 -0.754247 -0.655928 0.029496 0.000000
85.44920349 136.03500366 223.50000000 0.407249 0.207300 -0.889480 0.000000
179.10200500 162.01199341 184.50000000 -0.986951 -0.152286 -0.052312 0.000000
142.87100220 84.08200073 148.50000000 -0.215923 0.075265 0.973505 0.000000
102.53900146 143.55499268 100.50000000 -0.805085 0.422629 0.416201 0.000000
61.18159866 164.74600220 210.00000000 0.812936 0.324857 -0.483325 0.000000
118.94499969 112.79299927 211.50000000 -0.000978 -0.000978 -0.999999 0.000000
65.28320313 205.76199341 57.00000000 -0.881164 -0.297752 0.367278 0.000000
32.12889862 182.86099243 54.00000000 0.808221 -0.236439 0.539329 0.000000
58.78910065 249.51199341 112.50000000 -0.946173 0.001240 0.323658 0.000000
207.12899780 116.89499664 193.50000000 -0.650739 0.162306 0.741752 0.000000
76.56250000 240.62500000 121.50000000 -0.655492 -0.344910 0.671839 0.000000
43.06639862 218.06599426 64.50000000 0.421758 -0.547459 0.722778 0.000000
209.86300659 109.37500000 214.50000000 -0.000978 -0.000978 -0.999999 0.000000
46.14260101 242.67599487 141.00000000 0.760658 -0.645625 0.067582 0.000000
48.19340134 225.58599854 177.00000000 0.576511 -0.452854 -0.680116 0.000000
159.27699280 72.11910248 204.00000000 -0.103755 0.799350 -0.591840 0.000000
36.23049927 114.50199890 99.00000000 0.674348 0.738307 0.012514 0.000000
127.14800262 70.06839752 189.00000000 0.297466 0.892399 -0.339321 0.000000
48.53519821 148.33999634 166.50000000 0.899501 0.230378 -0.371246 0.000000
40.67380142 144.92199707 150.00000000 0.753390 0.310030 -0.579901 0.000000
59.81449890 224.90199280 78.00000000 -0.877695 -0.473034 0.076746 0.000000
109.37500000 237.20700073 136.50000000 0.000978 0.000978 0.999999 0.000000
91.60160065 196.19099426 97.50000000 -0.437266 -0.001305 0.899331 0.000000
135.35200500 112.79299927 214.50000000 0.504463 0.164209 -0.847675 0.000000
88.86720276 187.98800659 82.50000000 -0.762773 -0.549906 0.340265 0.000000
43.75000000 205.07800293 55.50000000 0.276465 -0.701551 0.656805 0.000000
190.03900146 141.50399780 208.50000000 -0.000978 -0.000978 -0.999999 0.000000
83.39839935 108.00800323 112.50000000 0.000978 0.000978 0.999999 0.000000
42.04100037 187.30499268 45.00000000 0.558461 -0.063622 0.827088 0.000000
32.47069931 125.78099823 60.00000000 0.398079 0.797770 0.452875 0.000000
101.17199707 220.80099487 196.50000000 -0.000978 -0.000978 -0.999999 0.000000
178.41799927 157.91000366 205.50000000 0.000000 0.000000 0.000000 0.000000
127.14800262 112.79299927 145.50000000 0.000978 0.000978 0.999999 0.000000
66.99220276 173.63299561 211.50000000 0.707106 -0.425588 -0.564691 0.000000
131.25000000 211.91400146 187.50000000 0.483582 -0.722880 -0.493552 0.000000
47.16799927 168.16400146 187.50000000 0.690073 0.556403 -0.462834 0.000000
137.40199280 106.64099884 214.50000000 0.282459 -0.186010 -0.941072 0.000000
89.55079651 116.21099854 118.50000000 -0.194156 -0.372491 0.907499 0.000000
50.58589935 240.62500000 97.50000000 -0.662002 -0.662002 0.351433 0.000000
35.54690170 177.05099487 157.50000000 0.940670 0.100071 -0.324231 0.000000
122.02100372 251.56199646 156.00000000 -0.761420 -0.551261 0.341103 0.000000
60.83980179 112.79299927 163.50000000 0.812231 0.176310 -0.556054 0.000000
86.47460175 196.19099426 90.00000000 -0.770703 -0.422013 0.477412 0.000000
36.91410065 188.67199707 169.50000000 0.509556 0.509556 0.693330 0.000000
85.10739899 107.32399750 204.00000000 0.524195 0.713903 -0.464287 0.000000
148.33999634 196.87500000 163.50000000 -0.982460 -0.185871 -0.015008 0.000000
71.09380341 155.17599487 61.50000000 -0.534133 0.412515 0.737925 0.000000
62.89059830 256.68899536 141.00000000 0.568080 -0.811331 -0.137941 0.000000
139.11099243 186.62100220 141.00000000 -0.935989 -0.187198 0.298130 0.000000
84.08200073 222.85200500 118.50000000 -0.678824 -0.481044 0.554792 0.000000
66.99220276 219.43400574 193.50000000 -0.058062 -0.573540 -0.817117 0.000000
63.57419968 125.78099823 70.50000000 -0.639575 0.301261 0.707238 0.000000
30.07810020 181.15199280 55.50000000 0.757365 -0.158729 0.633405 0.000000
124.41400146 183.88699341 208.50000000 -0.330416 -0.659204 -0.675481 0.000000
58.10549927 133.64300537 180.00000000 0.855127 0.426793 -0.294287 0.000000
70.75199890 218.06599426 99.00000000 -0.781964 -0.480835 0.396648 0.000000
211.22999573 122.02100372 195.00000000 -0.533708 0.496901 0.684284 0.000000
135.35200500 155.17599487 148.50000000 -0.811502 -0.004105 0.584336 0.000000
19.48240089 134.66799927 108.00000000 0.931223 0.348362 -0.107084 0.000000
111.76799774 150.39100647 111.00000000 -0.710737 0.419153 0.564945 0.000000
130.56599426 244.04299927 172.50000000 0.222994 -0.887544 -0.403161 0.000000
50.58589935 207.47099304 51.00000000 -0.265224 -0.795673 0.544573 0.000000
107.32399750 177.05099487 97.50000000 -0.715200 -0.404675 0.569848 0.000000
218.75000000 99.80470276 208.50000000 -0.622629 -0.175067 0.762683 0.000000
127.83200073 172.94900513 112.50000000 0.000978 0.000978 0.999999 0.000000
15.72270012 142.52900696 108.00000000 0.947277 0.082315 -0.309662 0.000000
170.89799500 169.53100586 157.50000000 -0.742401 -0.047023 0.668303 0.000000
112.79299927 229.68800354 136.50000000 -0.321572 -0.389272 0.863168 0.000000
96.38670349 84.42379761 126.00000000 -0.516550 0.148637 0.843257 0.000000
24.95120049 156.54299927 129.00000000 0.907425 -0.075050 -0.413458 0.000000
200.63499451 99.80470276 195.00000000 -0.897741 0.394307 0.196426 0.000000
92.96880341 262.15798950 159.00000000 -0.114123 -0.850869 -0.512833 0.000000
105.27300262 238.57400513 136.50000000 0.000978 0.000978 0.999999 0.000000
152.44099426 127.14800262 148.50000000 0.000978 0.000978 0.999999 0.000000
72.46089935 241.30900574 118.50000000 -0.650751 -0.258084 0.714084 0.000000
226.27000427 134.66799927 205.50000000 -0.812735 -0.075970 0.577659 0.000000
54.68750000 97.07029724 136.50000000 0.617408 0.784888 -0.052515 0.000000
181.83599854 112.79299927 166.50000000 0.000978 0.000978 0.999999 0.000000
190.03900146 95.70310211 220.50000000 -0.540252 -0.405599 -0.737304 0.000000
48.19340134 204.39500427 189.00000000 0.585857 -0.049410 -0.808907 0.000000
82.71479797 106.64099884 112.50000000 0.000978 0.000978 0.999999 0.000000
40.33200073 218.06599426 160.50000000 0.890013 0.444306 0.102316 0.000000
125.78099823 71.09380341 190.50000000 0.297466 0.892399 -0.339321 0.000000
121.68000031 171.58200073 211.50000000 -0.000978 -0.000978 -0.999999 0.000000
125.09799957 187.30499268 112.50000000 0.000978 0.000978 0.999999 0.000000
82.03119659 77.58789825 153.00000000 0.477325 0.861549 -0.172901 0.000000
140.82000732 186.96299744 201.00000000 0.001378 -0.660161 -0.751123 0.000000
77.92970276 231.05499268 118.50000000 -0.687818 -0.344726 0.638804 0.000000
60.83980179 130.22500610 183.00000000 0.865373 0.390567 -0.313985 0.000000
73.14450073 158.59399414 217.50000000 0.436417 -0.277163 -0.855991 0.000000
225.58599854 135.35200500 205.50000000 -0.085418 -0.122861 -0.988741 0.000000
129.19900513 87.50000000 211.50000000 0.379129 0.785685 -0.488835 0.000000
60.83980179 140.82000732 58.50000000 -0.799472 0.343087 0.493088 0.000000
134.66799927 214.64799500 148.50000000 -0.974705 -0.001170 -0.223492 0.000000
45.80080032 189.35499573 43.50000000 0.371974 -0.329113 0.867940 0.000000
60.15620041 146.97300720 205.50000000 0.776961 -0.023713 -0.629102 0.000000
147.99800110 174.31599426 144.00000000 -0.411020 0.781426 0.469506 0.000000
172.26600647 69.72660065 160.50000000 0.323550 0.761388 0.561786 0.000000
48.53519821 189.35499573 43.50000000 0.278089 -0.322231 0.904894 0.000000
51.26950073 104.93199921 108.00000000 0.547508 0.822008 0.156644 0.000000
167.47999573 100.14600372 159.00000000 -0.339955 0.373797 0.862964 0.000000
118.94499969 122.36299896 214.50000000 -0.249393 0.578780 -0.776413 0.000000
180.81100464 148.33999634 171.00000000 -0.535713 -0.714836 0.449468 0.000000
72.11910248 86.81639862 120.00000000 0.612027 0.784388 0.100787 0.000000
55.02930069 144.92199707 195.00000000 0.934189 0.355943 -0.024415 0.000000
89.20899963 136.03500366 93.00000000 -0.636378 0.636378 0.435944 0.000000
225.58599854 118.26200104 208.50000000 -0.855581 -0.281097 -0.434702 0.000000
131.93400574 231.05499268 181.50000000 -0.683481 0.456211 -0.569846 0.000000
86.13279724 161.32800293 70.50000000 -0.660567 0.223312 0.716786 0.000000
213.28100586 105.27300262 214.50000000 -0.000978 -0.000978 -0.999999 0.000000
201.66000366 85.44920349 202.50000000 -0.665076 -0.123493 0.736494 0.000000
142.87100220 171.24000549 144.00000000 -0.423696 0.535803 0.730340 0.000000
65.62500000 130.56599426 70.50000000 -0.642118 0.369505 0.671678 0.000000
177.39300537 173.63299561 180.00000000 -0.910894 -0.304603 -0.278369 0.000000
161.32800293 69.04299927 154.50000000 -0.396155 -0.180071 0.900353 0.000000
200.29299927 117.57800293 214.50000000 -0.001102 -0.135556 -0.990769 0.000000
149.70700073 170.89799500 214.50000000 -0.402285 -0.383354 -0.831389 0.000000
19.48240089 171.58200073 114.00000000 0.935042 -0.146916 -0.322665 0.000000
50.58589935 206.44500732 49.50000000 -0.001357 -0.826370 0.563126 0.000000
66.99220276 163.37899780 214.50000000 0.682674 -0.023830 -0.730335 0.000000
123.04699707 136.03500366 133.50000000 -0.759099 0.012490 0.650855 0.000000
118.26200104 172.26600647 211.50000000 0.012164 0.517634 -0.855516 0.000000
219.43400574 109.37500000 214.50000000 -0.271909 -0.163687 -0.948300 0.000000
133.30099487 215.33200073 184.50000000 -0.492908 -0.361252 -0.791542 0.000000
142.87100220 64.25779724 181.50000000 0.122158 0.943704 -0.307409 0.000000
125.09799957 201.66000366 127.50000000 -0.779649 -0.580457 0.234984 0.000000
32.81250000 221.82600403 126.00000000 0.926184 -0.372328 -0.059626 0.000000
145.60499573 95.70310211 148.50000000 0.000978 0.000978 0.999999 0.000000
92.96880341 255.66400146 136.50000000 -0.217465 -0.797373 0.562943 0.000000
51.95309830 249.16999817 123.00000000 0.685977 -0.725909 -0.049915 0.000000
178.75999451 60.83980179 168.00000000 -0.863816 -0.182246 0.469690 0.000000
56.05469894 161.32800293 196.50000000 0.939486 0.111556 -0.323914 0.000000
85.10739899 263.18399048 141.00000000 -0.085479 -0.875805 0.475036 0.000000
102.53900146 237.89100647 136.50000000 -0.216927 0.869205 0.444327 0.000000
129.88299561 92.28520203 214.50000000 -0.000978 -0.000978 -0.999999 0.000000
111.42600250 201.66000366 115.50000000 -0.424772 -0.614670 0.664643 0.000000
64.59960175 179.78500366 204.00000000 -0.208421 -0.829119 -0.518770 0.000000
99.80470276 168.84800720 82.50000000 -0.000978 -0.000978 0.999999 0.000000
134.66799927 149.70700073 220.50000000 -0.279230 0.458183 -0.843859 0.000000
66.65039825 139.45300293 66.00000000 -0.530710 0.226128 0.816831 0.000000
153.12500000 90.23439789 154.50000000 -0.461699 0.085086 0.882946 0.000000
140.82000732 170.89799500 142.50000000 -0.355916 0.567190 0.742711 0.000000
49.90230179 190.72300720 43.50000000 0.193366 -0.490161 0.849913 0.000000
96.38670349 196.19099426 205.50000000 0.130279 -0.681343 -0.720277 0.000000
20.50779915 166.11300659 118.50000000 0.892399 -0.297466 -0.339321 0.000000
69.04299927 197.55900574 205.50000000 0.312751 -0.243571 -0.918074 0.000000
132.61700439 84.42379761 210.00000000 0.057336 0.530007 -0.846053 0.000000
43.75000000 109.03299713 144.00000000 0.897482 0.364003 -0.249055 0.000000
196.19099426 99.80470276 184.50000000 0.174626 0.981518 -0.078281 0.000000
142.52900696 82.71479797 210.00000000 0.141588 0.594671 -0.791404 0.000000
124.41400146 79.98049927 202.50000000 0.305184 0.666883 -0.679801 0.000000
133.64300537 136.71899414 156.00000000 -0.922593 0.082399 0.376872 0.000000
48.53519821 210.20500183 54.00000000 0.747203 -0.149441 0.647576 0.000000
144.23800659 153.12500000 157.50000000 -0.338236 0.940679 0.026804 0.000000
136.71899414 224.21899414 154.50000000 -0.596176 -0.295691 0.746419 0.000000
148.33999634 145.60499573 160.50000000 0.272653 0.206220 0.939752 0.000000
46.48440170 216.69900513 61.50000000 0.556347 -0.472811 0.683321 0.000000
44.43360138 164.06199646 175.50000000 0.870761 0.459609 -0.174740 0.000000
62.20700073 129.19900513 67.50000000 -0.587718 0.346770 0.730984 0.000000
101.85500336 218.06599426 124.50000000 0.161057 -0.962415 0.218671 0.000000
153.12500000 167.47999573 148.50000000 -0.000978 -0.000978 0.999999 0.000000
162.69500732 171.58200073 193.50000000 -0.096961 -0.814759 -0.571634 0.000000
69.72660065 161.32800293 55.50000000 -0.552103 0.286334 0.783068 0.000000
138.08599854 200.97700500 190.50000000 -0.525389 -0.485359 -0.698851 0.000000
119.28700256 176.36700439 105.00000000 -0.783109 0.184710 0.593820 0.000000
112.45099640 95.01950073 138.00000000 0.696143 -0.495814 -0.519186 0.000000
25.29299927 202.34399414 112.50000000 0.967806 -0.242886 -0.066015 0.000000
21.87500000 137.40199280 121.50000000 0.867486 0.088864 -0.489460 0.000000
51.95309830 191.40600586 43.50000000 0.271860 -0.330641 0.903752 0.000000
97.75389862 238.57400513 133.50000000 -0.256608 -0.471728 0.843579 0.000000
28.71089935 129.88299561 133.50000000 0.922901 -0.011585 -0.384864 0.000000
82.71479797 251.56199646 130.50000000 0.000978 0.000978 0.999999 0.000000
60.15620041 94.67769623 129.00000000 0.617807 0.773381 0.142111 0.000000
116.21099854 124.41400146 217.50000000 -0.123633 0.713497 -0.689664 0.000000
30.76169968 131.25000000 58.50000000 0.798692 0.491380 0.347327 0.000000
92.96880341 188.67199707 214.50000000 0.296457 -0.874168 -0.384634 0.000000
17.08979988 160.64500427 112.50000000 0.910686 -0.086276 -0.403989 0.000000
24.60939980 175.68400574 127.50000000 0.921129 -0.035479 -0.387636 0.000000
80.32230377 116.21099854 108.00000000 -0.364752 0.727868 0.580659 0.000000
77.24610138 205.76199341 202.50000000 0.154421 -0.589199 -0.793095 0.000000
113.47699738 231.73800659 139.50000000 -0.200212 -0.557844 0.805435 0.000000
168.16400146 179.44299316 159.00000000 0.044967 -0.884348 0.464657 0.000000
219.77499390 153.12500000 201.00000000 0.045439 -0.863336 -0.502580 0.000000
148.33999634 129.19900513 214.50000000 0.404972 -0.291886 -0.866487 0.000000
39.99020004 179.78500366 174.00000000 0.974705 -0.001170 -0.223492 0.000000
153.80900574 97.07029724 217.50000000 -0.000978 -0.000978 -0.999999 0.000000
26.66020012 162.01199341 52.50000000 0.637988 -0.254879 0.726642 0.000000
120.99600220 238.57400513 142.50000000 -0.000978 -0.000978 0.999999 0.000000
127.14800262 88.86720276 154.50000000 0.468870 0.468870 0.748547 0.000000
61.86520004 215.33200073 60.00000000 -0.776298 -0.480100 0.408492 0.000000
131.25000000 180.46899414 208.50000000 -0.212059 -0.523283 -0.825352 0.000000
204.73599243 108.69100189 198.00000000 -0.357954 0.864927 -0.351809 0.000000
171.58200073 59.81449890 183.00000000 0.158628 0.944987 -0.286072 0.000000
116.21099854 109.37500000 133.50000000 0.686955 -0.308726 -0.657861 0.000000
120.65399933 125.78099823 132.00000000 -0.361477 0.324872 0.873952 0.000000
89.20899963 216.01600647 117.00000000 0.636378 -0.636378 -0.435944 0.000000
203.36900330 106.64099884 195.00000000 -0.878837 0.320267 0.353660 0.000000
99.12110138 238.57400513 133.50000000 -0.001168 0.975327 0.220763 0.000000
140.13699341 192.08999634 148.50000000 -0.950868 0.266887 0.156913 0.000000
202.34399414 81.68949890 213.00000000 -0.255870 0.516392 -0.817233 0.000000
54.00389862 215.33200073 187.50000000 0.000978 0.000978 -0.999999 0.000000
108.69100189 80.32230377 141.00000000 0.769965 -0.364720 -0.523576 0.000000
34.17969894 173.63299561 151.50000000 0.986178 -0.108515 0.125210 0.000000
61.52339935 234.81399536 180.00000000 0.130654 -0.547572 -0.826496 0.000000
75.19529724 143.55499268 70.50000000 -0.677477 0.315293 0.664542 0.000000
162.01199341 114.16000366 217.50000000 -0.000978 -0.000978 -0.999999 0.000000
125.09799957 168.16400146 214.50000000 -0.489862 -0.244163 -0.836911 0.000000
92.28520203 178.41799927 82.50000000 -0.727819 -0.247869 0.639407 0.000000
179.78500366 136.71899414 211.50000000 -0.158703 -0.407481 -0.899318 0.000000
75.87889862 112.10900116 196.50000000 0.790481 0.591731 -0.158096 0.000000
114.84400177 87.50000000 148.50000000 0.854278 -0.358146 -0.376751 0.000000
24.26759911 176.36700439 63.00000000 0.905529 -0.191471 0.378623 0.000000
83.39839935 93.65229797 112.50000000 -0.356609 0.078801 0.930924 0.000000
136.03500366 123.38899994 156.00000000 -0.201613 -0.767977 0.607917 0.000000
149.02299500 161.32800293 214.50000000 -0.565415 -0.103199 -0.818325 0.000000
80.66410065 198.24200439 205.50000000 -0.000978 -0.000978 -0.999999 0.000000
54.00389862 233.78900146 175.50000000 0.577226 -0.637810 -0.509911 0.000000
67.33399963 227.63699341 105.00000000 -0.687461 -0.516850 0.510160 0.000000
183.20300293 107.32399750 175.50000000 0.000978 0.000978 0.999999 0.000000
51.26950073 245.41000366 157.50000000 0.786349 -0.492477 -0.372991 0.000000
120.31199646 175.00000000 106.50000000 -0.755514 0.192341 0.626261 0.000000
45.45899963 137.40199280 153.00000000 0.642391 0.195644 -0.740984 0.000000
169.53100586 144.92199707 157.50000000 0.000978 0.000978 0.999999 0.000000
83.39839935 172.94900513 220.50000000 0.235154 -0.133817 -0.962702 0.000000
24.95120049 186.62100220 72.00000000 0.844238 -0.422899 0.329269 0.000000
90.91799927 228.32000732 193.50000000 -0.311215 -0.730467 -0.607917 0.000000
132.61700439 202.34399414 136.50000000 -0.710859 -0.461142 0.531063 0.000000
90.91799927 110.74199677 211.50000000 0.015221 0.601921 -0.798410 0.000000
90.23439789 224.90199280 196.50000000 -0.398108 -0.336146 -0.853531 0.000000
111.42600250 130.56599426 127.50000000 0.000978 0.000978 0.999999 0.000000
202.34399414 118.26200104 214.50000000 -0.103100 -0.122061 -0.987153 0.000000
187.98800659 97.07029724 184.50000000 -0.366166 0.128504 0.921634 0.000000
148.33999634 77.24610138 151.50000000 -0.190797 -0.242217 0.951277 0.000000
136.71899414 86.13279724 211.50000000 0.063763 0.568199 -0.820417 0.000000
62.54880142 187.98800659 204.00000000 0.300967 0.370538 -0.878704 0.000000
180.46899414 147.65600586 169.50000000 -0.535713 -0.714836 0.449468 0.000000
144.92199707 161.32800293 217.50000000 -0.290285 -0.870854 -0.396672 0.000000
80.66410065 101.85500336 109.50000000 -0.606252 -0.181723 0.774232 0.000000
58.10549927 252.24600220 157.50000000 0.565803 -0.810637 -0.150781 0.000000
175.00000000 168.84800720 193.50000000 0.119564 -0.792664 -0.597819 0.000000
94.33589935 255.66400146 166.50000000 0.109385 -0.818202 -0.564428 0.000000
133.30099487 166.45500183 144.00000000 -0.135253 0.587089 0.798144 0.000000
95.01950073 208.49600220 202.50000000 -0.000978 -0.000978 -0.999999 0.000000
27.68549919 158.59399414 135.00000000 0.826370 -0.001357 -0.563126 0.000000
160.64500427 172.94900513 151.50000000 -0.411511 -0.576776 0.705683 0.000000
14.69729996 161.32800293 84.00000000 0.912037 -0.229816 0.339665 0.000000
190.03900146 158.59399414 190.50000000 -0.297466 -0.892399 0.339321 0.000000
191.40600586 116.89499664 178.50000000 -0.832127 -0.048949 0.552421 0.000000
17.77339935 161.32800293 73.50000000 0.956630 0.259224 0.132902 0.000000
137.40199280 198.92599487 142.50000000 -0.833327 -0.184683 0.521017 0.000000
155.85899353 69.72660065 151.50000000 0.000978 0.000978 0.999999 0.000000
33.49610138 115.18599701 120.00000000 0.537144 0.843303 0.017768 0.000000
77.24610138 220.45899963 195.00000000 0.259500 -0.432500 -0.863483 0.000000
51.95309830 244.38499451 102.00000000 -0.123269 -0.848383 0.514831 0.000000
131.93400574 114.16000366 148.50000000 -0.425099 0.361888 0.829655 0.000000
72.46089935 140.82000732 211.50000000 -0.236675 0.738238 -0.631656 0.000000
105.61499786 205.07800293 117.00000000 -0.974705 -0.001170 -0.223492 0.000000
134.66799927 86.81639862 148.50000000 0.161562 -0.517295 0.840419 0.000000
48.19340134 194.14100647 45.00000000 0.217811 -0.344747 0.913076 0.000000
108.00800323 120.99600220 214.50000000 -0.155088 0.509573 -0.846335 0.000000
103.90599823 93.65229797 130.50000000 0.669331 -0.199408 -0.715705 0.000000
81.00589752 177.05099487 63.00000000 -0.668004 -0.359442 0.651591 0.000000
39.64839935 223.53500366 154.50000000 0.860467 -0.375392 -0.344496 0.000000
135.35200500 120.31199646 211.50000000 0.157508 -0.308169 -0.938202 0.000000
78.61329651 208.49600220 202.50000000 0.070988 -0.482999 -0.872739 0.000000
54.00389862 190.03900146 199.50000000 0.711065 -0.026753 -0.702617 0.000000
23.92580032 177.05099487 127.50000000 0.934085 -0.070023 -0.350117 0.000000
32.81250000 186.62100220 55.50000000 0.795648 -0.306507 0.522492 0.000000
136.03500366 168.84800720 142.50000000 -0.161217 0.586107 0.794032 0.000000
90.23439789 236.52299500 130.50000000 -0.274831 -0.611618 0.741884 0.000000
105.27300262 248.14500427 178.50000000 0.335075 -0.587595 -0.736517 0.000000
84.76560211 110.05899811 208.50000000 0.394081 0.713963 -0.578755 0.000000
164.06199646 75.87889862 157.50000000 -0.668350 -0.149360 0.728697 0.000000
176.70899963 74.51170349 168.00000000 -0.886184 -0.194814 0.420388 0.000000
149.02299500 71.09380341 148.50000000 -0.518392 -0.723761 0.455456 0.000000
172.26600647 113.47699738 157.50000000 -0.616944 -0.343470 0.708102 0.000000
60.83980179 233.78900146 100.50000000 -0.001170 -0.974705 0.223492 0.000000
119.97100067 196.19099426 204.00000000 -0.136417 -0.200163 -0.970219 0.000000
170.89799500 106.64099884 157.50000000 -0.465759 -0.033751 0.884268 0.000000
39.64839935 232.08000183 90.00000000 0.698034 -0.698034 0.159681 0.000000
125.09799957 177.05099487 211.50000000 -0.000978 -0.000978 -0.999999 0.000000
148.33999634 142.87100220 214.50000000 -0.303575 0.166211 -0.938198 0.000000
96.38670349 151.75799561 211.50000000 0.777808 -0.300625 -0.551941 0.000000
40.33200073 221.48399353 73.50000000 0.778794 -0.476381 0.408094 0.000000
76.90429688 81.34770203 141.00000000 0.578878 0.811578 -0.079003 0.000000
138.77000427 155.17599487 217.50000000 -0.000978 -0.000978 -0.999999 0.000000
35.20510101 209.17999268 72.00000000 0.850025 -0.314308 0.422690 0.000000
128.51600647 99.80470276 214.50000000 0.254437 -0.271495 -0.928199 0.000000
111.42600250 107.32399750 127.50000000 0.615432 0.782081 -0.097943 0.000000
191.06399536 118.94499969 216.00000000 -0.241844 -0.359102 -0.901420 0.000000
47.16799927 234.47300720 79.50000000 0.786696 -0.449309 0.423356 0.000000
91.60160065 104.58999634 205.50000000 0.303931 0.606254 -0.734902 0.000000
210.54699707 127.83200073 190.50000000 -0.774820 0.349555 0.526749 0.000000
107.32399750 162.01199341 94.50000000 -0.819282 -0.102954 0.564072 0.000000
86.47460175 168.84800720 69.00000000 -0.752971 -0.023837 0.657622 0.000000
147.99800110 58.10549927 156.00000000 0.000978 0.999999 0.000978 0.000000
176.36700439 86.81639862 217.50000000 -0.000978 -0.000978 -0.999999 0.000000
188.67199707 117.57800293 217.50000000 -0.259794 -0.183624 -0.948045 0.000000
147.65600586 151.07400513 214.50000000 -0.189361 0.260201 -0.946804 0.000000
179.10200500 111.42600250 217.50000000 -0.000978 -0.000978 -0.999999 0.000000
180.46899414 105.27300262 169.50000000 -0.805789 0.373258 0.459764 0.000000
66.99220276 166.11300659 52.50000000 -0.713696 0.035331 0.699564 0.000000
133.30099487 202.34399414 193.50000000 -0.457392 -0.543881 -0.703552 0.000000
112.10900116 131.25000000 127.50000000 -0.351699 -0.086922 0.932069 0.000000
92.62699890 141.50399780 90.00000000 -0.849835 0.372680 0.372680 0.000000
26.31839943 135.35200500 129.00000000 0.847881 0.105085 -0.519669 0.000000
29.73629951 211.22999573 90.00000000 0.926745 -0.351144 0.133572 0.000000
216.69900513 130.56599426 196.50000000 -0.697425 0.230385 0.678618 0.000000
129.19900513 187.30499268 205.50000000 -0.486042 -0.586951 -0.647496 0.000000
140.13699341 207.12899780 151.50000000 -0.790385 -0.187317 0.583270 0.000000
38.62300110 233.78900146 123.00000000 0.854899 -0.512940 -0.077718 0.000000
155.17599487 120.31199646 148.50000000 -0.921022 -0.368685 0.125657 0.000000
156.54299927 162.01199341 151.50000000 0.579955 -0.708833 0.401507 0.000000
126.46499634 130.56599426 136.50000000 -0.811464 -0.263220 0.521767 0.000000
25.63479996 200.29299927 93.00000000 0.935989 -0.187198 0.298130 0.000000
71.77729797 198.92599487 205.50000000 -0.000978 -0.000978 -0.999999 0.000000
174.31599426 146.97300720 160.50000000 -0.639909 -0.158843 0.751855 0.000000
52.63669968 119.62899780 157.50000000 0.577233 0.066988 -0.813827 0.000000
146.28900146 103.90599823 148.50000000 0.000978 0.000978 0.999999 0.000000
198.24200439 108.69100189 184.50000000 0.000978 0.000978 0.999999 0.000000
26.66020012 193.45700073 130.50000000 0.941672 -0.072033 -0.328734 0.000000
58.78910065 93.99410248 138.00000000 0.617408 0.784888 -0.052515 0.000000
177.05099487 154.14999390 171.00000000 0.000978 -0.999999 0.000978 0.000000
133.30099487 233.10499573 181.50000000 0.182070 -0.619649 -0.763469 0.000000
55.37110138 196.19099426 43.50000000 -0.516930 0.367846 0.772964 0.000000
25.97660065 194.82400513 127.50000000 0.950358 0.041872 -0.308327 0.000000
212.59800720 159.27699280 199.50000000 -0.196384 -0.979538 -0.044038 0.000000
168.84800720 153.12500000 208.50000000 -0.259878 0.133237 -0.956405 0.000000
52.63669968 101.85500336 148.50000000 0.741709 0.531202 -0.409502 0.000000
68.01760101 160.64500427 216.00000000 0.642758 0.110820 -0.758011 0.000000
57.42190170 135.00999451 60.00000000 -0.506900 0.450761 0.734757 0.000000
25.97660065 173.63299561 130.50000000 0.867007 0.001336 -0.498295 0.000000
166.11300659 105.27300262 220.50000000 0.347300 -0.878109 -0.329101 0.000000
53.66210175 99.12110138 129.00000000 0.545446 0.826299 0.140426 0.000000
102.53900146 225.58599854 193.50000000 -0.031743 -0.545150 -0.837737 0.000000
127.83200073 241.99200439 175.50000000 -0.061330 -0.797294 -0.600467 0.000000
112.79299927 193.11500549 207.00000000 0.098211 -0.241063 -0.965527 0.000000
172.94900513 105.95700073 220.50000000 0.256494 -0.115878 -0.959574 0.000000
120.99600220 221.48399353 136.50000000 -0.421335 -0.440706 0.792625 0.000000
160.64500427 77.92970276 208.50000000 0.133185 0.725785 -0.674905 0.000000
131.93400574 64.25779724 172.50000000 0.297466 0.892399 -0.339321 0.000000
104.58999634 86.81639862 133.50000000 0.671354 -0.136674 -0.728426 0.000000
83.74019623 177.05099487 66.00000000 -0.771119 -0.333239 0.542520 0.000000
34.17969894 157.91000366 145.50000000 0.854605 0.040038 -0.517733 0.000000
56.05469894 141.50399780 55.50000000 -0.731080 0.434027 0.526444 0.000000
109.37500000 165.08799744 129.00000000 0.998854 -0.017596 -0.044509 0.000000
100.48799896 101.17199707 124.50000000 -0.565486 0.422870 0.708101 0.000000
97.07029724 147.31399536 222.00000000 0.582607 -0.717181 -0.382387 0.000000
69.38480377 88.18360138 126.00000000 0.630637 0.773638 0.061491 0.000000
163.03700256 73.82810211 156.00000000 -0.630074 -0.067457 0.773599 0.000000
168.16400146 60.83980179 184.50000000 0.081807 0.967846 -0.237871 0.000000
184.57000732 126.46499634 214.50000000 0.013095 -0.232137 -0.972595 0.000000
211.22999573 120.31199646 211.50000000 -0.650624 -0.509403 -0.563202 0.000000
96.38670349 218.75000000 196.50000000 -0.065632 -0.498524 -0.864388 0.000000
123.04699707 76.22070313 198.00000000 0.302731 0.757629 -0.578232 0.000000
21.19140053 185.25399780 85.50000000 -0.001357 -0.826370 0.563126 0.000000
154.49200439 139.45300293 211.50000000 0.044202 -0.201894 -0.978409 0.000000
186.27900696 83.39839935 183.00000000 0.934607 0.351621 0.053593 0.000000
62.89059830 101.17199707 160.50000000 0.388313 0.508544 -0.768502 0.000000
168.84800720 88.18360138 217.50000000 -0.231674 0.186143 -0.954818 0.000000
116.21099854 192.77299500 112.50000000 -0.336250 -0.618896 0.709862 0.000000
49.21879959 233.44700623 171.00000000 0.624670 -0.671064 -0.399325 0.000000
146.28900146 79.98049927 151.50000000 -0.376443 -0.014133 0.926332 0.000000
84.76560211 202.34399414 97.50000000 -0.580892 -0.671291 0.460361 0.000000
183.20300293 84.08200073 217.50000000 -0.000978 -0.000978 -0.999999 0.000000
103.90599823 146.63099670 225.00000000 -0.279225 -0.245208 -0.928389 0.000000
179.10200500 117.57800293 163.50000000 -0.800074 0.176954 0.573210 0.000000
147.65600586 145.60499573 160.50000000 0.272653 0.206220 0.939752 0.000000
92.28520203 144.23800659 220.50000000 0.698034 -0.698034 -0.159681 0.000000
110.05899811 239.25799561 187.50000000 0.000978 0.000978 -0.999999 0.000000
142.87100220 174.31599426 208.50000000 -0.076638 -0.629010 -0.773610 0.000000
189.35499573 155.85899353 202.50000000 -0.424718 -0.537095 -0.728796 0.000000
164.74600220 121.68000031 151.50000000 -0.415660 0.025072 0.909174 0.000000
136.71899414 104.58999634 148.50000000 -0.000978 -0.000978 0.999999 0.000000
192.08999634 86.13279724 184.50000000 0.000978 0.000978 0.999999 0.000000
24.60939980 183.88699341 124.50000000 0.931793 -0.092776 -0.350935 0.000000
42.38280106 127.14800262 148.50000000 0.675843 0.123830 -0.726569 0.000000
131.93400574 129.88299561 148.50000000 -0.975213 0.001171 0.221267 0.000000
138.08599854 139.45300293 217.50000000 -0.367480 0.854352 -0.367480 0.000000
118.26200104 242.67599487 181.50000000 -0.603978 0.299586 0.738552 0.000000
94.33589935 198.24200439 202.50000000 0.273919 -0.209958 -0.938555 0.000000
152.44099426 80.66410065 151.50000000 -0.370729 0.003822 0.928733 0.000000
16.40620041 139.45300293 91.50000000 0.804019 0.573444 0.157210 0.000000
32.81250000 172.26600647 49.50000000 0.496858 -0.383568 0.778465 0.000000
105.95700073 145.26400757 225.00000000 -0.235948 -0.258286 -0.936812 0.000000
171.58200073 175.00000000 160.50000000 -0.826013 -0.265006 0.497468 0.000000
190.38099670 153.80900574 204.00000000 -0.315925 -0.685314 -0.656152 0.000000
61.18159866 256.34799194 129.00000000 0.974705 0.001170 0.223492 0.000000
88.18360138 172.94900513 223.50000000 0.166988 0.955170 -0.244470 0.000000
69.72660065 246.09399414 175.50000000 0.539026 -0.806209 0.243882 0.000000
38.28120041 156.54299927 151.50000000 0.816199 0.256520 -0.517703 0.000000
50.58589935 120.99600220 64.50000000 -0.636378 0.636378 0.435944 0.000000
149.02299500 63.57419968 184.50000000 0.261126 0.908837 -0.325314 0.000000
46.48440170 236.86500549 84.00000000 0.934666 -0.234017 0.267648 0.000000
91.60160065 192.43200684 207.00000000 0.265917 -0.778869 -0.568024 0.000000
73.14450073 131.25000000 199.50000000 -0.020997 0.715300 -0.698502 0.000000
117.57800293 76.56250000 193.50000000 0.428026 0.752735 -0.500184 0.000000
173.97500610 180.46899414 174.00000000 -0.123589 -0.961390 -0.245876 0.000000
99.80470276 187.98800659 97.50000000 -0.580690 -0.567146 0.584076 0.000000
20.16600037 172.26600647 72.00000000 0.915740 -0.321590 0.240832 0.000000
146.28900146 80.66410065 151.50000000 -0.383538 -0.035343 0.922848 0.000000
80.66410065 209.17999268 100.50000000 -0.584280 -0.661291 0.470437 0.000000
67.33399963 164.74600220 216.00000000 0.682674 -0.023830 -0.730335 0.000000
112.79299927 226.27000427 136.50000000 -0.283640 -0.343042 0.895472 0.000000
143.55499268 168.16400146 145.50000000 -0.248940 0.580861 0.775003 0.000000
169.53100586 120.31199646 217.50000000 0.000978 0.000978 -0.999999 0.000000
84.76560211 144.92199707 208.50000000 0.160932 0.792630 -0.588080 0.000000
104.58999634 150.39100647 97.50000000 -0.870854 0.290285 0.396672 0.000000
110.74199677 160.64500427 100.50000000 -0.843051 0.296543 0.448696 0.000000
162.01199341 61.18159866 183.00000000 0.104979 0.970104 -0.218811 0.000000
114.16000366 97.07029724 211.50000000 0.814650 0.232537 -0.531293 0.000000
30.76169968 189.35499573 145.50000000 0.927253 0.084785 -0.364710 0.000000
82.71479797 121.68000031 220.50000000 -0.448377 -0.133224 0.883861 0.000000
142.87100220 192.77299500 193.50000000 -0.552155 -0.606188 -0.572417 0.000000
85.44920349 85.44920349 175.50000000 0.678824 0.481044 -0.554792 0.000000
144.23800659 142.87100220 160.50000000 0.082316 -0.461807 0.883153 0.000000
52.63669968 136.03500366 166.50000000 0.892590 0.333413 -0.303511 0.000000
73.14450073 236.52299500 118.50000000 -0.731057 -0.098553 0.675161 0.000000
191.40600586 77.24610138 184.50000000 0.000978 0.000978 0.999999 0.000000
97.75389862 246.09399414 178.50000000 0.198865 -0.633593 -0.747671 0.000000
185.25399780 146.97300720 178.50000000 -0.593662 -0.597045 0.539539 0.000000
177.05099487 73.14450073 166.50000000 -0.876158 -0.438818 0.199463 0.000000
159.27699280 126.46499634 148.50000000 -0.436358 -0.049985 0.898384 0.000000
219.43400574 146.97300720 202.50000000 -0.097968 -0.194696 -0.975959 0.000000
123.04699707 216.69900513 190.50000000 -0.622032 -0.581574 -0.524260 0.000000
105.27300262 175.68400574 217.50000000 -0.683481 -0.456211 -0.569846 0.000000
120.31199646 145.26400757 135.00000000 -0.741875 -0.394684 0.542076 0.000000
98.43750000 255.32200623 168.00000000 0.193133 -0.703002 -0.684462 0.000000
226.95300293 139.45300293 199.50000000 -0.050353 -0.450453 0.891379 0.000000
43.06639862 179.78500366 190.50000000 0.964429 -0.114598 -0.238210 0.000000
82.71479797 136.03500366 205.50000000 0.046630 -0.197282 -0.979237 0.000000
121.68000031 209.86300659 127.50000000 -0.845719 -0.233144 0.480003 0.000000
49.90230179 178.41799927 196.50000000 0.493711 0.408982 -0.767452 0.000000
217.38299561 101.17199707 205.50000000 -0.529583 0.117524 0.840078 0.000000
38.28120041 112.45099640 90.00000000 0.668888 0.743362 0.001379 0.000000
198.58399963 101.17199707 186.00000000 -0.525174 0.850864 0.014927 0.000000
134.66799927 192.77299500 199.50000000 -0.416738 -0.400771 -0.815912 0.000000
60.83980179 229.00399780 94.50000000 -0.546495 -0.654112 0.522954 0.000000
37.25590134 221.48399353 78.00000000 0.722880 -0.483582 0.493552 0.000000
164.74600220 163.03700256 204.00000000 -0.465804 -0.769802 -0.436385 0.000000
219.43400574 124.41400146 199.50000000 -0.633627 0.243703 0.734252 0.000000
23.24220085 162.01199341 127.50000000 0.904019 0.036054 -0.425970 0.000000
132.27499390 192.08999634 201.00000000 -0.424095 -0.433770 -0.794976 0.000000
103.90599823 152.44099426 94.50000000 -0.870854 0.290285 0.396672 0.000000
90.23439789 239.25799561 184.50000000 0.129687 -0.767687 -0.627565 0.000000
155.85899353 156.54299927 148.50000000 -0.096853 -0.377862 0.920782 0.000000
160.30299377 123.04699707 150.00000000 -0.446446 0.126945 0.885760 0.000000
140.82000732 219.43400574 160.50000000 -0.825507 0.001360 0.564391 0.000000
112.10900116 200.29299927 115.50000000 -0.424772 -0.614670 0.664643 0.000000
224.21899414 107.66600037 207.00000000 -0.859852 -0.390561 0.328812 0.000000
45.11719894 144.92199707 46.50000000 0.000978 0.000978 0.999999 0.000000
79.29689789 171.58200073 220.50000000 -0.000978 -0.000978 -0.999999 0.000000
89.55079651 217.72500610 198.00000000 0.001378 -0.660161 -0.751123 0.000000
91.60160065 228.66200256 192.00000000 -0.117281 -0.654696 -0.746739 0.000000
130.56599426 172.26600647 112.50000000 -0.000978 -0.000978 0.999999 0.000000
202.34399414 98.43750000 202.50000000 -0.716000 0.396681 0.574446 0.000000
103.90599823 251.56199646 139.50000000 -0.640493 -0.206261 0.739747 0.000000
120.31199646 133.98399353 130.50000000 -0.360697 -0.032320 0.932123 0.000000
140.13699341 186.96299744 201.00000000 -0.348324 -0.636142 -0.688472 0.000000
159.27699280 176.70899963 186.00000000 -0.867636 -0.236081 -0.437577 0.000000
166.79699707 131.25000000 214.50000000 0.203340 -0.446753 -0.871243 0.000000
108.00800323 226.95300293 190.50000000 -0.465284 -0.158984 -0.870767 0.000000
17.08979988 140.13699341 85.50000000 0.881431 0.442894 0.164088 0.000000
42.38280106 145.60499573 46.50000000 0.000978 0.000978 0.999999 0.000000
108.00800323 170.21499634 217.50000000 -0.794796 0.193741 -0.575121 0.000000
71.77729797 219.09199524 102.00000000 -0.683321 -0.556347 0.472811 0.000000
211.91400146 142.18800354 205.50000000 -0.235025 0.001181 -0.971989 0.000000
73.48629761 192.77299500 63.00000000 -0.849430 -0.350682 0.394323 0.000000
187.98800659 98.43750000 220.50000000 -0.069351 -0.539241 -0.839291 0.000000
196.53300476 116.21099854 183.00000000 -0.449249 0.375707 0.810567 0.000000
137.40199280 136.71899414 160.50000000 -0.784159 0.376719 0.493131 0.000000
69.72660065 212.59800720 196.50000000 0.305448 -0.474619 -0.825493 0.000000
162.35400391 178.41799927 171.00000000 0.731719 -0.680964 0.029607 0.000000
78.61329651 190.72300720 205.50000000 0.022664 -0.223059 -0.974541 0.000000
61.52339935 101.85500336 160.50000000 0.388313 0.508544 -0.768502 0.000000
225.58599854 124.41400146 208.50000000 -0.783734 -0.178052 -0.595029 0.000000
60.49800110 97.07029724 120.00000000 0.590420 0.785701 0.184602 0.000000
209.17999268 153.12500000 190.50000000 -0.177460 -0.508521 0.842564 0.000000
39.64839935 146.28900146 46.50000000 0.000978 0.000978 0.999999 0.000000
139.45300293 74.85350037 201.00000000 0.269372 0.702918 -0.658289 0.000000
67.67579651 258.73999023 129.00000000 -0.579049 -0.771540 0.263491 0.000000
99.80470276 104.58999634 208.50000000 0.003849 0.386161 -0.922424 0.000000
62.54880142 207.12899780 198.00000000 0.270004 -0.579482 -0.768959 0.000000
53.32030106 140.13699341 52.50000000 -0.731080 0.434027 0.526444 0.000000
56.39649963 128.51600647 168.00000000 0.863596 0.443141 -0.240476 0.000000
131.25000000 169.87300110 141.00000000 0.006925 0.649520 0.760313 0.000000
99.12110138 211.22999573 118.50000000 -0.001357 -0.826370 0.563126 0.000000
172.94900513 79.98049927 214.50000000 0.159093 0.634858 -0.756072 0.000000
172.26600647 95.70310211 220.50000000 0.205948 0.005818 -0.978546 0.000000
92.28520203 209.17999268 112.50000000 -0.347526 -0.538261 0.767790 0.000000
29.39450073 195.50799561 70.50000000 0.859748 -0.435219 0.267240 0.000000
178.41799927 108.69100189 166.50000000 -0.607761 0.387056 0.693407 0.000000
78.61329651 133.30099487 82.50000000 -0.551551 0.551551 0.625766 0.000000
113.81800079 94.33589935 141.00000000 0.722810 -0.438317 -0.534251 0.000000
141.50399780 196.87500000 190.50000000 -0.575446 -0.518071 -0.632822 0.000000
127.14800262 136.71899414 220.50000000 -0.000978 -0.000978 -0.999999 0.000000
123.73000336 177.73399353 109.50000000 -0.718565 0.240570 0.652526 0.000000
116.55300140 151.07400513 123.00000000 0.975427 -0.161943 0.149390 0.000000
99.12110138 101.17199707 205.50000000 0.688542 0.423080 -0.588994 0.000000
121.68000031 216.69900513 190.50000000 -0.622032 -0.581574 -0.524260 0.000000
170.89799500 59.47269821 181.50000000 0.158628 0.944987 -0.286072 0.000000
27.00200081 129.88299561 129.00000000 0.918138 0.131956 -0.373645 0.000000
188.67199707 142.18800354 208.50000000 -0.000978 -0.000978 -0.999999 0.000000
77.92970276 145.60499573 73.50000000 -0.698034 0.698034 0.159681 0.000000
223.53500366 139.45300293 199.50000000 -0.163881 -0.566819 0.807378 0.000000
43.06639862 146.97300720 46.50000000 0.000978 0.000978 0.999999 0.000000
34.17969894 164.06199646 148.50000000 0.891232 0.203418 -0.405372 0.000000
40.33200073 188.67199707 181.50000000 0.793769 -0.527595 -0.302614 0.000000
133.98399353 118.94499969 211.50000000 0.090615 -0.308616 -0.946861 0.000000
175.00000000 144.92199707 208.50000000 -0.000978 -0.000978 -0.999999 0.000000
133.64300537 177.73399353 120.00000000 -0.889886 -0.076118 0.449787 0.000000
19.48240089 177.05099487 111.00000000 0.865512 -0.240168 -0.439553 0.000000
151.07400513 155.85899353 148.50000000 0.000978 0.000978 0.999999 0.000000
44.43360138 226.27000427 70.50000000 0.814899 -0.409841 0.409841 0.000000
86.81639862 153.12500000 73.50000000 -0.474560 0.212422 0.854207 0.000000
121.68000031 138.08599854 220.50000000 -0.000978 -0.000978 -0.999999 0.000000
131.93400574 129.88299561 217.50000000 -0.405281 0.263659 -0.875347 0.000000
151.75799561 193.45700073 184.50000000 -0.736819 -0.388922 -0.553025 0.000000
29.05270004 209.17999268 90.00000000 0.935944 -0.331847 0.117840 0.000000
99.80470276 84.76560211 190.50000000 0.314981 0.725263 -0.612193 0.000000
218.75000000 153.12500000 196.50000000 -0.821402 -0.147050 0.551067 0.000000
76.56250000 149.70700073 217.50000000 0.090451 0.160399 -0.982899 0.000000
36.23049927 200.29299927 163.50000000 0.958896 -0.129510 -0.252479 0.000000
108.00800323 146.28900146 223.50000000 -0.235948 -0.258286 -0.936812 0.000000
50.24409866 237.89100647 165.00000000 0.762600 -0.382113 -0.521950 0.000000
46.48440170 197.55900574 187.50000000 0.812088 -0.216455 -0.541904 0.000000
56.05469894 96.38670349 136.50000000 0.617408 0.784888 -0.052515 0.000000
157.91000366 174.31599426 190.50000000 -0.432111 -0.747568 -0.504403 0.000000
147.65600586 97.07029724 148.50000000 0.000978 0.000978 0.999999 0.000000
71.09380341 258.39801025 154.50000000 0.392433 -0.805690 -0.443690 0.000000
41.69919968 229.68800354 79.50000000 0.641817 -0.661616 0.387730 0.000000
159.96099854 64.25779724 190.50000000 0.205966 0.732494 -0.648869 0.000000
80.66410065 157.22700500 67.50000000 -0.709064 0.269285 0.651701 0.000000
170.89799500 86.81639862 217.50000000 -0.000978 -0.000978 -0.999999 0.000000
208.49600220 138.08599854 208.50000000 0.060203 -0.301014 -0.951717 0.000000
45.80080032 147.65600586 46.50000000 -0.372162 0.290799 0.881437 0.000000
203.02699280 142.87100220 208.50000000 -0.158604 -0.458351 -0.874505 0.000000
161.32800293 118.94499969 151.50000000 -0.271693 0.197219 0.941960 0.000000
200.29299927 116.21099854 214.50000000 -0.020508 -0.247307 -0.968720 0.000000
82.71479797 192.08999634 79.50000000 -0.704168 -0.551016 0.447804 0.000000
16.40620041 153.12500000 112.50000000 0.828209 -0.413313 -0.378474 0.000000
45.11719894 215.33200073 178.50000000 0.797770 0.398079 -0.452875 0.000000
41.69919968 206.44500732 58.50000000 -0.469608 -0.879295 -0.079429 0.000000
112.10900116 214.64799500 196.50000000 -0.346402 -0.533298 -0.771751 0.000000
113.81800079 255.66400146 171.00000000 -0.275466 -0.951489 -0.137068 0.000000
120.99600220 177.73399353 106.50000000 -0.756952 0.178916 0.628500 0.000000
209.17999268 151.75799561 202.50000000 -0.215916 -0.540555 -0.813130 0.000000
131.93400574 235.83999634 178.50000000 -0.402863 -0.554142 -0.728442 0.000000
144.58000183 192.08999634 159.00000000 -0.551551 -0.551551 -0.625766 0.000000
62.54880142 239.25799561 177.00000000 0.367214 -0.572855 -0.732797 0.000000
78.61329651 204.73599243 204.00000000 -0.167162 -0.498528 -0.850604 0.000000
213.96499634 153.12500000 190.50000000 -0.203353 -0.693883 0.690778 0.000000
179.10200500 128.51600647 214.50000000 -0.166057 -0.297804 -0.940073 0.000000
157.22700500 170.21499634 196.50000000 -0.541812 -0.756584 -0.366089 0.000000
103.22299957 195.50799561 106.50000000 -0.344659 0.001253 0.938727 0.000000
47.85160065 243.70100403 150.00000000 0.803149 -0.542164 -0.247003 0.000000
159.27699280 62.20700073 187.50000000 -0.069735 0.901092 -0.427984 0.000000
38.96480179 219.43400574 73.50000000 0.764983 -0.460300 0.450472 0.000000
116.89499664 151.07400513 220.50000000 -0.000978 -0.000978 -0.999999 0.000000
74.85350037 114.16000366 105.00000000 -0.611468 0.763173 0.208983 0.000000
69.72660065 160.64500427 55.50000000 -0.599728 0.606486 0.522017 0.000000
110.05899811 172.26600647 97.50000000 -0.552202 -0.312114 0.773083 0.000000
48.53519821 168.84800720 187.50000000 0.817632 0.128169 -0.561293 0.000000
116.89499664 198.92599487 118.50000000 -0.438400 -0.581755 0.685104 0.000000
216.01600647 124.41400146 211.50000000 -0.554944 -0.213677 -0.803977 0.000000
116.89499664 111.42600250 211.50000000 -0.000978 -0.000978 -0.999999 0.000000
97.07029724 132.61700439 109.50000000 -0.261437 0.540095 0.799967 0.000000
79.98049927 264.55099487 142.50000000 0.001334 -0.865851 0.500299 0.000000
44.09180069 194.14100647 186.00000000 0.735954 -0.213162 -0.642599 0.000000
27.68549919 139.45300293 132.00000000 0.865505 0.083032 -0.493971 0.000000
73.14450073 166.79699707 220.50000000 0.733995 -0.629815 -0.254136 0.000000
41.01559830 129.19900513 148.50000000 0.702864 0.012526 -0.711214 0.000000
158.59399414 90.91799927 154.50000000 0.000978 0.000978 0.999999 0.000000
216.01600647 155.51800537 195.00000000 -0.698191 -0.448242 0.558219 0.000000
19.14060020 137.40199280 82.50000000 0.880658 0.449729 0.148946 0.000000
42.38280106 194.14100647 49.50000000 0.713191 -0.254598 0.653099 0.000000
105.95700073 131.25000000 220.50000000 -0.066103 0.530230 -0.845273 0.000000
142.87100220 176.36700439 208.50000000 -0.303959 -0.628826 -0.715672 0.000000
124.41400146 88.52539825 210.00000000 0.396108 0.222351 -0.890875 0.000000
115.52700043 255.32200623 165.00000000 -0.401697 -0.915765 0.003875 0.000000
182.52000427 138.77000427 211.50000000 -0.107104 -0.486966 -0.866829 0.000000
101.85500336 227.63699341 130.50000000 -0.516705 -0.434164 0.737914 0.000000
121.68000031 180.46899414 106.50000000 -0.708869 0.182984 0.681191 0.000000
33.49610138 200.29299927 151.50000000 0.000978 0.000978 -0.999999 0.000000
198.92599487 109.37500000 217.50000000 -0.015638 -0.249011 -0.968374 0.000000
128.51600647 131.59199524 141.00000000 -0.847558 -0.282519 0.449252 0.000000
49.21879959 225.92799377 66.00000000 -0.029882 -0.375477 0.926350 0.000000
163.37899780 86.81639862 217.50000000 0.471110 0.517722 -0.714156 0.000000
149.02299500 91.60160065 217.50000000 0.343660 0.701978 -0.623799 0.000000
69.72660065 147.65600586 214.50000000 0.676744 0.202868 -0.707716 0.000000
123.04699707 77.24610138 199.50000000 0.260294 0.755642 -0.601043 0.000000
124.41400146 168.50599670 126.00000000 -0.001358 0.824239 -0.566240 0.000000
69.04299927 198.92599487 205.50000000 0.298809 -0.284233 -0.911002 0.000000
153.80900574 86.81639862 214.50000000 0.036575 0.470062 -0.881875 0.000000
59.47269821 166.79699707 208.50000000 0.797005 0.183691 -0.575362 0.000000
188.67199707 98.43750000 181.50000000 -0.813155 0.553669 0.179528 0.000000
28.36910057 131.93400574 132.00000000 0.907608 0.100845 -0.407526 0.000000
116.21099854 190.72300720 109.50000000 -0.487644 -0.668625 0.561377 0.000000
96.38670349 76.56250000 178.50000000 0.275341 0.536522 -0.797703 0.000000
83.74019623 169.53100586 66.00000000 -0.783394 -0.029430 0.620829 0.000000
200.29299927 133.30099487 181.50000000 -0.350941 0.059147 0.934528 0.000000
26.66020012 146.97300720 130.50000000 0.879172 -0.031157 -0.475485 0.000000
177.73399353 145.60499573 208.50000000 -0.000978 -0.000978 -0.999999 0.000000
71.09380341 188.33000183 204.00000000 -0.230286 0.737854 -0.634460 0.000000
161.32800293 175.00000000 154.50000000 -0.001357 -0.826370 0.563126 0.000000
149.02299500 190.03900146 169.50000000 -0.739501 0.001382 0.673154 0.000000
66.30860138 90.91799927 154.50000000 0.609174 0.737085 -0.292596 0.000000
148.33999634 155.85899353 148.50000000 0.001294 0.909655 -0.415362 0.000000
120.99600220 226.27000427 187.50000000 0.062513 -0.161590 -0.984876 0.000000
116.21099854 211.22999573 127.50000000 -0.233503 -0.548963 0.802568 0.000000
62.89059830 234.47300720 103.50000000 -0.826370 0.001357 0.563126 0.000000
18.79879951 151.75799561 69.00000000 0.932974 -0.132501 0.334669 0.000000
103.22299957 125.78099823 217.50000000 -0.101534 0.713678 -0.693077 0.000000
60.15620041 239.94099426 175.50000000 0.386470 -0.573949 -0.721958 0.000000
83.05660248 185.25399780 216.00000000 0.436852 -0.821282 -0.366956 0.000000
14.01369953 152.44099426 108.00000000 0.934140 0.056337 -0.352432 0.000000
