113.25800323 131.14100647 231.25000000 -0.705835 -0.621069 0.340691 0.000000
103.46499634 189.89799500 122.50000000 0.661039 -0.329708 -0.674033 0.000000
172.86700439 214.59399414 186.25000000 0.582028 0.751986 -0.309453 0.000000
179.67999268 118.36699677 231.25000000 -0.185974 -0.929872 0.317415 0.000000
152.42999268 246.95300293 253.75000000 0.043380 0.174692 0.983667 0.000000
159.24200439 244.39799500 201.25000000 0.265939 0.389142 -0.881955 0.000000
175.42199707 162.22300720 195.00000000 0.993839 0.012000 0.110184 0.000000
212.89100647 123.47599792 196.25000000 0.563560 0.223880 -0.795159 0.000000
103.89099884 208.63299561 258.75000000 -0.682319 -0.308092 0.662963 0.000000
111.12899780 214.59399414 262.50000000 -0.436787 0.069831 0.896851 0.000000
123.47599792 207.78100586 268.75000000 -0.402322 0.164651 0.900571 0.000000
106.44499969 150.72599792 241.25000000 0.000978 -0.999999 0.000978 0.000000
195.85899353 141.35899353 246.25000000 0.376854 -0.925946 0.024606 0.000000
109.85199738 143.91400146 238.75000000 -0.732237 -0.375128 0.568426 0.000000
174.57000732 223.96099854 256.25000000 0.338239 0.381484 0.860270 0.000000
235.03100586 110.70300293 208.75000000 0.641685 0.189274 -0.743247 0.000000
214.59399414 172.01600647 201.25000000 0.867256 -0.258814 0.425303 0.000000
139.65600586 130.28900146 241.25000000 0.215680 -0.752551 0.622213 0.000000
225.23800659 127.73400116 202.50000000 0.910987 -0.390423 -0.132940 0.000000
232.05099487 120.92199707 207.50000000 0.297508 0.297508 -0.907181 0.000000
218.85099792 113.25800323 231.25000000 0.073535 -0.462025 0.883813 0.000000
255.46899414 183.08599854 231.25000000 0.645798 0.139349 -0.750684 0.000000
93.67179871 143.48800659 172.50000000 -0.813021 -0.562402 -0.150670 0.000000
187.34399414 120.06999969 193.75000000 -0.000978 -0.000978 -0.999999 0.000000
190.75000000 203.09800720 202.50000000 -0.001331 -0.869469 -0.493986 0.000000
142.21099854 120.92199707 226.25000000 0.129720 -0.648602 0.749992 0.000000
165.20300293 234.17999268 256.25000000 0.455419 0.448889 0.768825 0.000000
114.10900116 239.28900146 171.25000000 0.588933 0.534934 -0.605808 0.000000
218.00000000 101.33599854 221.25000000 -0.179181 -0.718256 0.672312 0.000000
105.59400177 261.42999268 238.75000000 -0.282500 0.723009 0.630438 0.000000
105.59400177 165.20300293 251.25000000 -0.360030 -0.360030 0.860672 0.000000
90.26560211 255.89399719 170.00000000 -0.687410 0.687410 -0.234380 0.000000
88.56250000 194.58200073 122.50000000 -0.762186 -0.107620 -0.638349 0.000000
189.47300720 110.70300293 227.50000000 -0.371521 -0.477670 0.796117 0.000000
155.83599854 143.06199646 251.25000000 0.000978 0.000978 0.999999 0.000000
104.31600189 169.46099854 252.50000000 -0.651893 -0.333262 0.681155 0.000000
114.10900116 162.64799500 151.25000000 0.726709 -0.139925 -0.672544 0.000000
180.53100586 147.32000732 213.75000000 0.926571 -0.370894 -0.062480 0.000000
116.23799896 149.87500000 160.00000000 0.754732 -0.352208 -0.553470 0.000000
229.92199707 99.63279724 218.75000000 0.212902 -0.850097 0.481671 0.000000
214.16799927 219.70300293 210.00000000 0.773365 0.633516 0.023774 0.000000
244.39799500 180.53100586 236.25000000 0.000978 0.000978 0.999999 0.000000
151.57800293 154.98399353 258.75000000 0.116592 -0.621334 0.774823 0.000000
191.60099792 207.78100586 223.75000000 0.612501 0.052581 0.788719 0.000000
201.82000732 121.77300262 236.25000000 -0.092943 -0.521909 0.847923 0.000000
163.50000000 246.95300293 248.75000000 0.290141 0.658827 0.694093 0.000000
217.57400513 132.84399414 200.00000000 0.784286 -0.184269 -0.592402 0.000000
104.74199677 196.28500366 122.50000000 -0.000978 -0.000978 -0.999999 0.000000
117.94100189 241.84399414 177.50000000 0.662755 0.366735 -0.652887 0.000000
128.58599854 139.65600586 248.75000000 -0.347611 -0.608728 0.713174 0.000000
102.18699646 171.16400146 251.25000000 -0.753790 -0.425341 0.500885 0.000000
116.66400146 269.51901245 237.50000000 -0.439338 0.548758 0.711230 0.000000
177.97599792 237.16000366 245.00000000 0.559732 0.495859 0.663946 0.000000
96.22650146 166.90600586 243.75000000 -0.812544 -0.576691 0.084850 0.000000
220.97999573 139.65600586 237.50000000 0.083692 -0.412971 0.906890 0.000000
86.85929871 153.70700073 180.00000000 -0.880346 -0.466065 0.088175 0.000000
220.55499268 107.29699707 201.25000000 0.000978 0.000978 -0.999999 0.000000
178.82800293 98.78119659 213.75000000 -0.248702 -0.826433 0.505129 0.000000
80.47260284 236.73399353 175.00000000 -0.996331 0.001057 -0.085581 0.000000
124.75399780 255.46899414 192.50000000 0.656555 0.565880 -0.498713 0.000000
179.67999268 216.29699707 256.25000000 0.414995 0.137387 0.899391 0.000000
152.42999268 120.06999969 226.25000000 0.020786 -0.588951 0.807902 0.000000
126.03099823 192.45300293 268.75000000 0.000978 0.000978 0.999999 0.000000
133.69500732 164.35099792 263.75000000 0.000978 0.000978 0.999999 0.000000
240.99200439 182.23399353 236.25000000 0.000978 0.000978 0.999999 0.000000
113.25800323 258.02301025 183.75000000 0.344012 0.458154 -0.819604 0.000000
214.59399414 137.10099792 238.75000000 0.000978 0.000978 0.999999 0.000000
88.13670349 200.11700439 122.50000000 -0.771173 -0.171879 -0.612984 0.000000
116.66400146 249.50799561 253.75000000 -0.221264 0.029900 0.974756 0.000000
126.03099823 212.89100647 161.25000000 0.548334 0.487967 -0.679130 0.000000
240.13999939 172.01600647 218.75000000 -0.253309 0.756781 -0.602592 0.000000
254.61700439 149.87500000 231.25000000 0.465804 -0.436385 0.769802 0.000000
123.05100250 195.00799561 150.00000000 0.783405 -0.001372 -0.621510 0.000000
114.10900116 250.35899353 178.75000000 0.579337 0.525288 -0.623251 0.000000
214.59399414 115.81199646 198.75000000 0.657321 0.258177 -0.708007 0.000000
162.22300720 264.83599854 242.50000000 0.771173 0.612984 0.171879 0.000000
202.67199707 91.11710358 198.75000000 -0.000978 -0.000978 -0.999999 0.000000
105.16799927 200.96899414 122.50000000 0.786321 0.064453 -0.614447 0.000000
173.71899414 151.57800293 193.75000000 -0.003930 -0.441437 -0.897283 0.000000
91.11710358 237.58599854 146.25000000 -0.160444 0.811217 -0.562304 0.000000
122.62500000 128.58599854 173.75000000 0.354854 -0.711344 -0.606686 0.000000
215.44500732 202.67199707 231.25000000 0.659557 0.495087 0.565574 0.000000
200.11700439 100.48400116 193.75000000 -0.000978 -0.000978 -0.999999 0.000000
88.56250000 211.18699646 243.75000000 -0.620723 0.119997 0.774793 0.000000
105.16799927 201.82000732 122.50000000 0.741215 0.226266 -0.631984 0.000000
88.56250000 202.67199707 121.25000000 -0.771173 -0.171879 -0.612984 0.000000
95.37490082 258.87500000 171.25000000 0.532629 0.813610 -0.233122 0.000000
193.30499268 199.26600647 181.25000000 0.359305 0.008887 0.933178 0.000000
133.69500732 162.64799500 181.25000000 0.769576 -0.350101 -0.534024 0.000000
186.49200439 104.74199677 221.25000000 -0.001279 -0.387428 0.921899 0.000000
159.24200439 254.61700439 213.75000000 0.386998 0.584613 -0.713064 0.000000
95.37490082 168.18400574 242.50000000 -0.733790 -0.549932 0.398906 0.000000
132.84399414 262.70700073 247.50000000 -0.009329 0.473125 0.880946 0.000000
144.33999634 158.39100647 200.00000000 0.717664 -0.279713 -0.637746 0.000000
211.18699646 206.07800293 228.75000000 -0.498430 0.462000 0.733569 0.000000
212.03900146 110.27700043 230.00000000 0.416094 -0.521351 0.745022 0.000000
115.38700104 156.68699646 155.00000000 0.799991 -0.267707 -0.536980 0.000000
229.07000732 141.35899353 236.25000000 0.000978 0.000978 0.999999 0.000000
140.50799561 109.42600250 212.50000000 -0.198454 -0.773818 0.601516 0.000000
79.19529724 231.62500000 183.75000000 -0.800658 0.534294 -0.271064 0.000000
135.39799500 255.46899414 251.25000000 0.251849 0.676349 0.692188 0.000000
233.32800293 107.29699707 223.75000000 0.353491 -0.487849 0.798153 0.000000
206.07800293 131.99200439 193.75000000 -0.000978 -0.000978 -0.999999 0.000000
149.87500000 249.50799561 253.75000000 -0.010481 0.201478 0.979437 0.000000
208.63299561 105.59400177 226.25000000 0.069628 -0.564128 0.822746 0.000000
251.21099854 127.73400116 228.75000000 0.306099 -0.229218 0.923993 0.000000
104.31600189 128.58599854 167.50000000 -0.849649 -0.512694 -0.123453 0.000000
223.10899353 99.63279724 218.75000000 0.198188 -0.769707 0.606855 0.000000
199.26600647 182.23399353 253.75000000 0.000978 0.000978 0.999999 0.000000
103.03900146 205.22599792 121.25000000 0.776780 0.129216 -0.616374 0.000000
77.06639862 190.75000000 205.00000000 -0.999999 0.000978 0.000978 0.000000
143.91400146 243.54699707 256.25000000 0.279463 0.494915 0.822776 0.000000
149.87500000 250.78500366 252.50000000 0.211879 0.350249 0.912378 0.000000
207.35499573 212.03900146 200.00000000 0.946753 -0.036953 0.319832 0.000000
77.49210358 223.53500366 187.50000000 -0.000978 -0.000978 0.999999 0.000000
99.63279724 211.18699646 256.25000000 -0.573732 0.004088 0.819033 0.000000
195.43299866 170.31199646 212.50000000 -0.319705 -0.230818 0.918973 0.000000
221.40600586 131.99200439 201.25000000 0.222449 -0.049838 -0.973670 0.000000
152.42999268 261.85501099 217.50000000 0.738003 0.473841 -0.480445 0.000000
102.18699646 185.64100647 256.25000000 -0.443434 -0.139201 0.885432 0.000000
198.41400146 118.36699677 233.75000000 -0.159262 -0.531371 0.832034 0.000000
246.95300293 172.01600647 236.25000000 0.000978 0.000978 0.999999 0.000000
201.82000732 172.86700439 203.75000000 -0.612193 -0.314981 -0.725263 0.000000
84.30460358 162.64799500 173.75000000 -0.952065 -0.261115 -0.159347 0.000000
133.69500732 243.54699707 258.75000000 0.826370 0.001357 0.563126 0.000000
131.99200439 253.76499939 196.25000000 0.572809 0.572809 -0.586327 0.000000
201.82000732 153.28100586 243.75000000 0.542465 -0.840077 -0.001353 0.000000
107.72299957 226.51600647 147.50000000 0.636378 0.636378 -0.435944 0.000000
90.69139862 250.35899353 227.50000000 -0.943392 0.313575 0.108083 0.000000
227.36700439 150.72599792 206.25000000 0.498528 0.167162 -0.850604 0.000000
95.37490082 227.36700439 248.75000000 -0.628778 0.145564 0.763838 0.000000
131.14100647 130.28900146 191.25000000 0.986537 0.052413 -0.154911 0.000000
203.52299500 208.63299561 216.25000000 0.626037 -0.300949 0.719380 0.000000
153.28100586 235.88299561 196.25000000 0.392864 0.307259 -0.866747 0.000000
129.43699646 233.75399780 262.50000000 -0.016949 0.405475 0.913949 0.000000
238.43699646 183.93699646 221.25000000 0.169147 0.641540 -0.748209 0.000000
107.29699707 266.53900146 233.75000000 -0.457275 0.658275 0.597975 0.000000
252.06199646 139.65600586 228.75000000 0.850402 -0.352909 -0.390221 0.000000
241.84399414 186.49200439 226.25000000 0.043983 0.747703 -0.662575 0.000000
97.50389862 232.47599792 250.00000000 0.000978 0.000978 0.999999 0.000000
219.70300293 117.51599884 201.25000000 0.000978 0.000978 -0.999999 0.000000
103.03900146 208.63299561 121.25000000 0.709482 0.258715 -0.655517 0.000000
86.43350220 246.10099792 220.00000000 -0.952430 0.246527 0.179170 0.000000
189.89799500 218.85099792 246.25000000 0.617671 -0.347134 0.705677 0.000000
245.25000000 190.32400513 232.50000000 0.000978 0.000978 0.999999 0.000000
100.48400116 209.48399353 121.25000000 0.251317 0.687566 -0.681244 0.000000
172.01600647 138.80499268 246.25000000 -0.052630 -0.632980 0.772377 0.000000
195.85899353 197.13699341 240.00000000 0.600839 0.686910 0.408836 0.000000
165.62899780 254.61700439 220.00000000 0.582090 0.612460 -0.534848 0.000000
79.19529724 177.97599792 191.25000000 -0.996288 -0.070775 -0.048998 0.000000
80.47260284 207.78100586 150.00000000 -0.987105 0.038010 -0.155495 0.000000
173.71899414 214.59399414 261.25000000 0.000978 0.000978 0.999999 0.000000
193.30499268 183.93699646 258.75000000 0.277666 -0.836099 0.473117 0.000000
252.91400146 153.28100586 233.75000000 0.305379 -0.191036 0.932871 0.000000
154.55900574 184.78900146 185.00000000 0.804897 -0.529825 -0.267257 0.000000
114.96099854 213.74200439 263.75000000 -0.203060 0.114773 0.972417 0.000000
129.43699646 268.24200439 206.25000000 0.427147 0.730602 -0.532697 0.000000
108.14800262 253.76499939 246.25000000 -0.354854 0.711344 0.606686 0.000000
89.41400146 210.76199341 122.50000000 -0.592825 0.786896 -0.171328 0.000000
150.72599792 272.92599487 232.50000000 0.558559 0.827233 -0.060805 0.000000
216.29699707 106.87100220 227.50000000 -0.600839 -0.686910 0.408836 0.000000
79.62100220 173.71899414 200.00000000 -0.988800 -0.141586 -0.047195 0.000000
172.01600647 160.09399414 258.75000000 0.507919 -0.481274 0.714418 0.000000
228.21899414 159.24200439 236.25000000 -0.000978 -0.000978 0.999999 0.000000
228.21899414 142.21099854 236.25000000 0.000978 0.000978 0.999999 0.000000
85.15619659 239.71499634 225.00000000 -0.946411 0.265540 0.183835 0.000000
137.95300293 212.03900146 171.25000000 0.783909 0.571957 -0.241562 0.000000
186.49200439 217.14799500 253.75000000 0.200323 0.402107 0.893409 0.000000
114.10900116 269.09399414 236.25000000 -0.441724 0.598411 0.668420 0.000000
155.83599854 102.18699646 208.75000000 -0.172304 -0.736483 0.654144 0.000000
221.40600586 100.48400116 221.25000000 0.026673 -0.759482 0.649982 0.000000
182.66000366 97.07810211 212.50000000 -0.225360 -0.851527 0.473407 0.000000
201.82000732 205.22599792 201.25000000 -0.183606 -0.960301 -0.210025 0.000000
114.96099854 222.25799561 263.75000000 -0.141836 0.169450 0.975279 0.000000
155.83599854 258.02301025 248.75000000 0.000978 0.000978 0.999999 0.000000
210.33599854 174.57000732 243.75000000 0.617981 -0.091607 0.780838 0.000000
171.16400146 136.67599487 245.00000000 -0.052499 -0.603025 0.795993 0.000000
97.07810211 258.02301025 171.25000000 0.632208 0.765461 -0.119927 0.000000
152.42999268 168.60899353 196.25000000 0.423932 0.182101 -0.887198 0.000000
77.91790009 224.81199646 170.00000000 -0.855597 0.428566 -0.290319 0.000000
152.42999268 136.25000000 246.25000000 0.120711 -0.707872 0.695950 0.000000
84.30460358 223.53500366 237.50000000 -0.836228 0.102543 0.538710 0.000000
184.36300659 166.05499268 205.00000000 -0.884418 0.460894 0.073356 0.000000
131.99200439 153.28100586 183.75000000 0.823939 -0.175594 -0.538787 0.000000
109.42600250 246.95300293 172.50000000 0.768825 0.448889 -0.455419 0.000000
77.91790009 217.14799500 200.00000000 -0.986470 -0.005650 0.163847 0.000000
153.28100586 246.10099792 201.25000000 -0.241014 0.202888 -0.949078 0.000000
115.81199646 189.04699707 141.25000000 0.795692 -0.298978 -0.526770 0.000000
136.25000000 115.38700104 217.50000000 -0.140997 -0.861974 0.486950 0.000000
153.28100586 188.19500732 193.75000000 0.097566 -0.473692 -0.875270 0.000000
87.28510284 253.76499939 182.50000000 -0.890428 0.455107 0.003957 0.000000
187.34399414 122.62500000 193.75000000 -0.000978 -0.000978 -0.999999 0.000000
114.96099854 175.42199707 261.25000000 -0.462052 -0.410173 0.786299 0.000000
123.47599792 230.77299500 263.75000000 -0.352063 -0.208364 0.912489 0.000000
195.85899353 159.24200439 193.75000000 -0.000978 -0.000978 -0.999999 0.000000
137.95300293 254.19099426 252.50000000 -0.413660 0.153155 0.897457 0.000000
88.13670349 164.35099792 157.50000000 -0.893385 -0.263110 -0.364192 0.000000
76.64060211 195.00799561 183.75000000 -0.999999 -0.000978 -0.000978 0.000000
114.10900116 133.69500732 163.75000000 -0.000978 -0.000978 -0.999999 0.000000
206.07800293 110.70300293 193.75000000 0.574394 0.187402 -0.796839 0.000000
192.45300293 161.37100220 200.00000000 -0.222440 0.754428 -0.617542 0.000000
232.47599792 120.06999969 231.25000000 0.503848 -0.101341 0.857827 0.000000
90.26560211 210.33599854 246.25000000 -0.001240 0.946173 0.323658 0.000000
111.55500031 126.88300323 221.25000000 -0.572809 -0.572809 0.586327 0.000000
175.42199707 153.28100586 201.25000000 0.000978 0.000978 -0.999999 0.000000
241.84399414 179.67999268 221.25000000 -0.001357 0.826370 -0.563126 0.000000
149.87500000 198.41400146 173.75000000 0.374229 -0.567064 -0.733751 0.000000
157.53900146 173.71899414 266.25000000 0.274876 -0.538758 0.796356 0.000000
79.62100220 201.82000732 155.00000000 -0.946173 -0.001240 -0.323658 0.000000
229.92199707 163.92599487 207.50000000 0.705847 -0.182997 -0.684318 0.000000
96.22650146 263.13299561 223.75000000 -0.669701 0.586197 0.455931 0.000000
149.87500000 203.09800720 270.00000000 0.233400 0.236162 0.943267 0.000000
205.65199280 207.78100586 210.00000000 0.936913 -0.201861 0.285389 0.000000
86.00779724 167.33200073 160.00000000 -0.874967 -0.276544 -0.397437 0.000000
183.93699646 188.19500732 263.75000000 -0.000978 -0.000978 0.999999 0.000000
184.78900146 202.67199707 208.75000000 -0.690827 -0.632033 -0.351130 0.000000
192.45300293 107.29699707 226.25000000 -0.230014 -0.538758 0.810453 0.000000
176.27299500 112.40599823 208.75000000 0.842469 -0.498850 -0.203458 0.000000
172.86700439 160.51899719 257.50000000 0.507919 -0.481274 0.714418 0.000000
169.46099854 134.54699707 193.75000000 -0.000978 -0.000978 -0.999999 0.000000
146.04299927 108.14800262 212.50000000 -0.312175 -0.859635 0.404444 0.000000
168.60899353 138.80499268 193.75000000 -0.000978 -0.000978 -0.999999 0.000000
143.91400146 129.43699646 238.75000000 0.036656 -0.878393 0.476532 0.000000
232.47599792 173.71899414 211.25000000 0.561855 0.384944 -0.732213 0.000000
175.42199707 247.80499268 241.25000000 0.643439 0.439544 0.626727 0.000000
94.09760284 156.68699646 147.50000000 -0.851527 -0.473407 -0.225360 0.000000
151.57800293 189.04699707 271.25000000 0.390535 0.884315 0.255868 0.000000
144.76600647 243.54699707 196.25000000 0.398661 0.546314 -0.736621 0.000000
203.52299500 97.07810211 213.75000000 -0.282563 -0.739135 0.611423 0.000000
163.50000000 134.54699707 241.25000000 0.029541 -0.758230 0.651318 0.000000
165.20300293 225.66400146 191.25000000 0.509556 0.509556 -0.693330 0.000000
77.91790009 200.96899414 217.50000000 -0.991715 0.097452 0.083694 0.000000
79.62100220 200.11700439 230.00000000 -0.946173 0.001240 0.323658 0.000000
250.35899353 127.73400116 228.75000000 0.306099 -0.229218 0.923993 0.000000
88.13670349 255.46899414 192.50000000 -0.867978 0.495008 -0.039765 0.000000
102.61299896 131.14100647 167.50000000 -0.841481 -0.520215 -0.145896 0.000000
96.22650146 216.29699707 121.25000000 -0.040053 0.849406 -0.526218 0.000000
207.78100586 143.91400146 193.75000000 -0.000978 -0.000978 -0.999999 0.000000
97.92960358 216.29699707 121.25000000 0.426632 0.446098 -0.786754 0.000000
143.91400146 200.96899414 271.25000000 0.000978 0.000978 0.999999 0.000000
98.78119659 215.87100220 122.50000000 0.426632 0.446098 -0.786754 0.000000
129.86300659 167.75799561 170.00000000 0.732558 -0.438212 -0.520893 0.000000
107.29699707 123.90200043 200.00000000 -0.365561 -0.916021 -0.165138 0.000000
219.27699280 181.38299561 192.50000000 0.763893 0.382761 0.519578 0.000000
170.31199646 212.03900146 263.75000000 0.682714 0.511616 0.521681 0.000000
135.39799500 269.09399414 211.25000000 0.631984 0.715605 -0.297499 0.000000
80.47260284 171.16400146 187.50000000 -0.990281 -0.125076 -0.060817 0.000000
129.01199341 122.62500000 182.50000000 0.687207 0.172950 -0.705574 0.000000
145.61700439 107.29699707 211.25000000 -0.263949 -0.763397 0.589539 0.000000
172.86700439 149.87500000 201.25000000 -0.000978 -0.000978 -0.999999 0.000000
183.51199341 141.35899353 212.50000000 0.950752 0.306735 0.044547 0.000000
237.16000366 156.68699646 215.00000000 0.664307 -0.506218 -0.549945 0.000000
131.99200439 120.92199707 186.25000000 0.831239 0.244301 -0.499358 0.000000
149.02299500 184.78900146 271.25000000 0.381725 -0.204651 0.901335 0.000000
116.66400146 116.66400146 203.75000000 -0.364097 -0.912385 0.187046 0.000000
81.32420349 167.75799561 205.00000000 -0.880069 -0.474297 0.022841 0.000000
215.44500732 149.44900513 240.00000000 0.430404 -0.030648 0.902116 0.000000
121.77300262 120.06999969 221.25000000 -0.311924 -0.848868 0.426762 0.000000
97.07810211 246.95300293 243.75000000 -0.652983 0.471692 0.592553 0.000000
197.56199646 200.96899414 216.25000000 0.293254 -0.922677 0.250339 0.000000
152.42999268 184.78900146 183.75000000 0.547412 -0.772156 -0.322668 0.000000
206.92999268 118.36699677 193.75000000 -0.000978 -0.000978 -0.999999 0.000000
224.81199646 103.03900146 203.75000000 0.800658 -0.534294 -0.271064 0.000000
154.13299561 242.26899719 200.00000000 -0.092183 0.231090 -0.968556 0.000000
183.08599854 152.42999268 213.75000000 0.404446 -0.080345 0.911026 0.000000
109.85199738 232.90199280 160.00000000 0.783865 0.587515 -0.200952 0.000000
110.70300293 196.71099854 263.75000000 0.000978 0.000978 0.999999 0.000000
134.54699707 257.17199707 251.25000000 -0.003993 0.480433 0.877023 0.000000
139.65600586 110.70300293 213.75000000 -0.271009 -0.749632 0.603826 0.000000
85.15619659 224.81199646 238.75000000 -0.804104 0.134758 0.579014 0.000000
220.12899780 185.64100647 217.50000000 0.848620 -0.110940 -0.517240 0.000000
242.69500732 163.50000000 233.75000000 -0.546328 -0.358274 0.757077 0.000000
110.70300293 270.37100220 232.50000000 -0.460289 0.637710 0.617624 0.000000
184.78900146 166.05499268 201.25000000 -0.338402 -0.362902 -0.868209 0.000000
134.54699707 125.60500336 197.50000000 0.412911 0.880976 -0.231051 0.000000
175.42199707 214.59399414 191.25000000 0.591973 0.725697 -0.350617 0.000000
93.24600220 154.98399353 152.50000000 -0.827288 -0.409690 -0.384381 0.000000
85.58200073 229.07000732 142.50000000 -0.804600 0.462285 -0.372707 0.000000
80.04679871 178.82800293 213.75000000 -0.925777 -0.219748 0.307647 0.000000
203.52299500 179.67999268 248.75000000 0.458673 0.565419 0.685508 0.000000
234.17999268 137.95300293 211.25000000 -0.000978 -0.000978 -0.999999 0.000000
153.28100586 199.26600647 268.75000000 0.536564 0.202162 0.819286 0.000000
95.37490082 177.12500000 123.75000000 0.155972 -0.530305 -0.833336 0.000000
87.71089935 255.04299927 205.00000000 -0.847485 0.529505 -0.037328 0.000000
136.25000000 190.75000000 166.25000000 0.576329 -0.037678 -0.816349 0.000000
244.39799500 126.03099823 216.25000000 0.602446 0.419886 -0.678789 0.000000
236.73399353 187.76899719 227.50000000 0.009582 0.817196 -0.576280 0.000000
214.59399414 171.16400146 198.75000000 0.297148 -0.925565 0.234590 0.000000
126.03099823 180.53100586 268.75000000 -0.211187 -0.258117 0.942749 0.000000
136.25000000 173.71899414 268.75000000 0.033541 -0.277027 0.960277 0.000000
172.86700439 181.38299561 263.75000000 0.364097 -0.187046 0.912385 0.000000
82.17569733 164.35099792 185.00000000 -0.920487 -0.379344 -0.093816 0.000000
90.69139862 252.91400146 165.00000000 -0.638359 0.635026 -0.435018 0.000000
125.18000031 206.92999268 156.25000000 0.779116 0.198237 -0.594710 0.000000
174.57000732 183.08599854 198.75000000 -0.000978 -0.000978 -0.999999 0.000000
95.37490082 177.97599792 123.75000000 0.000978 0.000978 -0.999999 0.000000
170.31199646 150.72599792 193.75000000 -0.012405 -0.591318 -0.806343 0.000000
126.03099823 169.46099854 163.75000000 0.693257 -0.365476 -0.621145 0.000000
254.61700439 160.09399414 228.75000000 0.850180 0.327949 -0.411879 0.000000
83.02729797 183.08599854 152.50000000 -0.973132 -0.145527 -0.178429 0.000000
185.64100647 154.13299561 253.75000000 0.281647 -0.152278 0.947358 0.000000
93.67179871 153.28100586 153.75000000 -0.839070 -0.421888 -0.343470 0.000000
147.32000732 221.40600586 266.25000000 -0.014771 0.490144 0.871516 0.000000
190.75000000 158.39100647 253.75000000 -0.001240 0.946173 0.323658 0.000000
125.18000031 216.29699707 163.75000000 0.661484 0.457177 -0.594498 0.000000
113.25800323 228.21899414 261.25000000 -0.687410 0.687410 0.234380 0.000000
127.73400116 240.56599426 185.00000000 0.548768 0.384957 -0.742066 0.000000
81.32420349 166.05499268 185.00000000 -0.920487 -0.379344 -0.093816 0.000000
150.72599792 162.64799500 263.75000000 0.000978 0.000978 0.999999 0.000000
165.20300293 172.86700439 201.25000000 -0.617251 -0.122858 -0.777115 0.000000
99.63279724 178.82800293 123.75000000 0.218004 -0.215296 -0.951904 0.000000
206.07800293 107.29699707 226.25000000 -0.292209 -0.440633 0.848797 0.000000
178.82800293 151.15199280 195.00000000 0.156796 0.337182 -0.928290 0.000000
216.72300720 181.38299561 210.00000000 -0.237835 0.675703 -0.697754 0.000000
202.67199707 175.84800720 250.00000000 0.698690 -0.009723 0.715358 0.000000
81.32420349 166.05499268 187.50000000 -0.920487 -0.379344 -0.093816 0.000000
122.62500000 180.53100586 266.25000000 -0.669292 -0.166180 0.724177 0.000000
195.85899353 136.25000000 243.75000000 0.329447 -0.344629 0.879031 0.000000
139.65600586 268.24200439 216.25000000 0.489573 0.690081 -0.533016 0.000000
172.01600647 242.26899719 215.00000000 0.636378 0.636378 -0.435944 0.000000
160.94500732 189.04699707 266.25000000 0.628778 -0.145564 0.763838 0.000000
172.01600647 134.54699707 193.75000000 -0.000978 -0.000978 -0.999999 0.000000
101.76200104 179.67999268 125.00000000 0.557943 -0.224104 -0.799048 0.000000
196.71099854 182.23399353 188.75000000 -0.000978 -0.000978 -0.999999 0.000000
181.80799866 103.89099884 220.00000000 -0.517815 -0.779143 0.353276 0.000000
180.53100586 150.72599792 193.75000000 0.017970 0.236008 -0.971585 0.000000
130.28900146 182.23399353 161.25000000 0.740750 -0.001379 -0.671779 0.000000
138.37899780 270.79699707 217.50000000 0.500548 0.720057 -0.480593 0.000000
103.89099884 274.62899780 217.50000000 -0.383724 0.910459 0.154339 0.000000
183.08599854 141.35899353 213.75000000 0.016208 -0.307946 0.951266 0.000000
82.17569733 239.28900146 162.50000000 -0.873229 0.355083 -0.333747 0.000000
188.19500732 206.50399780 230.00000000 0.635008 0.753786 0.169031 0.000000
157.53900146 167.75799561 201.25000000 0.612349 -0.205145 -0.763508 0.000000
91.54290009 148.17199707 167.50000000 -0.848074 -0.490832 -0.199635 0.000000
82.17569733 210.33599854 235.00000000 -0.946173 -0.001240 0.323658 0.000000
128.58599854 126.03099823 183.75000000 0.932559 0.199934 -0.300600 0.000000
141.35899353 259.30099487 207.50000000 0.405246 0.493130 -0.769804 0.000000
80.47260284 223.96099854 220.00000000 -0.984183 0.166590 0.060256 0.000000
84.30460358 166.90600586 216.25000000 -0.908921 -0.197341 0.367314 0.000000
137.95300293 267.39001465 213.75000000 0.561161 0.648789 -0.513976 0.000000
166.90600586 188.19500732 266.25000000 0.179937 0.319423 0.930372 0.000000
90.69139862 182.23399353 125.00000000 -0.763893 -0.382761 -0.519578 0.000000
166.05499268 232.47599792 256.25000000 0.444722 0.474261 0.759802 0.000000
162.22300720 165.20300293 262.50000000 0.207139 -0.276649 0.938381 0.000000
114.10900116 211.18699646 141.25000000 0.759949 0.454657 -0.464505 0.000000
94.09760284 153.28100586 152.50000000 -0.808313 -0.404957 -0.427365 0.000000
218.85099792 97.07810211 216.25000000 0.178819 -0.888281 0.423060 0.000000
120.06999969 125.18000031 228.75000000 -0.500184 -0.752735 0.428026 0.000000
235.03100586 184.36300659 235.00000000 0.138859 0.257882 0.956146 0.000000
159.24200439 148.59800720 255.00000000 -0.381810 -0.765245 0.518287 0.000000
249.08200073 136.25000000 225.00000000 0.541019 -0.118120 -0.832674 0.000000
101.33599854 183.08599854 123.75000000 0.710201 -0.321936 -0.626077 0.000000
161.79699707 225.66400146 188.75000000 0.391525 0.606285 -0.692190 0.000000
207.78100586 211.18699646 196.25000000 0.912385 -0.364097 0.187046 0.000000
85.58200073 167.75799561 222.50000000 -0.937027 -0.287355 0.198511 0.000000
186.91799927 223.10899353 247.50000000 0.652241 0.290063 0.700318 0.000000
97.07810211 247.37899780 160.00000000 0.435900 0.626293 -0.646334 0.000000
111.55500031 134.54699707 233.75000000 -0.538064 -0.568425 0.622400 0.000000
114.10900116 159.24200439 151.25000000 0.708003 -0.304812 -0.637041 0.000000
180.53100586 173.71899414 258.75000000 -0.280329 -0.268828 0.921492 0.000000
124.32800293 175.42199707 266.25000000 -0.227378 0.672725 0.704088 0.000000
164.35099792 113.25800323 226.25000000 -0.337356 -0.695899 0.633968 0.000000
93.67179871 246.10099792 156.25000000 0.015299 0.771880 -0.635584 0.000000
101.33599854 184.78900146 123.75000000 0.671529 -0.333325 -0.661773 0.000000
205.22599792 155.83599854 243.75000000 0.443887 -0.437383 0.782087 0.000000
103.03900146 184.78900146 123.75000000 0.734814 -0.342264 -0.585580 0.000000
157.53900146 100.48400116 201.25000000 0.117541 -0.936279 -0.331008 0.000000
130.28900146 232.47599792 263.75000000 0.084470 0.292396 0.952560 0.000000
80.89839935 227.36700439 213.75000000 -0.978491 0.195213 -0.066688 0.000000
182.23399353 142.21099854 213.75000000 0.016208 -0.307946 0.951266 0.000000
108.14800262 205.22599792 261.25000000 -0.585071 0.058082 0.808900 0.000000
142.21099854 175.42199707 178.75000000 0.714608 -0.376196 -0.589757 0.000000
225.66400146 97.92960358 216.25000000 0.062799 -0.858253 0.509370 0.000000
156.68699646 162.22300720 262.50000000 -0.083156 -0.710469 0.698798 0.000000
208.63299561 101.33599854 221.25000000 -0.509556 -0.509556 0.693330 0.000000
107.29699707 156.68699646 143.75000000 0.769956 -0.218438 -0.599543 0.000000
227.36700439 160.09399414 203.75000000 0.711344 -0.354854 -0.606686 0.000000
130.28900146 225.23800659 265.00000000 -0.143440 0.407597 0.901826 0.000000
86.85929871 224.81199646 241.25000000 -0.818473 0.090941 0.567302 0.000000
104.31600189 186.49200439 125.00000000 0.751969 -0.352435 -0.557074 0.000000
189.04699707 201.82000732 186.25000000 -0.496052 0.509413 -0.703158 0.000000
152.00399780 194.15600586 270.00000000 0.366659 0.019298 0.930155 0.000000
214.59399414 114.10900116 231.25000000 -0.001267 -0.363730 0.931504 0.000000
221.40600586 166.90600586 203.75000000 0.556291 0.745528 -0.367054 0.000000
130.28900146 121.77300262 228.75000000 -0.153092 -0.701796 0.695733 0.000000
100.91000366 271.64801025 205.00000000 -0.514884 0.855349 -0.057209 0.000000
119.64399719 250.35899353 185.00000000 0.641437 0.493283 -0.587563 0.000000
81.75000000 217.14799500 233.75000000 -0.924006 0.070872 0.375753 0.000000
103.89099884 188.19500732 123.75000000 0.746419 -0.295691 -0.596176 0.000000
97.07810211 146.89399719 152.50000000 -0.878181 -0.338229 -0.338229 0.000000
156.26199341 221.40600586 182.50000000 0.032695 0.385802 -0.922002 0.000000
198.41400146 203.52299500 226.25000000 0.046174 0.115998 0.992176 0.000000
147.32000732 171.16400146 196.25000000 0.287062 -0.233326 -0.929061 0.000000
160.09399414 225.66400146 261.25000000 0.680790 0.226930 0.696440 0.000000
179.67999268 170.31199646 258.75000000 0.000978 0.000978 0.999999 0.000000
199.26600647 134.54699707 193.75000000 -0.000978 -0.000978 -0.999999 0.000000
120.92199707 146.04299927 250.00000000 -0.468670 -0.727018 0.501791 0.000000
177.97599792 177.12500000 261.25000000 -0.000978 -0.000978 0.999999 0.000000
149.87500000 249.50799561 203.75000000 0.161508 0.596220 -0.786407 0.000000
175.42199707 177.97599792 261.25000000 -0.000978 -0.000978 0.999999 0.000000
197.98800659 171.16400146 197.50000000 0.117013 0.429988 -0.895220 0.000000
152.42999268 120.92199707 196.25000000 -0.582974 0.616770 -0.528901 0.000000
159.24200439 121.77300262 228.75000000 -0.486998 -0.325194 0.810606 0.000000
146.89399719 239.28900146 195.00000000 0.439096 0.545142 -0.714153 0.000000
113.25800323 196.71099854 263.75000000 -0.377056 -0.141571 0.915307 0.000000
246.10099792 186.49200439 226.25000000 0.132902 0.259224 -0.956630 0.000000
190.75000000 142.21099854 246.25000000 0.517634 -0.012164 0.855516 0.000000
149.87500000 246.10099792 253.75000000 0.091068 0.318080 0.943680 0.000000
143.91400146 146.46899414 201.25000000 0.155291 -0.092693 -0.983510 0.000000
99.63279724 263.13299561 228.75000000 -0.785332 0.313814 0.533643 0.000000
184.78900146 152.42999268 253.75000000 0.438113 -0.132718 0.889069 0.000000
245.67599487 147.32000732 222.50000000 0.799732 -0.067240 -0.596580 0.000000
201.39399719 185.64100647 245.00000000 0.551270 0.182750 0.814067 0.000000
165.20300293 252.06199646 216.25000000 0.432440 0.720733 -0.541793 0.000000
211.18699646 180.53100586 188.75000000 0.362348 -0.428804 -0.827545 0.000000
177.97599792 198.41400146 181.25000000 0.133052 -0.061319 -0.989210 0.000000
216.29699707 143.91400146 196.25000000 0.275415 0.632022 -0.724358 0.000000
233.32800293 170.31199646 211.25000000 0.634858 0.159093 -0.756072 0.000000
137.95300293 100.48400116 198.75000000 -0.568054 -0.294370 0.768544 0.000000
179.25399780 225.66400146 207.50000000 0.773444 0.467323 0.428244 0.000000
109.85199738 260.57800293 183.75000000 0.568891 0.525000 -0.633039 0.000000
235.03100586 145.19099426 212.50000000 0.635796 0.088750 -0.766738 0.000000
204.37500000 94.52339935 193.75000000 0.137995 -0.483708 -0.864283 0.000000
185.21499634 217.14799500 220.00000000 0.898005 -0.261856 0.353580 0.000000
147.32000732 125.18000031 226.25000000 0.630782 -0.647425 0.427733 0.000000
177.12500000 148.17199707 201.25000000 -0.142989 -0.356778 -0.923181 0.000000
158.39100647 195.85899353 178.75000000 0.094612 -0.612798 -0.784556 0.000000
132.41799927 229.07000732 180.00000000 0.423752 0.609871 -0.669695 0.000000
251.21099854 179.67999268 226.25000000 0.586775 0.386253 -0.711691 0.000000
185.64100647 121.77300262 193.75000000 -0.000978 -0.000978 -0.999999 0.000000
180.53100586 238.43699646 241.25000000 0.609449 0.357826 0.707483 0.000000
167.75799561 195.00799561 266.25000000 0.310805 -0.028941 0.950033 0.000000
221.40600586 195.00799561 226.25000000 0.880971 0.370219 0.294665 0.000000
179.67999268 106.44499969 193.75000000 -0.000978 -0.000978 0.999999 0.000000
141.35899353 207.78100586 168.75000000 0.406387 0.299039 -0.863380 0.000000
244.39799500 176.27299500 236.25000000 0.000978 0.000978 0.999999 0.000000
212.03900146 163.50000000 241.25000000 0.636378 -0.636378 0.435944 0.000000
133.26899719 126.88300323 197.50000000 0.680701 0.644789 -0.347696 0.000000
96.22650146 148.17199707 226.25000000 -0.659705 -0.498556 0.562344 0.000000
123.90200043 270.79699707 205.00000000 0.407462 0.777586 -0.478889 0.000000
141.35899353 166.05499268 266.25000000 0.070452 -0.362892 0.929164 0.000000
127.73400116 139.22999573 247.50000000 -0.329246 -0.604969 0.724990 0.000000
208.63299561 109.00000000 196.25000000 0.368609 0.079083 -0.926214 0.000000
129.43699646 106.01899719 195.00000000 -0.543881 -0.703552 0.457392 0.000000
108.14800262 151.57800293 148.75000000 0.728060 -0.346928 -0.591244 0.000000
150.72599792 212.03900146 268.75000000 0.000978 0.000978 0.999999 0.000000
155.83599854 97.50389862 202.50000000 0.268570 -0.498330 -0.824340 0.000000
166.05499268 155.83599854 196.25000000 -0.318016 0.158319 -0.934773 0.000000
240.13999939 106.01899719 210.00000000 0.458253 0.030909 -0.888284 0.000000
146.46899414 269.51901245 222.50000000 0.373584 0.742273 -0.556297 0.000000
201.82000732 196.71099854 236.25000000 0.121092 0.959620 0.253902 0.000000
129.86300659 154.98399353 180.00000000 0.739885 -0.367493 -0.563489 0.000000
122.62500000 208.63299561 268.75000000 -0.398197 0.091681 0.912707 0.000000
118.36699677 177.12500000 263.75000000 -0.352774 -0.211665 0.911454 0.000000
121.77300262 246.10099792 183.75000000 0.639575 0.445866 -0.626216 0.000000
96.22650146 145.61700439 223.75000000 -0.655017 -0.510206 0.557354 0.000000
120.92199707 234.60499573 175.00000000 0.508746 0.309051 -0.803533 0.000000
206.92999268 103.89099884 193.75000000 -0.000978 -0.000978 -0.999999 0.000000
139.65600586 122.62500000 193.75000000 0.221255 0.158413 -0.962264 0.000000
80.47260284 172.86700439 187.50000000 -0.985747 -0.148277 -0.079477 0.000000
149.87500000 207.78100586 268.75000000 0.167325 0.125184 0.977922 0.000000
85.58200073 248.65600586 167.50000000 -0.888024 0.454370 -0.070434 0.000000
104.74199677 127.30899811 202.50000000 0.000978 0.000978 -0.999999 0.000000
203.52299500 223.96099854 221.25000000 -0.846783 0.500304 -0.180707 0.000000
91.54290009 261.42999268 212.50000000 -0.796735 0.588244 0.138498 0.000000
219.70300293 185.21499634 215.00000000 0.848620 -0.110940 -0.517240 0.000000
173.71899414 158.39100647 256.25000000 0.598153 -0.171117 0.782899 0.000000
176.27299500 193.30499268 186.25000000 0.001240 -0.946173 -0.323658 0.000000
236.73399353 169.46099854 216.25000000 0.604917 0.103993 -0.789468 0.000000
125.18000031 128.58599854 236.25000000 -0.476483 -0.556732 0.680451 0.000000
229.07000732 131.99200439 206.25000000 0.444036 -0.219776 -0.868637 0.000000
217.14799500 149.87500000 238.75000000 0.187352 0.295600 0.936760 0.000000
86.43350220 159.24200439 215.00000000 -0.928826 -0.370249 -0.014093 0.000000
155.41000366 166.05499268 200.00000000 0.640203 -0.276198 -0.716836 0.000000
143.06199646 256.32000732 206.25000000 0.442206 0.622425 -0.645787 0.000000
117.94100189 176.27299500 150.00000000 0.719589 -0.120676 -0.683833 0.000000
108.14800262 131.99200439 223.75000000 -0.676396 -0.586210 0.445921 0.000000
200.96899414 205.22599792 203.75000000 -0.376219 -0.864536 -0.333222 0.000000
113.25800323 123.05100250 217.50000000 -0.593011 -0.682710 0.426901 0.000000
218.42599487 200.96899414 202.50000000 0.993536 0.001081 -0.113516 0.000000
140.50799561 131.56599426 242.50000000 -0.070680 -0.765945 0.639009 0.000000
124.32800293 238.43699646 181.25000000 0.479229 0.633927 -0.607023 0.000000
205.22599792 212.89100647 221.25000000 -0.533609 0.063357 0.843355 0.000000
128.58599854 271.22299194 210.00000000 0.448624 0.723428 -0.524775 0.000000
212.03900146 154.98399353 241.25000000 0.000978 0.000978 0.999999 0.000000
105.59400177 204.37500000 123.75000000 0.721269 0.213421 -0.658956 0.000000
158.39100647 127.73400116 193.75000000 -0.433203 0.243016 -0.867916 0.000000
93.24600220 263.98400879 210.00000000 -0.801998 0.594756 0.055359 0.000000
82.17569733 226.51600647 152.50000000 -0.964400 0.255245 -0.069155 0.000000
139.65600586 267.81600952 245.00000000 0.218472 0.587240 0.779371 0.000000
104.74199677 205.22599792 123.75000000 0.771066 0.139241 -0.621345 0.000000
202.67199707 169.88699341 197.50000000 0.329635 0.651150 -0.683626 0.000000
143.06199646 189.89799500 171.25000000 0.663619 -0.305168 -0.682995 0.000000
180.53100586 166.05499268 211.25000000 0.000978 0.000978 0.999999 0.000000
149.87500000 154.98399353 201.25000000 -0.000978 -0.000978 -0.999999 0.000000
139.65600586 134.54699707 246.25000000 -0.009742 -0.694437 0.719487 0.000000
137.52699280 149.87500000 197.50000000 0.506415 -0.231023 -0.830766 0.000000
103.03900146 265.26199341 232.50000000 -0.374785 0.875511 0.304987 0.000000
215.01899719 216.29699707 202.50000000 0.523809 0.848543 0.074830 0.000000
183.08599854 193.72999573 192.50000000 -0.253309 -0.756781 -0.602592 0.000000
96.22650146 190.75000000 251.25000000 -0.679312 -0.120403 0.723905 0.000000
231.62500000 183.08599854 236.25000000 0.130192 0.225581 0.965486 0.000000
186.91799927 209.48399353 240.00000000 0.996387 -0.064248 -0.055536 0.000000
216.29699707 197.56199646 233.75000000 0.661039 0.329708 0.674033 0.000000
245.25000000 170.31199646 236.25000000 0.000978 0.000978 0.999999 0.000000
202.67199707 158.39100647 246.25000000 0.351225 -0.404299 0.844502 0.000000
94.09760284 142.21099854 187.50000000 -0.871894 -0.485313 -0.065357 0.000000
215.44500732 174.57000732 238.75000000 0.725230 -0.216789 0.653486 0.000000
221.83200073 142.21099854 197.50000000 0.891036 -0.175309 -0.418714 0.000000
85.15619659 249.08200073 205.00000000 -0.936131 0.349919 0.034863 0.000000
150.72599792 226.51600647 183.75000000 0.329708 0.661039 -0.674033 0.000000
144.76600647 263.13299561 246.25000000 0.106229 0.332132 0.937232 0.000000
103.03900146 242.69500732 248.75000000 -0.001240 0.946173 -0.323658 0.000000
206.92999268 104.31600189 225.00000000 -0.070440 -0.628214 0.774845 0.000000
143.91400146 119.21900177 193.75000000 0.025887 0.505480 -0.862450 0.000000
198.41400146 160.94500732 248.75000000 0.394296 -0.485163 0.780479 0.000000
81.32420349 216.29699707 147.50000000 -0.984840 0.123857 -0.121452 0.000000
183.08599854 153.28100586 203.75000000 0.659396 -0.355059 -0.662669 0.000000
222.25799561 155.83599854 238.75000000 0.001365 0.591008 0.806665 0.000000
121.77300262 214.59399414 266.25000000 -0.507824 0.132413 0.851224 0.000000
107.29699707 226.94099426 147.50000000 0.636378 0.636378 -0.435944 0.000000
158.39100647 266.96499634 230.00000000 0.535218 0.759717 -0.369284 0.000000
183.08599854 218.85099792 253.75000000 0.191815 0.621479 0.759586 0.000000
248.65600586 139.65600586 223.75000000 0.547572 -0.130654 -0.826496 0.000000
201.82000732 113.25800323 193.75000000 -0.000978 -0.000978 -0.999999 0.000000
193.30499268 135.39799500 193.75000000 -0.000978 -0.000978 -0.999999 0.000000
87.28510284 210.33599854 125.00000000 -0.785332 0.313814 -0.533643 0.000000
223.96099854 177.55099487 210.00000000 0.286828 0.716270 -0.636150 0.000000
123.47599792 151.57800293 253.75000000 -0.184674 -0.605913 0.773799 0.000000
160.09399414 143.91400146 196.25000000 -0.203677 -0.302004 -0.931295 0.000000
208.63299561 155.83599854 241.25000000 0.253365 0.843014 0.474483 0.000000
119.21900177 120.92199707 221.25000000 -0.541890 -0.765117 0.347780 0.000000
227.36700439 188.62100220 232.50000000 -0.360030 0.360030 0.860672 0.000000
180.53100586 141.35899353 248.75000000 0.223029 -0.308263 0.924788 0.000000
89.41400146 211.18699646 123.75000000 -0.785332 0.313814 -0.533643 0.000000
103.03900146 211.18699646 123.75000000 0.280126 0.689909 -0.667499 0.000000
78.76950073 178.82800293 202.50000000 -0.978231 -0.191738 -0.079382 0.000000
148.17199707 101.76200104 202.50000000 -0.172036 -0.911362 0.373929 0.000000
105.16799927 211.18699646 125.00000000 0.773050 0.270330 -0.573859 0.000000
192.87899780 193.30499268 257.50000000 0.452159 0.452159 0.768833 0.000000
149.87500000 248.22999573 202.50000000 0.117341 0.660972 -0.741180 0.000000
93.67179871 207.78100586 251.25000000 -0.634858 -0.159093 0.756072 0.000000
81.32420349 229.07000732 157.50000000 -0.888281 0.178819 -0.423060 0.000000
207.78100586 179.25399780 245.00000000 0.326856 0.514998 0.792428 0.000000
86.00779724 252.06199646 201.25000000 -0.908506 0.408209 0.089339 0.000000
107.29699707 219.70300293 258.75000000 -0.223206 0.234161 0.946228 0.000000
124.32800293 139.65600586 173.75000000 0.946173 0.001240 -0.323658 0.000000
221.40600586 190.75000000 231.25000000 0.452159 0.452159 0.768833 0.000000
137.10099792 199.26600647 166.25000000 0.813150 0.166838 -0.557631 0.000000
131.56599426 134.54699707 195.00000000 0.946173 -0.001240 0.323658 0.000000
119.21900177 112.83200073 182.50000000 -0.649613 -0.756676 0.073787 0.000000
95.37490082 255.04299927 232.50000000 -0.836799 0.340685 0.428604 0.000000
171.16400146 101.76200104 215.00000000 0.001331 -0.869469 0.493986 0.000000
109.85199738 249.50799561 248.75000000 0.182613 0.685948 0.704363 0.000000
86.85929871 211.18699646 243.75000000 -0.620723 0.119997 0.774793 0.000000
201.82000732 104.74199677 223.75000000 -0.173479 -0.487818 0.855534 0.000000
187.34399414 200.96899414 181.25000000 -0.106495 0.980485 -0.165250 0.000000
117.08999634 152.42999268 160.00000000 0.748426 -0.313856 -0.584255 0.000000
93.67179871 201.82000732 251.25000000 -0.567383 0.069679 0.820501 0.000000
118.36699677 153.28100586 161.25000000 0.741884 -0.274831 -0.611618 0.000000
192.45300293 218.85099792 241.25000000 0.826370 0.001357 0.563126 0.000000
79.19529724 183.08599854 216.25000000 -0.936227 -0.267293 0.228109 0.000000
172.86700439 102.18699646 208.75000000 0.268977 0.102653 -0.957661 0.000000
164.77699280 169.46099854 205.00000000 -0.555041 -0.206420 -0.805804 0.000000
129.43699646 117.51599884 181.25000000 0.671622 0.006924 -0.740862 0.000000
236.73399353 106.44499969 221.25000000 0.360948 -0.532519 0.765598 0.000000
251.21099854 141.35899353 226.25000000 0.839554 -0.230077 -0.492152 0.000000
89.83979797 158.39100647 157.50000000 -0.883793 -0.356829 -0.302627 0.000000
109.85199738 143.91400146 153.75000000 0.536510 -0.446815 -0.715900 0.000000
217.14799500 191.60099792 188.75000000 0.853084 -0.034343 -0.520642 0.000000
238.01199341 162.64799500 215.00000000 0.563587 0.037572 -0.825202 0.000000
132.84399414 218.00000000 268.75000000 -0.153087 0.704808 0.692683 0.000000
139.65600586 277.18301392 232.50000000 0.198340 0.980100 -0.008119 0.000000
119.21900177 259.72601318 246.25000000 -0.031842 0.549617 0.834809 0.000000
177.97599792 211.18699646 261.25000000 0.964390 0.095800 0.246526 0.000000
200.11700439 170.31199646 206.25000000 0.623448 -0.710893 -0.325489 0.000000
175.42199707 231.62500000 251.25000000 0.631680 0.454073 0.628329 0.000000
180.53100586 146.46899414 193.75000000 -0.000978 -0.000978 -0.999999 0.000000
94.09760284 229.07000732 247.50000000 -0.666539 0.206643 0.716257 0.000000
144.76600647 113.25800323 193.75000000 0.241996 0.045451 -0.969212 0.000000
188.62100220 204.37500000 255.00000000 0.646085 0.665813 0.373184 0.000000
150.72599792 258.02301025 213.75000000 0.683917 0.300924 -0.664607 0.000000
201.82000732 225.23800659 212.50000000 -0.430388 -0.110751 0.895824 0.000000
91.96869659 221.40600586 248.75000000 -0.680983 0.172924 0.711589 0.000000
119.21900177 157.96499634 160.00000000 0.806202 -0.287593 -0.517038 0.000000
105.59400177 175.42199707 256.25000000 -0.835142 -0.369601 0.407348 0.000000
189.04699707 177.12500000 198.75000000 -0.511390 -0.616031 -0.599154 0.000000
147.32000732 190.75000000 271.25000000 0.000978 0.000978 0.999999 0.000000
194.15600586 167.75799561 253.75000000 0.424028 -0.269007 0.864775 0.000000
194.15600586 193.72999573 252.50000000 0.817326 0.545388 0.185825 0.000000
148.17199707 275.05499268 233.75000000 0.382113 0.762600 -0.521950 0.000000
177.12500000 231.62500000 248.75000000 0.615174 0.457609 0.641993 0.000000
223.96099854 113.25800323 203.75000000 0.518898 0.042896 -0.853759 0.000000
92.82029724 217.14799500 123.75000000 -0.043777 0.792231 -0.608648 0.000000
245.25000000 127.73400116 228.75000000 0.374929 -0.393754 0.839277 0.000000
103.46499634 240.13999939 160.00000000 0.601271 0.648167 -0.467283 0.000000
129.43699646 125.60500336 232.50000000 -0.209887 -0.810440 0.546932 0.000000
142.21099854 109.85199738 193.75000000 0.743175 -0.556973 -0.370771 0.000000
172.44099426 238.43699646 210.00000000 0.742440 0.583923 -0.328356 0.000000
213.31599426 182.23399353 187.50000000 0.098423 -0.697773 -0.709525 0.000000
127.73400116 194.15600586 268.75000000 -0.214403 0.099052 0.971710 0.000000
235.03100586 136.25000000 233.75000000 0.322039 -0.392919 0.861339 0.000000
91.11710358 218.00000000 123.75000000 0.407166 0.812735 -0.416746 0.000000
153.28100586 229.07000732 261.25000000 -0.083148 0.491839 0.866707 0.000000
201.39399719 171.16400146 205.00000000 0.623448 -0.710893 -0.325489 0.000000
212.89100647 156.68699646 193.75000000 -0.000978 -0.000978 -0.999999 0.000000
189.04699707 166.90600586 201.25000000 0.110520 0.219769 -0.969271 0.000000
154.98399353 132.84399414 233.75000000 0.352415 -0.874172 -0.334107 0.000000
77.06639862 215.44500732 177.50000000 -0.000978 -0.000978 -0.999999 0.000000
248.65600586 183.08599854 226.25000000 0.667406 0.506018 -0.546365 0.000000
211.18699646 117.51599884 196.25000000 0.527571 -0.267699 -0.806229 0.000000
200.96899414 126.03099823 238.75000000 0.084482 -0.548414 0.831928 0.000000
99.63279724 218.00000000 123.75000000 0.287271 0.685279 -0.669230 0.000000
242.69500732 152.00399780 220.00000000 0.547110 0.084281 -0.832807 0.000000
108.14800262 266.53900146 188.75000000 0.350619 0.764253 -0.541279 0.000000
102.18699646 139.22999573 225.00000000 -0.558804 -0.785474 0.266022 0.000000
136.25000000 247.80499268 196.25000000 0.461293 0.622326 -0.632391 0.000000
117.94100189 158.39100647 157.50000000 0.803184 -0.220452 -0.553441 0.000000
78.34369659 201.82000732 161.25000000 -0.985492 -0.055075 -0.160538 0.000000
110.70300293 137.10099792 158.75000000 0.894688 0.446689 -0.001310 0.000000
143.91400146 219.70300293 266.25000000 0.006663 0.478375 0.878131 0.000000
187.34399414 207.78100586 248.75000000 0.978283 0.154988 -0.137629 0.000000
118.36699677 141.35899353 243.75000000 -0.453072 -0.640319 0.620257 0.000000
154.98399353 114.10900116 223.75000000 -0.178918 -0.530739 0.828435 0.000000
176.27299500 130.28900146 241.25000000 -0.176088 -0.659949 0.730384 0.000000
97.92960358 144.33999634 152.50000000 -0.943392 -0.313575 0.108083 0.000000
180.53100586 180.53100586 198.75000000 -0.000978 -0.000978 -0.999999 0.000000
115.81199646 138.80499268 163.75000000 0.796821 -0.264563 -0.543216 0.000000
146.46899414 172.01600647 193.75000000 0.727819 -0.247869 -0.639407 0.000000
