126.70700073 164.02000427 128.75000000 0.000978 0.000978 0.999999 0.000000
137.58999634 101.83200073 158.75000000 0.375166 0.451796 -0.809401 0.000000
149.25000000 121.26599884 121.25000000 -0.499367 0.315473 0.806913 0.000000
101.05500031 215.32400513 91.25000000 -0.599406 -0.545375 0.585899 0.000000
117.37899780 137.58999634 193.75000000 -0.287128 0.772550 -0.566325 0.000000
52.47069931 181.12100220 127.50000000 0.951353 0.252345 -0.176776 0.000000
132.14799500 177.23399353 126.25000000 0.333612 0.469587 0.817429 0.000000
135.25799561 98.72270203 123.75000000 -0.489017 0.012058 0.872191 0.000000
197.44500732 167.90600586 136.25000000 -0.769522 -0.142504 0.622518 0.000000
55.58010101 226.98399353 170.00000000 0.859795 -0.122828 -0.495647 0.000000
39.64450073 175.67999268 58.75000000 0.949181 0.098736 0.298841 0.000000
101.05500031 244.08599854 116.25000000 -0.593703 -0.325161 0.736062 0.000000
76.17970276 195.89100647 198.75000000 0.731105 -0.169421 -0.660895 0.000000
132.14799500 210.66000366 116.25000000 -0.759066 -0.424618 0.493475 0.000000
70.34960175 133.70300293 115.00000000 0.900758 0.349394 -0.257991 0.000000
163.24200439 122.81999969 126.25000000 -0.568901 0.214301 0.793994 0.000000
68.40630341 219.21099854 186.25000000 0.001133 -0.175594 -0.984462 0.000000
83.95310211 155.46899414 191.25000000 0.437752 0.526955 -0.728486 0.000000
94.83599854 161.68800354 201.25000000 0.432537 0.391039 -0.812404 0.000000
43.14260101 211.43800354 85.00000000 0.989006 0.140959 0.044694 0.000000
101.83200073 127.09600067 177.50000000 0.554866 0.758694 -0.341331 0.000000
64.90820313 168.68400574 180.00000000 0.929061 0.233326 -0.287062 0.000000
120.48799896 101.83200073 113.75000000 -0.420798 0.030531 0.906640 0.000000
100.27700043 172.57000732 88.75000000 -0.644870 0.496701 0.580888 0.000000
192.78100586 89.39459991 166.25000000 -0.326920 0.920802 -0.212712 0.000000
98.72270203 246.41799927 188.75000000 0.157797 -0.393783 -0.905558 0.000000
104.94100189 252.63699341 123.75000000 -0.690783 -0.690783 -0.213628 0.000000
76.17970276 182.67599487 201.25000000 0.933593 -0.089743 -0.346916 0.000000
49.75000000 155.46899414 53.75000000 -0.542748 0.258079 0.799262 0.000000
105.71900177 219.98800659 198.75000000 -0.000978 -0.000978 -0.999999 0.000000
66.07420349 136.81300354 86.25000000 0.954848 -0.001223 -0.297091 0.000000
111.54900360 96.39070129 135.00000000 0.631593 0.577697 -0.517064 0.000000
101.83200073 104.55300140 100.00000000 -0.725754 -0.251405 0.640372 0.000000
112.71499634 212.21499634 201.25000000 -0.446042 -0.184011 -0.875892 0.000000
226.98399353 151.97099304 165.00000000 -0.882977 -0.259346 0.391268 0.000000
48.97269821 156.24600220 53.75000000 -0.542748 0.258079 0.799262 0.000000
130.59399414 83.95310211 131.25000000 0.264988 0.947162 -0.180735 0.000000
84.73049927 165.57400513 198.75000000 0.666831 0.290835 -0.686113 0.000000
181.12100220 154.69099426 186.25000000 -0.507583 -0.337855 -0.792599 0.000000
147.69500732 162.46499634 191.25000000 -0.507859 0.615842 -0.602344 0.000000
101.83200073 109.60500336 101.25000000 -0.902937 -0.118992 0.412971 0.000000
101.05500031 148.47300720 101.25000000 -0.049982 -0.738304 0.672614 0.000000
98.72270203 235.53500366 193.75000000 0.131628 -0.321607 -0.937680 0.000000
80.06639862 250.30499268 183.75000000 -0.057716 -0.829144 -0.556047 0.000000
120.48799896 125.15200043 176.25000000 0.736761 0.120561 -0.665318 0.000000
183.45300293 95.22460175 155.00000000 -0.607206 0.145430 0.781122 0.000000
184.23100281 183.84199524 167.50000000 -0.837227 0.442870 0.320807 0.000000
111.16000366 163.24200439 203.75000000 0.146744 -0.010082 -0.989123 0.000000
134.48100281 163.24200439 201.25000000 0.315996 0.556602 -0.768336 0.000000
175.29100037 180.34399414 162.50000000 0.547809 0.182603 0.816432 0.000000
135.25799561 192.78100586 198.75000000 -0.257010 0.534269 -0.805297 0.000000
40.42190170 198.61099243 80.00000000 0.995105 -0.091062 0.038400 0.000000
174.90199280 143.03100586 183.75000000 -0.269455 0.184652 -0.945144 0.000000
109.99400330 167.12899780 115.00000000 -0.983039 -0.001139 -0.183394 0.000000
219.98800659 136.81300354 171.25000000 -0.000978 -0.000978 -0.999999 0.000000
101.05500031 129.03900146 181.25000000 0.456958 0.847758 -0.269251 0.000000
164.79699707 104.94100189 138.75000000 -0.744577 0.360069 0.562099 0.000000
72.29299927 254.58000183 87.50000000 0.327735 -0.741037 0.586049 0.000000
87.83989716 118.93399811 91.25000000 -0.299316 0.597031 -0.744288 0.000000
130.98199463 245.64100647 142.50000000 -0.403090 -0.725562 0.557745 0.000000
141.08799744 245.64100647 172.50000000 -0.873938 -0.406026 -0.267162 0.000000
76.17970276 256.13500977 177.50000000 0.681905 -0.394614 -0.615861 0.000000
104.94100189 145.36300659 98.75000000 -0.769384 0.015304 0.638603 0.000000
183.84199524 95.61329651 155.00000000 -0.607206 0.145430 0.781122 0.000000
180.34399414 196.27900696 140.00000000 0.095475 -0.683012 0.724140 0.000000
212.99200439 166.35200500 173.75000000 -0.236439 -0.539329 -0.808221 0.000000
137.58999634 110.38300323 166.25000000 0.064339 0.784937 -0.616226 0.000000
52.08200073 209.88299561 156.25000000 0.940462 0.160166 -0.299798 0.000000
91.33789825 178.01199341 77.50000000 -0.730414 0.317642 0.604648 0.000000
195.11300659 160.91000366 131.25000000 -0.481443 -0.229331 0.845943 0.000000
87.06250000 265.07400513 176.25000000 0.486400 -0.539887 -0.686977 0.000000
70.73829651 227.76199341 186.25000000 0.346095 -0.486447 -0.802239 0.000000
150.02699280 123.59799957 121.25000000 -0.551990 0.333125 0.764418 0.000000
49.75000000 158.57800293 53.75000000 -0.458108 0.290394 0.840124 0.000000
150.80499268 198.22300720 188.75000000 -0.509480 -0.301271 -0.806019 0.000000
129.81599426 189.67199707 98.75000000 -0.381213 -0.278753 0.881461 0.000000
106.49600220 134.48100281 98.75000000 -0.326332 -0.074702 0.942299 0.000000
106.10700226 191.22700500 85.00000000 -0.540859 0.380726 0.750013 0.000000
80.84380341 270.90399170 127.50000000 0.569624 -0.798695 0.193947 0.000000
118.93399811 117.37899780 171.25000000 0.527104 0.537208 -0.658459 0.000000
111.16000366 247.19500732 188.75000000 0.733790 -0.549932 -0.398906 0.000000
166.35200500 177.23399353 111.25000000 -0.647124 -0.185990 0.739350 0.000000
146.91799927 228.53900146 158.75000000 -0.985362 -0.162860 0.050381 0.000000
95.22460175 255.74600220 115.00000000 -0.411844 -0.583859 0.699638 0.000000
155.46899414 199.00000000 186.25000000 -0.299316 -0.597031 -0.744288 0.000000
115.82399750 95.61329651 138.75000000 0.558370 0.675746 -0.481238 0.000000
141.08799744 233.20300293 147.50000000 -0.796446 -0.250935 0.550187 0.000000
212.99200439 155.46899414 173.75000000 -0.000978 -0.000978 -0.999999 0.000000
106.49600220 168.68400574 203.75000000 0.182935 0.253399 -0.949907 0.000000
87.83989716 164.02000427 83.75000000 -0.495662 0.479085 0.724429 0.000000
98.72270203 147.69500732 98.75000000 -0.309020 -0.379044 0.872257 0.000000
48.97269821 188.89500427 106.25000000 0.826712 -0.526365 0.198714 0.000000
126.70700073 253.02499390 145.00000000 -0.479679 -0.430565 0.764540 0.000000
146.14100647 116.60199738 173.75000000 -0.076832 0.755270 -0.650895 0.000000
125.93000031 151.58200073 108.75000000 0.346154 -0.780859 0.520036 0.000000
61.79880142 175.67999268 175.00000000 0.876085 0.437301 -0.203086 0.000000
69.18360138 136.03500366 113.75000000 0.847723 0.357511 -0.391857 0.000000
152.35899353 120.48799896 176.25000000 -0.079930 0.701932 -0.707745 0.000000
189.67199707 159.35600281 181.25000000 -0.204994 0.213033 -0.955298 0.000000
67.62889862 152.74800110 142.50000000 0.833854 0.526566 -0.165577 0.000000
59.85549927 206.77299500 178.75000000 0.781505 -0.389944 -0.487025 0.000000
69.18360138 144.58599854 128.75000000 0.877193 0.357262 -0.320776 0.000000
182.67599487 98.72270203 153.75000000 -0.402756 0.236303 0.884279 0.000000
104.94100189 244.08599854 118.75000000 -0.598159 -0.405953 0.690948 0.000000
112.71499634 186.56300354 206.25000000 -0.279674 0.001211 -0.960094 0.000000
51.30469894 161.68800354 53.75000000 -0.744990 0.302803 0.594390 0.000000
104.16400146 160.91000366 203.75000000 0.386950 0.377551 -0.841264 0.000000
101.83200073 159.35600281 201.25000000 0.730182 -0.001380 -0.683251 0.000000
225.04100037 147.69500732 162.50000000 -0.981168 0.164544 -0.101164 0.000000
74.62500000 239.81100464 72.50000000 -0.832150 -0.324398 0.449769 0.000000
166.35200500 84.73049927 146.25000000 -0.442309 0.886050 -0.138848 0.000000
115.82399750 276.34600830 160.00000000 -0.742318 -0.663255 0.095169 0.000000
192.00399780 125.93000031 143.75000000 -0.413396 0.825207 0.384886 0.000000
127.48400116 205.99600220 198.75000000 -0.083148 -0.491839 -0.866707 0.000000
149.63900757 82.39849854 147.50000000 0.115246 0.821308 -0.558723 0.000000
70.34960175 262.74200439 125.00000000 0.554310 -0.820379 -0.140425 0.000000
89.39459991 160.13299561 88.75000000 -0.590570 0.590570 0.549958 0.000000
78.51170349 260.41000366 96.25000000 -0.207086 -0.559898 0.802265 0.000000
227.76199341 143.80900574 168.75000000 -0.623768 0.643835 -0.443159 0.000000
70.73829651 148.08399963 140.00000000 0.815920 0.575528 -0.055149 0.000000
45.47460175 208.32800293 110.00000000 0.954848 0.001223 -0.297091 0.000000
94.83599854 125.93000031 96.25000000 -0.159790 0.012466 0.987072 0.000000
102.99800110 207.55099487 87.50000000 -0.739220 -0.413239 0.531778 0.000000
148.47300720 121.26599884 121.25000000 -0.499367 0.315473 0.806913 0.000000
120.48799896 155.46899414 108.75000000 -0.403232 -0.501183 0.765650 0.000000
185.00799561 184.61900330 132.50000000 -0.821216 -0.337031 0.460451 0.000000
77.73439789 219.21099854 66.25000000 -0.775728 -0.311891 0.548608 0.000000
145.36300659 113.49199677 121.25000000 -0.621255 0.506769 0.597685 0.000000
42.36520004 164.02000427 55.00000000 0.874953 0.339330 0.345416 0.000000
76.56839752 127.48400116 120.00000000 0.849703 0.360149 -0.385095 0.000000
125.93000031 135.25799561 178.75000000 0.763861 -0.509784 -0.395774 0.000000
98.72270203 203.66400146 81.25000000 -0.579748 -0.423598 0.696030 0.000000
166.35200500 136.81300354 123.75000000 -0.358516 0.355439 0.863209 0.000000
96.39070129 112.32599640 137.50000000 0.676875 0.362202 -0.640819 0.000000
78.51170349 189.67199707 201.25000000 0.459639 0.136883 -0.877493 0.000000
205.99600220 154.69099426 151.25000000 -0.377415 -0.500520 0.779126 0.000000
84.34179688 268.18399048 172.50000000 0.452939 -0.360762 -0.815290 0.000000
93.28130341 233.20300293 193.75000000 -0.036864 -0.319062 -0.947017 0.000000
91.72660065 251.08200073 186.25000000 -0.000978 -0.000978 -0.999999 0.000000
181.89799500 153.91400146 121.25000000 -0.422128 -0.162800 0.891798 0.000000
172.57000732 177.23399353 116.25000000 -0.495132 0.001335 0.868817 0.000000
196.66799927 160.13299561 178.75000000 -0.120869 -0.250836 -0.960454 0.000000
200.55499268 172.95899963 170.00000000 -0.615946 -0.278529 -0.736907 0.000000
87.06250000 117.37899780 131.25000000 0.590570 0.590570 -0.549958 0.000000
42.36520004 165.57400513 55.00000000 0.890092 0.200894 0.409120 0.000000
57.13479996 191.22700500 170.00000000 0.994652 0.102820 0.009741 0.000000
88.22850037 176.45700073 75.00000000 -0.725351 0.300755 0.619202 0.000000
94.83599854 267.40600586 116.25000000 -0.344007 -0.640733 0.686383 0.000000
89.39459991 231.64900208 193.75000000 0.269814 -0.470248 -0.840278 0.000000
171.01600647 177.23399353 116.25000000 -0.468942 -0.014696 0.883107 0.000000
49.36130142 230.09399414 110.00000000 0.590570 -0.590570 0.549958 0.000000
192.39300537 187.33999634 160.00000000 -0.846511 -0.531976 -0.020513 0.000000
95.61329651 154.69099426 101.25000000 -0.811614 0.405006 0.421015 0.000000
195.11300659 178.78900146 173.75000000 -0.413396 -0.825207 0.384886 0.000000
138.36700439 230.87100220 186.25000000 -0.585559 -0.266737 -0.765488 0.000000
67.24030304 166.35200500 65.00000000 -0.616440 0.398289 0.679241 0.000000
207.55099487 108.82800293 176.25000000 -0.000978 -0.000978 -0.999999 0.000000
174.51400757 195.11300659 140.00000000 0.902596 -0.296926 -0.311698 0.000000
174.12500000 177.23399353 163.75000000 0.991962 -0.112490 0.057950 0.000000
120.48799896 161.29899597 120.00000000 -0.028917 -0.951748 -0.305515 0.000000
104.94100189 119.71099854 153.75000000 0.251212 0.491636 -0.833778 0.000000
149.25000000 135.25799561 188.75000000 -0.302648 0.439228 -0.845862 0.000000
110.38300323 260.41000366 136.25000000 -0.533447 -0.460327 0.709601 0.000000
107.66200256 279.84399414 145.00000000 0.000978 0.000978 0.999999 0.000000
151.58200073 115.04699707 171.25000000 -0.129971 0.751444 -0.646869 0.000000
105.71900177 205.21899414 203.75000000 -0.000978 -0.000978 -0.999999 0.000000
76.17970276 221.15400696 65.00000000 -0.859132 -0.059875 0.508239 0.000000
123.59799957 196.66799927 201.25000000 -0.000978 -0.000978 -0.999999 0.000000
93.28130341 263.51998901 181.25000000 0.397236 -0.568658 -0.720300 0.000000
67.24030304 198.22300720 190.00000000 0.734369 -0.133114 -0.665569 0.000000
101.05500031 148.47300720 198.75000000 0.385816 0.370195 -0.845045 0.000000
132.14799500 117.76799774 177.50000000 0.399830 0.758861 -0.514067 0.000000
104.94100189 181.12100220 206.25000000 -0.000978 -0.000978 -0.999999 0.000000
77.73439789 145.36300659 91.25000000 -0.654157 0.526352 0.543169 0.000000
198.22300720 128.26199341 146.25000000 0.000978 0.000978 0.999999 0.000000
72.29299927 263.90798950 117.50000000 0.551722 -0.829732 0.084550 0.000000
71.51560211 128.26199341 111.25000000 -0.000978 -0.000978 -0.999999 0.000000
111.93800354 275.95700073 146.25000000 -0.667684 -0.308784 0.677385 0.000000
92.50389862 128.26199341 163.75000000 0.632727 0.707165 -0.315554 0.000000
195.89100647 121.26599884 176.25000000 -0.242886 -0.066015 -0.967806 0.000000
144.19700623 239.42199707 160.00000000 -0.915519 -0.324396 0.237891 0.000000
83.56449890 226.98399353 192.50000000 0.404302 -0.243178 -0.881706 0.000000
167.90600586 177.23399353 113.75000000 -0.684846 -0.179255 0.706296 0.000000
107.27300262 279.45498657 167.50000000 -0.091915 -0.869655 -0.485027 0.000000
114.26999664 275.17999268 173.75000000 -0.136733 -0.680660 -0.719726 0.000000
58.68949890 186.56300354 172.50000000 0.965411 0.168068 -0.199336 0.000000
194.33599854 113.49199677 176.25000000 -0.000978 -0.000978 -0.999999 0.000000
84.73049927 220.76600647 78.75000000 -0.633454 -0.439574 0.636797 0.000000
130.20500183 97.16799927 120.00000000 -0.587240 -0.218472 0.779371 0.000000
54.02539825 222.32000732 167.50000000 0.903797 0.152293 -0.399948 0.000000
111.93800354 179.56599426 206.25000000 -0.000978 -0.000978 -0.999999 0.000000
209.10600281 106.49600220 168.75000000 -0.601456 0.181198 0.778086 0.000000
147.69500732 88.61720276 131.25000000 -0.667067 -0.495679 0.556169 0.000000
114.26999664 90.56060028 127.50000000 0.446152 0.810750 -0.378990 0.000000
118.15599823 150.02699280 103.75000000 -0.616382 0.029352 0.786900 0.000000
44.30860138 203.66400146 103.75000000 0.966850 0.137754 -0.214999 0.000000
163.24200439 127.48400116 123.75000000 -0.618217 -0.209171 0.757664 0.000000
150.80499268 220.37699890 165.00000000 -0.949247 -0.235609 0.208371 0.000000
184.61900330 198.22300720 155.00000000 -0.591488 -0.094464 -0.800761 0.000000
133.31399536 199.00000000 105.00000000 -0.741502 -0.244019 0.625003 0.000000
152.35899353 213.77000427 163.75000000 -0.923966 -0.252770 0.287044 0.000000
115.43599701 276.73400879 162.50000000 -0.705724 -0.708486 0.001381 0.000000
118.15599823 178.01199341 101.25000000 -0.481001 0.753514 0.448168 0.000000
67.24030304 167.90600586 185.00000000 0.758361 0.347649 -0.551388 0.000000
75.40239716 195.11300659 198.75000000 0.616768 -0.208681 -0.758980 0.000000
132.92599487 96.39070129 121.25000000 -0.587212 -0.211150 0.781408 0.000000
116.60199738 181.89799500 121.25000000 -0.798205 0.593911 0.100688 0.000000
130.59399414 166.35200500 201.25000000 -0.309154 0.119111 -0.943523 0.000000
62.96490097 241.36500549 75.00000000 0.662906 -0.704041 0.254720 0.000000
153.91400146 185.39700317 122.50000000 -0.394422 -0.744655 0.538443 0.000000
83.17579651 263.51998901 101.25000000 -0.595277 -0.608767 0.524450 0.000000
68.40630341 132.14799500 88.75000000 0.493524 -0.737810 0.460512 0.000000
144.58599854 190.44900513 193.75000000 -0.418652 -0.211545 -0.883164 0.000000
112.71499634 219.21099854 198.75000000 -0.434367 -0.209030 -0.876146 0.000000
58.68949890 182.67599487 170.00000000 0.953368 0.192287 -0.232627 0.000000
191.22700500 90.17189789 158.75000000 -0.994569 0.001073 -0.104070 0.000000
97.16799927 244.86300659 111.25000000 -0.664593 -0.365936 0.651465 0.000000
76.56839752 109.60500336 102.50000000 0.621512 0.764354 -0.171714 0.000000
121.26599884 158.57800293 111.25000000 -0.046834 -0.645742 0.762118 0.000000
164.02000427 181.12100220 151.25000000 -0.100313 -0.987790 -0.119196 0.000000
111.93800354 207.94000244 202.50000000 -0.222456 -0.272823 -0.935992 0.000000
68.79489899 162.46499634 182.50000000 0.847765 0.511002 -0.142026 0.000000
105.71900177 216.49000549 97.50000000 -0.259415 -0.781390 0.567569 0.000000
121.26599884 219.98800659 196.25000000 -0.287593 -0.256115 -0.922873 0.000000
139.14500427 101.44300079 160.00000000 0.316707 0.480576 -0.817767 0.000000
61.41019821 249.52699280 166.25000000 0.834785 -0.449499 -0.317939 0.000000
125.15200043 219.21099854 116.25000000 -0.575825 -0.653050 0.491886 0.000000
118.93399811 182.28700256 97.50000000 -0.313951 0.944502 -0.096702 0.000000
125.93000031 202.10899353 201.25000000 -0.409531 -0.334787 -0.848647 0.000000
62.57619858 176.45700073 180.00000000 0.939884 0.265167 -0.215188 0.000000
137.97900391 96.39070129 125.00000000 -0.445654 0.173878 0.878157 0.000000
67.24030304 259.63299561 120.00000000 0.707203 -0.701346 0.089315 0.000000
200.55499268 148.47300720 176.25000000 -0.326732 0.021446 -0.944874 0.000000
76.17970276 120.87699890 115.00000000 0.851786 0.179871 -0.492044 0.000000
70.34960175 263.51998901 140.00000000 0.705724 -0.708486 0.001381 0.000000
183.45300293 184.23100281 128.75000000 -0.839915 -0.440995 0.316332 0.000000
70.73829651 197.44500732 193.75000000 0.775087 -0.155017 -0.612544 0.000000
182.28700256 85.50779724 160.00000000 -0.076455 0.986863 -0.142325 0.000000
59.46680069 240.19900513 172.50000000 0.667367 -0.466655 -0.580392 0.000000
205.21899414 164.02000427 156.25000000 -0.485411 -0.663451 0.569393 0.000000
204.44099426 120.48799896 173.75000000 -0.539473 -0.188891 -0.820542 0.000000
132.14799500 104.16400146 118.75000000 -0.149472 0.465829 0.872159 0.000000
118.93399811 105.33000183 155.00000000 -0.001223 0.954848 -0.297091 0.000000
93.28130341 277.12298584 167.50000000 0.236983 -0.861894 -0.448306 0.000000
75.01370239 110.38300323 100.00000000 0.621512 0.764354 -0.171714 0.000000
90.94920349 104.55300140 122.50000000 0.617985 0.634732 -0.463907 0.000000
67.62889862 239.42199707 66.25000000 0.295091 -0.767237 0.569446 0.000000
85.50779724 262.74200439 103.75000000 -0.743932 -0.646567 0.168868 0.000000
146.91799927 142.25399780 188.75000000 -0.390753 0.054679 -0.918870 0.000000
77.34570313 270.51599121 147.50000000 -0.351080 -0.348014 0.869269 0.000000
94.05860138 110.38300323 133.75000000 0.727504 0.449097 -0.518699 0.000000
159.74400330 108.82800293 170.00000000 0.241624 0.463492 -0.852522 0.000000
173.73599243 164.79699707 115.00000000 -0.585820 -0.164150 0.793643 0.000000
97.55670166 184.23100281 80.00000000 -0.141780 -0.298413 0.943848 0.000000
91.33789825 165.57400513 85.00000000 -0.566724 0.509547 0.647445 0.000000
167.12899780 85.50779724 148.75000000 -0.330307 0.755678 0.565550 0.000000
126.70700073 87.45120239 137.50000000 0.461530 0.809674 -0.362517 0.000000
62.18750000 256.13500977 145.00000000 0.771125 -0.632755 0.070626 0.000000
94.83599854 140.69900513 96.25000000 0.250642 -0.267635 0.930350 0.000000
140.69900513 230.09399414 146.25000000 -0.887197 -0.185624 0.422405 0.000000
167.90600586 188.11700439 136.25000000 0.705763 -0.562950 -0.430100 0.000000
125.93000031 202.88699341 98.75000000 -0.601337 -0.428099 0.674630 0.000000
114.26999664 276.73400879 156.25000000 -0.776230 -0.571544 0.266091 0.000000
98.72270203 240.97700500 111.25000000 -0.656870 -0.352187 0.666698 0.000000
174.12500000 117.37899780 176.25000000 0.130013 0.718809 -0.682943 0.000000
161.68800354 107.66200256 170.00000000 0.320408 0.439194 -0.839314 0.000000
171.01600647 194.33599854 133.75000000 0.808900 -0.585071 -0.058082 0.000000
208.32800293 169.46099854 166.25000000 -0.045694 -0.966986 0.250700 0.000000
101.83200073 116.60199738 146.25000000 0.365666 0.236435 -0.900215 0.000000
151.58200073 205.99600220 161.25000000 -0.885614 0.133057 0.444953 0.000000
167.90600586 85.89649963 160.00000000 0.131066 0.561079 -0.817320 0.000000
52.08200073 150.80499268 58.75000000 -0.640292 0.414111 0.646945 0.000000
171.79299927 161.68800354 188.75000000 -0.081907 -0.363884 -0.927836 0.000000
116.60199738 96.00199890 140.00000000 0.557106 0.677562 -0.480149 0.000000
125.93000031 262.74200439 156.25000000 -0.663904 -0.663904 0.344186 0.000000
160.91000366 164.02000427 143.75000000 0.668659 0.085950 -0.738585 0.000000
83.17579651 192.78100586 63.75000000 -0.790304 -0.392728 0.470303 0.000000
125.15200043 238.64500427 133.75000000 -0.584804 -0.221822 0.780256 0.000000
62.57619858 185.00799561 182.50000000 0.897439 0.098788 -0.429936 0.000000
113.49199677 194.33599854 88.75000000 -0.624352 -0.271664 0.732382 0.000000
195.11300659 110.38300323 156.25000000 -0.264178 0.486643 0.832700 0.000000
126.70700073 122.04299927 178.75000000 0.000978 0.000978 -0.999999 0.000000
160.13299561 107.27300262 168.75000000 0.241624 0.463492 -0.852522 0.000000
76.95709991 245.64100647 81.25000000 -0.767121 -0.309091 0.562128 0.000000
113.49199677 240.97700500 126.25000000 -0.466906 -0.587398 0.661032 0.000000
170.23800659 90.17189789 163.75000000 0.232537 0.531293 -0.814650 0.000000
111.93800354 148.47300720 101.25000000 -0.058321 -0.997824 0.030751 0.000000
109.60500336 143.03100586 198.75000000 0.164699 0.514869 -0.841299 0.000000
143.80900574 196.66799927 193.75000000 -0.452344 -0.207511 -0.867366 0.000000
134.48100281 112.32599640 117.50000000 -0.551701 0.410071 0.726270 0.000000
65.29689789 155.46899414 141.25000000 0.825043 0.531358 -0.192258 0.000000
74.62500000 246.41799927 78.75000000 -0.766501 -0.416754 0.488665 0.000000
75.79100037 139.14500427 137.50000000 0.921035 0.380045 -0.085206 0.000000
90.94920349 107.27300262 126.25000000 0.659022 0.575177 -0.484624 0.000000
112.71499634 130.59399414 171.25000000 -0.071384 0.391939 -0.917218 0.000000
191.22700500 118.15599823 148.75000000 -0.438810 0.592309 0.675733 0.000000
167.90600586 134.48100281 183.75000000 -0.106229 0.332132 -0.937232 0.000000
54.41410065 244.08599854 148.75000000 0.953915 -0.299872 -0.011106 0.000000
82.39849854 184.23100281 203.75000000 -0.000978 -0.000978 -0.999999 0.000000
135.25799561 107.27300262 161.25000000 0.273064 0.467448 -0.840790 0.000000
66.07420349 180.34399414 53.75000000 -0.658105 0.470553 0.587773 0.000000
204.44099426 145.36300659 148.75000000 -0.848828 -0.001345 0.528668 0.000000
156.24600220 174.90199280 191.25000000 -0.451941 -0.006588 -0.892024 0.000000
59.07809830 141.47700500 73.75000000 -0.781505 0.389944 0.487025 0.000000
155.46899414 187.33999634 126.25000000 -0.385788 -0.919124 0.079865 0.000000
223.87500000 112.71499634 171.25000000 -0.665896 -0.038172 -0.745068 0.000000
155.46899414 157.41200256 130.00000000 0.105377 0.968709 -0.224720 0.000000
100.27700043 136.81300354 96.25000000 -0.229265 -0.207560 0.950976 0.000000
66.85160065 231.64900208 58.75000000 -0.043023 -0.537097 0.842423 0.000000
146.91799927 87.06250000 153.75000000 0.188842 0.640219 -0.744619 0.000000
175.67999268 146.91799927 121.25000000 0.313951 0.944502 -0.096702 0.000000
114.26999664 272.07000732 148.75000000 -0.886398 -0.442483 0.136039 0.000000
128.26199341 147.30700684 197.50000000 -0.403563 0.514665 -0.756476 0.000000
90.17189789 134.09199524 175.00000000 0.600976 0.768690 -0.218960 0.000000
66.85160065 181.89799500 53.75000000 -0.635944 0.514490 0.575217 0.000000
128.26199341 188.89500427 98.75000000 -0.371243 0.523632 0.766804 0.000000
67.62889862 181.89799500 53.75000000 -0.635944 0.514490 0.575217 0.000000
55.96879959 222.32000732 58.75000000 0.778688 -0.538846 0.321389 0.000000
80.84380341 228.53900146 78.75000000 -0.826108 -0.285780 0.485670 0.000000
109.60500336 171.01600647 131.25000000 0.627537 -0.001373 0.778585 0.000000
164.79699707 127.48400116 126.25000000 -0.746185 0.275245 0.606176 0.000000
86.28520203 177.23399353 71.25000000 -0.687808 0.290194 0.665362 0.000000
66.85160065 182.67599487 53.75000000 -0.771752 0.508544 0.381814 0.000000
60.24420166 143.03100586 105.00000000 0.232944 -0.232944 -0.944179 0.000000
50.13869858 174.12500000 110.00000000 0.647355 0.647355 0.402321 0.000000
167.90600586 183.06500244 147.50000000 0.403761 -0.861253 -0.308577 0.000000
197.83399963 144.58599854 177.50000000 -0.595143 0.222208 -0.772288 0.000000
191.22700500 115.04699707 151.25000000 -0.438332 0.608331 0.661664 0.000000
196.66799927 174.90199280 141.25000000 -0.862905 -0.492473 0.113427 0.000000
95.61329651 237.86700439 191.25000000 0.218975 -0.300914 -0.928171 0.000000
68.40630341 183.06500244 55.00000000 -0.635944 0.514490 0.575217 0.000000
167.12899780 154.69099426 111.25000000 0.152417 0.319938 0.935098 0.000000
104.16400146 222.32000732 101.25000000 -0.443356 -0.715679 0.539665 0.000000
175.29100037 90.17189789 165.00000000 0.231674 0.186143 -0.954818 0.000000
40.03319931 184.23100281 55.00000000 0.884300 -0.264841 0.384543 0.000000
86.67389679 219.21099854 80.00000000 -0.001373 0.627537 0.778585 0.000000
94.05860138 158.57800293 96.25000000 -0.588625 0.612237 0.527907 0.000000
166.35200500 174.90199280 111.25000000 -0.646193 -0.123297 0.753149 0.000000
187.33999634 170.23800659 126.25000000 -0.619148 0.155164 0.769792 0.000000
83.95310211 158.57800293 86.25000000 -0.471072 0.635360 0.611890 0.000000
42.75389862 184.23100281 88.75000000 0.954982 0.097713 -0.280111 0.000000
163.24200439 80.84380341 151.25000000 0.123971 0.882047 -0.454560 0.000000
74.62500000 148.86099243 87.50000000 -0.447686 0.412130 0.793553 0.000000
110.38300323 276.34600830 145.00000000 -0.658474 -0.530484 0.533852 0.000000
188.11700439 189.67199707 143.75000000 -0.825738 -0.467132 0.316140 0.000000
125.15200043 246.41799927 188.75000000 0.000978 0.000978 -0.999999 0.000000
120.48799896 140.31100464 195.00000000 -0.174058 0.585743 -0.791586 0.000000
97.16799927 178.01199341 83.75000000 -0.477148 0.477148 0.738011 0.000000
126.70700073 94.05860138 148.75000000 0.776244 0.116806 -0.619517 0.000000
73.07029724 164.02000427 71.25000000 -0.518787 0.423264 0.742771 0.000000
87.06250000 124.37500000 146.25000000 0.624931 0.752088 -0.209344 0.000000
132.92599487 178.78900146 126.25000000 0.333612 0.469587 0.817429 0.000000
89.39459991 106.49600220 123.75000000 0.662540 0.565256 -0.491454 0.000000
154.30299377 210.66000366 167.50000000 -0.908737 -0.069276 0.411580 0.000000
73.07029724 202.10899353 196.25000000 0.407063 -0.475177 -0.780068 0.000000
202.88699341 94.83599854 173.75000000 -0.089144 0.746767 -0.659084 0.000000
68.79489899 194.33599854 192.50000000 0.797991 -0.035061 -0.601649 0.000000
68.40630341 137.97900391 115.00000000 0.912062 0.397565 -0.100423 0.000000
192.78100586 106.10700226 157.50000000 -0.322039 0.392919 0.861339 0.000000
144.58599854 233.20300293 176.25000000 -0.781505 -0.389944 -0.487025 0.000000
81.23239899 215.32400513 70.00000000 -0.826206 -0.342804 0.447067 0.000000
91.72660065 160.13299561 198.75000000 0.475794 0.366858 -0.799397 0.000000
199.77699280 102.60900116 161.25000000 -0.458264 0.220868 0.860936 0.000000
62.96490097 147.69500732 76.25000000 -0.707702 0.494559 0.504550 0.000000
85.50779724 191.22700500 206.25000000 0.513995 -0.415465 -0.750465 0.000000
133.31399536 185.00799561 105.00000000 -0.594725 0.470754 0.651685 0.000000
132.14799500 212.99200439 118.75000000 -0.749651 -0.459676 0.476152 0.000000
218.43400574 111.16000366 173.75000000 -0.999999 0.000978 0.000978 0.000000
94.83599854 214.15800476 85.00000000 -0.385390 -0.385390 0.838420 0.000000
150.02699280 155.46899414 123.75000000 -0.350704 -0.531712 0.770902 0.000000
204.44099426 112.71499634 158.75000000 -0.401329 0.532376 0.745326 0.000000
97.94529724 187.33999634 208.75000000 0.156943 0.334719 -0.929157 0.000000
110.38300323 116.98999786 160.00000000 0.694117 0.179275 -0.697182 0.000000
63.74219894 228.53900146 181.25000000 0.470582 -0.201678 -0.858999 0.000000
174.12500000 195.89100647 143.75000000 0.773360 -0.612937 0.161936 0.000000
155.46899414 200.55499268 176.25000000 -0.888024 0.070434 0.454370 0.000000
79.67780304 266.62899780 110.00000000 0.177721 -0.966439 0.185504 0.000000
122.04299927 157.02299500 203.75000000 -0.274166 0.318149 -0.907532 0.000000
93.28130341 276.73400879 136.25000000 0.159532 -0.930836 0.328775 0.000000
190.44900513 172.57000732 171.25000000 0.000978 0.000978 -0.999999 0.000000
158.57800293 91.72660065 161.25000000 -0.027312 0.210181 -0.977281 0.000000
79.67780304 271.29299927 132.50000000 0.569624 -0.798695 0.193947 0.000000
118.15599823 181.89799500 96.25000000 -0.590298 0.708687 0.386407 0.000000
76.95709991 212.99200439 193.75000000 0.426137 -0.332480 -0.841347 0.000000
192.00399780 178.01199341 136.25000000 -0.816404 -0.510447 0.270053 0.000000
147.69500732 87.83989716 131.25000000 -0.667067 -0.495679 0.556169 0.000000
210.66000366 122.43199921 160.00000000 -0.439456 0.468862 0.766190 0.000000
195.89100647 163.63099670 132.50000000 -0.703908 0.032445 0.709550 0.000000
39.25590134 191.22700500 72.50000000 0.999999 0.000978 0.000978 0.000000
168.68400574 185.78500366 116.25000000 -0.081879 -0.817357 0.570283 0.000000
61.41019821 138.36700439 78.75000000 -0.861678 0.431602 0.266891 0.000000
118.15599823 144.58599854 103.75000000 -0.407467 -0.171338 0.897003 0.000000
141.86500549 209.10600281 130.00000000 -0.854147 -0.351890 0.382893 0.000000
209.10600281 160.13299561 156.25000000 -0.592692 -0.354309 0.723313 0.000000
97.16799927 130.20500183 180.00000000 0.398137 0.495640 -0.771899 0.000000
192.00399780 150.02699280 128.75000000 -0.730182 -0.001380 0.683251 0.000000
47.80670166 215.32400513 130.00000000 0.987330 0.148041 -0.057118 0.000000
209.88299561 106.88500214 170.00000000 -0.642217 0.474536 0.601974 0.000000
209.10600281 139.14500427 151.25000000 -0.656641 0.041129 0.753081 0.000000
61.41019821 137.58999634 103.75000000 0.476152 0.459676 -0.749651 0.000000
89.39459991 276.34600830 167.50000000 0.326890 -0.839905 -0.433247 0.000000
122.04299927 149.25000000 201.25000000 -0.000978 -0.000978 -0.999999 0.000000
62.18750000 156.24600220 68.75000000 -0.922215 0.208884 0.325404 0.000000
80.84380341 119.71099854 123.75000000 0.926702 0.371474 0.056845 0.000000
61.79880142 164.79699707 152.50000000 0.690783 0.690783 0.213628 0.000000
85.50779724 116.21299744 90.00000000 0.471891 -0.001322 -0.881656 0.000000
45.47460175 152.35899353 85.00000000 0.959195 0.270214 -0.083241 0.000000
164.02000427 139.14500427 121.25000000 -0.334085 0.235739 0.912587 0.000000
146.91799927 123.59799957 118.75000000 -0.535803 0.423696 0.730340 0.000000
198.61099243 171.79299927 142.50000000 -0.590570 -0.590570 -0.549958 0.000000
118.15599823 226.20700073 116.25000000 -0.520038 -0.560429 0.644578 0.000000
99.50000000 146.14100647 196.25000000 0.352219 0.566473 -0.745017 0.000000
145.36300659 160.13299561 191.25000000 -0.507859 0.615842 -0.602344 0.000000
116.60199738 201.33200073 203.75000000 -0.317477 -0.042075 -0.947332 0.000000
150.02699280 223.09800720 163.75000000 -0.949247 -0.235609 0.208371 0.000000
106.49600220 160.91000366 108.75000000 -0.793113 -0.107019 0.599599 0.000000
223.09800720 139.14500427 161.25000000 -0.419923 -0.098398 0.902210 0.000000
153.13699341 93.28130341 161.25000000 0.131771 0.485092 -0.864478 0.000000
70.73829651 189.67199707 196.25000000 0.884780 -0.090854 -0.457067 0.000000
112.71499634 195.11300659 88.75000000 -0.624352 -0.271664 0.732382 0.000000
53.24810028 239.42199707 152.50000000 0.954848 -0.001223 0.297091 0.000000
196.66799927 141.08799744 142.50000000 -0.668685 0.203243 0.715229 0.000000
76.95709991 224.65199280 191.25000000 0.343670 -0.264021 -0.901212 0.000000
59.07809830 245.25199890 100.00000000 0.834146 -0.550063 0.040384 0.000000
219.98800659 161.68800354 171.25000000 -0.076114 0.887078 -0.455302 0.000000
86.28520203 251.85899353 186.25000000 0.482826 0.017484 -0.875542 0.000000
127.48400116 140.69900513 176.25000000 0.686009 -0.401687 -0.606663 0.000000
50.52740097 222.70899963 72.50000000 0.814701 -0.563341 0.137509 0.000000
202.88699341 118.93399811 176.25000000 -0.570951 -0.477187 -0.668063 0.000000
129.81599426 238.64500427 188.75000000 -0.462939 -0.336539 -0.820018 0.000000
60.24420166 247.19500732 102.50000000 0.848897 -0.526566 0.045849 0.000000
111.16000366 240.97700500 123.75000000 -0.516215 -0.693299 0.502850 0.000000
53.63669968 235.14700317 107.50000000 0.871635 -0.435070 0.225758 0.000000
137.58999634 233.59199524 142.50000000 -0.755097 -0.168643 0.633552 0.000000
71.12699890 147.69500732 152.50000000 0.874904 0.478616 0.073955 0.000000
118.15599823 160.52200317 120.00000000 -0.028917 -0.951748 -0.305515 0.000000
91.72660065 277.51199341 166.25000000 0.193947 -0.798695 -0.569624 0.000000
114.65799713 126.70700073 165.00000000 0.941135 -0.114118 -0.318187 0.000000
174.12500000 164.79699707 186.25000000 -0.463475 -0.486566 -0.740570 0.000000
111.16000366 107.27300262 148.75000000 0.775133 0.551383 -0.308455 0.000000
173.34800720 160.13299561 113.75000000 -0.611069 -0.211941 0.762676 0.000000
109.60500336 277.89999390 170.00000000 -0.091915 -0.869655 -0.485027 0.000000
190.44900513 132.92599487 178.75000000 -0.552025 0.143556 -0.821377 0.000000
61.41019821 133.70300293 101.25000000 0.820884 0.382656 -0.423938 0.000000
142.25399780 158.18899536 120.00000000 -0.447035 -0.737360 0.506419 0.000000
73.07029724 195.89100647 53.75000000 -0.623721 0.188495 0.758579 0.000000
217.65600586 144.58599854 171.25000000 -0.572833 -0.401148 -0.714803 0.000000
151.58200073 116.60199738 173.75000000 -0.070929 0.728106 -0.681785 0.000000
178.01199341 178.01199341 171.25000000 0.390558 0.782736 0.484551 0.000000
73.07029724 209.88299561 56.25000000 -0.797147 -0.167265 0.580154 0.000000
122.81999969 115.04699707 111.25000000 -0.487694 0.346982 0.801098 0.000000
214.15800476 125.15200043 160.00000000 -0.216791 0.278332 0.935699 0.000000
134.09199524 240.97700500 142.50000000 -0.742795 -0.446336 0.499040 0.000000
60.63280106 137.58999634 103.75000000 0.476152 0.459676 -0.749651 0.000000
79.28910065 250.30499268 183.75000000 0.111459 -0.441603 -0.890260 0.000000
144.97500610 136.81300354 115.00000000 -0.303596 0.151118 0.940741 0.000000
53.63669968 186.56300354 141.25000000 0.926693 0.347683 -0.142675 0.000000
125.15200043 161.68800354 128.75000000 0.000978 0.000978 0.999999 0.000000
208.32800293 113.49199677 163.75000000 -0.640274 0.319326 0.698628 0.000000
225.42999268 160.91000366 171.25000000 0.000978 0.000978 0.999999 0.000000
143.03100586 210.66000366 133.75000000 -0.811614 -0.405006 0.421015 0.000000
52.08200073 230.48199463 87.50000000 0.844304 -0.508956 0.167674 0.000000
45.08599854 213.77000427 111.25000000 0.994569 -0.001073 -0.104070 0.000000
150.80499268 135.25799561 116.25000000 -0.340868 0.547650 0.764126 0.000000
100.27700043 235.53500366 108.75000000 -0.528427 -0.448915 0.720583 0.000000
150.41600037 125.15200043 182.50000000 -0.335847 0.538319 -0.772929 0.000000
144.58599854 230.09399414 178.75000000 -0.781505 -0.389944 -0.487025 0.000000
82.78710175 115.04699707 122.50000000 0.773781 0.483817 -0.408882 0.000000
151.58200073 138.36700439 188.75000000 -0.162417 0.203995 -0.965405 0.000000
75.40239716 150.80499268 86.25000000 -0.489451 0.479496 0.728369 0.000000
137.58999634 232.42599487 186.25000000 -0.513034 -0.280835 -0.811127 0.000000
224.65199280 132.92599487 171.25000000 -0.000978 -0.000978 -0.999999 0.000000
185.39700317 184.23100281 170.00000000 -0.837227 0.442870 0.320807 0.000000
117.37899780 245.64100647 188.75000000 -0.176700 -0.349159 -0.920253 0.000000
132.14799500 92.50389862 151.25000000 0.594899 0.460837 -0.658578 0.000000
200.55499268 93.28130341 168.75000000 -0.713678 0.693077 0.101534 0.000000
139.14500427 217.26800537 135.00000000 -0.945253 -0.295307 0.138889 0.000000
91.72660065 235.53500366 98.75000000 -0.530256 -0.530256 0.661557 0.000000
116.60199738 233.98100281 193.75000000 -0.954848 -0.001223 -0.297091 0.000000
61.41019821 254.58000183 152.50000000 -0.000978 -0.000978 -0.999999 0.000000
76.95709991 204.44099426 196.25000000 0.358907 -0.352746 -0.864150 0.000000
63.74219894 231.64900208 58.75000000 0.150321 -0.552170 0.820069 0.000000
141.47700500 94.05860138 128.75000000 -0.668528 -0.012509 0.743581 0.000000
166.35200500 172.57000732 181.25000000 -0.466316 -0.690281 -0.553228 0.000000
66.85160065 143.80900574 83.75000000 -0.491236 0.226607 0.841033 0.000000
79.67780304 263.51998901 172.50000000 0.183077 -0.855849 -0.483741 0.000000
142.25399780 212.21499634 133.75000000 -0.766304 -0.462397 0.446058 0.000000
192.00399780 186.56300354 153.75000000 -0.893536 -0.417176 0.166004 0.000000
197.05700684 177.23399353 150.00000000 -0.841029 -0.525095 0.130177 0.000000
226.98399353 128.26199341 163.75000000 -0.637031 -0.251335 0.728713 0.000000
189.67199707 147.69500732 181.25000000 -0.300695 -0.291895 -0.907954 0.000000
114.26999664 178.78900146 96.25000000 -0.501027 0.541244 0.675298 0.000000
116.60199738 272.07000732 176.25000000 -0.438546 -0.681997 -0.585284 0.000000
87.83989716 259.24398804 105.00000000 -0.810559 -0.420468 0.407678 0.000000
191.22700500 107.27300262 176.25000000 -0.000978 -0.000978 -0.999999 0.000000
88.61720276 261.18798828 181.25000000 0.419432 -0.276063 -0.864793 0.000000
71.12699890 143.03100586 87.50000000 -0.573367 0.273257 0.772387 0.000000
141.47700500 221.54299927 188.75000000 -0.342376 -0.342376 -0.874961 0.000000
73.07029724 202.10899353 53.75000000 -0.776738 -0.100932 0.621683 0.000000
176.45700073 171.01600647 171.25000000 0.396611 -0.801250 0.447994 0.000000
102.22100067 212.21499634 90.00000000 -0.598970 -0.531480 0.598970 0.000000
146.14100647 200.55499268 143.75000000 -0.999999 -0.000978 -0.000978 0.000000
132.92599487 248.75000000 181.25000000 -0.579748 -0.423598 -0.696030 0.000000
134.09199524 258.85598755 162.50000000 -0.671719 -0.671719 0.312390 0.000000
62.18750000 129.81599426 98.75000000 0.868534 0.378356 -0.320148 0.000000
164.79699707 101.83200073 168.75000000 -0.104063 0.622911 -0.775341 0.000000
189.67199707 149.25000000 126.25000000 -0.639545 0.026589 0.768294 0.000000
146.52900696 227.76199341 177.50000000 -0.781505 -0.389944 -0.487025 0.000000
46.64059830 203.66400146 53.75000000 0.853089 -0.416481 0.314296 0.000000
67.62889862 163.63099670 67.50000000 -0.606632 0.489002 0.626797 0.000000
177.23399353 188.11700439 153.75000000 -0.541234 0.001350 0.840871 0.000000
129.03900146 192.00399780 201.25000000 -0.000978 -0.000978 -0.999999 0.000000
130.59399414 229.31599426 131.25000000 -0.780726 -0.459346 0.423637 0.000000
125.15200043 129.81599426 183.75000000 0.101723 0.720907 -0.685525 0.000000
78.51170349 228.92799377 190.00000000 0.364968 -0.249715 -0.896906 0.000000
171.01600647 194.72500610 132.50000000 0.847215 -0.507146 -0.158206 0.000000
183.45300293 125.15200043 141.25000000 -0.553328 0.702876 0.446983 0.000000
151.97099304 214.54699707 180.00000000 -0.776166 -0.444221 -0.447475 0.000000
164.02000427 165.18600464 147.50000000 0.481704 0.639475 -0.599193 0.000000
116.60199738 193.55900574 91.25000000 -0.545329 0.124271 0.828959 0.000000
103.38700104 233.20300293 108.75000000 -0.528261 -0.478268 0.701570 0.000000
226.20700073 128.26199341 163.75000000 -0.233860 -0.638799 0.732970 0.000000
85.11920166 225.42999268 82.50000000 -0.680666 -0.437690 0.587470 0.000000
164.02000427 83.56449890 155.00000000 -0.267699 0.806229 -0.527571 0.000000
196.66799927 140.69900513 143.75000000 -0.668685 0.203243 0.715229 0.000000
73.84770203 256.52398682 88.75000000 0.195171 -0.824559 0.531046 0.000000
174.90199280 102.60900116 171.25000000 0.209367 0.545576 -0.811487 0.000000
174.12500000 142.25399780 128.75000000 -0.645179 -0.104346 0.756873 0.000000
142.25399780 205.21899414 191.25000000 -0.541661 -0.317966 -0.778139 0.000000
54.41410065 246.02900696 140.00000000 0.760793 -0.647874 0.038110 0.000000
87.83989716 204.44099426 203.75000000 0.333520 -0.268873 -0.903588 0.000000
113.10399628 121.26599884 165.00000000 0.900275 -0.134264 -0.414098 0.000000
95.61329651 168.68400574 88.75000000 -0.648145 0.699611 0.300752 0.000000
81.62110138 263.13101196 100.00000000 -0.662697 -0.494925 0.562034 0.000000
121.26599884 246.41799927 136.25000000 -0.488671 -0.482045 0.727209 0.000000
128.26199341 198.22300720 201.25000000 -0.261809 -0.198756 -0.944432 0.000000
57.91210175 197.44500732 172.50000000 0.915502 0.135578 -0.378780 0.000000
97.16799927 277.89999390 137.50000000 0.146826 -0.956353 0.252647 0.000000
115.82399750 178.01199341 98.75000000 -0.529076 0.663444 0.529076 0.000000
129.81599426 212.21499634 196.25000000 0.022171 -0.392563 -0.919458 0.000000
108.82800293 172.57000732 121.25000000 -0.999999 -0.000978 -0.000978 0.000000
99.88870239 244.86300659 115.00000000 -0.725463 -0.339199 0.598872 0.000000
71.51560211 147.30700684 150.00000000 0.914271 0.401745 0.052053 0.000000
200.55499268 165.57400513 141.25000000 -0.892054 -0.355928 0.278488 0.000000
131.37100220 91.72660065 151.25000000 0.526602 0.463476 -0.712657 0.000000
136.03500366 126.70700073 183.75000000 -0.097305 0.150162 -0.983861 0.000000
185.00799561 89.39459991 166.25000000 0.196531 0.701011 -0.685536 0.000000
109.99400330 178.01199341 130.00000000 -0.054367 0.377918 0.924241 0.000000
164.79699707 125.93000031 126.25000000 -0.638740 0.275566 0.718383 0.000000
48.58399963 210.66000366 132.50000000 0.988403 0.145792 -0.042475 0.000000
59.46680069 250.30499268 130.00000000 0.777502 -0.604048 0.174976 0.000000
135.25799561 152.35899353 196.25000000 -0.735002 0.220033 -0.641371 0.000000
49.75000000 209.10600281 53.75000000 0.724647 -0.618601 0.303677 0.000000
66.07420349 226.20700073 181.25000000 -0.000978 -0.000978 -0.999999 0.000000
125.15200043 112.71499634 113.75000000 -0.612349 0.205145 0.763508 0.000000
99.88870239 118.15599823 97.50000000 -0.611800 -0.188600 0.768200 0.000000
139.92199707 242.14300537 177.50000000 -0.734167 -0.367901 -0.570655 0.000000
106.49600220 215.32400513 96.25000000 -0.259415 -0.781390 0.567569 0.000000
202.88699341 167.12899780 176.25000000 0.317693 -0.491555 -0.810829 0.000000
52.08200073 224.65199280 71.25000000 0.814701 -0.563341 0.137509 0.000000
124.37500000 139.14500427 173.75000000 0.863477 -0.246492 -0.440056 0.000000
47.41799927 168.68400574 98.75000000 0.928691 0.154088 -0.337327 0.000000
123.59799957 124.37500000 178.75000000 0.495950 0.423930 -0.757837 0.000000
152.35899353 142.25399780 188.75000000 -0.000978 -0.000978 -0.999999 0.000000
74.62500000 226.20700073 188.75000000 0.411533 -0.450265 -0.792403 0.000000
160.91000366 159.35600281 113.75000000 0.796484 0.177502 0.578020 0.000000
174.12500000 129.03900146 181.25000000 0.129888 0.664369 -0.736032 0.000000
155.46899414 185.78500366 128.75000000 -0.541916 -0.819667 -0.185670 0.000000
230.48199463 129.03900146 167.50000000 -0.543491 0.683963 0.486634 0.000000
105.71900177 133.70300293 98.75000000 -0.460366 -0.036451 0.886981 0.000000
61.02149963 247.97300720 100.00000000 0.848897 -0.526566 0.045849 0.000000
78.51170349 265.85198975 108.75000000 0.239390 -0.942340 0.233855 0.000000
121.26599884 177.23399353 203.75000000 0.000978 0.000978 -0.999999 0.000000
137.20100403 237.08999634 185.00000000 -0.765117 -0.347780 -0.541890 0.000000
140.69900513 233.98100281 146.25000000 -0.814845 -0.249886 0.523053 0.000000
180.34399414 109.60500336 148.75000000 -0.769561 -0.361289 0.526542 0.000000
156.24600220 183.06500244 115.00000000 0.004110 -0.807008 0.590527 0.000000
115.82399750 148.47300720 103.75000000 -0.378367 -0.162967 0.911197 0.000000
73.84770203 173.34800720 196.25000000 0.575145 0.441778 -0.688506 0.000000
178.78900146 115.04699707 176.25000000 0.915820 -0.369986 -0.156154 0.000000
105.33000183 204.44099426 87.50000000 -0.281079 -0.213955 0.935531 0.000000
53.24810028 208.32800293 160.00000000 0.954848 -0.001223 -0.297091 0.000000
146.91799927 132.92599487 116.25000000 -0.301984 -0.016156 0.953176 0.000000
118.15599823 101.83200073 148.75000000 0.329303 0.775871 -0.538130 0.000000
95.61329651 217.65600586 198.75000000 0.372733 -0.619033 -0.691280 0.000000
40.81060028 199.77699280 75.00000000 0.983033 -0.170392 -0.067919 0.000000
148.86099243 213.77000427 185.00000000 -0.554544 -0.127972 -0.822255 0.000000
118.93399811 162.46499634 203.75000000 -0.000978 -0.000978 -0.999999 0.000000
205.99600220 138.36700439 148.75000000 -0.627537 -0.001373 0.778585 0.000000
50.13869858 215.32400513 152.50000000 0.946682 0.118502 -0.299583 0.000000
139.92199707 220.76600647 188.75000000 -0.370424 -0.358025 -0.857090 0.000000
89.00589752 204.44099426 72.50000000 -0.651280 -0.255124 0.714665 0.000000
197.44500732 137.58999634 143.75000000 -0.947740 -0.208639 0.241367 0.000000
139.14500427 249.91600037 172.50000000 -0.896019 -0.406755 -0.178046 0.000000
116.60199738 131.37100220 103.75000000 -0.431562 -0.236081 0.870643 0.000000
165.18600464 124.37500000 127.50000000 -0.681244 0.251317 0.687566 0.000000
68.40630341 200.55499268 191.25000000 0.707642 -0.139726 -0.692618 0.000000
189.67199707 101.05500031 173.75000000 0.398575 0.533074 -0.746304 0.000000
182.67599487 99.88870239 172.50000000 0.224695 0.269355 -0.936462 0.000000
71.90429688 214.54699707 55.00000000 -0.861210 -0.057043 0.505039 0.000000
41.19919968 197.44500732 86.25000000 0.954848 -0.001223 -0.297091 0.000000
68.01760101 144.58599854 125.00000000 0.892997 0.353323 -0.278782 0.000000
194.33599854 117.37899780 176.25000000 -0.302292 0.039209 -0.952409 0.000000
85.50779724 198.22300720 66.25000000 -0.828959 0.124271 0.545329 0.000000
71.51560211 215.32400513 53.75000000 -0.827348 -0.066699 0.557715 0.000000
139.14500427 212.21499634 126.25000000 -0.602049 -0.524474 0.602049 0.000000
128.26199341 238.64500427 188.75000000 -0.462939 -0.336539 -0.820018 0.000000
117.37899780 237.08999634 126.25000000 -0.590255 0.125744 0.797363 0.000000
133.70300293 115.04699707 173.75000000 0.690783 0.690783 -0.213628 0.000000
137.58999634 210.66000366 193.75000000 -0.543012 -0.136857 -0.828498 0.000000
66.07420349 230.09399414 181.25000000 0.594423 0.012413 -0.804057 0.000000
97.16799927 205.99600220 81.25000000 -0.563315 -0.556548 0.610681 0.000000
112.71499634 167.51800537 127.50000000 -0.499481 -0.693260 0.519527 0.000000
68.40630341 239.42199707 66.25000000 0.001380 -0.730182 0.683251 0.000000
40.03319931 194.33599854 82.50000000 0.990473 -0.053693 -0.126808 0.000000
136.81300354 87.06250000 146.25000000 0.391276 0.825323 -0.407117 0.000000
178.78900146 143.80900574 131.25000000 -0.359858 -0.029666 0.932535 0.000000
101.05500031 123.98600006 165.00000000 -0.821282 0.366956 -0.436852 0.000000
145.75199890 199.77699280 150.00000000 -0.901917 0.179808 0.392701 0.000000
103.38700104 237.86700439 113.75000000 -0.521808 -0.623130 0.582602 0.000000
192.78100586 161.68800354 131.25000000 -0.670589 0.080005 0.737502 0.000000
92.50389862 132.92599487 96.25000000 0.000978 0.000978 0.999999 0.000000
57.91210175 171.01600647 135.00000000 0.899339 0.431190 -0.072549 0.000000
127.09600067 181.89799500 102.50000000 -0.443306 0.739942 0.505930 0.000000
83.95310211 173.34800720 73.75000000 -0.582435 0.475012 0.659646 0.000000
81.62110138 242.14300537 187.50000000 0.209691 -0.365875 -0.906733 0.000000
169.46099854 165.57400513 111.25000000 0.000978 0.000978 0.999999 0.000000
156.24600220 103.38700104 166.25000000 0.575539 0.263329 -0.774218 0.000000
70.73829651 218.43400574 53.75000000 -0.786087 -0.079330 0.613004 0.000000
80.84380341 245.64100647 88.75000000 -0.394864 -0.917827 0.040939 0.000000
133.70300293 169.46099854 201.25000000 -0.317144 0.063429 -0.946254 0.000000
