152.57800293 153.98399353 357.50000000 0.000978 0.000978 0.999999 0.000000
219.37500000 146.25000000 317.50000000 -0.299527 -0.190861 0.934802 0.000000
162.42199707 147.65600586 362.50000000 0.209142 0.896533 0.390497 0.000000
143.43800354 157.50000000 357.50000000 0.000978 0.000978 0.999999 0.000000
225.70300293 114.60900116 352.50000000 0.000978 0.000978 0.999999 0.000000
165.93800354 116.71900177 357.50000000 -0.098200 -0.634636 0.766547 0.000000
86.48439789 228.51600647 242.50000000 0.267098 -0.040997 -0.962797 0.000000
132.89100647 163.12500000 357.50000000 0.000978 0.000978 0.999999 0.000000
68.20310211 214.45300293 237.50000000 -0.605058 0.697383 -0.384138 0.000000
146.25000000 122.34400177 362.50000000 -0.220411 -0.667485 0.711254 0.000000
99.84380341 170.85899353 352.50000000 0.000978 0.000978 0.999999 0.000000
161.01600647 173.67199707 307.50000000 0.461360 0.847614 0.262101 0.000000
180.70300293 136.40600586 287.50000000 -0.193544 -0.299367 0.934302 0.000000
213.75000000 106.52300262 350.00000000 -0.020383 -0.860179 0.509585 0.000000
168.04699707 160.31199646 287.50000000 -0.000978 -0.000978 -0.999999 0.000000
242.57800293 117.42199707 342.50000000 0.000978 0.000978 0.999999 0.000000
97.73439789 186.32800293 352.50000000 0.000978 0.000978 0.999999 0.000000
188.43800354 134.64799500 360.00000000 -0.536082 0.801779 0.264134 0.000000
61.87500000 184.21899414 342.50000000 -0.815496 0.384608 0.432484 0.000000
69.60939789 149.06199646 337.50000000 -0.546363 -0.034580 0.836834 0.000000
122.34400177 206.36700439 265.00000000 0.806583 -0.020753 -0.590756 0.000000
187.03100586 128.67199707 277.50000000 -0.319665 -0.870284 0.374727 0.000000
73.82810211 146.95300293 337.50000000 -0.638747 -0.403157 0.655337 0.000000
184.21899414 137.81199646 287.50000000 -0.190792 -0.365805 0.910925 0.000000
196.17199707 144.84399414 357.50000000 0.000978 0.000978 0.999999 0.000000
196.52299500 139.92199707 295.00000000 -0.045439 -0.863336 0.502580 0.000000
211.64100647 118.12500000 282.50000000 0.009287 -0.884909 0.465672 0.000000
144.14100647 222.89100647 322.50000000 0.836517 -0.273685 0.474696 0.000000
210.23399353 118.82800293 357.50000000 0.000978 0.000978 0.999999 0.000000
147.65600586 121.28900146 360.00000000 -0.073943 -0.732180 0.677085 0.000000
89.29689789 133.24200439 255.00000000 -0.613807 -0.789180 0.020878 0.000000
219.02299500 132.18800354 355.00000000 0.673512 0.032475 0.738463 0.000000
143.43800354 236.25000000 302.50000000 0.899333 0.396977 -0.183331 0.000000
81.56250000 204.60899353 237.50000000 0.569445 -0.026325 -0.821608 0.000000
140.62500000 172.96899414 357.50000000 0.110955 0.708633 0.696798 0.000000
78.04689789 171.56199646 237.50000000 -0.000978 -0.000978 -0.999999 0.000000
237.30499268 158.20300293 340.00000000 0.407829 -0.057877 0.911222 0.000000
152.57800293 172.26600647 312.50000000 0.054341 0.976937 -0.206497 0.000000
108.28099823 161.01600647 357.50000000 0.000978 0.000978 0.999999 0.000000
95.62500000 129.02299500 270.00000000 -0.421182 -0.905609 -0.049788 0.000000
92.81250000 248.90600586 272.50000000 -0.001361 0.817758 -0.575560 0.000000
56.25000000 181.05499268 330.00000000 -0.921190 0.388485 0.022088 0.000000
202.50000000 134.29699707 292.50000000 -0.724938 -0.584205 0.364924 0.000000
158.90600586 142.03100586 282.50000000 0.183331 -0.899333 0.396977 0.000000
187.73399353 116.01599884 267.50000000 -0.047765 -0.096640 0.994173 0.000000
79.45310211 139.21899414 342.50000000 0.000978 0.000978 0.999999 0.000000
72.42189789 147.65600586 292.50000000 -0.772853 -0.603839 -0.195134 0.000000
260.85900879 125.85900116 342.50000000 0.291545 0.186533 0.938193 0.000000
160.31199646 176.48399353 347.50000000 0.236737 0.198859 0.951005 0.000000
55.54690170 174.37500000 292.50000000 -0.947732 -0.315911 -0.044765 0.000000
198.98399353 155.39100647 357.50000000 -0.043298 0.172020 0.984141 0.000000
222.89100647 137.81199646 317.50000000 -0.384798 -0.218003 0.896886 0.000000
248.20300293 125.15599823 342.50000000 0.000978 0.000978 0.999999 0.000000
58.35940170 196.87500000 252.50000000 -0.998853 0.042615 0.021827 0.000000
73.12500000 201.79699707 227.50000000 -0.000978 -0.000978 -0.999999 0.000000
255.58599854 139.92199707 335.00000000 -0.799623 -0.597942 0.055391 0.000000
123.39800262 118.82800293 260.00000000 0.000978 0.000978 -0.999999 0.000000
118.82800293 110.39099884 327.50000000 -0.126606 -0.991558 0.028010 0.000000
59.06250000 226.40600586 307.50000000 -0.788696 0.614658 -0.012431 0.000000
78.04689789 214.45300293 342.50000000 0.000978 0.000978 0.999999 0.000000
207.42199707 158.20300293 347.50000000 0.000978 0.000978 0.999999 0.000000
130.07800293 111.79699707 347.50000000 0.111923 -0.937190 0.330376 0.000000
125.15599823 245.74200439 325.00000000 -0.484003 0.822336 0.299174 0.000000
54.49219894 175.07800293 300.00000000 -0.934120 -0.354680 -0.040275 0.000000
127.96900177 131.48399353 247.50000000 0.068536 0.240499 -0.968227 0.000000
170.85899353 170.15600586 352.50000000 0.753083 0.222963 0.618994 0.000000
104.76599884 246.09399414 267.50000000 0.123810 0.729436 -0.672752 0.000000
137.81199646 132.89100647 362.50000000 0.000978 0.000978 0.999999 0.000000
66.09380341 202.50000000 227.50000000 0.045986 0.264732 -0.963225 0.000000
83.67189789 223.59399414 242.50000000 -0.000978 -0.000978 -0.999999 0.000000
210.93800354 154.68800354 317.50000000 -0.358107 -0.794901 0.489787 0.000000
198.98399353 155.39100647 317.50000000 0.017813 -0.831707 0.554928 0.000000
127.26599884 140.62500000 257.50000000 -0.000978 -0.000978 -0.999999 0.000000
234.84399414 109.68800354 347.50000000 0.488898 -0.452683 0.745692 0.000000
99.84380341 215.85899353 247.50000000 -0.000978 -0.000978 -0.999999 0.000000
239.76600647 126.56199646 342.50000000 0.077273 0.990713 0.111873 0.000000
229.21899414 127.96900177 347.50000000 0.506498 -0.170813 0.845153 0.000000
113.90599823 179.29699707 252.50000000 0.676546 0.146158 -0.721750 0.000000
118.82800293 181.40600586 352.50000000 0.000978 0.000978 0.999999 0.000000
139.21899414 147.65600586 292.50000000 -0.085451 -0.974641 -0.206817 0.000000
132.18800354 173.67199707 287.50000000 0.939396 0.045225 -0.339837 0.000000
71.01560211 175.78100586 352.50000000 -0.327478 -0.042380 0.943908 0.000000
111.09400177 160.31199646 357.50000000 0.000978 0.000978 0.999999 0.000000
234.84399414 125.85900116 347.50000000 0.149262 -0.012345 0.988721 0.000000
260.15600586 133.59399414 337.50000000 0.808637 0.535470 0.243677 0.000000
66.09380341 165.93800354 342.50000000 -0.527716 -0.435076 0.729538 0.000000
160.31199646 122.34400177 287.50000000 0.929582 -0.273073 -0.247606 0.000000
71.01560211 236.60200500 315.00000000 -0.466723 0.747086 0.473320 0.000000
153.98399353 147.65600586 362.50000000 0.166667 0.216536 0.961943 0.000000
60.46879959 217.96899414 332.50000000 -0.612871 0.748364 0.253656 0.000000
96.32810211 223.59399414 247.50000000 -0.000978 -0.000978 -0.999999 0.000000
151.87500000 170.85899353 307.50000000 0.302261 0.909704 -0.284739 0.000000
179.29699707 113.55500031 265.00000000 -0.630710 -0.753476 -0.185684 0.000000
107.57800293 154.68800354 357.50000000 0.000978 0.000978 0.999999 0.000000
132.18800354 110.03900146 300.00000000 -0.152949 -0.986577 -0.057210 0.000000
163.12500000 153.98399353 287.50000000 -0.360628 0.212901 -0.908086 0.000000
101.25000000 157.50000000 242.50000000 -0.000978 -0.000978 -0.999999 0.000000
89.29689789 175.07800293 237.50000000 -0.000978 -0.000978 -0.999999 0.000000
187.03100586 127.96900177 277.50000000 -0.360669 -0.847805 0.388773 0.000000
184.21899414 104.76599884 332.50000000 -0.677430 -0.677430 0.286667 0.000000
123.75000000 114.60900116 352.50000000 -0.143996 -0.565591 0.812017 0.000000
80.15619659 137.46099854 295.00000000 -0.793152 -0.548139 -0.265431 0.000000
113.20300293 113.90599823 307.50000000 -0.169363 -0.980842 -0.096257 0.000000
142.03100586 159.60899353 282.50000000 -0.000978 -0.000978 -0.999999 0.000000
173.67199707 135.00000000 362.50000000 0.000978 0.000978 0.999999 0.000000
211.64100647 146.95300293 357.50000000 0.000978 0.000978 0.999999 0.000000
161.71899414 152.57800293 287.50000000 -0.360628 0.212901 -0.908086 0.000000
203.90600586 140.62500000 357.50000000 0.000978 0.000978 0.999999 0.000000
71.71880341 146.60200500 305.00000000 -0.852996 -0.510647 -0.107883 0.000000
187.73399353 146.25000000 357.50000000 0.000978 0.000978 0.999999 0.000000
82.96880341 217.26600647 342.50000000 0.000978 0.000978 0.999999 0.000000
106.17199707 125.85900116 352.50000000 -0.609542 -0.318514 0.725953 0.000000
144.14100647 169.45300293 357.50000000 0.385255 0.268329 0.882937 0.000000
118.12500000 235.54699707 327.50000000 0.000978 0.000978 0.999999 0.000000
113.90599823 243.28100586 322.50000000 0.000978 0.000978 0.999999 0.000000
67.50000000 203.90600586 227.50000000 0.373797 0.339955 -0.862964 0.000000
189.84399414 155.39100647 312.50000000 0.000978 0.000978 0.999999 0.000000
98.43750000 222.89100647 247.50000000 -0.000978 -0.000978 -0.999999 0.000000
101.25000000 152.57800293 242.50000000 -0.000978 -0.000978 -0.999999 0.000000
196.87500000 125.85900116 282.50000000 -0.396140 -0.550651 0.734749 0.000000
104.06199646 249.60899353 272.50000000 0.037050 0.503610 -0.863136 0.000000
130.07800293 170.85899353 352.50000000 0.097503 0.329907 0.938965 0.000000
49.92190170 194.41400146 310.00000000 -0.989447 -0.117431 -0.084876 0.000000
50.97660065 200.39100647 330.00000000 -0.738003 -0.473841 0.480445 0.000000
117.06999969 184.21899414 255.00000000 0.682818 0.098385 -0.723934 0.000000
118.82800293 184.21899414 352.50000000 0.000978 0.000978 0.999999 0.000000
55.19530106 173.67199707 300.00000000 -0.934120 -0.354680 -0.040275 0.000000
198.98399353 127.61699677 285.00000000 -0.462884 -0.718383 0.519293 0.000000
156.09399414 111.44499969 345.00000000 -0.201643 -0.900864 0.384427 0.000000
232.73399353 146.95300293 327.50000000 -0.194772 -0.605786 0.771419 0.000000
187.03100586 113.90599823 267.50000000 0.000978 0.000978 0.999999 0.000000
245.39100647 134.29699707 327.50000000 0.000978 0.000978 0.999999 0.000000
191.95300293 133.59399414 287.50000000 -0.244470 -0.166988 0.955170 0.000000
68.20310211 215.15600586 237.50000000 -0.370461 0.924117 -0.093633 0.000000
102.65599823 169.45300293 242.50000000 0.262578 0.118879 -0.957560 0.000000
78.04689789 163.82800293 237.50000000 -0.000978 -0.000978 -0.999999 0.000000
118.82800293 144.84399414 357.50000000 0.000978 0.000978 0.999999 0.000000
227.81199646 119.53099823 292.50000000 -0.216247 -0.729639 0.648741 0.000000
154.68800354 145.54699707 362.50000000 0.143632 0.131356 0.980875 0.000000
169.80499268 146.25000000 360.00000000 0.573444 0.334375 0.747901 0.000000
116.71900177 156.79699707 357.50000000 0.000978 0.000978 0.999999 0.000000
210.93800354 123.75000000 357.50000000 0.000978 0.000978 0.999999 0.000000
146.25000000 148.35899353 362.50000000 0.536791 0.777145 0.328484 0.000000
93.86720276 124.45300293 280.00000000 -0.677430 -0.677430 0.286667 0.000000
113.20300293 170.85899353 357.50000000 -0.375259 -0.048718 0.925639 0.000000
123.75000000 243.28100586 277.50000000 0.588994 0.423080 -0.688542 0.000000
90.00000000 180.70300293 237.50000000 0.523567 0.004038 -0.851975 0.000000
70.31250000 142.38299561 320.00000000 0.000978 0.000978 -0.999999 0.000000
90.00000000 156.09399414 242.50000000 0.147864 -0.201866 -0.968187 0.000000
159.60899353 116.71900177 357.50000000 -0.270205 -0.467841 0.841495 0.000000
168.75000000 151.87500000 357.50000000 0.000978 0.000978 0.999999 0.000000
170.85899353 183.16400146 330.00000000 0.451610 0.884816 0.114672 0.000000
198.98399353 140.62500000 302.50000000 -0.425731 -0.904841 -0.003906 0.000000
62.92969894 218.67199707 260.00000000 -0.884448 0.419414 -0.204556 0.000000
166.64100647 119.53099823 362.50000000 -0.250923 -0.451661 0.856178 0.000000
144.14100647 207.42199707 302.50000000 0.903072 0.033348 -0.428192 0.000000
238.35899353 104.41400146 330.00000000 0.307838 -0.926351 0.217047 0.000000
56.60160065 170.85899353 240.00000000 -0.926351 -0.307838 -0.217047 0.000000
136.40600586 196.87500000 292.50000000 0.926786 -0.076229 -0.367772 0.000000
55.89839935 179.29699707 325.00000000 -0.998991 -0.019669 0.040374 0.000000
99.84380341 208.82800293 342.50000000 0.000978 0.000978 0.999999 0.000000
90.70310211 192.65600586 352.50000000 0.000978 0.000978 0.999999 0.000000
185.62500000 153.28100586 357.50000000 0.000978 0.000978 0.999999 0.000000
132.89100647 169.45300293 357.50000000 0.039462 0.877679 0.477621 0.000000
122.34400177 251.71899414 317.50000000 0.214210 0.577904 0.787490 0.000000
214.45300293 122.34400177 287.50000000 -0.305517 -0.886450 0.347657 0.000000
159.60899353 126.56199646 362.50000000 0.000978 0.000978 0.999999 0.000000
103.35900116 184.21899414 352.50000000 0.000978 0.000978 0.999999 0.000000
104.76599884 250.31199646 272.50000000 0.037050 0.503610 -0.863136 0.000000
173.67199707 127.96900177 362.50000000 0.000978 0.000978 0.999999 0.000000
227.10899353 125.15599823 352.50000000 0.637809 0.098237 0.763904 0.000000
172.96899414 116.01599884 357.50000000 -0.039338 -0.950456 0.308359 0.000000
97.73439789 227.81199646 332.50000000 -0.116406 0.189003 0.975053 0.000000
157.50000000 153.28100586 357.50000000 0.037416 0.223291 0.974033 0.000000
97.03119659 199.68800354 242.50000000 -0.000978 -0.000978 -0.999999 0.000000
123.75000000 149.76600647 257.50000000 -0.211734 0.768115 -0.604292 0.000000
60.82030106 223.59399414 280.00000000 -0.821272 0.535876 -0.195830 0.000000
66.79689789 206.01600647 227.50000000 0.874826 -0.048067 -0.482047 0.000000
212.34399414 130.78100586 357.50000000 0.000978 0.000978 0.999999 0.000000
253.12500000 123.04699707 342.50000000 0.000978 0.000978 0.999999 0.000000
108.28099823 254.53100586 312.50000000 -0.116168 0.801413 0.586722 0.000000
106.17199707 137.81199646 357.50000000 -0.386988 0.062936 0.919934 0.000000
185.62500000 129.37500000 277.50000000 -0.294354 -0.925722 0.237474 0.000000
56.25000000 179.64799500 275.00000000 -0.917174 -0.393458 -0.063114 0.000000
198.98399353 159.60899353 357.50000000 0.239606 0.178031 0.954408 0.000000
149.06199646 159.60899353 282.50000000 -0.000978 -0.000978 -0.999999 0.000000
97.73439789 253.12500000 312.50000000 0.001361 0.817758 0.575560 0.000000
137.10899353 108.98400116 307.50000000 -0.196045 -0.980223 0.027000 0.000000
221.48399353 157.50000000 342.50000000 -0.052490 0.614272 0.787347 0.000000
121.64099884 254.88299561 290.00000000 -0.632800 0.769543 -0.085828 0.000000
148.35899353 111.09400177 342.50000000 0.001279 -0.921899 0.387428 0.000000
227.81199646 125.85900116 297.50000000 -0.460176 -0.841333 0.283543 0.000000
168.04699707 172.26600647 357.50000000 0.359858 -0.029666 0.932535 0.000000
111.79699707 228.51600647 327.50000000 0.028377 0.479700 0.876973 0.000000
100.54699707 198.28100586 247.50000000 0.656746 0.216835 -0.722265 0.000000
170.15600586 145.89799500 360.00000000 0.600158 0.278588 0.749799 0.000000
137.10899353 247.85200500 300.00000000 0.625888 0.755064 -0.195302 0.000000
77.34380341 227.10899353 332.50000000 -0.127983 0.941687 0.311201 0.000000
241.87500000 153.28100586 337.50000000 -0.791245 -0.608100 -0.064387 0.000000
215.15600586 107.22699738 295.00000000 -0.038738 -0.982544 -0.181953 0.000000
103.35900116 225.00000000 252.50000000 0.932237 -0.339864 -0.124207 0.000000
131.83599854 201.79699707 280.00000000 0.763871 -0.126567 -0.632837 0.000000
203.90600586 126.56199646 287.50000000 -0.520649 -0.287852 0.803782 0.000000
73.12500000 206.71899414 227.50000000 0.302235 0.441728 -0.844707 0.000000
223.59399414 161.01600647 332.50000000 0.473350 0.042288 0.879859 0.000000
129.37500000 134.29699707 362.50000000 0.000978 0.000978 0.999999 0.000000
142.73399353 107.93000031 305.00000000 0.282224 -0.928927 -0.239677 0.000000
118.82800293 229.21899414 332.50000000 0.072263 0.262430 0.962242 0.000000
145.54699707 164.53100586 287.50000000 -0.121637 0.974346 -0.189352 0.000000
68.90619659 150.46899414 307.50000000 -0.785194 -0.602730 -0.142083 0.000000
246.09399414 133.59399414 327.50000000 -0.108001 -0.684993 0.720500 0.000000
91.40619659 223.59399414 242.50000000 0.653015 0.168962 -0.738257 0.000000
73.12500000 149.76600647 337.50000000 -0.324503 -0.312540 0.892758 0.000000
174.37500000 116.36699677 270.00000000 -0.628505 -0.765850 -0.135853 0.000000
80.15619659 132.18800354 307.50000000 -0.000978 -0.000978 0.999999 0.000000
118.12500000 246.44500732 275.00000000 0.590138 0.603665 -0.536028 0.000000
80.15619659 176.48399353 237.50000000 -0.000978 -0.000978 -0.999999 0.000000
50.62500000 193.71099854 300.00000000 -0.973842 -0.025093 -0.225836 0.000000
75.93750000 193.00799561 345.00000000 -0.204524 0.413463 0.887253 0.000000
109.68800354 199.68800354 252.50000000 0.514908 0.338460 -0.787601 0.000000
80.15619659 222.18800354 242.50000000 0.015429 0.224313 -0.974395 0.000000
55.89839935 178.59399414 335.00000000 -0.814696 0.539564 0.212463 0.000000
85.78119659 250.31199646 277.50000000 -0.548087 0.729136 -0.409831 0.000000
204.60899353 152.57800293 317.50000000 -0.280801 -0.321966 0.904151 0.000000
235.54699707 128.67199707 347.50000000 0.160745 -0.093063 0.982599 0.000000
194.76600647 110.74199677 355.00000000 -0.105744 -0.543205 0.832914 0.000000
139.92199707 127.96900177 362.50000000 0.000978 0.000978 0.999999 0.000000
79.45310211 239.06199646 317.50000000 -0.000978 -0.000978 0.999999 0.000000
139.21899414 246.79699707 302.50000000 0.625888 0.755064 -0.195302 0.000000
103.35900116 211.64100647 342.50000000 0.000978 0.000978 0.999999 0.000000
136.40600586 236.25000000 327.50000000 -0.048603 0.854019 0.517966 0.000000
103.35900116 147.65600586 242.50000000 -0.000978 -0.000978 -0.999999 0.000000
87.18750000 171.56199646 237.50000000 -0.000978 -0.000978 -0.999999 0.000000
82.96880341 127.96900177 307.50000000 -0.785365 -0.523043 0.331101 0.000000
58.35940170 184.92199707 327.50000000 -0.941184 -0.157092 0.299157 0.000000
73.82810211 158.90600586 347.50000000 0.000978 0.000978 0.999999 0.000000
93.51560211 168.75000000 237.50000000 0.473420 0.866227 -0.159761 0.000000
136.40600586 132.18800354 252.50000000 0.000978 0.000978 -0.999999 0.000000
126.56199646 149.06199646 257.50000000 -0.211734 0.768115 -0.604292 0.000000
137.81199646 163.82800293 357.50000000 0.000978 0.000978 0.999999 0.000000
75.93750000 183.51600647 352.50000000 0.000978 0.000978 0.999999 0.000000
68.20310211 208.47700500 230.00000000 -0.118914 0.579888 -0.805971 0.000000
103.35900116 118.82800293 287.50000000 -0.123192 -0.938157 -0.323549 0.000000
182.10899353 164.53100586 347.50000000 0.313897 0.384332 0.868192 0.000000
172.96899414 131.48399353 272.50000000 -0.092387 -0.687767 0.720029 0.000000
122.34400177 190.54699707 262.50000000 0.419031 0.836494 -0.353116 0.000000
78.04689789 142.38299561 290.00000000 -0.926351 -0.307838 -0.217047 0.000000
252.42199707 111.44499969 335.00000000 0.670996 -0.683808 0.286655 0.000000
112.50000000 257.34399414 312.50000000 -0.119214 0.593128 0.796233 0.000000
125.15599823 236.25000000 272.50000000 0.549404 0.410816 -0.727589 0.000000
260.15600586 131.48399353 327.50000000 0.604075 -0.110233 -0.789266 0.000000
235.54699707 126.56199646 322.50000000 -0.402785 -0.614951 0.677938 0.000000
73.12500000 185.62500000 352.50000000 0.000978 0.000978 0.999999 0.000000
203.20300293 137.46099854 300.00000000 -0.091051 -0.960519 0.262892 0.000000
130.07800293 221.48399353 277.50000000 0.660294 0.326091 -0.676518 0.000000
148.00799561 218.67199707 315.00000000 0.998115 0.032812 -0.051864 0.000000
145.54699707 229.21899414 307.50000000 0.955702 0.236586 -0.175101 0.000000
100.54699707 203.20300293 247.50000000 -0.000978 -0.000978 -0.999999 0.000000
87.18750000 222.89100647 242.50000000 -0.000978 -0.000978 -0.999999 0.000000
148.71099854 213.75000000 310.00000000 0.940046 0.162832 0.299665 0.000000
98.43750000 223.59399414 337.50000000 0.103044 0.822902 0.558761 0.000000
118.12500000 251.01600647 317.50000000 0.242305 0.770686 0.589348 0.000000
57.30469894 187.73399353 245.00000000 -0.999999 0.000978 0.000978 0.000000
179.64799500 175.07800293 330.00000000 0.312678 0.940741 -0.131298 0.000000
201.79699707 136.40600586 297.50000000 -0.195412 -0.929263 0.313503 0.000000
253.82800293 133.59399414 327.50000000 0.000978 0.000978 0.999999 0.000000
104.06199646 255.93800354 282.50000000 0.056735 0.959450 -0.276110 0.000000
87.53910065 252.42199707 305.00000000 -0.591047 0.709585 0.383604 0.000000
135.00000000 182.10899353 302.50000000 0.800852 0.058321 -0.596016 0.000000
206.01600647 107.57800293 352.50000000 -0.067201 -0.802121 0.593369 0.000000
210.93800354 144.14100647 312.50000000 -0.553664 -0.440604 0.706629 0.000000
210.23399353 161.01600647 347.50000000 0.225932 0.150186 0.962496 0.000000
110.39099884 112.85199738 320.00000000 -0.310026 -0.948239 -0.068751 0.000000
113.20300293 184.21899414 352.50000000 0.000978 0.000978 0.999999 0.000000
128.67199707 225.70300293 277.50000000 0.061739 -0.647538 -0.759528 0.000000
92.10939789 198.28100586 342.50000000 0.000978 0.000978 0.999999 0.000000
75.93750000 242.22700500 275.00000000 -0.580942 0.712600 -0.393329 0.000000
210.23399353 117.06999969 280.00000000 0.009287 -0.884909 0.465672 0.000000
83.67189789 234.14100647 327.50000000 0.000978 0.000978 0.999999 0.000000
57.30469894 219.37500000 290.00000000 -0.930969 0.335149 -0.144817 0.000000
172.96899414 123.04699707 362.50000000 0.000978 0.000978 0.999999 0.000000
244.68800354 121.64099884 322.50000000 -0.248787 -0.577373 0.777654 0.000000
62.57809830 220.42999268 330.00000000 -0.578020 0.796484 0.177502 0.000000
127.26599884 227.10899353 272.50000000 0.749730 0.079758 -0.656920 0.000000
102.65599823 223.59399414 337.50000000 0.086037 0.718916 0.689751 0.000000
181.40600586 130.07800293 362.50000000 0.000978 0.000978 0.999999 0.000000
203.90600586 131.48399353 357.50000000 0.000978 0.000978 0.999999 0.000000
118.82800293 230.62500000 332.50000000 0.763803 0.001376 0.645448 0.000000
138.51600647 110.74199677 340.00000000 0.058043 -0.969444 0.238347 0.000000
106.87500000 119.53099823 352.50000000 -0.464846 -0.341098 0.817050 0.000000
241.87500000 153.98399353 337.50000000 -0.791245 -0.608100 -0.064387 0.000000
120.23400116 253.12500000 317.50000000 0.151797 0.614703 0.774014 0.000000
179.29699707 137.10899353 362.50000000 0.000978 0.000978 0.999999 0.000000
193.35899353 127.96900177 362.50000000 0.000978 0.000978 0.999999 0.000000
105.81999969 165.93800354 245.00000000 0.875095 0.053746 -0.480958 0.000000
146.25000000 110.03900146 295.00000000 0.123358 -0.962196 -0.242821 0.000000
239.06199646 147.65600586 332.50000000 -0.412130 -0.310255 0.856674 0.000000
158.90600586 174.37500000 307.50000000 0.000978 0.000978 -0.999999 0.000000
123.04699707 126.56199646 362.50000000 0.000978 0.000978 0.999999 0.000000
223.59399414 120.23400116 352.50000000 0.000978 0.000978 0.999999 0.000000
126.56199646 220.78100586 272.50000000 0.335089 0.016438 -0.942043 0.000000
176.48399353 175.78100586 337.50000000 0.574062 0.748706 0.331500 0.000000
124.45300293 159.60899353 272.50000000 0.610241 -0.586575 -0.532481 0.000000
127.96900177 248.90600586 317.50000000 0.253202 0.815529 0.520385 0.000000
142.03100586 142.03100586 362.50000000 0.000978 0.000978 0.999999 0.000000
139.57000732 225.70300293 290.00000000 0.854578 0.186426 -0.484708 0.000000
115.31199646 148.35899353 262.50000000 -0.481320 -0.256807 -0.838082 0.000000
92.10939789 229.21899414 247.50000000 0.109185 0.025366 -0.993698 0.000000
71.36720276 142.03100586 235.00000000 -0.785365 -0.523043 0.331101 0.000000
90.00000000 236.95300293 252.50000000 -0.000978 -0.000978 -0.999999 0.000000
60.82030106 227.10899353 315.00000000 -0.990125 -0.001104 -0.140185 0.000000
127.26599884 245.39100647 327.50000000 -0.316852 0.029034 0.948031 0.000000
161.01600647 172.96899414 307.50000000 0.461360 0.847614 0.262101 0.000000
87.89060211 172.26600647 352.50000000 0.000978 0.000978 0.999999 0.000000
61.52339935 185.62500000 340.00000000 -0.806145 0.427914 0.408682 0.000000
83.67189789 151.17199707 347.50000000 0.000978 0.000978 0.999999 0.000000
180.00000000 132.89100647 362.50000000 0.000978 0.000978 0.999999 0.000000
135.70300293 171.91400146 295.00000000 0.761417 0.222664 -0.608822 0.000000
177.18800354 169.45300293 347.50000000 0.521911 0.419833 0.742529 0.000000
53.08589935 190.54699707 290.00000000 -0.995427 -0.040518 -0.086511 0.000000
177.18800354 173.67199707 337.50000000 0.726826 0.508282 0.461924 0.000000
158.90600586 170.15600586 357.50000000 0.000978 0.000978 0.999999 0.000000
120.93800354 209.53100586 262.50000000 0.101536 -0.020744 -0.994616 0.000000
227.10899353 101.25000000 347.50000000 0.000978 0.000978 0.999999 0.000000
104.76599884 161.01600647 242.50000000 0.741682 -0.107640 -0.662058 0.000000
180.00000000 165.93800354 347.50000000 0.294833 0.297767 0.907969 0.000000
129.02299500 203.90600586 340.00000000 0.558114 0.541252 0.628932 0.000000
87.89060211 239.76600647 252.50000000 0.097990 0.779531 -0.618652 0.000000
148.35899353 222.89100647 312.50000000 -0.001338 0.509765 0.860313 0.000000
69.96089935 144.14100647 235.00000000 -0.780216 -0.580879 0.232040 0.000000
204.60899353 128.67199707 357.50000000 0.000978 0.000978 0.999999 0.000000
116.71900177 156.09399414 357.50000000 0.000978 0.000978 0.999999 0.000000
68.90619659 146.60200500 315.00000000 -0.864625 -0.437612 -0.246819 0.000000
213.04699707 108.98400116 287.50000000 0.117733 -0.935100 -0.334254 0.000000
87.18750000 232.03100586 327.50000000 -0.103566 0.284479 0.953072 0.000000
103.35900116 192.65600586 247.50000000 0.576423 0.647006 -0.499119 0.000000
201.09399414 110.03900146 355.00000000 -0.001326 -0.481358 0.876523 0.000000
179.29699707 168.75000000 347.50000000 0.449703 0.495826 0.742916 0.000000
108.98400116 157.50000000 357.50000000 0.000978 0.000978 0.999999 0.000000
210.23399353 132.18800354 297.50000000 -0.320250 -0.865747 0.384606 0.000000
159.60899353 130.78100586 282.50000000 0.254559 -0.348730 -0.901991 0.000000
176.48399353 142.03100586 287.50000000 -0.708384 0.114351 0.696503 0.000000
161.01600647 174.37500000 347.50000000 -0.127840 0.135145 0.982544 0.000000
183.51600647 159.60899353 312.50000000 -0.349783 -0.264182 0.898810 0.000000
185.62500000 119.53099823 362.50000000 0.000978 0.000978 0.999999 0.000000
104.06199646 182.81199646 352.50000000 0.000978 0.000978 0.999999 0.000000
147.65600586 109.33599854 335.00000000 -0.001104 -0.990125 0.140185 0.000000
101.95300293 160.66400146 355.00000000 -0.647892 0.247492 0.720405 0.000000
220.78100586 130.42999268 305.00000000 -0.419031 -0.836494 0.353116 0.000000
54.49219894 180.00000000 290.00000000 -0.968031 -0.187402 -0.166724 0.000000
265.07800293 124.80500031 325.00000000 -0.596132 -0.585999 0.548846 0.000000
146.25000000 108.63300323 300.00000000 -0.159754 -0.951813 -0.261782 0.000000
201.09399414 157.50000000 357.50000000 0.067814 0.165371 0.983897 0.000000
156.09399414 153.28100586 357.50000000 0.031853 0.194655 0.980354 0.000000
129.37500000 254.17999268 300.00000000 0.510353 0.851552 -0.119998 0.000000
176.48399353 149.76600647 292.50000000 0.000978 0.000978 0.999999 0.000000
182.81199646 128.67199707 277.50000000 -0.395045 -0.791702 0.465991 0.000000
112.85199738 198.28100586 255.00000000 0.620166 0.243356 -0.745769 0.000000
164.53100586 111.79699707 347.50000000 -0.436005 -0.858241 0.270782 0.000000
72.42189789 208.12500000 342.50000000 0.000978 0.000978 0.999999 0.000000
67.85160065 146.95300293 235.00000000 -0.780583 -0.585824 0.217945 0.000000
147.65600586 145.89799500 290.00000000 -0.078230 -0.834930 -0.544767 0.000000
123.04699707 214.45300293 267.50000000 0.857541 0.384735 -0.341471 0.000000
175.07800293 114.25800323 280.00000000 -0.461817 -0.872645 -0.158795 0.000000
104.06199646 229.21899414 257.50000000 -0.000978 -0.000978 -0.999999 0.000000
139.21899414 112.50000000 347.50000000 0.178304 -0.945962 0.270858 0.000000
52.73440170 191.95300293 292.50000000 -0.970509 -0.141559 -0.195122 0.000000
96.32810211 185.62500000 242.50000000 0.248319 -0.123509 -0.960772 0.000000
73.82810211 231.67999268 255.00000000 -0.499570 0.593766 -0.630771 0.000000
229.92199707 125.50800323 305.00000000 -0.543270 -0.830280 0.124469 0.000000
154.68800354 153.28100586 357.50000000 0.021348 0.140445 0.989858 0.000000
118.82800293 182.81199646 352.50000000 0.000978 0.000978 0.999999 0.000000
232.73399353 149.06199646 327.50000000 -0.472390 -0.689388 0.549174 0.000000
89.29689789 197.57800293 242.50000000 0.421530 0.269353 -0.865887 0.000000
124.10199738 240.46899414 275.00000000 0.464710 0.464710 -0.753717 0.000000
128.67199707 231.32800293 332.50000000 -0.302310 0.222829 0.926799 0.000000
131.48399353 170.15600586 352.50000000 -0.127332 0.534209 0.835708 0.000000
59.06250000 170.85899353 272.50000000 -0.953594 -0.271133 -0.130937 0.000000
189.14100647 158.90600586 352.50000000 0.000978 0.000978 0.999999 0.000000
85.07810211 184.92199707 352.50000000 0.000978 0.000978 0.999999 0.000000
109.68800354 206.01600647 252.50000000 0.800009 -0.564443 -0.203444 0.000000
142.73399353 225.70300293 327.50000000 -0.667777 0.095397 0.738223 0.000000
71.71880341 240.46899414 297.50000000 -0.583439 0.792567 0.177305 0.000000
106.87500000 240.46899414 322.50000000 -0.048446 0.111538 0.992579 0.000000
230.97700500 123.75000000 300.00000000 -0.521798 -0.836958 0.165013 0.000000
185.62500000 143.78900146 295.00000000 -0.468043 -0.852777 0.231749 0.000000
55.54690170 181.40600586 237.50000000 -0.990125 -0.001104 0.140185 0.000000
85.07810211 220.78100586 242.50000000 0.116406 0.189003 -0.975053 0.000000
146.95300293 132.18800354 362.50000000 0.000978 0.000978 0.999999 0.000000
201.09399414 119.53099823 277.50000000 -0.000978 -0.000978 0.999999 0.000000
162.07000732 180.00000000 325.00000000 0.725953 -0.609542 0.318514 0.000000
225.00000000 101.25000000 347.50000000 0.000978 0.000978 0.999999 0.000000
165.23399353 150.46899414 292.50000000 -0.174077 -0.318910 0.931662 0.000000
143.78900146 229.21899414 300.00000000 0.943023 0.136259 -0.303548 0.000000
96.32810211 172.96899414 352.50000000 0.000978 0.000978 0.999999 0.000000
191.25000000 158.90600586 317.50000000 -0.342738 -0.522958 0.780414 0.000000
159.60899353 124.45300293 282.50000000 0.729586 0.346106 -0.589843 0.000000
97.03119659 220.07800293 247.50000000 -0.000978 -0.000978 -0.999999 0.000000
57.65620041 191.60200500 335.00000000 -0.553359 -0.519720 0.650911 0.000000
243.28100586 152.57800293 342.50000000 -0.529571 -0.766015 -0.364384 0.000000
191.25000000 143.43800354 297.50000000 -0.667853 -0.587510 0.456952 0.000000
172.26600647 149.76600647 357.50000000 0.081337 0.183311 0.979684 0.000000
100.54699707 235.54699707 327.50000000 0.000978 0.000978 0.999999 0.000000
132.18800354 117.06999969 355.00000000 0.155943 -0.643453 0.749433 0.000000
142.73399353 234.14100647 297.50000000 0.932800 0.194392 -0.303475 0.000000
127.96900177 201.09399414 277.50000000 0.819935 -0.195511 -0.538035 0.000000
136.40600586 187.03100586 302.50000000 0.799631 -0.167154 -0.576758 0.000000
82.96880341 227.10899353 332.50000000 -0.016374 0.331260 0.943398 0.000000
94.21880341 204.60899353 342.50000000 0.000978 0.000978 0.999999 0.000000
112.50000000 239.76600647 322.50000000 -0.071881 0.408231 0.910044 0.000000
151.17199707 172.61700439 330.00000000 0.248660 0.872571 -0.420462 0.000000
248.90600586 118.12500000 307.50000000 -0.139939 -0.974530 0.175239 0.000000
128.67199707 204.60899353 337.50000000 0.430319 0.586496 0.686184 0.000000
76.64060211 179.29699707 352.50000000 0.000978 0.000978 0.999999 0.000000
62.57809830 189.14100647 337.50000000 0.164881 0.362173 0.917412 0.000000
206.01600647 161.01600647 337.50000000 0.082025 -0.985490 0.148596 0.000000
182.10899353 112.50000000 357.50000000 -0.081078 -0.934389 0.346907 0.000000
108.98400116 192.65600586 352.50000000 0.000978 0.000978 0.999999 0.000000
163.12500000 177.89100647 352.50000000 0.837737 0.545150 -0.031743 0.000000
165.23399353 127.26599884 362.50000000 0.000978 0.000978 0.999999 0.000000
142.73399353 156.09399414 357.50000000 0.000978 0.000978 0.999999 0.000000
140.62500000 182.81199646 322.50000000 0.942258 0.295904 0.156816 0.000000
129.37500000 253.82800293 297.50000000 0.369423 0.911434 -0.181146 0.000000
156.79699707 169.10200500 300.00000000 -0.165231 0.931683 -0.323520 0.000000
235.89799500 108.28099823 345.00000000 0.653547 -0.424057 0.626939 0.000000
105.81999969 113.90599823 325.00000000 -0.349176 -0.931586 -0.101113 0.000000
244.68800354 153.98399353 342.50000000 -0.643975 -0.663739 -0.380456 0.000000
205.31199646 120.23400116 357.50000000 0.197378 0.079687 0.977083 0.000000
129.37500000 150.46899414 357.50000000 0.261059 0.624960 0.735713 0.000000
68.55470276 145.54699707 320.00000000 -0.899687 -0.418164 -0.125308 0.000000
63.28120041 153.28100586 232.50000000 -0.780838 -0.617981 0.091607 0.000000
210.23399353 147.65600586 317.50000000 -0.299069 -0.172275 0.938552 0.000000
74.53119659 153.28100586 232.50000000 -0.774410 -0.165187 0.610739 0.000000
142.73399353 228.51600647 297.50000000 0.921899 -0.001279 -0.387428 0.000000
75.93750000 153.28100586 232.50000000 -0.862324 -0.138146 0.487148 0.000000
232.03100586 101.60199738 335.00000000 0.494027 -0.858353 0.138444 0.000000
84.37500000 147.65600586 242.50000000 -0.000978 -0.000978 -0.999999 0.000000
87.89060211 191.25000000 237.50000000 0.276164 0.308310 -0.910318 0.000000
108.98400116 120.93800354 352.50000000 -0.363115 -0.193757 0.911376 0.000000
62.92969894 153.98399353 235.00000000 -0.798969 -0.590031 0.116240 0.000000
60.46879959 168.04699707 272.50000000 -0.898355 -0.408343 -0.161905 0.000000
127.26599884 126.56199646 362.50000000 0.000978 0.000978 0.999999 0.000000
87.89060211 204.60899353 342.50000000 0.000978 0.000978 0.999999 0.000000
163.82800293 184.21899414 337.50000000 0.454626 -0.325632 0.829023 0.000000
73.82810211 140.97700500 305.00000000 -0.907279 -0.340412 -0.246909 0.000000
196.87500000 141.32800293 297.50000000 -0.231413 -0.958710 0.165295 0.000000
144.84399414 201.09399414 337.50000000 0.416203 -0.403446 0.814866 0.000000
223.59399414 117.42199707 287.50000000 0.000978 0.000978 0.999999 0.000000
86.48439789 225.00000000 332.50000000 0.122063 0.263814 0.956819 0.000000
57.30469894 218.67199707 310.00000000 -0.892460 0.446914 0.061502 0.000000
113.90599823 185.62500000 352.50000000 0.000978 0.000978 0.999999 0.000000
119.53099823 221.48399353 262.50000000 -0.000978 -0.000978 -0.999999 0.000000
75.93750000 154.68800354 232.50000000 -0.892569 -0.272688 0.359114 0.000000
75.23439789 237.65600586 317.50000000 -0.312678 0.940741 0.131298 0.000000
165.23399353 122.34400177 272.50000000 0.758394 -0.537534 -0.368641 0.000000
215.15600586 108.98400116 357.50000000 -0.801779 -0.536082 0.264134 0.000000
127.96900177 246.09399414 327.50000000 -0.154227 0.582469 0.798088 0.000000
61.87500000 155.39100647 232.50000000 -0.782362 -0.621660 0.038061 0.000000
212.34399414 158.20300293 327.50000000 -0.446454 -0.857862 0.254463 0.000000
128.67199707 169.10200500 355.00000000 0.067772 0.653205 0.754142 0.000000
128.67199707 248.20300293 322.50000000 0.203615 0.908327 0.365353 0.000000
92.10939789 210.93800354 342.50000000 0.000978 0.000978 0.999999 0.000000
135.00000000 213.04699707 332.50000000 0.135858 -0.109408 0.984669 0.000000
131.48399353 194.06199646 342.50000000 0.070840 0.229918 0.970628 0.000000
191.95300293 105.46900177 292.50000000 0.006096 -0.959503 -0.281633 0.000000
209.53100586 118.82800293 282.50000000 -0.104571 -0.858054 0.502800 0.000000
143.78900146 170.15600586 355.00000000 0.590138 0.603665 0.536028 0.000000
146.95300293 111.09400177 342.50000000 -0.001279 -0.921899 0.387428 0.000000
210.93800354 102.30500031 320.00000000 0.001104 -0.990125 -0.140185 0.000000
243.98399353 151.87500000 337.50000000 -0.609752 -0.761803 0.218766 0.000000
131.48399353 156.09399414 357.50000000 0.000978 0.000978 0.999999 0.000000
117.42199707 231.32800293 267.50000000 0.670174 0.402105 -0.623841 0.000000
123.04699707 172.96899414 352.50000000 0.000978 0.000978 0.999999 0.000000
60.46879959 156.79699707 232.50000000 -0.780704 -0.598083 0.181099 0.000000
161.01600647 180.00000000 327.50000000 0.661616 -0.641817 0.387730 0.000000
74.17970276 137.81199646 315.00000000 -0.841618 -0.539569 -0.023340 0.000000
61.87500000 214.10200500 255.00000000 -0.901529 0.401473 -0.161447 0.000000
58.35940170 203.20300293 337.50000000 0.000978 0.000978 0.999999 0.000000
175.07800293 122.34400177 362.50000000 0.000978 0.000978 0.999999 0.000000
103.35900116 146.95300293 242.50000000 -0.000978 -0.000978 -0.999999 0.000000
112.50000000 256.64099121 312.50000000 -0.142043 0.776005 0.614524 0.000000
202.50000000 160.31199646 347.50000000 0.000978 0.000978 0.999999 0.000000
153.98399353 143.43800354 292.50000000 -0.000978 -0.000978 -0.999999 0.000000
184.21899414 125.15599823 362.50000000 0.000978 0.000978 0.999999 0.000000
217.26600647 146.25000000 357.50000000 -0.066317 -0.910849 0.407378 0.000000
68.90619659 167.34399414 347.50000000 -0.339132 -0.339132 0.877485 0.000000
155.39100647 128.67199707 282.50000000 -0.000978 -0.000978 -0.999999 0.000000
135.00000000 184.21899414 347.50000000 0.000978 0.000978 0.999999 0.000000
132.89100647 132.89100647 252.50000000 0.186683 0.938947 -0.289013 0.000000
74.88279724 224.29699707 245.00000000 -0.412472 0.578123 -0.704018 0.000000
74.53119659 158.20300293 232.50000000 -0.964679 -0.242130 0.103770 0.000000
114.60900116 255.23399353 317.50000000 -0.094629 0.601260 0.793430 0.000000
106.17199707 205.31199646 342.50000000 0.000978 0.000978 0.999999 0.000000
122.34400177 172.96899414 257.50000000 0.942911 -0.159193 -0.292534 0.000000
116.71900177 208.12500000 262.50000000 0.232195 0.131015 -0.963805 0.000000
81.56250000 197.57800293 237.50000000 0.905004 0.281066 -0.319327 0.000000
237.65600586 142.73399353 347.50000000 0.526946 0.066044 0.847329 0.000000
129.37500000 206.01600647 277.50000000 0.455987 -0.117903 -0.882142 0.000000
194.06199646 153.28100586 357.50000000 0.018481 0.101101 0.994704 0.000000
143.43800354 134.29699707 252.50000000 0.183015 0.699762 -0.690535 0.000000
126.56199646 187.03100586 272.50000000 0.964255 0.120048 -0.236223 0.000000
99.14060211 211.64100647 342.50000000 0.000978 0.000978 0.999999 0.000000
108.98400116 149.76600647 357.50000000 0.000978 0.000978 0.999999 0.000000
176.48399353 141.32800293 287.50000000 -0.266951 -0.470637 0.840974 0.000000
90.70310211 198.98399353 342.50000000 0.000978 0.000978 0.999999 0.000000
135.35200500 158.90600586 280.00000000 0.642170 -0.216130 -0.735463 0.000000
146.95300293 206.36700439 320.00000000 0.905862 0.300975 -0.298039 0.000000
125.85900116 180.70300293 267.50000000 0.806883 0.073092 -0.586172 0.000000
141.32800293 153.98399353 357.50000000 0.000978 0.000978 0.999999 0.000000
104.76599884 158.90600586 242.50000000 -0.000978 -0.000978 -0.999999 0.000000
75.23439789 156.09399414 237.50000000 -0.684247 -0.018191 0.729024 0.000000
119.53099823 200.39100647 257.50000000 0.229136 0.210154 -0.950438 0.000000
118.82800293 172.26600647 252.50000000 -0.000978 -0.000978 -0.999999 0.000000
151.87500000 172.96899414 317.50000000 -0.001104 0.990125 -0.140185 0.000000
125.85900116 146.60200500 360.00000000 -0.378969 0.417024 0.826120 0.000000
144.14100647 150.46899414 282.50000000 0.264009 -0.292863 -0.918983 0.000000
111.79699707 234.14100647 327.50000000 0.073312 0.229877 0.970454 0.000000
132.89100647 155.03900146 280.00000000 0.113516 -0.782819 -0.611808 0.000000
116.01599884 113.90599823 302.50000000 -0.289614 -0.938128 0.189843 0.000000
104.06199646 163.12500000 242.50000000 0.799494 0.058222 -0.597845 0.000000
120.93800354 160.31199646 272.50000000 0.368901 -0.883857 -0.287592 0.000000
168.04699707 172.26600647 302.50000000 0.240570 0.718565 -0.652526 0.000000
229.21899414 126.56199646 347.50000000 0.418545 0.325189 0.847981 0.000000
113.90599823 247.50000000 322.50000000 -0.153711 0.232537 0.960364 0.000000
72.42189789 236.95300293 272.50000000 -0.533616 0.661550 -0.526883 0.000000
168.04699707 153.98399353 357.50000000 0.000978 0.000978 0.999999 0.000000
73.12500000 236.95300293 272.50000000 -0.533616 0.661550 -0.526883 0.000000
93.51560211 203.20300293 342.50000000 0.000978 0.000978 0.999999 0.000000
60.46879959 191.95300293 337.50000000 -0.427400 -0.195341 0.882707 0.000000
67.50000000 158.20300293 337.50000000 -0.813721 -0.331516 0.477446 0.000000
107.57800293 232.73399353 327.50000000 0.143157 0.240347 0.960073 0.000000
193.35899353 105.46900177 342.50000000 -0.962562 -0.001205 -0.271059 0.000000
174.37500000 106.17199707 322.50000000 -0.196701 -0.978679 -0.059131 0.000000
59.76559830 220.07800293 317.50000000 -0.634516 0.212540 -0.743113 0.000000
124.45300293 227.10899353 272.50000000 0.476518 0.025648 -0.878791 0.000000
57.30469894 168.75000000 240.00000000 -0.926351 -0.307838 -0.217047 0.000000
248.90600586 146.95300293 342.50000000 -0.275996 -0.503654 -0.818632 0.000000
106.17199707 210.23399353 342.50000000 0.000978 0.000978 0.999999 0.000000
135.00000000 112.50000000 347.50000000 0.000978 0.000978 0.999999 0.000000
92.81250000 120.58599854 330.00000000 -0.307838 -0.926351 0.217047 0.000000
165.93800354 176.48399353 312.50000000 0.406466 0.675232 -0.615506 0.000000
94.21880341 233.43800354 327.50000000 -0.033384 0.160012 0.986550 0.000000
149.76600647 126.91400146 280.00000000 -0.419153 0.564945 0.710737 0.000000
55.54690170 201.79699707 272.50000000 -0.972756 0.104179 -0.207103 0.000000
145.54699707 108.28099823 307.50000000 0.282224 -0.928927 -0.239677 0.000000
104.06199646 195.46899414 247.50000000 -0.000978 -0.000978 -0.999999 0.000000
130.07800293 209.53100586 277.50000000 -0.000978 -0.000978 -0.999999 0.000000
110.39099884 115.66400146 295.00000000 -0.416146 -0.886700 -0.201456 0.000000
135.00000000 116.01599884 272.50000000 0.001279 -0.921899 -0.387428 0.000000
135.70300293 135.70300293 362.50000000 0.000978 0.000978 0.999999 0.000000
130.78100586 147.65600586 362.50000000 -0.262357 0.285295 0.921833 0.000000
114.60900116 167.34399414 247.50000000 0.834376 0.046121 -0.549263 0.000000
121.64099884 206.01600647 262.50000000 0.546613 0.066385 -0.834750 0.000000
92.10939789 229.92199707 247.50000000 0.109185 0.025366 -0.993698 0.000000
139.21899414 164.88299561 290.00000000 0.262251 0.789894 -0.554339 0.000000
80.85939789 238.35899353 257.50000000 -0.152335 0.901198 -0.405753 0.000000
175.78100586 111.79699707 352.50000000 -0.580716 -0.580716 -0.570558 0.000000
120.23400116 237.65600586 272.50000000 0.192085 0.527856 -0.827328 0.000000
148.35899353 135.70300293 362.50000000 0.000978 0.000978 0.999999 0.000000
112.50000000 223.59399414 262.50000000 0.466723 0.560402 -0.684192 0.000000
57.30469894 165.93800354 235.00000000 -0.867916 -0.433203 0.243016 0.000000
79.45310211 247.85200500 290.00000000 -0.554098 0.830442 -0.057807 0.000000
84.37500000 245.39100647 272.50000000 -0.273704 0.808600 -0.520819 0.000000
115.31199646 140.62500000 357.50000000 0.000978 0.000978 0.999999 0.000000
185.62500000 106.17199707 292.50000000 -0.121987 -0.927921 -0.352253 0.000000
212.34399414 134.64799500 305.00000000 -0.352988 -0.912006 0.208911 0.000000
124.45300293 152.57800293 357.50000000 0.000978 0.000978 0.999999 0.000000
147.30499268 210.23399353 325.00000000 0.561939 -0.672649 0.481422 0.000000
189.14100647 148.35899353 302.50000000 -0.620912 -0.751630 0.222532 0.000000
70.31250000 205.31199646 342.50000000 0.000978 0.000978 0.999999 0.000000
80.15619659 243.98399353 307.50000000 -0.570333 0.775716 0.270158 0.000000
110.39099884 242.57800293 267.50000000 0.129839 0.637257 -0.759635 0.000000
153.28100586 140.62500000 362.50000000 0.000978 0.000978 0.999999 0.000000
135.70300293 211.64100647 287.50000000 0.668505 -0.223879 -0.709210 0.000000
204.60899353 158.20300293 322.50000000 -0.246086 -0.910082 0.333454 0.000000
233.43800354 108.98400116 347.50000000 0.570395 -0.597476 0.563625 0.000000
135.00000000 108.63300323 315.00000000 -0.319322 -0.944931 0.071684 0.000000
175.78100586 144.14100647 357.50000000 0.315277 0.661273 0.680675 0.000000
165.23399353 113.20300293 352.50000000 -0.262357 -0.921833 0.285295 0.000000
142.03100586 220.78100586 327.50000000 -0.000978 -0.000978 0.999999 0.000000
82.61720276 139.21899414 255.00000000 -0.684509 -0.728940 -0.009719 0.000000
132.53900146 234.84399414 280.00000000 0.668926 0.494569 -0.554923 0.000000
137.81199646 180.70300293 302.50000000 0.779518 0.262989 -0.568497 0.000000
70.31250000 231.67999268 265.00000000 -0.630034 0.770367 -0.097940 0.000000
194.06199646 141.32800293 357.50000000 0.000978 0.000978 0.999999 0.000000
80.15619659 167.34399414 237.50000000 -0.000978 -0.000978 -0.999999 0.000000
59.06250000 203.90600586 337.50000000 0.000978 0.000978 0.999999 0.000000
109.68800354 206.71899414 252.50000000 0.800009 -0.564443 -0.203444 0.000000
90.35160065 131.48399353 270.00000000 -0.576712 -0.806807 -0.128322 0.000000
232.73399353 111.09400177 292.50000000 0.001205 -0.962562 -0.271059 0.000000
145.54699707 118.12500000 357.50000000 -0.040894 -0.624688 0.779803 0.000000
156.79699707 182.10899353 342.50000000 0.000978 0.000978 0.999999 0.000000
176.48399353 127.96900177 362.50000000 0.000978 0.000978 0.999999 0.000000
185.62500000 165.58599854 345.00000000 0.339056 0.595375 0.728402 0.000000
168.04699707 142.73399353 362.50000000 0.145732 0.150715 0.977777 0.000000
143.43800354 165.23399353 292.50000000 0.059226 0.961483 -0.268409 0.000000
174.37500000 156.09399414 357.50000000 0.355433 0.124882 0.926322 0.000000
191.25000000 159.60899353 317.50000000 -0.342738 -0.522958 0.780414 0.000000
109.68800354 177.18800354 247.50000000 0.166353 -0.038389 -0.985319 0.000000
231.32800293 120.93800354 292.50000000 -0.216916 -0.716290 0.663232 0.000000
158.20300293 107.93000031 330.00000000 -0.115622 -0.989214 0.089929 0.000000
120.23400116 219.72700500 335.00000000 0.202142 0.751476 0.628030 0.000000
104.06199646 210.58599854 250.00000000 0.532654 0.485900 -0.692951 0.000000
224.29699707 136.40600586 317.50000000 -0.515813 -0.198157 0.833469 0.000000
99.14060211 153.28100586 357.50000000 -0.617798 0.129514 0.775597 0.000000
113.90599823 172.96899414 247.50000000 0.868602 0.083059 -0.488500 0.000000
121.64099884 118.82800293 267.50000000 -0.263236 -0.957342 -0.119177 0.000000
188.43800354 124.45300293 362.50000000 0.000978 0.000978 0.999999 0.000000
100.54699707 237.65600586 257.50000000 -0.000978 -0.000978 -0.999999 0.000000
244.68800354 111.09400177 342.50000000 0.000978 0.000978 0.999999 0.000000
94.21880341 177.18800354 242.50000000 0.356749 0.029622 -0.933730 0.000000
206.01600647 149.06199646 312.50000000 -0.145352 -0.603887 0.783705 0.000000
111.79699707 218.67199707 257.50000000 0.429301 -0.245530 -0.869146 0.000000
116.01599884 172.96899414 252.50000000 0.677879 0.587939 -0.441371 0.000000
224.29699707 103.35900116 312.50000000 -0.371844 -0.924911 -0.079201 0.000000
92.81250000 203.90600586 242.50000000 -0.000978 -0.000978 -0.999999 0.000000
79.45310211 144.84399414 342.50000000 -0.000978 -0.000978 0.999999 0.000000
104.06199646 120.23400116 347.50000000 -0.632924 -0.632924 0.445886 0.000000
98.43750000 165.93800354 242.50000000 -0.000978 -0.000978 -0.999999 0.000000
132.18800354 162.42199707 277.50000000 0.599543 -0.310219 -0.737775 0.000000
97.03119659 168.75000000 352.50000000 0.000978 0.000978 0.999999 0.000000
110.39099884 232.03100586 327.50000000 0.142762 0.311357 0.939508 0.000000
90.70310211 242.92999268 320.00000000 -0.105832 0.546557 0.830708 0.000000
130.07800293 130.07800293 247.50000000 0.001156 0.202338 -0.979315 0.000000
118.82800293 150.46899414 357.50000000 0.000978 0.000978 0.999999 0.000000
94.21880341 145.54699707 352.50000000 0.000978 0.000978 0.999999 0.000000
85.07810211 222.18800354 242.50000000 -0.000978 -0.000978 -0.999999 0.000000
100.54699707 245.39100647 267.50000000 0.217143 0.802353 -0.555949 0.000000
122.34400177 169.45300293 357.50000000 0.769061 0.598159 0.225281 0.000000
258.04699707 129.72700500 325.00000000 -0.191053 -0.781025 0.594557 0.000000
87.53910065 194.06199646 240.00000000 0.536339 0.427421 -0.727771 0.000000
