189.84399414 168.04699707 157.50000000 -0.608170 0.104048 -0.786958 0.000000
159.60899353 106.87500000 87.50000000 -0.525351 0.263455 0.809072 0.000000
96.32810211 203.20300293 212.50000000 -0.000978 -0.000978 -0.999999 0.000000
120.58599854 181.40600586 210.00000000 -0.896099 -0.107981 -0.430520 0.000000
205.31199646 176.13299561 100.00000000 -0.632924 -0.632924 0.445886 0.000000
125.85900116 197.22700500 95.00000000 -0.844495 -0.216809 0.489716 0.000000
81.56250000 218.67199707 82.50000000 0.000978 0.000978 0.999999 0.000000
56.60160065 180.70300293 140.00000000 0.975218 0.144710 -0.167360 0.000000
130.78100586 157.50000000 207.50000000 -0.178721 -0.123730 -0.976089 0.000000
196.17199707 136.40600586 142.50000000 -0.000978 -0.000978 -0.999999 0.000000
109.68800354 210.93800354 202.50000000 -0.036939 -0.493884 -0.868743 0.000000
170.50799561 151.87500000 170.00000000 -0.442709 0.599745 -0.666569 0.000000
92.10939789 203.90600586 82.50000000 -0.501653 -0.666075 0.551986 0.000000
130.07800293 137.10899353 202.50000000 -0.000978 -0.000978 -0.999999 0.000000
62.57809830 234.84399414 112.50000000 0.879049 -0.438791 -0.186376 0.000000
91.40619659 178.59399414 67.50000000 -0.587085 -0.597236 0.546480 0.000000
93.51560211 217.26600647 197.50000000 0.137964 -0.155365 -0.978176 0.000000
108.98400116 103.71099854 105.00000000 0.109372 0.984344 0.138217 0.000000
116.01599884 267.18798828 152.50000000 0.264946 -0.740898 -0.617150 0.000000
148.35899353 254.53100586 117.50000000 -0.432751 0.022498 0.901233 0.000000
66.44529724 134.29699707 100.00000000 0.830730 0.555211 0.040354 0.000000
55.19530106 188.43800354 130.00000000 0.000978 0.000978 -0.999999 0.000000
74.53119659 196.87500000 197.50000000 0.806229 -0.267699 -0.527571 0.000000
130.78100586 259.10198975 160.00000000 -0.114864 -0.836036 -0.536517 0.000000
118.12500000 149.76600647 102.50000000 -0.204594 -0.510726 -0.835045 0.000000
170.15600586 208.12500000 127.50000000 -0.664818 -0.139567 0.733851 0.000000
230.62500000 106.87500000 107.50000000 -0.343987 0.917775 -0.198399 0.000000
195.46899414 123.75000000 137.50000000 -0.000978 -0.000978 -0.999999 0.000000
147.65600586 199.68800354 197.50000000 -0.280618 -0.345948 -0.895306 0.000000
164.17999268 229.21899414 120.00000000 -0.584442 0.299426 0.754170 0.000000
101.95300293 190.54699707 207.50000000 0.223494 0.442489 -0.868478 0.000000
234.84399414 129.37500000 137.50000000 0.000978 0.000978 0.999999 0.000000
213.75000000 133.59399414 92.50000000 -0.606072 -0.037967 0.794503 0.000000
194.06199646 165.93800354 152.50000000 -0.576853 0.242310 -0.780081 0.000000
88.59380341 182.10899353 67.50000000 0.000978 0.000978 0.999999 0.000000
73.12500000 175.78100586 37.50000000 -0.905523 -0.182253 0.383161 0.000000
192.65600586 166.28900146 95.00000000 0.520859 -0.648966 0.554571 0.000000
74.17970276 175.78100586 40.00000000 -0.790847 -0.381733 0.478374 0.000000
108.98400116 118.12500000 192.50000000 0.000978 0.000978 -0.999999 0.000000
135.70300293 192.65600586 97.50000000 0.000978 0.000978 0.999999 0.000000
156.09399414 255.23399353 147.50000000 -0.573944 -0.573944 -0.584103 0.000000
163.82800293 163.82800293 117.50000000 0.000978 0.000978 0.999999 0.000000
186.32800293 125.85900116 142.50000000 -0.641947 0.226478 -0.732538 0.000000
52.38280106 198.28100586 115.00000000 0.990125 0.001104 -0.140185 0.000000
248.55499268 125.15599823 120.00000000 0.000978 0.000978 0.999999 0.000000
212.34399414 169.45300293 142.50000000 -0.000978 -0.000978 -0.999999 0.000000
130.07800293 143.78900146 205.00000000 -0.121779 0.820171 -0.559007 0.000000
66.44529724 136.40600586 140.00000000 0.703673 0.703673 -0.098426 0.000000
94.21880341 194.06199646 82.50000000 -0.000978 -0.000978 0.999999 0.000000
99.84380341 203.90600586 212.50000000 -0.000978 -0.000978 -0.999999 0.000000
73.47660065 222.89100647 170.00000000 0.833820 -0.462887 -0.300799 0.000000
67.85160065 203.90600586 175.00000000 0.941944 -0.136494 -0.306774 0.000000
244.68800354 177.18800354 152.50000000 -0.000978 -0.000978 -0.999999 0.000000
82.26560211 247.50000000 152.50000000 0.001379 -0.663079 0.748548 0.000000
241.87500000 112.14800262 110.00000000 0.000978 0.000978 0.999999 0.000000
76.64060211 242.22700500 80.00000000 -0.580530 -0.594070 0.556835 0.000000
108.28099823 143.43800354 92.50000000 -0.795366 0.329941 0.508460 0.000000
78.39839935 232.73399353 80.00000000 -0.925242 0.193524 0.326307 0.000000
61.17190170 177.89100647 37.50000000 0.919910 -0.019517 0.391645 0.000000
148.35899353 116.71900177 172.50000000 -0.625957 0.659164 -0.416751 0.000000
214.45300293 154.68800354 142.50000000 -0.000978 -0.000978 -0.999999 0.000000
117.42199707 163.82800293 212.50000000 -0.990125 -0.001104 0.140185 0.000000
73.82810211 177.53900146 40.00000000 -0.738284 -0.440989 0.510358 0.000000
178.59399414 216.56199646 142.50000000 -0.962562 -0.001205 0.271059 0.000000
59.41410065 178.59399414 40.00000000 0.821639 0.272840 0.500467 0.000000
127.96900177 99.84380341 152.50000000 -0.117233 0.992576 0.032379 0.000000
204.60899353 158.90600586 92.50000000 0.000978 0.000978 0.999999 0.000000
107.22699738 240.46899414 100.00000000 -0.427862 -0.001300 0.903843 0.000000
206.01600647 133.59399414 87.50000000 -0.660160 -0.352195 0.663436 0.000000
196.87500000 163.82800293 92.50000000 0.000978 0.000978 0.999999 0.000000
147.65600586 261.56201172 117.50000000 -0.773075 -0.418275 -0.476866 0.000000
109.68800354 145.54699707 212.50000000 -0.234763 0.245876 -0.940442 0.000000
206.01600647 131.48399353 82.50000000 -0.871331 0.383020 0.306721 0.000000
149.76600647 164.53100586 117.50000000 0.000978 0.000978 0.999999 0.000000
88.59380341 230.62500000 87.50000000 0.000978 0.000978 0.999999 0.000000
152.57800293 147.65600586 192.50000000 -0.876355 0.177620 -0.447719 0.000000
228.51600647 173.67199707 147.50000000 -0.000978 -0.000978 -0.999999 0.000000
85.78119659 220.78100586 192.50000000 0.437335 -0.298254 -0.848400 0.000000
177.89100647 147.65600586 117.50000000 -0.887295 -0.444357 -0.123511 0.000000
194.76600647 114.60900116 127.50000000 0.000978 0.000978 -0.999999 0.000000
54.14059830 161.71899414 112.50000000 0.955135 0.253729 -0.152769 0.000000
60.46879959 180.00000000 37.50000000 0.923531 0.046111 0.380742 0.000000
117.42199707 226.40600586 192.50000000 -0.312598 -0.379692 -0.870699 0.000000
104.76599884 107.93000031 80.00000000 0.632924 -0.632924 0.445886 0.000000
118.12500000 273.51599121 107.50000000 -0.163287 -0.973394 0.160756 0.000000
166.64100647 108.98400116 122.50000000 0.001330 0.871255 -0.490829 0.000000
87.18750000 226.40600586 87.50000000 -0.672986 -0.009713 0.739591 0.000000
77.34380341 225.70300293 77.50000000 0.000978 0.000978 0.999999 0.000000
137.46099854 171.56199646 105.00000000 -0.520567 0.473998 0.710166 0.000000
139.92199707 234.84399414 112.50000000 0.000978 0.000978 0.999999 0.000000
239.76600647 166.64100647 122.50000000 -0.001205 0.962562 -0.271059 0.000000
61.87500000 236.60200500 105.00000000 0.897003 -0.407467 -0.171338 0.000000
132.89100647 199.68800354 97.50000000 0.000978 0.000978 0.999999 0.000000
156.09399414 165.23399353 197.50000000 -0.586511 0.029256 -0.809413 0.000000
76.64060211 210.93800354 72.50000000 -0.863789 -0.009404 0.503765 0.000000
178.59399414 156.79699707 162.50000000 0.141264 0.423793 -0.894675 0.000000
127.96900177 240.46899414 107.50000000 -0.264154 -0.082947 0.960907 0.000000
215.85899353 179.29699707 107.50000000 0.705130 -0.702185 -0.098630 0.000000
125.85900116 194.76600647 92.50000000 -0.962222 -0.161464 0.219224 0.000000
157.50000000 262.26599121 137.50000000 -0.758791 -0.590874 -0.274052 0.000000
217.26600647 104.06199646 107.50000000 -0.092832 0.929662 -0.356527 0.000000
165.93800354 212.34399414 112.50000000 0.000978 0.000978 0.999999 0.000000
134.29699707 274.57000732 120.00000000 -0.370249 -0.928826 -0.014093 0.000000
211.64100647 168.04699707 142.50000000 -0.000978 -0.000978 -0.999999 0.000000
198.98399353 161.01600647 92.50000000 0.000978 0.000978 0.999999 0.000000
139.21899414 108.28099823 167.50000000 -0.424461 0.837958 -0.343015 0.000000
149.06199646 229.92199707 112.50000000 0.000978 0.000978 0.999999 0.000000
232.73399353 145.54699707 107.50000000 0.000978 0.000978 0.999999 0.000000
120.58599854 99.14060211 120.00000000 0.197881 0.918223 0.343088 0.000000
185.62500000 149.06199646 92.50000000 0.000978 0.000978 0.999999 0.000000
108.28099823 150.46899414 87.50000000 0.000978 0.000978 0.999999 0.000000
205.31199646 107.57800293 77.50000000 0.000978 0.000978 0.999999 0.000000
51.32809830 185.62500000 62.50000000 0.976266 -0.216030 -0.015346 0.000000
148.00799561 161.01600647 200.00000000 -0.667001 0.159533 -0.727776 0.000000
113.20300293 135.70300293 207.50000000 0.118930 0.186532 -0.975224 0.000000
181.40600586 211.64100647 142.50000000 0.000978 0.000978 0.999999 0.000000
71.01560211 250.66400146 100.00000000 0.611885 -0.787531 -0.073426 0.000000
113.90599823 142.03100586 97.50000000 -0.941031 -0.289865 0.174469 0.000000
80.15619659 236.95300293 82.50000000 -0.278231 -0.197946 0.939896 0.000000
60.46879959 145.54699707 122.50000000 0.785365 0.523043 0.331101 0.000000
66.44529724 141.32800293 155.00000000 0.895185 0.413717 -0.165775 0.000000
182.10899353 208.12500000 142.50000000 -0.685432 -0.616063 0.388136 0.000000
113.55500031 213.04699707 210.00000000 -0.001376 -0.763803 -0.645448 0.000000
197.57800293 144.14100647 87.50000000 -0.206302 -0.702669 0.680953 0.000000
72.77339935 124.45300293 120.00000000 0.766097 0.640554 -0.052785 0.000000
128.67199707 206.71899414 202.50000000 -0.000978 -0.000978 -0.999999 0.000000
244.68800354 161.71899414 137.50000000 -0.000978 -0.000978 -0.999999 0.000000
131.48399353 163.82800293 102.50000000 0.000978 0.000978 0.999999 0.000000
237.65600586 140.62500000 112.50000000 -0.716316 -0.044147 0.696378 0.000000
154.68800354 168.75000000 197.50000000 -0.280326 -0.001214 -0.959904 0.000000
144.84399414 159.25799561 115.00000000 -0.365239 -0.913807 0.177645 0.000000
150.46899414 174.37500000 197.50000000 -0.000978 -0.000978 -0.999999 0.000000
86.48439789 122.69499969 185.00000000 0.580716 0.580716 -0.570558 0.000000
117.42199707 144.14100647 212.50000000 -0.000978 -0.000978 -0.999999 0.000000
211.64100647 109.68800354 122.50000000 -0.107668 0.857034 -0.503885 0.000000
132.53900146 120.23400116 195.00000000 -0.377627 0.278331 -0.883136 0.000000
246.79699707 153.63299561 135.00000000 -0.360030 0.360030 -0.860672 0.000000
222.18800354 139.21899414 142.50000000 -0.000978 -0.000978 -0.999999 0.000000
217.26600647 118.82800293 87.50000000 -0.317364 0.088230 0.944191 0.000000
142.73399353 261.56201172 152.50000000 -0.234101 -0.859376 -0.454609 0.000000
165.93800354 200.39100647 177.50000000 -0.892471 0.435661 0.117022 0.000000
184.21899414 195.46899414 107.50000000 0.623668 -0.751201 -0.216184 0.000000
103.35900116 208.82800293 212.50000000 -0.000978 -0.000978 -0.999999 0.000000
215.15600586 125.15599823 137.50000000 -0.056459 0.195803 -0.979017 0.000000
139.92199707 219.37500000 197.50000000 0.000978 0.000978 -0.999999 0.000000
136.40600586 119.53099823 82.50000000 -0.102964 -0.555428 0.825166 0.000000
175.78100586 128.32000732 145.00000000 -0.454869 0.826319 -0.332101 0.000000
144.84399414 243.98399353 112.50000000 -0.000978 -0.000978 0.999999 0.000000
98.43750000 186.32800293 82.50000000 0.000978 0.000978 0.999999 0.000000
123.04699707 159.60899353 207.50000000 -0.008149 -0.203715 -0.978996 0.000000
72.77339935 167.34399414 195.00000000 0.874826 0.048067 -0.482047 0.000000
243.98399353 183.51600647 142.50000000 0.526406 0.526406 0.667678 0.000000
99.84380341 215.85899353 212.50000000 -0.374094 -0.316071 0.871868 0.000000
192.65600586 195.46899414 132.50000000 -0.495034 -0.394404 -0.774201 0.000000
108.98400116 243.98399353 177.50000000 0.193869 -0.792269 -0.578554 0.000000
75.23439789 168.04699707 197.50000000 0.293555 0.704211 -0.646462 0.000000
246.09399414 145.54699707 142.50000000 0.308279 -0.916154 0.256176 0.000000
158.90600586 149.06199646 187.50000000 -0.849547 0.215782 -0.481360 0.000000
241.52299500 175.78100586 135.00000000 0.226932 0.443343 -0.867150 0.000000
106.17199707 163.82800293 82.50000000 -0.546410 -0.136971 0.826242 0.000000
143.43800354 134.64799500 85.00000000 0.526910 -0.383355 0.758554 0.000000
229.92199707 156.79699707 142.50000000 0.192512 0.289461 -0.937631 0.000000
223.24200439 144.84399414 100.00000000 -0.950746 -0.237347 -0.199372 0.000000
71.01560211 185.97700500 40.00000000 -0.580716 0.580716 0.570558 0.000000
185.62500000 133.59399414 147.50000000 0.000978 0.000978 -0.999999 0.000000
128.67199707 162.42199707 207.50000000 -0.000978 -0.000978 -0.999999 0.000000
246.09399414 141.32800293 137.50000000 0.963246 0.258801 -0.071959 0.000000
211.64100647 137.81199646 142.50000000 -0.000978 -0.000978 -0.999999 0.000000
177.18800354 213.75000000 152.50000000 -0.000978 -0.000978 -0.999999 0.000000
104.41400146 188.43800354 85.00000000 -0.562129 -0.366606 0.741358 0.000000
240.46899414 168.04699707 147.50000000 -0.000978 -0.000978 -0.999999 0.000000
149.06199646 111.79699707 157.50000000 -0.581314 0.759690 -0.291453 0.000000
202.50000000 116.71900177 82.50000000 0.000978 0.000978 0.999999 0.000000
66.79689789 197.57800293 177.50000000 0.999999 -0.000978 -0.000978 0.000000
183.51600647 198.63299561 130.00000000 0.054437 -0.987966 -0.144778 0.000000
126.56199646 231.32800293 107.50000000 -0.472275 -0.294587 0.830768 0.000000
168.04699707 159.60899353 172.50000000 -0.000978 -0.000978 -0.999999 0.000000
184.21899414 196.17199707 132.50000000 -0.519019 -0.830733 -0.201252 0.000000
51.67969894 201.09399414 65.00000000 0.934336 -0.275958 0.225529 0.000000
106.17199707 174.37500000 82.50000000 -0.357367 -0.019213 0.933766 0.000000
191.60200500 166.64100647 155.00000000 -0.723031 0.441761 -0.531105 0.000000
55.54690170 162.42199707 122.50000000 0.950746 0.237347 -0.199372 0.000000
125.50800323 122.34400177 90.00000000 0.457534 -0.304502 0.835429 0.000000
99.84380341 172.96899414 212.50000000 -0.000978 -0.000978 -0.999999 0.000000
116.01599884 247.50000000 102.50000000 0.793337 -0.405555 0.454028 0.000000
226.40600586 186.32800293 147.50000000 0.000978 0.000978 0.999999 0.000000
178.59399414 166.64100647 92.50000000 0.000978 0.000978 0.999999 0.000000
101.25000000 220.07800293 197.50000000 0.515942 -0.549553 -0.657111 0.000000
125.85900116 141.32800293 102.50000000 -0.698400 0.233846 -0.676427 0.000000
56.25000000 172.26600647 132.50000000 0.953439 0.078914 -0.291077 0.000000
177.89100647 151.87500000 112.50000000 -0.101290 -0.632695 0.767748 0.000000
120.93800354 246.09399414 177.50000000 0.597031 -0.744288 -0.299316 0.000000
191.95300293 170.85899353 92.50000000 -0.436962 -0.373404 0.818311 0.000000
151.87500000 216.56199646 107.50000000 0.000978 0.000978 0.999999 0.000000
73.12500000 177.18800354 197.50000000 -0.000978 -0.000978 -0.999999 0.000000
144.14100647 114.60900116 82.50000000 0.777089 -0.623123 0.088603 0.000000
139.21899414 180.00000000 102.50000000 -0.253188 0.149792 0.955750 0.000000
117.42199707 228.51600647 102.50000000 0.000978 0.000978 0.999999 0.000000
100.54699707 268.94500732 125.00000000 0.000978 0.000978 -0.999999 0.000000
55.89839935 167.34399414 130.00000000 0.986865 -0.124395 0.103070 0.000000
151.17199707 166.64100647 117.50000000 0.000978 0.000978 0.999999 0.000000
239.06199646 115.31199646 122.50000000 -0.630724 0.770562 0.091768 0.000000
113.20300293 130.07800293 97.50000000 -0.000978 -0.000978 -0.999999 0.000000
104.06199646 233.43800354 97.50000000 -0.138146 -0.487148 0.862324 0.000000
91.40619659 109.33599854 100.00000000 0.947732 0.315911 -0.044765 0.000000
237.65600586 120.23400116 102.50000000 0.000978 0.000978 0.999999 0.000000
61.52339935 141.32800293 85.00000000 0.913064 0.375135 0.159963 0.000000
177.18800354 127.26599884 82.50000000 0.000978 0.000978 0.999999 0.000000
78.75000000 120.93800354 162.50000000 0.619634 0.774171 -0.129276 0.000000
120.93800354 247.50000000 107.50000000 0.000978 0.000978 0.999999 0.000000
161.01600647 196.17199707 102.50000000 -0.279381 -0.008540 0.960142 0.000000
80.85939789 256.99200439 85.00000000 0.166693 -0.885650 0.433403 0.000000
54.49219894 156.09399414 90.00000000 0.973721 0.223774 -0.042336 0.000000
99.14060211 192.65600586 207.50000000 0.157715 0.344740 -0.925354 0.000000
74.53119659 248.20300293 82.50000000 0.386330 -0.074035 0.919384 0.000000
234.14100647 135.70300293 107.50000000 -0.763545 -0.379330 0.522597 0.000000
60.46879959 190.54699707 37.50000000 0.684577 -0.297992 0.665248 0.000000
53.78910065 163.82800293 75.00000000 0.000978 0.000978 -0.999999 0.000000
137.10899353 246.79699707 167.50000000 0.044552 -0.210719 -0.976531 0.000000
92.10939789 130.78100586 57.50000000 -0.880835 -0.033826 0.472214 0.000000
168.04699707 168.75000000 177.50000000 -0.331644 0.258594 -0.907272 0.000000
72.42189789 169.45300293 197.50000000 0.835112 0.506543 -0.214482 0.000000
97.73439789 264.72698975 145.00000000 0.800826 -0.530213 -0.278480 0.000000
130.78100586 272.10900879 112.50000000 0.094612 -0.612798 0.784556 0.000000
248.20300293 132.89100647 137.50000000 -0.000978 -0.000978 -0.999999 0.000000
135.00000000 246.09399414 112.50000000 0.000978 0.000978 0.999999 0.000000
98.43750000 108.98400116 172.50000000 0.055795 0.673829 -0.736777 0.000000
105.46900177 265.07800293 97.50000000 0.000978 0.000978 0.999999 0.000000
146.95300293 189.14100647 102.50000000 0.000978 0.000978 0.999999 0.000000
182.81199646 195.46899414 102.50000000 -0.241081 -0.968070 0.068702 0.000000
138.51600647 155.03900146 105.00000000 -0.150000 -0.895712 0.418570 0.000000
60.46879959 191.25000000 37.50000000 0.712488 -0.361977 0.601111 0.000000
120.23400116 168.04699707 207.50000000 -0.008178 0.209123 -0.977855 0.000000
131.83599854 239.06199646 110.00000000 -0.650710 -0.427705 0.627411 0.000000
130.78100586 183.51600647 97.50000000 0.000978 0.000978 0.999999 0.000000
163.82800293 242.57800293 122.50000000 -0.820979 -0.218622 0.527445 0.000000
165.23399353 208.82800293 172.50000000 -0.000978 -0.000978 -0.999999 0.000000
145.54699707 149.76600647 92.50000000 -0.283426 -0.783774 0.552601 0.000000
211.64100647 118.82800293 132.50000000 -0.278246 0.853185 -0.441197 0.000000
101.25000000 245.39100647 172.50000000 -0.000978 -0.000978 -0.999999 0.000000
191.95300293 123.04699707 137.50000000 -0.000978 -0.000978 -0.999999 0.000000
87.18750000 143.43800354 202.50000000 -0.000978 -0.000978 -0.999999 0.000000
234.14100647 189.84399414 147.50000000 -0.446786 0.886480 -0.120561 0.000000
147.65600586 114.60900116 167.50000000 -0.645484 0.678167 -0.351340 0.000000
129.02299500 153.98399353 105.00000000 -0.700141 -0.553793 -0.450684 0.000000
198.28100586 108.28099823 122.50000000 0.999999 0.000978 0.000978 0.000000
208.12500000 158.90600586 142.50000000 -0.000978 -0.000978 -0.999999 0.000000
100.54699707 170.85899353 212.50000000 -0.000978 -0.000978 -0.999999 0.000000
64.68750000 146.25000000 152.50000000 0.947732 0.315911 -0.044765 0.000000
134.29699707 161.71899414 207.50000000 -0.000978 -0.000978 -0.999999 0.000000
148.00799561 262.26599121 115.00000000 -0.944434 -0.257073 -0.204834 0.000000
207.42199707 135.00000000 142.50000000 -0.000978 -0.000978 -0.999999 0.000000
79.45310211 243.28100586 82.50000000 -0.467204 -0.597821 0.651407 0.000000
66.79689789 191.95300293 37.50000000 -0.086048 -0.695679 0.713180 0.000000
121.64099884 148.35899353 102.50000000 -0.089459 -0.230578 -0.968933 0.000000
94.92189789 172.26600647 72.50000000 -0.768690 -0.218960 0.600976 0.000000
137.81199646 189.84399414 97.50000000 -0.136211 0.445911 0.884653 0.000000
124.45300293 260.85900879 107.50000000 0.000978 0.000978 0.999999 0.000000
125.85900116 251.01600647 107.50000000 0.000978 0.000978 0.999999 0.000000
49.57030106 180.00000000 80.00000000 0.980661 0.171768 0.093802 0.000000
153.98399353 186.32800293 197.50000000 -0.000978 -0.000978 -0.999999 0.000000
173.67199707 194.06199646 127.50000000 0.000978 0.000978 0.999999 0.000000
146.25000000 130.78100586 82.50000000 0.101177 -0.069346 0.992449 0.000000
80.15619659 254.17999268 130.00000000 0.797253 -0.597578 -0.085368 0.000000
148.35899353 214.45300293 192.50000000 -0.000978 -0.000978 -0.999999 0.000000
97.73439789 252.42199707 167.50000000 -0.000978 -0.000978 -0.999999 0.000000
95.62500000 233.43800354 187.50000000 -0.000978 -0.000978 -0.999999 0.000000
137.10899353 262.96899414 152.50000000 0.000978 0.000978 -0.999999 0.000000
224.29699707 102.30500031 100.00000000 -0.393621 0.891912 -0.222610 0.000000
199.68800354 135.70300293 142.50000000 -0.000978 -0.000978 -0.999999 0.000000
116.71900177 260.15600586 102.50000000 0.000978 0.000978 0.999999 0.000000
211.64100647 127.26599884 137.50000000 -0.000978 -0.000978 -0.999999 0.000000
81.56250000 214.45300293 77.50000000 -0.730422 -0.240332 0.639315 0.000000
99.49220276 182.81199646 210.00000000 0.526406 -0.526406 -0.667678 0.000000
220.07800293 154.68800354 97.50000000 -0.616845 0.148583 0.772933 0.000000
62.57809830 193.35899353 37.50000000 0.133085 -0.388047 0.911980 0.000000
144.14100647 139.21899414 87.50000000 0.188475 -0.225903 0.955743 0.000000
163.12500000 189.84399414 182.50000000 -0.031247 0.291218 -0.956146 0.000000
77.34380341 195.46899414 202.50000000 0.000978 0.000978 -0.999999 0.000000
93.86720276 261.56201172 90.00000000 -0.625508 -0.132864 0.768822 0.000000
219.37500000 158.90600586 142.50000000 -0.000978 -0.000978 -0.999999 0.000000
189.14100647 162.07000732 95.00000000 0.529571 -0.766015 0.364384 0.000000
142.73399353 243.28100586 167.50000000 -0.260066 -0.963626 -0.061562 0.000000
68.20310211 193.35899353 37.50000000 -0.677430 0.677430 -0.286667 0.000000
146.95300293 249.60899353 162.50000000 -0.263686 -0.806660 -0.528932 0.000000
235.54699707 118.12500000 97.50000000 -0.001279 -0.921899 0.387428 0.000000
187.03100586 193.35899353 137.50000000 0.234303 -0.220601 -0.946804 0.000000
95.62500000 112.50000000 72.50000000 0.243432 0.967485 0.068660 0.000000
149.76600647 108.98400116 147.50000000 -0.574822 0.790573 -0.211128 0.000000
92.81250000 266.13299561 110.00000000 0.400883 -0.855940 -0.326588 0.000000
94.92189789 135.70300293 62.50000000 -0.922451 -0.076759 0.378407 0.000000
137.81199646 110.74199677 175.00000000 -0.547249 0.776997 -0.311118 0.000000
120.23400116 258.75000000 162.50000000 0.526406 -0.526406 -0.667678 0.000000
120.93800354 198.28100586 207.50000000 -0.000978 -0.000978 -0.999999 0.000000
137.10899353 232.73399353 182.50000000 -0.152003 -0.766036 -0.624567 0.000000
232.03100586 153.28100586 107.50000000 0.000978 0.000978 0.999999 0.000000
53.43750000 165.58599854 75.00000000 0.971343 0.194778 -0.136217 0.000000
158.20300293 99.84380341 102.50000000 0.001104 0.990125 -0.140185 0.000000
118.12500000 271.40600586 102.50000000 0.000978 0.000978 0.999999 0.000000
208.12500000 116.01599884 87.50000000 -0.844794 -0.527460 -0.090054 0.000000
108.98400116 136.40600586 207.50000000 -0.000978 -0.000978 -0.999999 0.000000
60.46879959 194.41400146 40.00000000 0.712488 -0.361977 0.601111 0.000000
130.78100586 196.17199707 97.50000000 0.000978 0.000978 0.999999 0.000000
178.59399414 173.67199707 92.50000000 0.000978 0.000978 0.999999 0.000000
61.87500000 194.76600647 37.50000000 0.712488 -0.361977 0.601111 0.000000
134.29699707 121.99199677 85.00000000 0.531886 -0.633198 0.562279 0.000000
148.35899353 212.34399414 192.50000000 -0.000978 -0.000978 -0.999999 0.000000
77.34380341 182.10899353 52.50000000 -0.799170 -0.550884 0.240527 0.000000
180.70300293 130.42999268 145.00000000 -0.276312 0.888679 -0.365926 0.000000
201.09399414 118.47699738 135.00000000 0.120698 0.713757 -0.689915 0.000000
135.00000000 260.15600586 157.50000000 -0.393887 -0.393887 -0.830485 0.000000
73.12500000 124.10199738 100.00000000 0.703673 0.703673 0.098426 0.000000
121.64099884 98.78910065 130.00000000 0.048022 0.997792 0.045888 0.000000
174.37500000 119.53099823 137.50000000 -0.317984 0.314999 -0.894238 0.000000
68.55470276 194.76600647 40.00000000 -0.677430 0.677430 -0.286667 0.000000
86.48439789 169.80499268 60.00000000 -0.762334 -0.129791 0.634035 0.000000
53.08589935 217.96899414 80.00000000 0.905881 -0.421496 0.041481 0.000000
176.48399353 129.37500000 147.50000000 -0.384286 0.873377 -0.299227 0.000000
92.81250000 193.35899353 207.50000000 -0.000978 -0.000978 -0.999999 0.000000
180.00000000 208.12500000 147.50000000 -0.536082 0.801779 -0.264134 0.000000
133.59399414 272.10900879 112.50000000 -0.153003 -0.722599 0.674122 0.000000
182.81199646 182.81199646 147.50000000 -0.677430 -0.677430 -0.286667 0.000000
113.90599823 273.51599121 102.50000000 0.000978 0.000978 0.999999 0.000000
99.14060211 189.14100647 82.50000000 0.000978 0.000978 0.999999 0.000000
210.23399353 161.01600647 97.50000000 0.000978 0.000978 0.999999 0.000000
161.71899414 124.10199738 160.00000000 -0.703673 0.703673 -0.098426 0.000000
229.92199707 174.37500000 147.50000000 -0.000978 -0.000978 -0.999999 0.000000
238.35899353 125.85900116 137.50000000 0.000978 0.000978 0.999999 0.000000
207.42199707 131.48399353 142.50000000 -0.000978 -0.000978 -0.999999 0.000000
89.29689789 117.06999969 65.00000000 0.563989 0.790828 0.237714 0.000000
110.39099884 204.60899353 92.50000000 0.000978 0.000978 0.999999 0.000000
101.25000000 184.21899414 82.50000000 0.000978 0.000978 0.999999 0.000000
90.70310211 261.21099854 140.00000000 0.620256 -0.720141 -0.310933 0.000000
71.01560211 225.70300293 157.50000000 0.779602 -0.454090 -0.431304 0.000000
68.90619659 135.00000000 152.50000000 0.867916 0.433203 -0.243016 0.000000
128.67199707 156.79699707 107.50000000 -0.993893 0.103276 0.038867 0.000000
192.65600586 120.23400116 137.50000000 -0.000978 -0.000978 -0.999999 0.000000
167.34399414 105.46900177 112.50000000 -0.001381 0.713977 -0.700167 0.000000
116.01599884 196.17199707 212.50000000 -0.000978 -0.000978 -0.999999 0.000000
142.73399353 178.59399414 202.50000000 -0.000978 -0.000978 -0.999999 0.000000
91.40619659 165.23399353 67.50000000 0.000978 0.000978 0.999999 0.000000
61.52339935 196.87500000 40.00000000 0.793176 -0.221100 0.567438 0.000000
68.20310211 142.03100586 167.50000000 0.943254 0.331955 -0.008769 0.000000
151.17199707 203.20300293 102.50000000 0.000978 0.000978 0.999999 0.000000
146.25000000 230.27299500 180.00000000 -0.184375 -0.595791 -0.781690 0.000000
231.32800293 154.68800354 107.50000000 0.000978 0.000978 0.999999 0.000000
242.57800293 132.89100647 117.50000000 0.827179 0.549994 0.115251 0.000000
213.04699707 146.95300293 92.50000000 -0.816432 -0.182603 0.547809 0.000000
68.90619659 248.55499268 105.00000000 0.829699 -0.552657 -0.078543 0.000000
87.53910065 215.85899353 195.00000000 0.632776 -0.286752 -0.719283 0.000000
59.41410065 158.20300293 140.00000000 0.939797 0.248484 -0.234602 0.000000
112.50000000 184.21899414 212.50000000 -0.000978 -0.000978 -0.999999 0.000000
82.61720276 213.04699707 195.00000000 0.398673 -0.653427 -0.643501 0.000000
100.54699707 247.50000000 172.50000000 -0.000978 -0.000978 -0.999999 0.000000
123.75000000 197.57800293 207.50000000 -0.000978 -0.000978 -0.999999 0.000000
236.95300293 125.85900116 137.50000000 0.000978 0.000978 0.999999 0.000000
161.71899414 253.82800293 122.50000000 0.000978 0.000978 0.999999 0.000000
120.58599854 273.51599121 110.00000000 -0.580716 -0.580716 0.570558 0.000000
84.37500000 220.07800293 192.50000000 0.596493 -0.264229 -0.757878 0.000000
152.57800293 217.26600647 107.50000000 0.000978 0.000978 0.999999 0.000000
222.18800354 176.83599854 110.00000000 0.001279 -0.921899 0.387428 0.000000
80.15619659 142.03100586 197.50000000 -0.000978 -0.000978 -0.999999 0.000000
87.18750000 191.95300293 72.50000000 -0.580716 -0.580716 0.570558 0.000000
79.45310211 254.53100586 82.50000000 0.327423 -0.787412 0.522280 0.000000
231.32800293 151.87500000 142.50000000 -0.000978 -0.000978 -0.999999 0.000000
82.96880341 191.95300293 202.50000000 -0.000978 -0.000978 -0.999999 0.000000
175.78100586 144.14100647 157.50000000 -0.804561 0.444837 -0.393448 0.000000
123.75000000 168.75000000 207.50000000 -0.118562 0.150342 -0.981499 0.000000
186.32800293 174.37500000 92.50000000 0.000978 0.000978 0.999999 0.000000
109.68800354 113.20300293 87.50000000 0.000978 0.000978 0.999999 0.000000
110.39099884 145.54699707 212.50000000 -0.000978 -0.000978 -0.999999 0.000000
118.12500000 201.79699707 92.50000000 0.000978 0.000978 0.999999 0.000000
118.82800293 224.29699707 97.50000000 0.000978 0.000978 0.999999 0.000000
63.28120041 212.34399414 52.50000000 0.098916 -0.433279 0.895815 0.000000
163.12500000 98.43750000 92.50000000 -0.000978 -0.000978 -0.999999 0.000000
71.71880341 170.85899353 192.50000000 0.960737 0.030912 -0.275733 0.000000
116.71900177 121.64099884 197.50000000 -0.000978 -0.000978 -0.999999 0.000000
210.23399353 149.06199646 142.50000000 -0.000978 -0.000978 -0.999999 0.000000
60.46879959 219.37500000 62.50000000 0.777193 -0.400765 0.485137 0.000000
104.06199646 270.35198975 135.00000000 0.314992 -0.944977 -0.088303 0.000000
132.18800354 274.57000732 125.00000000 -0.053645 -0.998214 -0.026296 0.000000
74.53119659 241.87500000 77.50000000 -0.474733 -0.100615 0.874360 0.000000
232.73399353 150.46899414 142.50000000 -0.000978 -0.000978 -0.999999 0.000000
82.26560211 116.71900177 157.50000000 0.703673 0.703673 -0.098426 0.000000
127.26599884 273.16400146 140.00000000 0.063807 -0.905512 -0.419495 0.000000
166.64100647 210.93800354 172.50000000 -0.832436 -0.298302 -0.466976 0.000000
65.74220276 232.03100586 70.00000000 -0.004065 -0.548741 0.835983 0.000000
163.12500000 170.85899353 187.50000000 -0.727538 -0.035317 -0.685157 0.000000
77.34380341 131.48399353 42.50000000 -0.227367 0.564551 -0.793465 0.000000
100.54699707 189.14100647 82.50000000 -0.317195 -0.060850 0.946406 0.000000
194.06199646 133.59399414 82.50000000 0.000978 0.000978 0.999999 0.000000
173.67199707 213.75000000 127.50000000 0.000978 0.000978 0.999999 0.000000
97.03119659 128.67199707 202.50000000 0.799069 0.400339 -0.448572 0.000000
173.32000732 163.82800293 170.00000000 -0.692677 0.576400 -0.433546 0.000000
97.73439789 178.59399414 77.50000000 -0.686807 -0.136760 0.713858 0.000000
195.46899414 189.84399414 137.50000000 -0.000978 -0.000978 -0.999999 0.000000
79.45310211 119.53099823 157.50000000 0.703673 0.703673 -0.098426 0.000000
125.15599823 168.75000000 97.50000000 -0.367846 0.073569 0.926972 0.000000
158.90600586 214.45300293 107.50000000 0.000978 0.000978 0.999999 0.000000
203.20300293 100.19499969 80.00000000 0.001104 0.990125 -0.140185 0.000000
73.82810211 180.70300293 197.50000000 -0.000978 -0.000978 -0.999999 0.000000
75.23439789 248.20300293 82.50000000 0.141839 -0.198064 0.969872 0.000000
118.82800293 262.26599121 102.50000000 -0.000978 -0.000978 0.999999 0.000000
207.42199707 147.65600586 142.50000000 -0.000978 -0.000978 -0.999999 0.000000
137.10899353 206.01600647 97.50000000 0.000978 0.000978 0.999999 0.000000
137.81199646 201.09399414 97.50000000 0.000978 0.000978 0.999999 0.000000
151.87500000 210.93800354 102.50000000 0.000978 0.000978 0.999999 0.000000
210.23399353 104.76599884 112.50000000 0.000978 0.000978 -0.999999 0.000000
151.87500000 198.98399353 102.50000000 0.000978 0.000978 0.999999 0.000000
121.99199677 177.89100647 210.00000000 -0.896099 -0.107981 -0.430520 0.000000
119.53099823 230.27299500 190.00000000 0.723666 -0.610340 -0.322169 0.000000
161.01600647 162.42199707 117.50000000 0.000978 0.000978 0.999999 0.000000
105.46900177 273.16400146 100.00000000 0.001104 -0.990429 -0.138020 0.000000
183.51600647 196.87500000 132.50000000 -0.519019 -0.830733 -0.201252 0.000000
232.73399353 129.37500000 137.50000000 0.000978 0.000978 0.999999 0.000000
80.85939789 132.89100647 42.50000000 -0.000978 -0.000978 -0.999999 0.000000
237.65600586 135.70300293 112.50000000 -0.758656 -0.222768 0.612222 0.000000
184.92199707 195.46899414 107.50000000 -0.000978 -0.000978 0.999999 0.000000
135.00000000 115.31199646 187.50000000 -0.377067 0.742708 -0.553358 0.000000
140.62500000 264.37500000 147.50000000 -0.965108 -0.241597 -0.100985 0.000000
127.26599884 108.98400116 177.50000000 -0.305781 0.823257 -0.478273 0.000000
156.09399414 201.09399414 187.50000000 -0.801998 -0.055359 -0.594756 0.000000
87.53910065 110.39099884 145.00000000 0.606190 0.793584 0.052527 0.000000
71.71880341 228.51600647 67.50000000 -0.809673 0.541324 0.226709 0.000000
139.21899414 206.71899414 97.50000000 0.000978 0.000978 0.999999 0.000000
243.28100586 158.90600586 137.50000000 -0.000978 -0.000978 -0.999999 0.000000
245.39100647 158.20300293 137.50000000 -0.000978 -0.000978 -0.999999 0.000000
55.54690170 156.44500732 80.00000000 0.962660 0.221346 0.155859 0.000000
86.13279724 157.50000000 55.00000000 -0.755099 -0.082930 0.650345 0.000000
113.20300293 268.24200439 100.00000000 -0.001307 -0.440405 0.897798 0.000000
168.04699707 163.12500000 177.50000000 -0.774661 0.082534 -0.626968 0.000000
75.58589935 134.29699707 45.00000000 0.822844 0.568187 0.009584 0.000000
95.62500000 215.85899353 197.50000000 0.318495 -0.398504 -0.860091 0.000000
146.95300293 176.48399353 107.50000000 0.000978 0.000978 0.999999 0.000000
178.59399414 212.34399414 142.50000000 -0.207524 -0.163148 0.964529 0.000000
180.70300293 137.81199646 87.50000000 0.000978 0.000978 0.999999 0.000000
64.33589935 159.60899353 170.00000000 0.948924 0.135178 -0.285079 0.000000
106.17199707 223.59399414 192.50000000 -0.000978 -0.000978 -0.999999 0.000000
173.67199707 170.15600586 172.50000000 -0.000978 -0.000978 -0.999999 0.000000
132.18800354 254.17999268 165.00000000 -0.432692 -0.717837 -0.545424 0.000000
123.75000000 112.50000000 187.50000000 -0.131073 0.925790 -0.354587 0.000000
74.17970276 215.85899353 180.00000000 0.842653 -0.445380 -0.302610 0.000000
201.79699707 100.89800262 105.00000000 0.001104 0.990125 -0.140185 0.000000
101.95300293 260.15600586 97.50000000 0.733994 0.657695 0.169383 0.000000
246.79699707 153.98399353 142.50000000 0.206183 -0.717766 -0.665057 0.000000
67.50000000 144.84399414 167.50000000 -0.000978 -0.000978 -0.999999 0.000000
170.15600586 144.14100647 167.50000000 -0.000978 -0.000978 -0.999999 0.000000
90.70310211 250.31199646 87.50000000 -0.495237 0.251475 0.831565 0.000000
234.14100647 157.85200500 145.00000000 0.417169 0.502238 -0.757448 0.000000
77.34380341 231.32800293 162.50000000 0.766130 -0.586050 -0.263801 0.000000
52.03120041 165.58599854 90.00000000 0.982776 0.184629 -0.008027 0.000000
210.93800354 141.32800293 142.50000000 -0.000978 -0.000978 -0.999999 0.000000
149.06199646 196.17199707 197.50000000 -0.306995 -0.163823 -0.937505 0.000000
75.93750000 129.72700500 175.00000000 0.821525 0.527795 -0.215708 0.000000
125.15599823 236.25000000 107.50000000 0.000978 0.000978 0.999999 0.000000
151.87500000 206.01600647 102.50000000 0.000978 0.000978 0.999999 0.000000
229.21899414 153.98399353 142.50000000 -0.000978 -0.000978 -0.999999 0.000000
99.84380341 183.51600647 82.50000000 0.000978 0.000978 0.999999 0.000000
189.84399414 199.68800354 127.50000000 -0.000978 -0.999999 -0.000978 0.000000
129.37500000 172.26600647 207.50000000 -0.000978 -0.000978 -0.999999 0.000000
198.98399353 148.35899353 92.50000000 -0.192289 -0.472525 0.860084 0.000000
90.70310211 194.06199646 207.50000000 -0.000978 -0.000978 -0.999999 0.000000
232.03100586 166.64100647 112.50000000 0.000978 0.000978 -0.999999 0.000000
93.16410065 142.73399353 60.00000000 -0.921899 0.001279 0.387428 0.000000
238.35899353 179.29699707 132.50000000 0.790112 0.544089 -0.282295 0.000000
155.39100647 137.81199646 187.50000000 -0.666480 0.532177 -0.522104 0.000000
78.39839935 117.42199707 120.00000000 0.762220 0.645394 0.049865 0.000000
137.81199646 102.30500031 120.00000000 0.708486 0.705724 -0.001381 0.000000
160.31199646 161.71899414 187.50000000 0.000978 0.000978 -0.999999 0.000000
107.57800293 215.15600586 212.50000000 -0.021827 -0.998853 0.042615 0.000000
234.84399414 189.84399414 142.50000000 0.754246 0.653680 0.061776 0.000000
54.14059830 158.55499268 100.00000000 0.693374 0.693374 -0.196122 0.000000
225.70300293 113.90599823 122.50000000 -0.763852 0.459620 -0.453077 0.000000
158.90600586 151.17199707 187.50000000 -0.892719 0.044704 -0.448391 0.000000
241.87500000 184.21899414 152.50000000 -0.000978 -0.000978 -0.999999 0.000000
108.28099823 233.43800354 187.50000000 -0.098357 -0.729606 -0.676757 0.000000
80.85939789 137.10899353 42.50000000 0.964267 -0.028181 -0.263428 0.000000
139.92199707 244.33599854 170.00000000 -0.409590 -0.641747 -0.648380 0.000000
104.06199646 255.93800354 97.50000000 0.000978 0.000978 0.999999 0.000000
118.12500000 188.43800354 92.50000000 0.003574 -0.248976 0.968503 0.000000
73.12500000 137.81199646 42.50000000 0.786000 0.612299 0.085403 0.000000
73.12500000 137.46099854 45.00000000 0.786000 0.612299 0.085403 0.000000
121.28900146 152.57800293 100.00000000 -0.166693 -0.433403 -0.885650 0.000000
128.67199707 230.62500000 192.50000000 0.000978 0.000978 -0.999999 0.000000
68.20310211 202.50000000 47.50000000 -0.862835 -0.144048 0.484526 0.000000
82.96880341 201.79699707 77.50000000 -0.001351 -0.544370 0.838844 0.000000
81.56250000 137.81199646 42.50000000 0.964267 -0.028181 -0.263428 0.000000
94.21880341 245.39100647 172.50000000 -0.000978 -0.000978 -0.999999 0.000000
187.03100586 184.92199707 92.50000000 0.000978 0.000978 0.999999 0.000000
72.07029724 127.96900177 80.00000000 0.703673 0.703673 0.098426 0.000000
87.18750000 234.84399414 177.50000000 0.604899 -0.608269 -0.513912 0.000000
222.18800354 110.39099884 87.50000000 -0.069182 -0.408310 0.910218 0.000000
222.18800354 101.95300293 87.50000000 -0.839679 0.287136 0.460970 0.000000
201.09399414 173.67199707 142.50000000 -0.086730 -0.342918 -0.935353 0.000000
130.07800293 271.40600586 112.50000000 0.094612 -0.612798 0.784556 0.000000
234.14100647 160.31199646 112.50000000 -0.000978 -0.000978 -0.999999 0.000000
178.59399414 144.84399414 157.50000000 -0.000978 -0.000978 -0.999999 0.000000
87.89060211 202.50000000 82.50000000 0.000978 0.000978 0.999999 0.000000
84.37500000 168.75000000 57.50000000 -0.836374 -0.133293 0.531706 0.000000
149.06199646 245.39100647 117.50000000 0.000978 0.000978 0.999999 0.000000
192.65600586 196.87500000 132.50000000 -0.858603 -0.490003 -0.150658 0.000000
112.50000000 241.17199707 102.50000000 0.000978 0.000978 0.999999 0.000000
102.30500031 149.06199646 80.00000000 -0.669669 -0.216979 0.710256 0.000000
112.50000000 158.20300293 92.50000000 0.000978 0.000978 0.999999 0.000000
177.18800354 208.12500000 157.50000000 -0.799069 -0.400339 -0.448572 0.000000
75.58589935 228.51600647 165.00000000 0.766130 -0.586050 -0.263801 0.000000
120.58599854 235.54699707 105.00000000 -0.887295 -0.444357 0.123511 0.000000
71.36720276 126.56199646 125.00000000 0.832674 0.553762 0.001354 0.000000
80.85939789 139.92199707 42.50000000 0.984892 0.045564 -0.167069 0.000000
95.62500000 142.03100586 67.50000000 -0.000978 -0.000978 0.999999 0.000000
177.18800354 201.79699707 162.50000000 -0.813964 -0.276529 -0.510876 0.000000
121.64099884 211.64100647 202.50000000 -0.000978 -0.000978 -0.999999 0.000000
157.50000000 264.02301025 130.00000000 -0.632924 -0.632924 0.445886 0.000000
101.95300293 208.82800293 212.50000000 -0.000978 -0.000978 -0.999999 0.000000
135.70300293 229.21899414 187.50000000 -0.160678 -0.806394 -0.569131 0.000000
138.51600647 160.31199646 117.50000000 0.609947 -0.076424 0.788749 0.000000
189.14100647 153.28100586 152.50000000 -0.316218 0.408770 -0.856103 0.000000
88.59380341 154.68800354 57.50000000 -0.805674 -0.291682 0.515568 0.000000
106.87500000 124.45300293 87.50000000 -0.654910 -0.424942 0.624914 0.000000
85.78119659 247.14799500 160.00000000 0.335345 -0.784611 -0.521469 0.000000
130.78100586 135.70300293 202.50000000 -0.000978 -0.000978 -0.999999 0.000000
83.67189789 180.00000000 57.50000000 -0.841310 -0.309465 0.443204 0.000000
99.49220276 215.15600586 200.00000000 0.347934 -0.619093 -0.704035 0.000000
160.31199646 108.28099823 87.50000000 -0.669472 -0.023860 0.742454 0.000000
215.85899353 106.52300262 115.00000000 0.078099 0.839208 -0.538173 0.000000
122.34400177 257.34399414 107.50000000 -0.000978 -0.000978 0.999999 0.000000
112.50000000 112.50000000 187.50000000 0.740653 0.596057 0.310078 0.000000
151.17199707 125.85900116 82.50000000 0.000978 0.000978 0.999999 0.000000
100.54699707 110.39099884 177.50000000 0.000978 0.000978 -0.999999 0.000000
233.43800354 145.54699707 142.50000000 -0.000978 -0.000978 -0.999999 0.000000
101.95300293 162.42199707 77.50000000 0.000978 0.000978 0.999999 0.000000
121.64099884 154.68800354 212.50000000 -0.962562 -0.001205 -0.271059 0.000000
85.07810211 116.01599884 167.50000000 0.629157 0.776196 -0.041001 0.000000
139.21899414 260.85900879 112.50000000 0.000978 0.000978 0.999999 0.000000
140.27299500 189.84399414 100.00000000 -0.328870 0.487745 0.808671 0.000000
87.18750000 249.60899353 87.50000000 -0.032445 0.703908 0.709550 0.000000
86.48439789 220.78100586 82.50000000 -0.264521 -0.230931 0.936322 0.000000
152.57800293 171.56199646 117.50000000 0.000978 0.000978 0.999999 0.000000
144.84399414 136.40600586 192.50000000 -0.950412 0.103849 -0.293142 0.000000
170.85899353 229.21899414 157.50000000 -0.817758 -0.001361 -0.575560 0.000000
130.07800293 210.23399353 202.50000000 -0.000978 -0.000978 -0.999999 0.000000
150.46899414 135.35200500 190.00000000 -0.607340 0.110292 -0.786749 0.000000
64.68750000 220.78100586 142.50000000 0.941712 -0.335142 -0.029309 0.000000
116.01599884 240.46899414 102.50000000 0.000978 0.000978 0.999999 0.000000
220.78100586 131.48399353 137.50000000 -0.000978 -0.000978 -0.999999 0.000000
151.17199707 168.75000000 197.50000000 -0.165621 -0.033587 -0.985617 0.000000
146.25000000 134.29699707 82.50000000 0.415064 -0.200932 0.887327 0.000000
106.87500000 146.25000000 87.50000000 -0.000978 -0.000978 0.999999 0.000000
84.37500000 163.12500000 52.50000000 -0.920631 -0.167260 0.352792 0.000000
74.53119659 235.54699707 152.50000000 0.929195 -0.236188 -0.284274 0.000000
74.53119659 237.65600586 77.50000000 -0.320221 -0.290708 0.901636 0.000000
139.92199707 101.60199738 140.00000000 -0.349075 0.936449 0.034779 0.000000
195.46899414 113.90599823 127.50000000 -0.000978 -0.000978 -0.999999 0.000000
116.36699677 103.35900116 95.00000000 0.194778 0.971343 0.136217 0.000000
69.60939789 144.14100647 42.50000000 0.807486 0.482580 0.339240 0.000000
137.10899353 113.20300293 182.50000000 -0.571473 0.642275 -0.510785 0.000000
198.98399353 158.20300293 147.50000000 -0.166164 0.824833 -0.540408 0.000000
167.34399414 161.71899414 117.50000000 0.000978 0.000978 0.999999 0.000000
80.85939789 144.14100647 42.50000000 0.990125 0.001104 -0.140185 0.000000
197.57800293 164.53100586 92.50000000 0.000978 0.000978 0.999999 0.000000
143.43800354 141.32800293 197.50000000 -0.187668 0.411705 -0.891785 0.000000
213.75000000 111.09400177 82.50000000 0.000978 0.000978 0.999999 0.000000
90.00000000 151.87500000 212.50000000 -0.000978 -0.000978 -0.999999 0.000000
118.12500000 267.89099121 147.50000000 0.107524 -0.752667 -0.649562 0.000000
139.92199707 179.29699707 102.50000000 -0.119446 0.102889 0.987495 0.000000
127.26599884 155.39100647 207.50000000 -0.146105 -0.455673 -0.878075 0.000000
142.03100586 198.28100586 202.50000000 -0.000978 -0.000978 -0.999999 0.000000
175.78100586 131.48399353 82.50000000 0.000978 0.000978 0.999999 0.000000
91.05470276 236.25000000 180.00000000 0.492557 -0.836272 -0.240908 0.000000
208.12500000 155.39100647 92.50000000 -0.575528 -0.055149 0.815920 0.000000
104.76599884 154.68800354 82.50000000 0.000978 0.000978 0.999999 0.000000
58.71089935 149.76600647 120.00000000 0.940741 0.312678 -0.131298 0.000000
131.48399353 263.67199707 152.50000000 -0.346154 -0.520036 -0.780859 0.000000
187.73399353 185.62500000 92.50000000 0.000978 0.000978 0.999999 0.000000
182.10899353 125.15599823 142.50000000 0.439570 0.708288 -0.552365 0.000000
55.54690170 153.98399353 92.50000000 0.940741 0.312678 -0.131298 0.000000
226.40600586 170.15600586 147.50000000 0.000978 0.000978 -0.999999 0.000000
175.78100586 125.15599823 82.50000000 0.000978 0.000978 0.999999 0.000000
132.53900146 176.48399353 100.00000000 -0.763955 -0.123123 0.633415 0.000000
57.65620041 188.43800354 142.50000000 0.990125 -0.001104 -0.140185 0.000000
55.89839935 163.12500000 125.00000000 0.950746 0.237347 -0.199372 0.000000
73.82810211 151.87500000 197.50000000 -0.304332 -0.503015 -0.808924 0.000000
170.85899353 205.31199646 127.50000000 -0.693240 -0.050028 0.718968 0.000000
109.68800354 217.26600647 197.50000000 -0.396611 -0.447994 -0.801250 0.000000
61.17190170 140.27299500 90.00000000 0.915502 0.378780 0.135578 0.000000
91.40619659 227.10899353 187.50000000 0.308332 -0.560749 -0.768434 0.000000
158.55499268 174.37500000 110.00000000 0.344263 0.618368 0.706473 0.000000
108.28099823 187.03100586 87.50000000 -0.315978 -0.107992 0.942600 0.000000
216.56199646 127.96900177 92.50000000 -0.390068 -0.374403 0.841231 0.000000
74.17970276 127.26599884 160.00000000 0.703673 0.703673 -0.098426 0.000000
149.06199646 233.43800354 177.50000000 -0.264385 -0.441661 -0.857342 0.000000
167.34399414 206.36700439 120.00000000 -0.971343 -0.194778 0.136217 0.000000
79.45310211 185.62500000 57.50000000 -0.665820 -0.494753 0.558484 0.000000
69.96089935 198.28100586 185.00000000 0.948924 -0.135178 -0.285079 0.000000
151.87500000 172.96899414 197.50000000 -0.000978 -0.000978 -0.999999 0.000000
248.90600586 137.81199646 137.50000000 0.607460 0.122674 -0.784821 0.000000
135.70300293 197.57800293 97.50000000 0.000978 0.000978 0.999999 0.000000
144.14100647 267.18798828 112.50000000 -0.296497 -0.883472 0.362720 0.000000
80.85939789 147.65600586 42.50000000 0.871255 0.001330 -0.490829 0.000000
92.10939789 111.09400177 87.50000000 0.436166 0.885374 0.160845 0.000000
94.92189789 267.89099121 107.50000000 0.571089 -0.813546 -0.109544 0.000000
82.96880341 187.73399353 202.50000000 -0.000978 -0.000978 -0.999999 0.000000
85.07810211 236.25000000 172.50000000 0.667554 -0.453401 -0.590593 0.000000
111.09400177 107.57800293 177.50000000 -0.000978 -0.000978 -0.999999 0.000000
191.95300293 106.17199707 117.50000000 -0.310682 0.940186 -0.139739 0.000000
66.09380341 138.51600647 147.50000000 0.900840 0.417394 -0.119456 0.000000
154.68800354 187.73399353 102.50000000 0.000978 0.000978 0.999999 0.000000
179.29699707 203.90600586 157.50000000 -0.686120 -0.380081 -0.620305 0.000000
167.34399414 229.92199707 122.50000000 -0.510371 0.161248 0.844701 0.000000
177.89100647 192.30499268 120.00000000 -0.445808 0.890218 -0.093634 0.000000
51.32809830 198.28100586 62.50000000 0.934813 -0.262084 0.239660 0.000000
162.77299500 253.12500000 135.00000000 -0.954536 -0.290845 -0.065344 0.000000
113.20300293 147.65600586 212.50000000 -0.000978 -0.000978 -0.999999 0.000000
126.56199646 236.25000000 107.50000000 0.000978 0.000978 0.999999 0.000000
109.68800354 171.56199646 87.50000000 -0.944596 -0.006239 0.328175 0.000000
118.12500000 139.21899414 102.50000000 0.000978 0.000978 -0.999999 0.000000
120.93800354 233.43800354 187.50000000 -0.026683 -0.731682 -0.681124 0.000000
205.31199646 106.17199707 117.50000000 -0.262251 0.789894 -0.554339 0.000000
235.54699707 162.42199707 117.50000000 0.622138 0.775098 -0.110308 0.000000
112.50000000 116.71900177 192.50000000 -0.000978 -0.000978 -0.999999 0.000000
127.26599884 155.03900146 210.00000000 -0.207290 -0.506876 -0.836724 0.000000
153.28100586 217.96899414 187.50000000 -0.000978 -0.000978 -0.999999 0.000000
171.56199646 192.65600586 127.50000000 0.000978 0.000978 0.999999 0.000000
50.27339935 201.79699707 105.00000000 0.990125 -0.001104 -0.140185 0.000000
120.93800354 241.52299500 180.00000000 -0.241160 -0.714022 -0.657278 0.000000
89.29689789 112.14800262 165.00000000 0.586177 0.783108 -0.207700 0.000000
79.45310211 237.30499268 160.00000000 0.607869 -0.506838 -0.611237 0.000000
156.09399414 217.26600647 107.50000000 0.000978 0.000978 0.999999 0.000000
77.69529724 137.10899353 190.00000000 0.828495 0.531855 -0.175287 0.000000
241.17199707 144.14100647 122.50000000 -0.000978 -0.000978 -0.999999 0.000000
184.21899414 194.76600647 97.50000000 0.939044 -0.212221 0.270478 0.000000
