187.47700500 164.45300293 138.75000000 -0.150349 -0.259451 0.953981 0.000000
110.18399811 265.59201050 116.25000000 0.950151 -0.001232 -0.311788 0.000000
157.46400452 254.90199280 217.50000000 0.365883 0.314265 0.875995 0.000000
77.70410156 267.23599243 142.50000000 -0.702468 0.702468 0.114355 0.000000
92.09380341 245.03500366 216.25000000 -0.714027 0.558300 0.422452 0.000000
235.99000549 170.20899963 178.75000000 0.162579 -0.418676 0.893464 0.000000
131.56300354 249.14700317 133.75000000 0.523848 0.393294 -0.755581 0.000000
82.22660065 272.58099365 137.50000000 -0.779487 0.619218 -0.094704 0.000000
204.74400330 131.15100098 182.50000000 0.312541 -0.090993 0.945536 0.000000
87.16020203 187.47700500 88.75000000 0.179101 -0.126498 -0.975664 0.000000
138.14100647 276.28100586 216.25000000 0.000978 0.000978 0.999999 0.000000
91.27149963 274.22601318 115.00000000 -0.701656 0.548325 -0.454993 0.000000
136.49600220 212.96699524 231.25000000 0.440434 0.058634 0.895868 0.000000
83.45999908 150.47500610 137.50000000 -0.936648 -0.336336 0.097819 0.000000
158.69700623 190.76600647 156.25000000 -0.224249 0.417311 0.880661 0.000000
179.25399780 115.11699677 181.25000000 -0.088466 -0.095359 0.991504 0.000000
139.78500366 203.92199707 231.25000000 0.000978 0.000978 0.999999 0.000000
139.78500366 294.37100220 203.75000000 0.012164 0.855516 0.517634 0.000000
114.70600128 300.12701416 147.50000000 -0.472017 0.878976 0.067827 0.000000
88.80470276 148.83000183 106.25000000 0.821634 0.175742 -0.542248 0.000000
76.05960083 168.56500244 120.00000000 -0.968356 -0.121204 0.218167 0.000000
103.60600281 292.72698975 181.25000000 -0.669883 0.559075 0.488561 0.000000
87.16020203 207.62199402 217.50000000 -0.600415 -0.358286 0.714936 0.000000
161.16400146 95.38289642 143.75000000 -0.435714 -0.366000 0.822312 0.000000
98.67189789 240.10200500 226.25000000 -0.593776 0.245971 0.766112 0.000000
84.28230286 272.17001343 127.50000000 -0.718383 0.519293 -0.462884 0.000000
163.63099670 170.20899963 161.25000000 0.000978 0.000978 0.999999 0.000000
76.88189697 242.56799316 187.50000000 -0.931179 0.229625 0.283157 0.000000
136.49600220 298.48300171 126.25000000 -0.016597 0.358759 -0.933283 0.000000
102.78299713 249.96899414 223.75000000 -0.647929 0.546953 0.530123 0.000000
177.60899353 282.85900879 191.25000000 0.699008 0.079928 0.710633 0.000000
140.60699463 101.96099854 166.25000000 -0.856795 -0.430697 0.283555 0.000000
67.42579651 166.09800720 88.75000000 0.370074 -0.404719 -0.836210 0.000000
95.38289642 187.47700500 96.25000000 0.613805 -0.395416 -0.683293 0.000000
68.24810028 171.85400391 101.25000000 -0.934512 0.032225 0.354470 0.000000
157.05299377 213.78900146 126.25000000 0.618352 0.297130 -0.727567 0.000000
191.99899292 198.98800659 187.50000000 -0.815214 -0.378093 -0.438716 0.000000
169.38699341 219.54499817 141.25000000 0.815189 0.245949 -0.524382 0.000000
59.61429977 212.14500427 65.00000000 -0.864265 -0.207483 -0.458254 0.000000
161.98599243 226.53399658 140.00000000 0.394614 0.681905 -0.615861 0.000000
160.34199524 191.58799744 156.25000000 -0.252497 0.430908 0.866351 0.000000
124.98400116 285.32598877 213.75000000 0.006800 0.556256 0.830983 0.000000
179.66499329 249.96899414 197.50000000 0.703778 0.422267 0.571302 0.000000
74.82620239 188.29899597 191.25000000 -0.972454 -0.093625 0.213466 0.000000
111.82800293 272.99200439 218.75000000 -0.221149 0.784072 0.579935 0.000000
182.54299927 106.07199860 173.75000000 -0.162103 -0.637806 0.752945 0.000000
76.47070313 152.94099426 108.75000000 -0.688576 -0.688576 0.227434 0.000000
81.40429688 181.72099304 88.75000000 0.582341 -0.321013 -0.746880 0.000000
96.20510101 154.99699402 197.50000000 -0.505364 -0.757229 0.413777 0.000000
150.47500610 267.64801025 217.50000000 0.301154 0.277876 0.912190 0.000000
194.87699890 178.43200684 143.75000000 0.083147 -0.692892 0.716231 0.000000
143.07400513 233.52400208 131.25000000 0.549932 0.398906 -0.733790 0.000000
113.47299957 119.22899628 161.25000000 -0.615555 -0.527859 0.585198 0.000000
174.73199463 211.32200623 205.00000000 0.737809 -0.159076 0.655998 0.000000
168.56500244 260.65798950 163.75000000 0.470296 0.280936 -0.836599 0.000000
78.11530304 266.41400146 166.25000000 -0.864984 0.442304 0.237003 0.000000
142.25199890 150.47500610 133.75000000 -0.886579 0.148003 0.438260 0.000000
154.58599854 125.80699921 141.25000000 0.066586 0.417180 0.906381 0.000000
111.00599670 202.27699280 231.25000000 -0.392587 0.043621 0.918680 0.000000
138.55200195 127.45099640 177.50000000 -0.235009 -0.300526 0.924367 0.000000
208.85600281 107.71700287 171.25000000 -0.504937 0.009425 0.863105 0.000000
180.07600403 194.87699890 198.75000000 0.281473 -0.219857 0.934043 0.000000
150.88600159 264.76998901 155.00000000 0.423792 0.107696 -0.899334 0.000000
185.83200073 230.23399353 193.75000000 0.838752 0.220724 0.497771 0.000000
115.11699677 240.10200500 118.75000000 0.581297 0.464032 -0.668407 0.000000
117.58399963 301.35998535 167.50000000 -0.412039 0.907580 0.080765 0.000000
77.29299927 152.94099426 111.25000000 -0.950151 0.001232 0.311788 0.000000
102.78299713 293.13800049 132.50000000 -0.746399 0.664563 -0.035274 0.000000
88.80470276 152.11900330 108.75000000 0.757765 0.136009 -0.638196 0.000000
124.16200256 123.33999634 143.75000000 -0.805309 0.366632 0.465895 0.000000
90.44930267 283.27099609 150.00000000 -0.729631 0.662609 -0.169079 0.000000
76.47070313 163.63099670 118.75000000 -0.959940 -0.148390 0.237687 0.000000
171.85400391 208.85600281 208.75000000 0.556576 -0.820914 -0.127763 0.000000
191.58799744 141.42999268 151.25000000 -0.442748 0.285395 0.850014 0.000000
115.94000244 180.07600403 228.75000000 -0.259178 -0.513701 0.817886 0.000000
77.29299927 191.58799744 81.25000000 0.504668 -0.672332 -0.541554 0.000000
134.02900696 129.09599304 176.25000000 -0.217239 -0.343841 0.913554 0.000000
153.76400757 181.72099304 216.25000000 0.693136 -0.492711 0.526115 0.000000
103.60600281 289.84899902 125.00000000 -0.284301 0.855976 -0.431830 0.000000
220.77799988 169.38699341 162.50000000 -0.644768 0.092110 0.758808 0.000000
134.85200500 193.23300171 231.25000000 0.254671 -0.141191 0.956665 0.000000
152.94099426 306.70498657 146.25000000 0.288987 0.899565 -0.327519 0.000000
165.27499390 170.20899963 161.25000000 0.292061 0.829328 0.476356 0.000000
78.11530304 215.43400574 63.75000000 0.558192 -0.254861 -0.789600 0.000000
173.49800110 247.50199890 161.25000000 0.527128 0.256567 -0.810129 0.000000
78.93750000 254.08000183 113.75000000 -0.839305 0.429812 -0.332909 0.000000
152.11900330 272.99200439 213.75000000 0.493673 0.147955 0.856969 0.000000
148.00799561 286.97100830 143.75000000 0.348027 -0.622527 -0.700955 0.000000
153.76400757 127.45099640 141.25000000 -0.045169 0.477692 0.877366 0.000000
231.87899780 171.03100586 168.75000000 -0.508944 -0.006714 0.860773 0.000000
107.71700287 211.32200623 228.75000000 -0.245256 -0.326524 0.912815 0.000000
143.48500061 190.76600647 125.00000000 0.842198 -0.524002 -0.126986 0.000000
146.36300659 90.86039734 145.00000000 -0.267649 -0.915793 0.299477 0.000000
152.94099426 196.52200317 223.75000000 0.708077 0.035333 0.705251 0.000000
78.52639771 233.52400208 195.00000000 -0.802864 0.594766 0.040776 0.000000
115.11699677 140.60699463 128.75000000 -0.424882 0.208740 0.880853 0.000000
152.11900330 90.86039734 150.00000000 -0.329840 -0.900774 0.282509 0.000000
212.96699524 117.58399963 181.25000000 -0.807948 0.391975 -0.439972 0.000000
101.55000305 172.67599487 110.00000000 0.720323 -0.606502 -0.336584 0.000000
184.18800354 280.39300537 171.25000000 0.308706 0.928937 -0.204394 0.000000
199.81100464 205.97799683 177.50000000 -0.068943 -0.848422 -0.524812 0.000000
74.82620239 240.51300049 112.50000000 -0.942231 0.247664 -0.225527 0.000000
138.96299744 231.87899780 231.25000000 0.051415 -0.126823 0.990592 0.000000
156.23100281 176.78700256 153.75000000 0.184381 -0.370192 -0.910473 0.000000
111.00599670 131.56300354 171.25000000 -0.401059 -0.199800 0.893997 0.000000
108.53900146 275.45901489 211.25000000 -0.324854 0.833322 0.447263 0.000000
101.55000305 284.50399780 202.50000000 -0.647885 0.550281 0.526722 0.000000
149.65199280 290.26000977 141.25000000 0.394695 -0.678744 -0.619292 0.000000
111.82800293 129.50700378 170.00000000 -0.401059 -0.199800 0.893997 0.000000
88.39360046 148.83000183 175.00000000 -0.550441 -0.768692 0.325771 0.000000
142.25199890 149.24099731 185.00000000 -0.187096 -0.324956 0.927038 0.000000
71.94830322 250.79100037 130.00000000 -0.502432 0.251989 -0.827081 0.000000
80.99320221 218.72300720 65.00000000 0.649558 -0.348503 -0.675737 0.000000
75.23729706 159.52000427 110.00000000 -0.868478 -0.223494 0.442489 0.000000
159.52000427 196.52200317 153.75000000 -0.269353 0.421530 0.865887 0.000000
99.49420166 231.87899780 228.75000000 -0.711237 0.001381 0.702951 0.000000
183.36500549 111.82800293 178.75000000 -0.204077 -0.509436 0.835959 0.000000
111.82800293 249.96899414 228.75000000 -0.430300 0.702767 0.566534 0.000000
216.25599670 191.58799744 181.25000000 -0.447970 -0.804420 -0.390168 0.000000
84.69339752 156.23100281 186.25000000 -0.712527 -0.652224 0.258668 0.000000
102.37200165 247.50199890 85.00000000 0.950610 -0.267569 -0.157314 0.000000
212.96699524 132.79600525 167.50000000 -0.234788 0.294552 0.926344 0.000000
69.89260101 162.80900574 91.25000000 -0.144100 -0.568972 -0.809633 0.000000
157.87500000 89.21589661 147.50000000 -0.127651 -0.944617 0.302331 0.000000
199.81100464 117.17299652 182.50000000 0.273046 -0.685011 0.675430 0.000000
212.14500427 157.87500000 158.75000000 -0.606585 0.296090 0.737825 0.000000
156.23100281 157.87500000 188.75000000 -0.000978 -0.000978 0.999999 0.000000
174.32000732 161.16400146 191.25000000 0.000978 0.000978 0.999999 0.000000
80.17089844 242.56799316 95.00000000 -0.871786 0.407844 -0.271391 0.000000
137.31799316 307.93899536 152.50000000 0.687090 0.690220 0.226943 0.000000
214.61099243 164.45300293 158.75000000 -0.612284 0.264216 0.745183 0.000000
148.83000183 307.11599731 180.00000000 -0.001232 0.950151 0.311788 0.000000
77.70410156 232.70100403 192.50000000 -0.802864 0.594766 0.040776 0.000000
120.87300110 293.95999146 122.50000000 -0.155926 0.869982 -0.467779 0.000000
116.76200104 299.30499268 131.25000000 -0.198723 0.916415 -0.347408 0.000000
86.74909973 275.45901489 127.50000000 -0.743982 0.624944 -0.236508 0.000000
189.12100220 97.02739716 156.25000000 -0.607340 -0.110292 0.786749 0.000000
98.26080322 288.61499023 177.50000000 -0.876369 0.292123 0.382938 0.000000
225.30099487 182.54299927 181.25000000 0.000978 0.000978 0.999999 0.000000
152.11900330 133.20700073 138.75000000 0.000978 0.000978 0.999999 0.000000
180.07600403 210.50000000 168.75000000 0.975938 0.217791 -0.010595 0.000000
215.84500122 148.00799561 165.00000000 -0.711237 -0.001381 0.702951 0.000000
111.00599670 157.05299377 136.25000000 0.533982 0.428178 -0.729059 0.000000
116.76200104 198.16600037 106.25000000 0.528869 -0.249701 -0.811139 0.000000
159.52000427 256.13598633 157.50000000 0.592266 0.235969 -0.770415 0.000000
87.98249817 254.90199280 96.25000000 -0.708110 0.531499 -0.464853 0.000000
209.26699829 207.21099854 162.50000000 -0.965467 -0.257705 0.038224 0.000000
112.65000153 186.65400696 228.75000000 -0.377713 -0.261264 0.888298 0.000000
71.12599945 194.05499268 165.00000000 -0.972739 -0.193536 -0.127759 0.000000
71.94830322 220.36700439 102.50000000 -0.974335 0.225028 -0.005891 0.000000
169.38699341 189.94299316 161.25000000 -0.526253 0.408215 0.745935 0.000000
95.38289642 219.54499817 81.25000000 0.816383 -0.150191 -0.557639 0.000000
95.38289642 280.39300537 118.75000000 -0.638778 0.632107 -0.438639 0.000000
207.21099854 201.45500183 176.25000000 -0.902453 0.095652 -0.420036 0.000000
61.66989899 176.78700256 88.75000000 -0.890844 0.111180 0.440496 0.000000
149.24099731 269.70300293 155.00000000 0.594973 0.082115 -0.799540 0.000000
199.39999390 209.67799377 152.50000000 0.827735 0.127457 0.546452 0.000000
145.54100037 185.00999451 226.25000000 0.517441 -0.517441 0.681549 0.000000
144.71899414 169.38699341 131.25000000 0.132933 -0.341240 0.930529 0.000000
80.58209991 158.28599548 162.50000000 -0.885213 -0.441887 -0.145376 0.000000
167.74200439 149.65199280 188.75000000 -0.393634 -0.368542 0.842157 0.000000
73.59279633 205.56599426 192.50000000 -0.962540 -0.193033 0.190407 0.000000
176.78700256 291.08200073 163.75000000 0.713223 -0.375467 -0.591893 0.000000
78.93750000 151.29699707 116.25000000 -0.950151 0.001232 0.311788 0.000000
134.02900696 226.12300110 231.25000000 0.000978 0.000978 0.999999 0.000000
109.36100006 214.61099243 98.75000000 0.772805 0.616135 -0.152151 0.000000
113.88400269 135.67399597 130.00000000 -0.478091 0.253650 0.840887 0.000000
164.04200745 250.79100037 157.50000000 0.484006 0.346632 -0.803483 0.000000
143.48500061 163.63099670 202.50000000 0.624590 -0.720927 0.300253 0.000000
97.43849945 284.50399780 190.00000000 -0.742131 0.654821 0.143007 0.000000
112.65000153 171.03100586 221.25000000 -0.290746 -0.567194 0.770557 0.000000
182.13200378 189.94299316 145.00000000 -0.637927 -0.637927 -0.431392 0.000000
195.69900513 123.33999634 183.75000000 0.000978 0.000978 0.999999 0.000000
94.97170258 218.72300720 80.00000000 0.848522 -0.167335 -0.502005 0.000000
138.14100647 144.30799866 182.50000000 -0.228259 -0.419220 0.878722 0.000000
129.09599304 237.63499451 233.75000000 0.267623 0.276210 0.923085 0.000000
95.38289642 203.92199707 86.25000000 0.575718 -0.144301 -0.804815 0.000000
177.19799805 207.21099854 202.50000000 0.372162 -0.290799 0.881437 0.000000
159.52000427 285.32598877 203.75000000 0.451495 0.477764 0.753587 0.000000
216.25599670 166.91999817 158.75000000 -0.535454 0.357508 0.765165 0.000000
166.91999817 120.05100250 148.75000000 -0.481088 0.517710 0.707482 0.000000
146.36300659 256.54699707 221.25000000 0.000978 0.000978 0.999999 0.000000
211.32200623 112.65000153 173.75000000 -0.788769 0.611902 -0.058480 0.000000
106.89499664 290.26000977 188.75000000 -0.816721 0.467830 0.337789 0.000000
119.22899628 161.16400146 213.75000000 -0.052840 -0.735472 0.675492 0.000000
146.36300659 248.32400513 143.75000000 0.666698 0.352187 -0.656870 0.000000
72.77050018 224.47900391 85.00000000 -0.511740 0.851940 -0.110997 0.000000
177.60899353 284.50399780 191.25000000 0.711237 -0.001381 0.702951 0.000000
204.74400330 124.98400116 166.25000000 -0.502169 0.280026 0.818176 0.000000
167.74200439 194.87699890 208.75000000 0.752729 -0.306549 0.582603 0.000000
188.29899597 231.87899780 188.75000000 0.910114 0.145336 0.388033 0.000000
71.94830322 223.65600586 82.50000000 -0.810085 0.578218 0.097094 0.000000
102.37200165 169.38699341 127.50000000 0.851247 -0.524368 0.020430 0.000000
114.70600128 231.87899780 112.50000000 0.652491 0.432213 -0.622453 0.000000
188.29899597 122.51799774 183.75000000 0.000978 0.000978 0.999999 0.000000
78.93750000 190.76600647 81.25000000 0.399535 -0.651525 -0.644893 0.000000
166.91999817 145.54100037 186.25000000 -0.372043 -0.419538 0.827993 0.000000
139.78500366 242.15699768 230.00000000 0.688576 0.688576 0.227434 0.000000
151.29699707 287.38198853 145.00000000 0.348027 -0.622527 -0.700955 0.000000
91.27149963 141.42999268 158.75000000 -0.726302 -0.668683 0.159210 0.000000
140.19599915 111.82800293 142.50000000 -0.186543 -0.391886 0.900903 0.000000
138.14100647 152.94099426 186.25000000 0.186343 -0.679151 0.709951 0.000000
170.20899963 251.61300659 206.25000000 0.672544 0.139925 0.726709 0.000000
143.07400513 164.45300293 131.25000000 0.000978 0.000978 0.999999 0.000000
92.50489807 242.56799316 220.00000000 -0.682729 0.518337 0.514983 0.000000
131.97399902 270.52600098 140.00000000 0.368080 0.219684 -0.903469 0.000000
156.23100281 98.26080322 165.00000000 -0.152435 -0.744062 0.650488 0.000000
182.54299927 97.02739716 156.25000000 0.398776 0.466584 0.789479 0.000000
222.01199341 166.09800720 181.25000000 0.000978 0.000978 0.999999 0.000000
217.89999390 142.25199890 181.25000000 0.000978 0.000978 0.999999 0.000000
193.64399719 120.87300110 160.00000000 -0.736914 -0.226863 0.636781 0.000000
64.13670349 175.14300537 83.75000000 0.294370 -0.568054 -0.768544 0.000000
124.98400116 205.56599426 108.75000000 0.548903 -0.130971 -0.825562 0.000000
120.46199799 265.59201050 130.00000000 0.746462 -0.230042 -0.624399 0.000000
179.25399780 130.74000549 148.75000000 -0.473784 0.355737 0.805593 0.000000
80.99320221 180.07600403 202.50000000 -0.644658 -0.523469 0.557132 0.000000
108.53900146 266.41400146 221.25000000 -0.351370 0.268346 0.896956 0.000000
231.05700684 151.29699707 176.25000000 0.599071 0.029325 0.800158 0.000000
105.25000000 152.52999878 130.00000000 0.644768 0.092110 -0.758808 0.000000
157.87500000 259.01400757 216.25000000 0.374085 0.358563 0.855274 0.000000
207.21099854 149.65199280 186.25000000 0.348485 0.095531 0.932433 0.000000
101.13899994 152.11900330 196.25000000 -0.330488 -0.865418 0.376603 0.000000
145.54100037 162.80900574 196.25000000 0.269797 -0.780991 0.563260 0.000000
186.65400696 265.59201050 183.75000000 0.971447 0.109618 0.210417 0.000000
73.59279633 254.08000183 130.00000000 -0.922430 0.346789 -0.169884 0.000000
97.84970093 147.59700012 182.50000000 -0.232115 -0.924187 0.303316 0.000000
202.68899536 187.47700500 187.50000000 0.430214 0.069654 0.900036 0.000000
116.76200104 185.00999451 113.75000000 0.538328 -0.268379 -0.798859 0.000000
130.74000549 157.05299377 131.25000000 0.188814 -0.279776 0.941315 0.000000
138.14100647 243.39100647 231.25000000 0.004140 -0.757592 0.652716 0.000000
208.85600281 196.93299866 180.00000000 -0.527547 -0.810772 -0.253658 0.000000
170.20899963 249.55799866 207.50000000 0.789865 0.181106 0.585930 0.000000
173.49800110 219.54499817 208.75000000 0.628868 -0.079512 0.773436 0.000000
193.23300171 180.07600403 191.25000000 0.304103 0.084836 0.948854 0.000000
147.18600464 270.52600098 153.75000000 0.685079 -0.220037 -0.694442 0.000000
160.34199524 283.68200684 203.75000000 0.470326 0.450660 0.758748 0.000000
92.09380341 155.40800476 193.75000000 -0.505364 -0.757229 0.413777 0.000000
89.62699890 237.63499451 218.75000000 -0.795111 0.295598 0.529547 0.000000
158.69700623 277.10400391 158.75000000 0.610576 -0.546305 -0.573366 0.000000
92.50489807 134.85200500 150.00000000 -0.830276 -0.554923 0.051980 0.000000
213.78900146 134.85200500 166.25000000 -0.240788 0.294930 0.924682 0.000000
71.53710175 253.66900635 142.50000000 -0.904955 0.423738 0.038765 0.000000
92.91609955 272.99200439 111.25000000 -0.661291 0.584280 -0.470437 0.000000
212.96699524 148.83000183 183.75000000 0.573889 -0.091071 0.813853 0.000000
159.52000427 108.53900146 176.25000000 -0.018097 -0.627813 0.778154 0.000000
177.60899353 153.76400757 191.25000000 0.125207 -0.196032 0.972571 0.000000
87.57129669 257.36898804 205.00000000 -0.894676 0.259649 0.363508 0.000000
152.11900330 173.49800110 208.75000000 0.647506 -0.617389 0.446729 0.000000
205.56599426 181.72099304 146.25000000 -0.575760 -0.478401 0.663048 0.000000
87.98249817 272.17001343 188.75000000 -0.851527 0.473407 0.225360 0.000000
78.93750000 199.81100464 206.25000000 -0.880746 -0.067750 0.468717 0.000000
100.31600189 194.87699890 98.75000000 0.232018 -0.850732 -0.471618 0.000000
185.00999451 233.11199951 167.50000000 0.941196 0.134070 -0.310121 0.000000
71.12599945 214.61099243 100.00000000 -0.981948 0.178210 0.063390 0.000000
89.21589661 172.67599487 207.50000000 -0.690849 -0.415835 0.591446 0.000000
220.36700439 138.14100647 181.25000000 0.180151 -0.228192 0.956804 0.000000
142.25199890 185.00999451 228.75000000 0.517441 -0.517441 0.681549 0.000000
175.14300537 250.38000488 202.50000000 0.753059 0.434773 0.493836 0.000000
154.58599854 212.96699524 223.75000000 0.400705 -0.030217 0.915709 0.000000
196.52200317 172.67599487 141.25000000 0.000978 0.000978 0.999999 0.000000
145.54100037 296.83801270 198.75000000 0.231894 0.782837 0.577401 0.000000
80.58209991 264.76998901 176.25000000 -0.912546 0.320624 0.253888 0.000000
143.07400513 282.85900879 143.75000000 0.834745 0.001353 -0.550634 0.000000
70.30370331 238.45700073 127.50000000 -0.935932 0.158050 -0.314726 0.000000
97.84970093 161.98599243 116.25000000 0.869106 -0.335686 -0.363277 0.000000
89.62699890 225.30099487 221.25000000 -0.608633 0.061291 0.791081 0.000000
121.69499969 282.03698730 123.75000000 0.684468 -0.507076 -0.523811 0.000000
156.23100281 308.35000610 176.25000000 0.001232 0.950151 0.311788 0.000000
81.81549835 273.81500244 160.00000000 -0.809240 0.582135 0.079055 0.000000
107.71700287 289.84899902 202.50000000 -0.443204 0.841310 0.309465 0.000000
84.69339752 238.86799622 65.00000000 -0.277119 0.915510 -0.291628 0.000000
185.83200073 178.43200684 191.25000000 0.342460 -0.853827 0.392047 0.000000
184.18800354 203.92199707 141.25000000 0.075223 0.835971 -0.543594 0.000000
133.20700073 122.51799774 173.75000000 -0.303428 -0.492088 0.815954 0.000000
186.65400696 202.27699280 141.25000000 0.166206 0.721242 -0.672448 0.000000
111.82800293 274.63699341 216.25000000 -0.202491 0.820622 0.534394 0.000000
145.54100037 306.29400635 185.00000000 0.275958 0.934336 0.225529 0.000000
106.07199860 170.61999512 135.00000000 0.834745 0.001353 -0.550634 0.000000
75.23729706 168.56500244 92.50000000 0.527918 -0.368731 -0.765075 0.000000
173.49800110 241.74600220 206.25000000 0.657839 0.117312 0.743967 0.000000
134.85200500 302.59399414 188.75000000 -0.245194 0.788682 0.563791 0.000000
135.67399597 203.10000610 113.75000000 0.595979 0.191510 -0.779829 0.000000
163.63099670 254.90199280 158.75000000 0.443636 0.364132 -0.818899 0.000000
92.50489807 272.99200439 197.50000000 -0.950151 -0.001232 0.311788 0.000000
176.78700256 216.25599670 203.75000000 0.926946 -0.369983 0.062327 0.000000
89.62699890 239.69099426 65.00000000 -0.271441 0.851128 -0.449334 0.000000
94.56060028 148.41900635 182.50000000 -0.222281 -0.893541 0.390096 0.000000
143.89700317 146.36300659 183.75000000 -0.086102 -0.332485 0.939170 0.000000
110.18399811 245.85800171 113.75000000 0.865099 0.288366 -0.410426 0.000000
83.87110138 218.72300720 216.25000000 -0.711237 -0.001381 0.702951 0.000000
69.89260101 215.02299500 92.50000000 -0.917746 0.306876 0.252128 0.000000
139.78500366 276.28100586 216.25000000 0.000978 0.000978 0.999999 0.000000
111.82800293 212.14500427 101.25000000 0.269355 0.936462 0.224695 0.000000
102.37200165 128.27299500 162.50000000 -0.579595 -0.579595 0.572835 0.000000
83.87110138 144.30799866 120.00000000 -0.810263 -0.559790 0.173520 0.000000
124.98400116 263.12500000 223.75000000 0.243213 0.197016 0.949754 0.000000
185.83200073 253.25799561 176.25000000 0.949861 0.011204 -0.312471 0.000000
91.27149963 282.44799805 140.00000000 -0.767272 0.639156 0.052670 0.000000
103.60600281 169.38699341 218.75000000 -0.324510 -0.579597 0.747503 0.000000
212.96699524 180.89900208 153.75000000 -0.644768 0.092110 0.758808 0.000000
95.38289642 287.38198853 140.00000000 -0.445466 0.892310 0.073095 0.000000
159.52000427 141.01899719 185.00000000 -0.457439 -0.651809 0.604892 0.000000
71.12599945 230.23399353 172.50000000 -0.997310 0.033208 0.065345 0.000000
128.27299500 259.01400757 223.75000000 0.000978 0.000978 0.999999 0.000000
155.40800476 201.45500183 151.25000000 0.530338 0.229045 0.816260 0.000000
55.91410065 198.16600037 66.25000000 -0.143604 0.249001 -0.957798 0.000000
68.65920258 245.85800171 145.00000000 -0.897942 0.344679 -0.273673 0.000000
235.99000549 177.60899353 171.25000000 -0.566122 -0.040537 0.823324 0.000000
142.25199890 232.70100403 231.25000000 0.352494 0.089799 0.931496 0.000000
157.87500000 286.14898682 203.75000000 0.400205 0.471497 0.785828 0.000000
126.62899780 108.94999695 160.00000000 -0.828093 -0.291626 0.478766 0.000000
93.73829651 273.81500244 111.25000000 -0.746575 0.443330 -0.496069 0.000000
79.75980377 248.32400513 103.75000000 -0.803691 0.460398 -0.376981 0.000000
80.58209991 151.29699707 123.75000000 -0.879622 -0.450680 0.152159 0.000000
205.97799683 190.76600647 155.00000000 0.516850 0.687461 -0.510160 0.000000
228.17900085 171.85400391 167.50000000 -0.430916 -0.049981 0.901007 0.000000
166.09800720 185.00999451 161.25000000 -0.128749 0.425861 0.895581 0.000000
62.08110046 198.16600037 67.50000000 -0.032510 -0.373211 -0.927177 0.000000
194.87699890 138.96299744 186.25000000 0.475410 -0.705609 0.525453 0.000000
183.36500549 247.50199890 171.25000000 -0.236594 0.628305 -0.741118 0.000000
130.74000549 259.83599854 138.75000000 -0.000978 -0.000978 -0.999999 0.000000
76.05960083 179.25399780 132.50000000 -0.987767 -0.155010 -0.016972 0.000000
94.56060028 192.41000366 221.25000000 -0.686064 -0.319514 0.653626 0.000000
73.59279633 174.32000732 112.50000000 -0.918458 0.006441 0.395465 0.000000
133.20700073 301.77200317 128.75000000 0.677749 0.216568 0.702677 0.000000
99.49420166 165.27499390 116.25000000 0.880947 -0.312789 -0.355099 0.000000
171.85400391 297.24899292 187.50000000 0.519156 0.660286 0.542678 0.000000
87.98249817 138.14100647 118.75000000 -0.808255 -0.570095 0.147361 0.000000
75.23729706 178.43200684 142.50000000 -0.965622 -0.238535 -0.103323 0.000000
147.18600464 280.80398560 147.50000000 0.483325 -0.324857 -0.812936 0.000000
114.29499817 195.28799438 105.00000000 0.436081 -0.011857 -0.899829 0.000000
139.37399292 130.74000549 140.00000000 0.371717 0.236547 0.897704 0.000000
183.77600098 206.38900757 192.50000000 -0.928937 -0.308706 -0.204394 0.000000
157.05299377 129.09599304 181.25000000 -0.222405 -0.331455 0.916883 0.000000
82.22660065 227.76800537 211.25000000 -0.884984 0.188699 0.425670 0.000000
178.84300232 152.11900330 190.00000000 -0.023622 -0.292169 0.956075 0.000000
230.23399353 173.49800110 168.75000000 -0.497416 -0.009385 0.867461 0.000000
118.40599823 301.35998535 140.00000000 -0.446689 0.894688 0.001310 0.000000
177.60899353 148.00799561 136.25000000 -0.491237 0.151037 0.857831 0.000000
187.47700500 247.50199890 178.75000000 0.707853 -0.101542 -0.699023 0.000000
172.26499939 194.87699890 152.50000000 -0.767822 -0.531818 -0.357239 0.000000
109.36100006 192.41000366 103.75000000 0.416601 -0.461989 -0.782950 0.000000
183.36500549 107.71700287 176.25000000 -0.232612 -0.610411 0.757159 0.000000
186.65400696 144.30799866 145.00000000 -0.476157 0.492747 0.728337 0.000000
152.11900330 180.07600403 148.75000000 -0.350297 -0.584915 0.731551 0.000000
64.13670349 199.81100464 66.25000000 0.217473 -0.451444 -0.865392 0.000000
171.03100586 129.91799927 146.25000000 -0.230185 0.235698 0.944172 0.000000
205.56599426 138.96299744 161.25000000 -0.551220 0.329446 0.766565 0.000000
202.27699280 117.58399963 166.25000000 -0.511248 0.338161 0.790110 0.000000
162.80900574 106.89499664 173.75000000 -0.004113 -0.593615 0.804739 0.000000
178.43200684 171.85400391 193.75000000 0.579595 -0.579595 0.572835 0.000000
175.14300537 103.60600281 153.75000000 -0.674517 -0.185915 0.714466 0.000000
103.60600281 175.96499634 108.75000000 0.661032 -0.587398 -0.466906 0.000000
79.75980377 159.10800171 175.00000000 -0.707106 -0.707106 0.001384 0.000000
150.47500610 175.96499634 138.75000000 -0.449321 -0.679828 0.579607 0.000000
165.68699646 227.76800537 215.00000000 0.710892 0.035333 0.702413 0.000000
178.43200684 169.38699341 191.25000000 0.579595 -0.579595 0.572835 0.000000
71.12599945 205.56599426 112.50000000 -0.999496 -0.023434 0.021396 0.000000
60.84769821 200.63299561 66.25000000 -0.029724 -0.021524 -0.999326 0.000000
149.65199280 196.52200317 226.25000000 0.597729 -0.235658 0.766280 0.000000
203.10000610 208.03300476 173.75000000 -0.276051 -0.633482 -0.722839 0.000000
97.84970093 132.38499451 161.25000000 -0.552271 -0.413791 0.723722 0.000000
166.09800720 160.34199524 131.25000000 -0.000978 -0.000978 0.999999 0.000000
107.71700287 226.94500732 101.25000000 0.766543 0.126517 -0.629607 0.000000
101.13899994 280.39300537 206.25000000 -0.753390 0.310030 0.579901 0.000000
147.18600464 235.16799927 136.25000000 0.083605 0.335747 -0.938235 0.000000
152.94099426 107.71700287 146.25000000 -0.540620 -0.450794 0.710292 0.000000
164.45300293 108.53900146 176.25000000 -0.034901 -0.587730 0.808304 0.000000
57.55860138 201.45500183 66.25000000 -0.121172 0.251464 -0.960252 0.000000
134.44000244 280.39300537 137.50000000 0.618309 -0.493636 -0.611570 0.000000
107.71700287 293.54901123 186.25000000 -0.684412 0.577837 0.444618 0.000000
72.35939789 224.06700134 107.50000000 -0.977679 0.186166 -0.097398 0.000000
159.52000427 185.83200073 158.75000000 -0.310364 0.586957 0.747767 0.000000
81.40429688 162.39799500 190.00000000 -0.761017 -0.583075 0.284388 0.000000
62.49219894 201.45500183 66.25000000 -0.068606 -0.388766 -0.918779 0.000000
148.00799561 275.45901489 151.25000000 0.562928 -0.505795 -0.653669 0.000000
152.94099426 305.47198486 142.50000000 0.296307 0.858215 -0.419128 0.000000
198.98800659 97.43849945 167.50000000 -0.913332 -0.187240 0.361616 0.000000
152.11900330 221.60099792 127.50000000 0.587038 0.401832 -0.702792 0.000000
76.05960083 171.85400391 157.50000000 -0.894688 -0.446689 0.001310 0.000000
82.22660065 258.60299683 110.00000000 -0.765275 0.416088 -0.491147 0.000000
150.47500610 100.72799683 167.50000000 -0.001373 -0.789499 0.613750 0.000000
56.32519913 202.27699280 67.50000000 -0.143604 0.249001 -0.957798 0.000000
90.44930267 159.52000427 108.75000000 0.712794 -0.219921 -0.666002 0.000000
87.16020203 194.05499268 86.25000000 0.550506 -0.513469 -0.658250 0.000000
175.14300537 283.68200684 166.25000000 0.540190 -0.322190 -0.777424 0.000000
178.84300232 240.92399597 200.00000000 0.846664 0.072087 0.527222 0.000000
113.47299957 138.96299744 173.75000000 -0.208719 -0.319467 0.924325 0.000000
76.05960083 182.54299927 195.00000000 -0.960106 -0.134913 0.244938 0.000000
115.11699677 293.13800049 200.00000000 -0.194648 0.975719 0.100423 0.000000
208.44400024 204.74400330 172.50000000 -0.872769 -0.257761 -0.414528 0.000000
121.69499969 209.67799377 233.75000000 0.000978 0.000978 -0.999999 0.000000
116.76200104 299.30499268 191.25000000 -0.623894 0.692670 0.361891 0.000000
177.60899353 212.55599976 187.50000000 0.446689 -0.894688 0.001310 0.000000
71.94830322 205.56599426 182.50000000 -0.963599 0.069278 0.258219 0.000000
160.34199524 256.54699707 158.75000000 0.539965 0.247419 -0.804501 0.000000
105.25000000 266.00299072 92.50000000 0.816719 0.317525 -0.481817 0.000000
134.44000244 300.94900513 192.50000000 0.268838 0.914048 0.303714 0.000000
201.45500183 124.16200256 183.75000000 0.067864 0.120775 0.990357 0.000000
117.58399963 283.68200684 118.75000000 0.739648 -0.272000 -0.615578 0.000000
178.43200684 227.76800537 201.25000000 0.652173 0.195806 0.732346 0.000000
139.37399292 168.56500244 217.50000000 0.481900 -0.619586 0.619586 0.000000
121.69499969 291.90399170 118.75000000 -0.107182 0.861743 -0.495895 0.000000
185.00999451 248.32400513 171.25000000 0.535908 0.017727 -0.844090 0.000000
209.67799377 156.23100281 183.75000000 0.519223 -0.001342 0.854638 0.000000
81.40429688 211.32200623 213.75000000 -0.815422 0.183054 0.549162 0.000000
150.47500610 201.04400635 155.00000000 0.091454 -0.040769 0.994974 0.000000
154.58599854 273.81500244 213.75000000 0.490471 0.361823 0.792794 0.000000
101.13899994 245.03500366 226.25000000 -0.530932 0.371814 0.761489 0.000000
115.94000244 188.29899597 231.25000000 -0.319621 -0.325624 0.889838 0.000000
175.14300537 202.68899536 202.50000000 0.463018 -0.280288 0.840865 0.000000
151.70799255 245.85800171 222.50000000 0.415143 0.289528 0.862456 0.000000
103.60600281 146.36300659 123.75000000 0.456952 0.587510 -0.667853 0.000000
138.96299744 120.05100250 176.25000000 -0.067320 -0.209305 0.975530 0.000000
87.16020203 143.48500061 140.00000000 -0.881325 -0.462450 0.096988 0.000000
109.36100006 295.60501099 127.50000000 -0.346601 0.925661 -0.151725 0.000000
167.74200439 189.94299316 203.75000000 0.572100 -0.419540 0.704761 0.000000
161.16400146 138.14100647 183.75000000 -0.171801 -0.328237 0.928841 0.000000
75.64849854 233.52400208 98.75000000 -0.926209 0.302117 -0.225524 0.000000
209.67799377 163.63099670 153.75000000 -0.632896 0.192487 0.749928 0.000000
178.84300232 233.52400208 157.50000000 0.559934 0.512853 -0.650735 0.000000
235.99000549 159.52000427 176.25000000 0.769776 -0.032367 0.637493 0.000000
75.64849854 253.25799561 171.25000000 -0.959567 0.235614 0.154005 0.000000
81.40429688 262.30300903 116.25000000 -0.688576 0.688576 -0.227434 0.000000
78.93750000 269.70300293 161.25000000 -0.818288 0.569803 0.075688 0.000000
71.53710175 203.51100159 67.50000000 0.617727 -0.503271 -0.604262 0.000000
208.44400024 208.85600281 157.50000000 -0.972375 -0.215945 0.088625 0.000000
153.76400757 259.83599854 156.25000000 0.275606 0.281378 -0.919167 0.000000
103.19400024 189.12100220 102.50000000 0.356535 -0.365795 -0.859696 0.000000
199.81100464 127.45099640 161.25000000 -0.360848 -0.720063 0.592705 0.000000
232.70100403 186.65400696 171.25000000 -0.428195 0.857924 -0.283928 0.000000
111.82800293 159.52000427 138.75000000 0.494348 0.343964 -0.798316 0.000000
161.98599243 265.59201050 211.25000000 0.458152 0.143082 0.877282 0.000000
133.20700073 157.87500000 131.25000000 -0.024594 -0.371502 0.928107 0.000000
75.23729706 239.27900696 185.00000000 -0.924187 0.232115 0.303316 0.000000
134.85200500 254.49099731 225.00000000 -0.014304 0.399208 0.916749 0.000000
100.31600189 271.34799194 211.25000000 -0.487010 0.784717 0.383460 0.000000
231.05700684 175.14300537 168.75000000 -0.544728 0.020582 0.838360 0.000000
193.23300171 174.32000732 188.75000000 0.329113 0.245023 0.911948 0.000000
78.11530304 261.48098755 123.75000000 -0.894688 0.446689 0.001310 0.000000
154.58599854 243.39100647 146.25000000 0.481375 0.371899 -0.793706 0.000000
198.16600037 179.25399780 188.75000000 0.000978 0.000978 0.999999 0.000000
96.61630249 138.96299744 165.00000000 -0.653401 -0.606611 0.452869 0.000000
194.05499268 198.98800659 183.75000000 -0.250298 -0.860115 -0.444469 0.000000
112.65000153 180.48699951 112.50000000 0.572623 -0.495377 -0.653226 0.000000
180.07600403 236.81300354 198.75000000 0.711908 0.049933 0.700495 0.000000
194.87699890 189.94299316 136.25000000 -0.001342 -0.519223 -0.854638 0.000000
171.03100586 225.30099487 208.75000000 0.623433 0.268092 0.734478 0.000000
151.29699707 256.54699707 221.25000000 0.322761 0.180243 0.929160 0.000000
208.85600281 192.41000366 161.25000000 0.661194 -0.199752 -0.723133 0.000000
199.81100464 115.94000244 181.25000000 0.273046 -0.685011 0.675430 0.000000
72.35939789 206.38900757 66.25000000 0.599913 -0.394984 -0.695767 0.000000
140.60699463 226.94500732 228.75000000 -0.032115 -0.599020 0.800090 0.000000
207.21099854 208.03300476 173.75000000 -0.527437 -0.335059 -0.780734 0.000000
192.41000366 152.94099426 143.75000000 -0.610737 0.376978 0.696339 0.000000
146.36300659 240.92399597 226.25000000 0.860857 0.191797 0.471316 0.000000
61.66989899 171.03100586 88.75000000 -0.782029 -0.616012 -0.094659 0.000000
149.65199280 147.18600464 133.75000000 0.000978 0.000978 0.999999 0.000000
80.99320221 269.70300293 170.00000000 -0.888850 0.387295 0.244842 0.000000
161.16400146 172.67599487 151.25000000 0.481926 -0.821002 -0.306110 0.000000
174.32000732 210.50000000 206.25000000 0.803248 -0.291947 0.519192 0.000000
171.03100586 195.28799438 155.00000000 -0.838856 -0.424916 -0.340246 0.000000
153.76400757 93.73829651 138.75000000 -0.668831 -0.622361 0.406609 0.000000
180.07600403 179.66499329 150.00000000 0.001232 -0.950151 0.311788 0.000000
57.96979904 208.03300476 67.50000000 -0.950636 0.310286 -0.003709 0.000000
182.54299927 136.49600220 148.75000000 -0.563728 0.724793 0.396089 0.000000
189.12100220 225.30099487 191.25000000 0.146764 -0.367610 0.918326 0.000000
201.45500183 198.16600037 183.75000000 -0.219480 -0.617967 -0.754947 0.000000
161.16400146 217.89999390 131.25000000 0.491206 0.507857 -0.707670 0.000000
165.27499390 157.87500000 188.75000000 -0.620453 0.097813 0.778120 0.000000
103.60600281 287.38198853 202.50000000 -0.612419 0.685051 0.394523 0.000000
77.70410156 160.34199524 125.00000000 -0.972853 -0.166159 0.161085 0.000000
174.73199463 201.45500183 202.50000000 0.954589 -0.297615 0.013584 0.000000
159.52000427 300.12701416 193.75000000 0.382240 0.838412 0.388532 0.000000
94.56060028 288.20401001 170.00000000 -0.688576 0.688576 0.227434 0.000000
106.07199860 216.25599670 231.25000000 -0.246187 -0.215929 0.944863 0.000000
82.63770294 212.14500427 215.00000000 -0.834707 0.124256 0.536493 0.000000
212.14500427 194.87699890 178.75000000 -0.593482 -0.782664 -0.187656 0.000000
129.09599304 248.32400513 231.25000000 0.146781 0.286829 0.946670 0.000000
69.48149872 208.85600281 152.50000000 -0.996569 -0.074662 -0.035708 0.000000
153.76400757 277.92599487 211.25000000 0.437975 0.402681 0.803757 0.000000
105.66100311 256.54699707 100.00000000 0.000978 0.000978 -0.999999 0.000000
117.58399963 238.45700073 118.75000000 0.461767 0.555121 -0.691818 0.000000
97.43849945 289.43798828 155.00000000 0.001353 0.834745 -0.550634 0.000000
143.89700317 207.21099854 156.25000000 0.695622 0.305041 0.650431 0.000000
127.45099640 305.47198486 172.50000000 -0.445466 0.892310 0.073095 0.000000
209.67799377 204.33299255 160.00000000 -0.964441 -0.258266 0.056145 0.000000
95.79399872 157.05299377 115.00000000 0.747974 -0.155639 -0.645222 0.000000
131.56300354 247.50199890 133.75000000 0.523848 0.393294 -0.755581 0.000000
129.09599304 298.48300171 126.25000000 -0.001381 0.711237 -0.702951 0.000000
73.59279633 229.41200256 182.50000000 -0.958745 0.023505 0.283294 0.000000
161.98599243 226.12300110 138.75000000 0.402039 0.620430 -0.673373 0.000000
181.30999756 240.10200500 165.00000000 0.787188 0.228238 -0.572924 0.000000
150.47500610 123.33999634 143.75000000 -0.046811 0.625566 0.778766 0.000000
104.42800140 295.19299316 178.75000000 -0.507076 0.694509 0.510423 0.000000
147.18600464 209.67799377 121.25000000 0.251989 0.502432 -0.827081 0.000000
175.14300537 161.98599243 133.75000000 -0.639545 0.026589 0.768294 0.000000
140.60699463 303.82699585 132.50000000 0.818080 0.409837 -0.403459 0.000000
59.61429977 191.58799744 82.50000000 -0.915671 0.316796 0.247361 0.000000
144.71899414 254.90199280 221.25000000 -0.000978 -0.000978 0.999999 0.000000
151.29699707 108.12799835 145.00000000 -0.332525 -0.302702 0.893196 0.000000
150.47500610 189.12100220 151.25000000 -0.646704 -0.340456 0.682542 0.000000
69.89260101 171.03100586 86.25000000 0.394416 -0.707968 -0.585848 0.000000
141.42999268 115.11699677 176.25000000 0.000978 0.000978 0.999999 0.000000
227.76800537 167.74200439 181.25000000 -0.000978 -0.000978 0.999999 0.000000
82.63770294 263.12500000 115.00000000 -0.688576 0.688576 -0.227434 0.000000
170.20899963 260.65798950 206.25000000 -0.490161 0.328360 0.807417 0.000000
221.19000244 129.09599304 178.75000000 0.336312 -0.321231 0.885271 0.000000
238.45700073 177.60899353 173.75000000 -0.677098 0.015357 0.735733 0.000000
138.14100647 247.09100342 137.50000000 0.296105 0.590610 -0.750667 0.000000
71.94830322 223.65600586 107.50000000 -0.977679 0.186166 -0.097398 0.000000
212.14500427 111.82800293 178.75000000 -0.906315 0.422600 0.001300 0.000000
69.48149872 222.83399963 122.50000000 -0.966141 0.084616 -0.243745 0.000000
136.49600220 305.88299561 186.25000000 -0.387427 0.680882 0.621531 0.000000
194.87699890 147.18600464 188.75000000 0.000978 0.000978 0.999999 0.000000
96.20510101 262.71398926 92.50000000 -0.682576 0.531637 -0.501450 0.000000
180.07600403 168.56500244 136.25000000 0.000978 0.000978 0.999999 0.000000
164.45300293 222.01199341 216.25000000 0.586714 0.253246 0.769177 0.000000
113.47299957 115.94000244 158.75000000 -0.622499 -0.544897 0.561767 0.000000
94.14949799 175.96499634 215.00000000 -0.686171 -0.213164 0.695507 0.000000
157.05299377 189.12100220 156.25000000 -0.238759 0.463831 0.853144 0.000000
162.80900574 206.38900757 216.25000000 0.605910 0.154860 0.780315 0.000000
160.34199524 156.23100281 131.25000000 0.000978 0.000978 0.999999 0.000000
213.78900146 119.22899628 178.75000000 -0.821456 0.370211 -0.433767 0.000000
169.38699341 130.74000549 143.75000000 -0.534532 0.625588 0.568256 0.000000
111.00599670 228.58999634 233.75000000 -0.643958 0.502724 0.576704 0.000000
208.44400024 194.05499268 145.00000000 0.828241 0.066542 -0.556408 0.000000
195.69900513 99.49420166 161.25000000 -0.465445 -0.279886 0.839657 0.000000
231.05700684 150.47500610 176.25000000 0.914326 -0.286363 0.286363 0.000000
141.42999268 299.30499268 126.25000000 -0.000978 -0.000978 -0.999999 0.000000
162.80900574 193.23300171 156.25000000 -0.268279 0.416818 0.868498 0.000000
206.80000305 188.29899597 152.50000000 0.956222 -0.185895 0.226016 0.000000
145.54100037 194.87699890 123.75000000 0.898460 -0.381297 -0.217676 0.000000
143.07400513 276.69299316 147.50000000 0.179632 -0.707779 -0.683214 0.000000
164.45300293 158.69700623 188.75000000 -0.620453 0.097813 0.778120 0.000000
182.54299927 116.35099792 155.00000000 -0.342195 0.040030 0.938776 0.000000
206.38900757 199.39999390 175.00000000 -0.824921 0.495574 -0.271867 0.000000
102.37200165 123.33999634 150.00000000 -0.717886 -0.685051 0.123876 0.000000
134.02900696 159.10800171 205.00000000 0.406087 -0.868448 0.284413 0.000000
174.32000732 251.61300659 203.75000000 0.619033 0.015233 0.785217 0.000000
193.23300171 205.97799683 162.50000000 0.446689 -0.894688 0.001310 0.000000
142.25199890 306.70498657 186.25000000 0.174761 0.873804 0.453790 0.000000
151.29699707 220.36700439 126.25000000 0.539069 0.172682 -0.824370 0.000000
106.07199860 117.17299652 142.50000000 -0.816695 -0.475484 0.326994 0.000000
129.09599304 288.61499023 126.25000000 0.514081 -0.691581 -0.507383 0.000000
122.51799774 177.60899353 141.25000000 -0.010424 -0.193432 -0.981058 0.000000
81.40429688 193.23300171 208.75000000 -0.795152 -0.119494 0.594520 0.000000
123.33999634 141.42999268 131.25000000 -0.251363 0.326918 0.911011 0.000000
146.36300659 284.50399780 211.25000000 0.174304 0.510995 0.841726 0.000000
64.54789734 216.25599670 67.50000000 -0.122593 0.971900 0.200952 0.000000
123.75099945 124.16200256 142.50000000 -0.806700 0.389718 0.444246 0.000000
66.19239807 196.52200317 95.00000000 -0.870522 0.254971 0.420928 0.000000
76.88189697 172.67599487 140.00000000 -0.818080 -0.409837 0.403459 0.000000
138.14100647 110.18399811 141.25000000 -0.083692 -0.520596 0.849692 0.000000
97.84970093 288.20401001 147.50000000 -0.668325 0.740499 0.070730 0.000000
115.52799988 195.69900513 232.50000000 -0.266931 -0.249983 0.930729 0.000000
87.98249817 277.51501465 130.00000000 -0.761919 0.633186 -0.136217 0.000000
160.34199524 144.71899414 133.75000000 -0.250237 0.599624 0.760153 0.000000
161.16400146 207.21099854 131.25000000 0.479291 -0.542751 -0.689711 0.000000
142.25199890 120.05100250 176.25000000 -0.032307 -0.218971 0.975196 0.000000
130.74000549 115.11699677 171.25000000 -0.318631 -0.722984 0.613000 0.000000
207.21099854 184.18800354 186.25000000 0.410645 0.119129 0.903980 0.000000
99.08309937 222.83399963 85.00000000 0.824099 -0.012341 -0.566311 0.000000
144.30799866 308.35000610 147.50000000 -0.032030 0.978685 -0.202855 0.000000
143.07400513 236.81300354 228.75000000 0.356439 0.258825 0.897753 0.000000
146.36300659 205.56599426 156.25000000 -0.625996 -0.286581 0.725259 0.000000
179.66499329 189.94299316 155.00000000 -0.195969 -0.972260 0.127696 0.000000
183.36500549 178.43200684 146.25000000 0.119776 -0.773368 0.622539 0.000000
78.11530304 198.16600037 203.75000000 -0.923249 -0.105008 0.369573 0.000000
89.62699890 241.74600220 216.25000000 -0.753717 0.464710 0.464710 0.000000
87.57129669 165.27499390 200.00000000 -0.750247 -0.431761 0.500712 0.000000
94.56060028 281.62600708 122.50000000 -0.612809 0.669274 -0.420164 0.000000
130.74000549 283.68200684 216.25000000 -0.020518 0.841224 0.540298 0.000000
164.45300293 193.23300171 156.25000000 -0.320720 0.388240 0.863949 0.000000
151.29699707 107.71700287 143.75000000 -0.332525 -0.302702 0.893196 0.000000
89.21589661 280.39300537 135.00000000 -0.714428 0.687469 -0.130305 0.000000
180.07600403 281.21499634 168.75000000 0.599578 0.161599 -0.783831 0.000000
101.13899994 238.45700073 228.75000000 -0.557138 0.081637 0.826397 0.000000
91.27149963 284.50399780 171.25000000 -0.731789 0.661805 0.162789 0.000000
85.10449982 239.27900696 210.00000000 -0.749029 0.098209 0.655217 0.000000
187.47700500 147.18600464 188.75000000 0.000978 0.000978 0.999999 0.000000
149.65199280 283.27099609 147.50000000 0.495207 -0.511881 -0.701960 0.000000
106.89499664 149.24099731 187.50000000 0.045019 -0.972158 0.229960 0.000000
188.71000671 231.87899780 187.50000000 0.910114 0.145336 0.388033 0.000000
75.23729706 244.21299744 115.00000000 -0.961167 0.196453 -0.193816 0.000000
135.26300049 254.90199280 140.00000000 0.543366 0.304349 -0.782384 0.000000
226.94500732 143.07400513 178.75000000 0.000978 0.000978 0.999999 0.000000
152.11900330 281.21499634 211.25000000 0.562083 0.400546 0.723620 0.000000
106.48300171 175.96499634 120.00000000 0.754010 -0.652703 -0.073809 0.000000
146.36300659 306.70498657 181.25000000 0.176952 0.942371 0.283946 0.000000
175.55400085 194.87699890 200.00000000 0.475125 -0.291306 0.830300 0.000000
74.82620239 167.74200439 113.75000000 -0.240292 0.967459 -0.079259 0.000000
160.34199524 283.27099609 205.00000000 0.507512 0.581700 0.635655 0.000000
63.31449890 199.81100464 86.25000000 -0.885470 0.185875 0.425904 0.000000
135.67399597 124.98400116 176.25000000 -0.257399 -0.373451 0.891224 0.000000
156.23100281 214.61099243 223.75000000 0.641129 0.149345 0.752761 0.000000
213.37800598 119.22899628 180.00000000 -0.822642 0.372487 -0.429549 0.000000
149.65199280 282.85900879 148.75000000 0.547412 -0.322668 -0.772156 0.000000
149.24099731 179.25399780 220.00000000 0.567933 -0.470765 0.675154 0.000000
97.84970093 282.03698730 118.75000000 -0.639711 0.633030 -0.435939 0.000000
85.92680359 222.01199341 67.50000000 0.499730 -0.473167 -0.725522 0.000000
180.89900208 280.39300537 188.75000000 0.606331 -0.001369 0.795211 0.000000
184.18800354 187.06599426 145.00000000 -0.523403 -0.837741 -0.155686 0.000000
99.49420166 272.58099365 207.50000000 -0.655755 0.619047 0.432165 0.000000
88.80470276 264.76998901 198.75000000 -0.857924 0.428195 0.283928 0.000000
136.08500671 199.81100464 232.50000000 0.450890 -0.001315 0.892578 0.000000
203.92199707 158.69700623 151.25000000 -0.686171 0.213164 0.695507 0.000000
147.59700012 217.07800293 122.50000000 0.425751 0.477950 -0.768309 0.000000
80.58209991 155.40800476 131.25000000 -0.905337 -0.361844 0.222338 0.000000
200.63299561 159.52000427 186.25000000 0.312390 0.021328 0.949715 0.000000
192.41000366 203.92199707 171.25000000 0.435747 -0.887313 -0.151001 0.000000
235.99000549 167.74200439 176.25000000 0.128896 -0.372828 0.918904 0.000000
187.47700500 228.58999634 173.75000000 0.912987 -0.278119 -0.298504 0.000000
76.05960083 249.14700317 177.50000000 -0.892953 0.389840 0.225077 0.000000
99.49420166 126.21800232 147.50000000 -0.584399 -0.779716 -0.224769 0.000000
73.18170166 185.00999451 113.75000000 -0.938459 -0.189350 0.288863 0.000000
122.51799774 300.94900513 193.75000000 -0.374471 0.798764 0.470901 0.000000
87.16020203 224.47900391 66.25000000 0.703407 -0.290015 -0.648929 0.000000
130.74000549 241.74600220 131.25000000 0.224754 0.219306 -0.949416 0.000000
97.43849945 258.19198608 217.50000000 -0.519223 0.001342 0.854638 0.000000
167.74200439 181.72099304 201.25000000 0.526360 -0.401739 0.749367 0.000000
134.02900696 263.94699097 223.75000000 0.000978 0.000978 0.999999 0.000000
96.20510101 254.90199280 81.25000000 0.308706 0.928937 0.204394 0.000000
136.08500671 161.16400146 207.50000000 0.406087 -0.868448 0.284413 0.000000
213.78900146 168.56500244 156.25000000 -0.535454 0.357508 0.765165 0.000000
86.33789825 275.86999512 132.50000000 -0.757612 0.629565 -0.172254 0.000000
132.38499451 176.37600708 140.00000000 0.001238 -0.320681 0.947186 0.000000
152.11900330 208.85600281 223.75000000 0.851940 -0.511740 0.110997 0.000000
145.54100037 157.05299377 188.75000000 0.043805 -0.625989 0.778601 0.000000
71.94830322 226.12300110 67.50000000 -0.734511 0.669484 0.110842 0.000000
156.23100281 101.13899994 143.75000000 -0.483732 -0.441098 0.755934 0.000000
