68.84770203 196.90400696 310.00000000 0.052226 0.585773 0.808791 0.000000
160.64500427 289.16000366 417.50000000 -0.000978 -0.000978 -0.999999 0.000000
125.76200104 266.67001343 430.00000000 0.242968 -0.945791 -0.215514 0.000000
110.15599823 200.11700439 437.50000000 0.607019 0.328600 -0.723567 0.000000
134.02299500 146.87500000 417.50000000 -0.130240 0.883057 -0.450831 0.000000
154.67799377 241.42599487 435.00000000 -0.701101 0.701101 -0.130055 0.000000
192.77299500 226.73800659 427.50000000 -0.576563 -0.767163 -0.281134 0.000000
164.31599426 188.18400574 357.50000000 0.214481 -0.049682 0.975464 0.000000
124.84400177 188.18400574 437.50000000 -0.000978 -0.000978 -0.999999 0.000000
209.29699707 197.36300659 362.50000000 0.162103 0.637806 0.752945 0.000000
139.53100586 288.24200439 422.50000000 -0.052887 -0.704686 -0.707545 0.000000
206.54299927 130.35200500 367.50000000 0.000978 0.000978 0.999999 0.000000
184.51199341 199.19900513 432.50000000 -0.000978 -0.000978 -0.999999 0.000000
194.60899353 225.82000732 362.50000000 -0.633627 -0.734252 0.243703 0.000000
216.64100647 190.02000427 422.50000000 -0.000978 -0.000978 -0.999999 0.000000
101.43599701 309.35501099 375.00000000 0.405593 -0.405593 -0.819139 0.000000
235.91799927 130.35200500 412.50000000 -0.000978 -0.000978 -0.999999 0.000000
173.49600220 249.68800354 427.50000000 -0.441316 -0.735527 -0.514043 0.000000
250.60499573 145.95700073 372.50000000 -0.603653 0.061364 0.794882 0.000000
157.89100647 242.34399414 362.50000000 0.000978 0.000978 0.999999 0.000000
202.87100220 231.32800293 402.50000000 -0.955786 0.119309 0.268774 0.000000
162.47999573 155.13699341 377.50000000 -0.583462 -0.485938 0.650720 0.000000
223.06599426 122.54900360 410.00000000 0.514815 0.704746 -0.488158 0.000000
286.40600586 147.79299927 402.50000000 -0.000978 -0.000978 -0.999999 0.000000
82.61720276 266.21099854 327.50000000 -0.433393 -0.709037 0.556270 0.000000
140.44900513 245.09800720 362.50000000 -0.194567 -0.599021 0.776735 0.000000
281.81600952 169.82400513 387.50000000 -0.466525 -0.687246 0.556820 0.000000
167.98800659 254.27699280 377.50000000 -0.428632 -0.628771 0.648785 0.000000
195.52699280 105.56600189 402.50000000 -0.281095 0.808738 -0.516650 0.000000
102.81199646 234.08200073 432.50000000 -0.000978 -0.000978 -0.999999 0.000000
145.03900146 247.39300537 365.00000000 -0.152289 -0.622726 0.767476 0.000000
217.55900574 101.89499664 392.50000000 -0.084405 0.951833 0.294770 0.000000
236.83599854 111.07399750 407.50000000 -0.000978 -0.000978 -0.999999 0.000000
201.95300293 173.49600220 357.50000000 -0.290835 -0.686113 0.666831 0.000000
114.74600220 224.90199280 327.50000000 -0.626787 -0.535556 0.565966 0.000000
186.34800720 149.62899780 417.50000000 -0.259677 0.220795 -0.940116 0.000000
248.77000427 194.60899353 377.50000000 0.000978 0.000978 0.999999 0.000000
167.07000732 279.98001099 392.50000000 0.000978 0.000978 0.999999 0.000000
205.62500000 151.46499634 412.50000000 0.811923 0.347967 -0.468722 0.000000
222.14799500 141.82600403 365.00000000 0.009688 0.765342 0.643551 0.000000
91.79689789 174.41400146 322.50000000 -0.000978 -0.000978 0.999999 0.000000
73.43750000 199.19900513 307.50000000 0.093669 0.551929 0.828614 0.000000
204.70700073 244.63900757 405.00000000 -0.716101 -0.237651 -0.656294 0.000000
134.94099426 294.66799927 417.50000000 -0.000978 -0.000978 -0.999999 0.000000
145.95700073 221.22999573 437.50000000 -0.001357 -0.563126 -0.826370 0.000000
134.94099426 253.35899353 367.50000000 0.000978 0.000978 0.999999 0.000000
136.77699280 199.19900513 337.50000000 -0.673792 -0.179576 0.716768 0.000000
273.55499268 206.54299927 397.50000000 -0.340489 -0.711931 0.614183 0.000000
134.02299500 216.64100647 442.50000000 -0.000978 -0.000978 -0.999999 0.000000
83.53520203 205.16600037 415.00000000 0.654905 0.506752 -0.560626 0.000000
209.29699707 122.08999634 407.50000000 -0.000978 -0.000978 -0.999999 0.000000
138.61300659 300.17599487 387.50000000 -0.141452 -0.257786 0.955792 0.000000
234.08200073 200.11700439 407.50000000 -0.000978 -0.000978 -0.999999 0.000000
164.31599426 291.91400146 412.50000000 -0.001326 -0.876523 -0.481358 0.000000
124.84400177 165.23399353 427.50000000 0.511966 0.426364 -0.745725 0.000000
186.34800720 191.85499573 432.50000000 -0.000978 -0.000978 -0.999999 0.000000
77.10939789 233.16400146 407.50000000 0.954159 0.128013 -0.270543 0.000000
271.71899414 145.95700073 387.50000000 0.000978 0.000978 0.999999 0.000000
123.92600250 220.31199646 437.50000000 -0.000978 -0.000978 -0.999999 0.000000
100.97699738 256.11300659 427.50000000 -0.001326 -0.876523 -0.481358 0.000000
156.05499268 180.83999634 352.50000000 0.000978 0.000978 0.999999 0.000000
162.47999573 275.39099121 422.50000000 -0.000978 -0.000978 -0.999999 0.000000
175.33200073 184.51199341 362.50000000 -0.557819 -0.671728 0.487463 0.000000
224.90199280 209.29699707 407.50000000 -0.000978 -0.000978 -0.999999 0.000000
221.22999573 211.13299561 407.50000000 -0.485466 -0.623211 -0.613132 0.000000
64.71679688 202.87100220 345.00000000 0.910894 0.304603 -0.278369 0.000000
171.66000366 263.45700073 387.50000000 -0.209090 -0.198436 0.957551 0.000000
116.12300110 171.66000366 430.00000000 0.589643 0.306871 -0.747095 0.000000
238.67199707 204.70700073 402.50000000 0.102444 -0.447665 -0.888314 0.000000
190.02000427 115.66400146 372.50000000 0.000978 0.000978 0.999999 0.000000
204.70700073 155.13699341 357.50000000 0.000978 0.000978 0.999999 0.000000
164.31599426 251.52299500 432.50000000 -0.000978 -0.000978 -0.999999 0.000000
82.61720276 189.10200500 387.50000000 0.940587 0.282314 0.188668 0.000000
62.42190170 201.03500366 307.50000000 0.628310 0.493552 0.601359 0.000000
130.35200500 246.01600647 357.50000000 -0.341174 -0.683981 0.644803 0.000000
98.22270203 251.52299500 332.50000000 -0.695670 -0.555535 0.455439 0.000000
89.96089935 283.65200806 412.50000000 0.362241 -0.673670 -0.644166 0.000000
211.13299561 196.44500732 362.50000000 0.430842 0.577229 0.693673 0.000000
238.67199707 204.24800110 405.00000000 -0.432484 -0.384608 -0.815496 0.000000
257.94900513 177.16799927 407.50000000 -0.000978 -0.000978 -0.999999 0.000000
156.05499268 159.26800537 430.00000000 -0.045680 0.513552 -0.856842 0.000000
263.45700073 170.74200439 377.50000000 0.000978 0.000978 0.999999 0.000000
152.38299561 209.75599670 355.00000000 -0.743806 0.667300 0.038253 0.000000
192.77299500 240.50799561 417.50000000 -0.502637 -0.796240 -0.336687 0.000000
206.54299927 215.72300720 357.50000000 -0.265628 -0.262788 0.927569 0.000000
178.54499817 185.42999268 375.00000000 -0.697369 -0.581417 0.419084 0.000000
195.52699280 220.31199646 352.50000000 -0.895419 -0.175033 0.409376 0.000000
161.56199646 265.29299927 427.50000000 -0.000978 -0.000978 -0.999999 0.000000
75.27339935 201.03500366 307.50000000 -0.179481 0.485044 0.855873 0.000000
139.53100586 135.85899353 407.50000000 0.239591 0.474605 -0.846963 0.000000
145.03900146 290.99600220 417.50000000 -0.000978 -0.000978 -0.999999 0.000000
164.31599426 175.33200073 437.50000000 0.000978 0.000978 -0.999999 0.000000
95.46880341 277.22698975 352.50000000 -0.336687 -0.502637 0.796240 0.000000
262.53900146 152.38299561 407.50000000 -0.000978 -0.000978 -0.999999 0.000000
133.10499573 257.03100586 432.50000000 -0.011497 -0.364086 -0.931294 0.000000
135.85899353 294.66799927 417.50000000 -0.000978 -0.000978 -0.999999 0.000000
259.78500366 128.51600647 412.50000000 -0.538262 0.254309 -0.803493 0.000000
196.44500732 194.60899353 427.50000000 -0.000978 -0.000978 -0.999999 0.000000
173.49600220 237.75399780 432.50000000 -0.000978 -0.000978 -0.999999 0.000000
84.45310211 271.71899414 332.50000000 -0.263933 -0.890213 0.371295 0.000000
220.31199646 202.87100220 362.50000000 0.000978 0.000978 0.999999 0.000000
260.70300293 169.82400513 407.50000000 -0.000978 -0.000978 -0.999999 0.000000
184.51199341 120.71299744 370.00000000 0.162925 0.677583 0.717172 0.000000
66.09380341 201.95300293 307.50000000 0.020957 0.641280 0.767021 0.000000
210.21499634 146.87500000 357.50000000 0.000978 0.000978 0.999999 0.000000
82.61720276 284.57000732 402.50000000 0.611759 -0.457563 -0.645280 0.000000
158.80900574 161.56199646 352.50000000 0.000978 0.000978 0.999999 0.000000
141.36700439 190.02000427 437.50000000 -0.000978 -0.000978 -0.999999 0.000000
103.73000336 227.65600586 317.50000000 -0.806860 -0.150634 0.571215 0.000000
159.72700500 160.64500427 352.50000000 0.000978 0.000978 0.999999 0.000000
72.51950073 201.95300293 307.50000000 0.361243 0.842901 0.398775 0.000000
191.85499573 230.86900330 370.00000000 -0.650327 -0.716784 0.251586 0.000000
147.79299927 159.72700500 347.50000000 -0.359044 0.024451 0.933000 0.000000
275.39099121 162.47999573 407.50000000 -0.209770 0.069923 -0.975247 0.000000
113.36900330 192.77299500 435.00000000 0.461262 0.491020 -0.739011 0.000000
180.83999634 226.73800659 432.50000000 0.877282 -0.458152 0.143082 0.000000
257.94900513 194.60899353 382.50000000 -0.271773 -0.849100 0.452956 0.000000
73.43750000 265.29299927 397.50000000 0.916472 -0.252571 -0.310302 0.000000
116.12300110 173.49600220 430.00000000 0.721551 0.317999 -0.615013 0.000000
280.43899536 190.93800354 390.00000000 -0.477412 -0.422013 0.770703 0.000000
252.44099426 187.26600647 407.50000000 -0.000978 -0.000978 -0.999999 0.000000
186.34800720 263.45700073 402.50000000 -0.558114 -0.628932 0.541252 0.000000
254.27699280 182.67599487 377.50000000 -0.397609 -0.066044 0.915175 0.000000
146.87500000 156.97300720 347.50000000 -0.205564 0.017620 0.978485 0.000000
107.40200043 224.90199280 432.50000000 0.239831 -0.140229 -0.960634 0.000000
150.54699707 309.35501099 402.50000000 -0.450294 -0.875654 -0.174544 0.000000
151.46499634 186.80700684 355.00000000 0.110888 -0.853979 0.508355 0.000000
179.92199707 140.44900513 357.50000000 -0.000978 -0.000978 0.999999 0.000000
108.31999969 193.69099426 432.50000000 0.218853 -0.088792 -0.971709 0.000000
73.43750000 267.12899780 397.50000000 0.939967 -0.171527 -0.295026 0.000000
231.32800293 186.34800720 412.50000000 -0.000978 -0.000978 -0.999999 0.000000
251.52299500 197.82200623 405.00000000 -0.386366 -0.424525 -0.818841 0.000000
257.03100586 177.16799927 377.50000000 0.000978 0.000978 0.999999 0.000000
68.84770203 202.87100220 307.50000000 0.257842 0.795403 0.548500 0.000000
265.29299927 190.02000427 402.50000000 -0.000978 -0.000978 -0.999999 0.000000
201.03500366 233.16400146 417.50000000 -0.631995 -0.530876 -0.564582 0.000000
225.82000732 176.25000000 412.50000000 -0.876523 -0.001326 -0.481358 0.000000
239.58999634 159.72700500 367.50000000 0.000978 0.000978 0.999999 0.000000
177.62699890 221.22999573 345.00000000 -0.427918 -0.402275 0.809358 0.000000
234.08200073 154.21899414 362.50000000 -0.928266 -0.262985 0.262985 0.000000
100.05899811 179.92199707 322.50000000 0.000978 0.000978 0.999999 0.000000
140.44900513 142.74400330 415.00000000 0.070003 0.896313 -0.437862 0.000000
114.74600220 241.42599487 432.50000000 0.680330 -0.210171 -0.702125 0.000000
161.56199646 190.47900391 360.00000000 -0.001382 -0.736866 0.676037 0.000000
205.62500000 172.57800293 357.50000000 0.000978 0.000978 0.999999 0.000000
196.90400696 237.75399780 390.00000000 -0.648123 -0.347733 0.677509 0.000000
80.78119659 202.87100220 307.50000000 0.000978 0.000978 0.999999 0.000000
100.97699738 203.78900146 432.50000000 0.137226 0.241778 -0.960579 0.000000
146.87500000 172.57800293 432.50000000 0.104542 0.667006 -0.737682 0.000000
138.61300659 258.86700439 372.50000000 0.017865 -0.973058 0.229866 0.000000
265.29299927 180.83999634 402.50000000 0.360149 -0.849703 -0.385095 0.000000
100.97699738 196.44500732 322.50000000 -0.462534 0.420338 0.780627 0.000000
224.90199280 110.15599823 407.50000000 -0.000978 -0.000978 -0.999999 0.000000
190.02000427 169.82400513 427.50000000 0.188934 -0.757273 -0.625173 0.000000
101.89499664 269.88299561 352.50000000 -0.822312 -0.366000 0.435714 0.000000
200.57600403 245.09800720 410.00000000 -0.631830 -0.497040 -0.594763 0.000000
273.55499268 166.15199280 382.50000000 -0.000978 -0.000978 0.999999 0.000000
96.38670349 180.83999634 417.50000000 0.831745 0.421396 -0.361422 0.000000
148.71099854 149.62899780 422.50000000 -0.020551 0.837106 -0.546654 0.000000
132.18800354 300.17599487 412.50000000 -0.000978 -0.000978 -0.999999 0.000000
119.33599854 301.09399414 377.50000000 0.000978 0.000978 0.999999 0.000000
176.25000000 256.11300659 387.50000000 -0.565134 -0.312185 0.763652 0.000000
270.34201050 190.02000427 385.00000000 -0.563832 -0.411713 0.715951 0.000000
117.50000000 310.27301025 382.50000000 -0.001253 -0.938727 0.344659 0.000000
81.24019623 265.29299927 325.00000000 -0.316806 -0.757439 0.570894 0.000000
253.35899353 188.18400574 377.50000000 -0.263043 -0.061670 0.962811 0.000000
66.09380341 261.62100220 367.50000000 -0.001253 -0.938727 -0.344659 0.000000
232.24600220 135.39999390 370.00000000 -0.786527 0.018033 0.617292 0.000000
174.41400146 212.05099487 432.50000000 0.000978 0.000978 -0.999999 0.000000
146.87500000 122.08999634 402.50000000 0.631283 0.758448 -0.161984 0.000000
181.75799561 121.17199707 367.50000000 -0.273137 0.844101 0.461401 0.000000
108.77899933 190.93800354 325.00000000 0.592680 0.592680 0.545400 0.000000
156.97300720 212.96899414 437.50000000 -0.000978 -0.000978 -0.999999 0.000000
218.47700500 136.77699280 367.50000000 -0.134184 0.315807 0.939287 0.000000
240.50799561 165.23399353 367.50000000 0.000978 0.000978 0.999999 0.000000
196.44500732 183.59399414 427.50000000 -0.000978 -0.000978 -0.999999 0.000000
104.18900299 234.08200073 325.00000000 -0.723389 -0.159237 0.671827 0.000000
258.86700439 182.67599487 377.50000000 0.000978 0.000978 0.999999 0.000000
199.19900513 192.77299500 382.50000000 -0.633030 0.435939 0.639711 0.000000
279.06201172 207.00199890 400.00000000 -0.435771 -0.895211 -0.093280 0.000000
88.12500000 295.58599854 392.50000000 0.788102 -0.533362 -0.307280 0.000000
242.34399414 204.24800110 405.00000000 0.198935 -0.618395 -0.760271 0.000000
263.45700073 201.03500366 387.50000000 -0.298254 -0.437335 0.848400 0.000000
226.73800659 121.17199707 412.50000000 0.092266 0.663437 -0.742522 0.000000
251.52299500 194.60899353 377.50000000 0.000978 0.000978 0.999999 0.000000
100.05899811 218.47700500 432.50000000 0.692218 -0.548770 -0.468706 0.000000
273.55499268 156.97300720 407.50000000 -0.000978 -0.000978 -0.999999 0.000000
81.69920349 204.70700073 307.50000000 -0.357330 0.095738 0.929058 0.000000
269.88299561 187.26600647 402.50000000 -0.000978 -0.000978 -0.999999 0.000000
83.53520203 204.70700073 307.50000000 -0.357330 0.095738 0.929058 0.000000
154.21899414 255.19500732 432.50000000 -0.000978 -0.000978 -0.999999 0.000000
212.05099487 178.08599854 362.50000000 0.000978 0.000978 0.999999 0.000000
98.68160248 253.35899353 335.00000000 -0.686364 -0.472606 0.552765 0.000000
257.03100586 191.85499573 407.50000000 0.020770 -0.265128 -0.963990 0.000000
128.51600647 145.95700073 412.50000000 0.171476 0.611548 -0.772402 0.000000
168.90600586 256.11300659 382.50000000 0.701101 -0.701101 0.130055 0.000000
160.64500427 172.57800293 352.50000000 0.000978 0.000978 0.999999 0.000000
159.72700500 125.76200104 407.50000000 -0.006721 0.512110 -0.858893 0.000000
113.82800293 300.17599487 412.50000000 -0.099771 -0.559583 -0.822747 0.000000
159.72700500 296.50399780 412.50000000 -0.388272 -0.774920 -0.498743 0.000000
139.53100586 280.89801025 422.50000000 -0.000978 -0.000978 -0.999999 0.000000
140.44900513 223.06599426 442.50000000 -0.000978 -0.000978 -0.999999 0.000000
172.57800293 277.22698975 392.50000000 -0.524619 -0.477986 0.704488 0.000000
244.17999268 155.13699341 412.50000000 -0.000978 -0.000978 -0.999999 0.000000
245.09800720 178.08599854 407.50000000 -0.203055 -0.195092 -0.959535 0.000000
78.02729797 272.17800903 405.00000000 0.865491 0.051074 -0.498313 0.000000
84.45310211 205.62500000 307.50000000 -0.357330 0.095738 0.929058 0.000000
125.76200104 248.77000427 357.50000000 -0.355052 -0.656110 0.665927 0.000000
86.28910065 205.16600037 310.00000000 -0.496330 0.570359 0.654483 0.000000
221.22999573 128.51600647 412.50000000 0.306655 0.361037 -0.880690 0.000000
243.26199341 170.74200439 412.50000000 -0.000978 -0.000978 -0.999999 0.000000
96.38670349 168.44700623 380.00000000 0.701101 0.701101 -0.130055 0.000000
80.78119659 176.70899963 360.00000000 0.863088 0.409315 -0.295872 0.000000
146.87500000 129.43400574 407.50000000 -0.000978 -0.000978 -0.999999 0.000000
174.41400146 199.19900513 437.50000000 -0.000978 -0.000978 -0.999999 0.000000
158.80900574 123.92600250 407.50000000 -0.006721 0.512110 -0.858893 0.000000
158.80900574 170.74200439 352.50000000 0.000978 0.000978 0.999999 0.000000
146.87500000 259.78500366 432.50000000 -0.027708 -0.232509 -0.972200 0.000000
190.02000427 191.85499573 432.50000000 -0.633977 0.175680 -0.753134 0.000000
80.78119659 206.54299927 307.50000000 -0.325489 0.623448 0.710893 0.000000
206.54299927 193.69099426 382.50000000 -0.238696 -0.888068 0.392885 0.000000
65.17579651 209.29699707 352.50000000 0.999999 -0.000978 -0.000978 0.000000
200.11700439 225.82000732 422.50000000 -0.521706 -0.171909 -0.835626 0.000000
99.14060211 275.39099121 352.50000000 -0.622527 -0.348027 0.700955 0.000000
121.17199707 193.69099426 437.50000000 -0.000978 -0.000978 -0.999999 0.000000
202.87100220 171.66000366 422.50000000 0.000978 0.000978 -0.999999 0.000000
235.91799927 151.46499634 362.50000000 -0.830152 0.054782 0.554839 0.000000
80.32230377 170.74200439 350.00000000 0.725642 0.483208 -0.489850 0.000000
143.20300293 143.20300293 352.50000000 -0.560036 0.443708 0.699630 0.000000
148.71099854 190.02000427 437.50000000 -0.000978 -0.000978 -0.999999 0.000000
152.38299561 252.44099426 372.50000000 0.443130 -0.327259 0.834588 0.000000
113.82800293 259.78500366 427.50000000 -0.129907 -0.931229 0.340494 0.000000
220.31199646 128.51600647 412.50000000 0.306655 0.361037 -0.880690 0.000000
278.14498901 195.52699280 392.50000000 -0.366378 -0.239838 0.899024 0.000000
152.38299561 201.03500366 437.50000000 -0.000978 -0.000978 -0.999999 0.000000
230.41000366 109.23799896 387.50000000 0.174544 0.875654 0.450294 0.000000
87.66600037 190.02000427 405.00000000 0.799397 0.475794 -0.366858 0.000000
83.53520203 295.58599854 382.50000000 0.790865 -0.512864 -0.333921 0.000000
217.55900574 194.60899353 362.50000000 0.000978 0.000978 0.999999 0.000000
87.20700073 298.33999634 362.50000000 0.405593 -0.405593 0.819139 0.000000
233.16400146 189.56100464 370.00000000 -0.575702 -0.357163 0.735528 0.000000
100.97699738 204.70700073 432.50000000 0.137226 0.241778 -0.960579 0.000000
131.27000427 259.78500366 367.50000000 0.088276 -0.469405 0.878559 0.000000
57.37300110 208.37899780 310.00000000 0.842660 0.102272 -0.528643 0.000000
290.07800293 191.85499573 402.50000000 -0.325970 -0.123084 -0.937333 0.000000
131.27000427 271.71899414 372.50000000 -0.188696 -0.526840 0.828754 0.000000
175.33200073 123.92600250 367.50000000 -0.050593 0.335988 0.940507 0.000000
70.68360138 215.72300720 382.50000000 0.988833 0.108830 -0.101809 0.000000
86.28910065 264.37500000 327.50000000 -0.425790 -0.801771 0.419363 0.000000
276.30899048 132.64599609 395.00000000 -0.333262 0.616128 0.713668 0.000000
253.35899353 179.00399780 407.50000000 -0.000978 -0.000978 -0.999999 0.000000
165.23399353 212.96899414 347.50000000 -0.009023 0.387984 0.921622 0.000000
194.14999390 159.72700500 420.00000000 -0.333629 0.629826 -0.701435 0.000000
222.14799500 125.76200104 372.50000000 0.053675 0.483072 0.873934 0.000000
123.00800323 292.83200073 417.50000000 0.257073 -0.315169 -0.913554 0.000000
243.26199341 209.75599670 400.00000000 -0.172647 -0.737953 -0.652394 0.000000
190.02000427 122.08999634 407.50000000 -0.000978 -0.000978 -0.999999 0.000000
76.65039825 188.18400574 365.00000000 0.851128 0.449334 -0.271441 0.000000
212.96899414 172.57800293 362.50000000 0.000978 0.000978 0.999999 0.000000
229.49200439 107.40200043 407.50000000 -0.000978 -0.000978 -0.999999 0.000000
95.46880341 238.67199707 317.50000000 -0.571984 -0.306019 0.761043 0.000000
106.48400116 206.54299927 437.50000000 0.195133 -0.122115 -0.973145 0.000000
245.09800720 167.07000732 367.50000000 -0.198423 -0.164704 0.966178 0.000000
241.42599487 111.07399750 392.50000000 0.000978 0.000978 0.999999 0.000000
208.37899780 208.37899780 357.50000000 -0.279482 0.662771 0.694712 0.000000
171.66000366 190.47900391 365.00000000 -0.453990 -0.790040 0.411984 0.000000
197.36300659 191.85499573 382.50000000 -0.902494 0.101513 0.418568 0.000000
59.20899963 234.08200073 325.00000000 0.930561 -0.364697 0.032446 0.000000
143.20300293 134.02299500 407.50000000 0.323865 0.407543 -0.853827 0.000000
162.47999573 125.76200104 407.50000000 -0.000978 -0.000978 -0.999999 0.000000
92.71479797 199.65800476 425.00000000 0.238692 0.518964 -0.820794 0.000000
152.38299561 224.90199280 347.50000000 0.000978 0.000978 0.999999 0.000000
74.35549927 274.93200684 395.00000000 0.807049 -0.434812 -0.399513 0.000000
65.63480377 228.57400513 375.00000000 0.962540 0.190407 -0.193033 0.000000
92.71479797 165.23399353 367.50000000 0.674380 0.654786 -0.341272 0.000000
259.78500366 187.26600647 407.50000000 -0.000978 -0.000978 -0.999999 0.000000
277.22698975 145.95700073 387.50000000 -0.088076 0.209647 0.973802 0.000000
143.20300293 156.97300720 347.50000000 0.000978 0.000978 0.999999 0.000000
93.63279724 156.97300720 342.50000000 0.327513 0.944602 0.021497 0.000000
173.49600220 261.62100220 387.50000000 -0.259253 -0.198898 0.945107 0.000000
273.55499268 172.57800293 402.50000000 -0.000978 -0.000978 -0.999999 0.000000
74.35549927 258.86700439 317.50000000 0.000978 0.000978 0.999999 0.000000
190.93800354 231.78700256 370.00000000 -0.629272 -0.730717 0.264706 0.000000
236.83599854 176.25000000 412.50000000 -0.000978 -0.000978 -0.999999 0.000000
188.18400574 145.03900146 357.50000000 0.000978 0.000978 0.999999 0.000000
164.31599426 106.02500153 390.00000000 0.701544 0.712614 -0.004151 0.000000
152.38299561 218.47700500 437.50000000 -0.000978 -0.000978 -0.999999 0.000000
171.20100403 258.86700439 425.00000000 0.000978 -0.999999 0.000978 0.000000
177.16799927 257.03100586 387.50000000 -0.474745 -0.323331 0.818580 0.000000
129.43400574 208.37899780 442.50000000 -0.000978 -0.000978 -0.999999 0.000000
222.14799500 137.69500732 367.50000000 -0.160447 0.381950 0.910149 0.000000
228.57400513 172.57800293 362.50000000 0.000978 0.000978 0.999999 0.000000
190.93800354 195.52699280 377.50000000 -0.074353 0.495219 0.865581 0.000000
102.81199646 218.47700500 317.50000000 -0.645484 -0.351340 0.678167 0.000000
86.28910065 200.11700439 417.50000000 0.878485 0.196367 -0.435551 0.000000
111.07399750 314.86300659 392.50000000 0.337829 -0.831216 0.441534 0.000000
119.33599854 227.65600586 437.50000000 -0.000978 -0.000978 -0.999999 0.000000
149.62899780 242.34399414 362.50000000 -0.104669 -0.697301 0.709095 0.000000
57.37300110 212.05099487 310.00000000 -0.000978 -0.000978 -0.999999 0.000000
198.74000549 239.58999634 415.00000000 -0.576704 -0.502724 -0.643958 0.000000
225.82000732 183.59399414 367.50000000 -0.209180 -0.267363 0.940617 0.000000
250.60499573 183.59399414 372.50000000 -0.346495 0.013961 0.937948 0.000000
116.58200073 285.48800659 372.50000000 -0.469289 -0.309197 0.827142 0.000000
96.38670349 226.73800659 427.50000000 0.484515 -0.001327 -0.874782 0.000000
59.20899963 221.22999573 330.00000000 0.983522 -0.001137 -0.180786 0.000000
270.80099487 204.70700073 392.50000000 -0.545155 -0.458464 0.701867 0.000000
185.42999268 210.21499634 367.50000000 0.547652 0.146931 0.823704 0.000000
202.87100220 239.58999634 412.50000000 -0.558114 -0.521019 -0.645793 0.000000
123.00800323 293.75000000 377.50000000 0.000978 0.000978 0.999999 0.000000
126.68000031 296.50399780 417.50000000 -0.000978 -0.000978 -0.999999 0.000000
134.94099426 293.75000000 417.50000000 -0.000978 -0.000978 -0.999999 0.000000
223.06599426 174.41400146 362.50000000 0.000978 0.000978 0.999999 0.000000
124.84400177 208.37899780 332.50000000 -0.170134 -0.031249 0.984925 0.000000
100.05899811 217.55900574 432.50000000 0.740607 -0.641653 -0.199454 0.000000
272.17800903 155.13699341 385.00000000 -0.571165 0.131353 0.810257 0.000000
206.08399963 223.98399353 410.00000000 -0.189158 0.283047 0.940268 0.000000
228.57400513 201.03500366 412.50000000 -0.000978 -0.000978 -0.999999 0.000000
172.57800293 215.72300720 342.50000000 -0.250896 0.724286 0.642232 0.000000
269.88299561 183.59399414 382.50000000 -0.159785 0.014732 0.987042 0.000000
66.09380341 246.93400574 377.50000000 0.983522 0.001137 -0.180786 0.000000
197.36300659 181.29899597 370.00000000 0.361479 0.539786 0.760240 0.000000
144.12100220 302.92999268 412.50000000 -0.421598 -0.756251 -0.500340 0.000000
235.00000000 153.75999451 365.00000000 -0.870070 -0.127994 0.476022 0.000000
158.80900574 245.09800720 432.50000000 -0.288163 -0.109213 -0.951333 0.000000
195.52699280 106.02500153 405.00000000 -0.103176 0.812326 -0.574005 0.000000
254.27699280 200.11700439 382.50000000 0.568426 -0.375128 -0.732237 0.000000
259.78500366 156.97300720 377.50000000 0.000978 0.000978 0.999999 0.000000
283.65200806 199.19900513 397.50000000 -0.600914 -0.795960 0.073142 0.000000
153.30099487 284.57000732 387.50000000 0.000978 0.000978 0.999999 0.000000
270.80099487 186.34800720 382.50000000 -0.148155 -0.204841 0.967518 0.000000
166.15199280 133.10499573 367.50000000 0.820486 0.279747 0.498543 0.000000
145.49800110 241.42599487 360.00000000 -0.157696 -0.800496 0.578220 0.000000
93.63279724 165.23399353 367.50000000 0.674380 0.654786 -0.341272 0.000000
167.07000732 223.98399353 437.50000000 -0.280217 -0.558850 -0.780490 0.000000
148.71099854 304.76599121 407.50000000 -0.137560 -0.281797 -0.949562 0.000000
56.45510101 214.80499268 310.00000000 0.000978 0.000978 -0.999999 0.000000
237.75399780 103.73000336 407.50000000 -0.000978 -0.000978 -0.999999 0.000000
84.45310211 214.80499268 307.50000000 -0.461433 0.871596 0.165530 0.000000
101.89499664 183.59399414 322.50000000 0.000978 0.000978 0.999999 0.000000
258.86700439 175.33200073 407.50000000 -0.000978 -0.000978 -0.999999 0.000000
194.60899353 129.43400574 407.50000000 -0.000978 -0.000978 -0.999999 0.000000
191.85499573 144.12100220 412.50000000 -0.000978 -0.000978 -0.999999 0.000000
99.14060211 208.37899780 317.50000000 -0.592680 0.592680 0.545400 0.000000
65.17579651 261.62100220 367.50000000 -0.001253 -0.938727 -0.344659 0.000000
183.59399414 224.90199280 347.50000000 -0.268018 -0.828842 0.491108 0.000000
158.80900574 258.86700439 377.50000000 -0.373120 -0.639399 0.672273 0.000000
177.16799927 282.73400879 407.50000000 -0.340680 -0.938502 -0.056127 0.000000
212.50999451 220.31199646 395.00000000 -0.000978 -0.999999 -0.000978 0.000000
78.94529724 278.60400391 340.00000000 -0.073846 -0.699361 0.710944 0.000000
236.83599854 129.43400574 412.50000000 -0.000978 -0.000978 -0.999999 0.000000
208.37899780 188.18400574 422.50000000 -0.000978 -0.000978 -0.999999 0.000000
287.32400513 187.26600647 402.50000000 -0.000978 -0.000978 -0.999999 0.000000
110.61499786 275.39099121 365.00000000 -0.535236 -0.445754 0.717514 0.000000
140.44900513 200.11700439 342.50000000 -0.576173 0.197152 0.793193 0.000000
157.89100647 249.68800354 432.50000000 -0.000978 -0.000978 -0.999999 0.000000
275.39099121 134.94099426 392.50000000 -0.221549 0.590282 0.776198 0.000000
84.45310211 212.96899414 417.50000000 0.671779 0.001379 -0.740750 0.000000
178.08599854 278.14498901 402.50000000 -0.903927 -0.389450 0.176762 0.000000
245.09800720 205.16600037 385.00000000 -0.301605 -0.672564 0.675790 0.000000
256.11300659 155.13699341 377.50000000 0.000978 0.000978 0.999999 0.000000
115.66400146 268.96499634 367.50000000 -0.512730 -0.414443 0.751894 0.000000
130.35200500 228.57400513 347.50000000 -0.638922 -0.289837 0.712582 0.000000
109.23799896 152.84199524 395.00000000 0.847170 0.508302 -0.154701 0.000000
88.12500000 216.64100647 307.50000000 -0.394902 0.091552 0.914150 0.000000
204.70700073 224.44299316 420.00000000 -0.416201 -0.422629 -0.805085 0.000000
87.20700073 211.59199524 420.00000000 0.671779 0.001379 -0.740750 0.000000
90.87889862 216.64100647 307.50000000 -0.467746 -0.062090 0.881680 0.000000
274.47299194 171.66000366 402.50000000 -0.000978 -0.000978 -0.999999 0.000000
92.25589752 216.64100647 310.00000000 -0.467746 -0.062090 0.881680 0.000000
239.58999634 142.28500366 412.50000000 -0.000978 -0.000978 -0.999999 0.000000
266.67001343 195.52699280 385.00000000 -0.532026 -0.306510 0.789304 0.000000
242.34399414 121.17199707 387.50000000 0.503343 0.838906 -0.207081 0.000000
120.25399780 291.91400146 377.50000000 -0.423384 -0.131688 0.896328 0.000000
82.61720276 281.35699463 345.00000000 -0.052932 -0.670946 0.739614 0.000000
240.50799561 149.62899780 367.50000000 0.000978 0.000978 0.999999 0.000000
155.13699341 154.21899414 427.50000000 -0.146804 0.469483 -0.870651 0.000000
156.97300720 139.53100586 412.50000000 -0.344667 0.690967 -0.635428 0.000000
87.20700073 271.71899414 337.50000000 -0.674654 -0.557468 0.483809 0.000000
237.75399780 122.08999634 382.50000000 -0.801509 -0.213838 0.558441 0.000000
73.43750000 177.62699890 325.00000000 0.938727 0.001253 0.344659 0.000000
98.22270203 239.58999634 427.50000000 -0.000978 -0.000978 -0.999999 0.000000
94.55079651 234.08200073 427.50000000 -0.000978 -0.000978 -0.999999 0.000000
245.09800720 118.87699890 390.00000000 -0.311914 0.508246 0.802743 0.000000
168.90600586 178.08599854 352.50000000 -0.628697 -0.457691 0.628697 0.000000
116.58200073 289.16000366 417.50000000 -0.000978 -0.000978 -0.999999 0.000000
121.17199707 283.65200806 422.50000000 0.107317 -0.357270 -0.927815 0.000000
82.61720276 235.91799927 417.50000000 0.630659 -0.233172 -0.740203 0.000000
121.17199707 224.90199280 437.50000000 -0.000978 -0.000978 -0.999999 0.000000
85.83010101 180.83999634 380.00000000 0.865983 0.393907 -0.308075 0.000000
144.12100220 234.08200073 437.50000000 -0.000978 -0.000978 -0.999999 0.000000
179.92199707 227.19700623 350.00000000 -0.250831 -0.832514 0.493968 0.000000
186.34800720 251.06399536 390.00000000 -0.694134 -0.451104 0.560967 0.000000
89.04299927 289.16000366 407.50000000 -0.000978 -0.000978 -0.999999 0.000000
117.50000000 249.68800354 432.50000000 0.202674 -0.173907 -0.963680 0.000000
249.68800354 131.27000427 382.50000000 -0.488752 0.268426 0.830102 0.000000
168.90600586 285.48800659 397.50000000 -0.866960 -0.178709 0.465234 0.000000
87.20700073 266.21099854 332.50000000 -0.749053 -0.529418 0.398293 0.000000
143.20300293 195.52699280 437.50000000 -0.000978 -0.000978 -0.999999 0.000000
275.39099121 148.71099854 387.50000000 0.000978 0.000978 0.999999 0.000000
56.45510101 220.31199646 310.00000000 0.000000 0.000000 0.000000 0.000000
219.39500427 117.50000000 382.50000000 -0.717017 0.189662 0.670757 0.000000
106.48400116 246.47500610 340.00000000 -0.541853 -0.669347 0.508301 0.000000
88.12500000 220.31199646 307.50000000 -0.484846 0.163580 0.859166 0.000000
79.86329651 268.96499634 407.50000000 0.865491 0.051074 -0.498313 0.000000
291.91400146 173.49600220 397.50000000 -0.882491 0.441970 0.160848 0.000000
133.10499573 186.34800720 352.50000000 -0.185568 0.740739 -0.645655 0.000000
160.64500427 220.31199646 437.50000000 -0.000978 -0.000978 -0.999999 0.000000
95.92769623 281.81600952 355.00000000 -0.407183 -0.410376 0.815962 0.000000
224.90199280 154.21899414 362.50000000 0.000978 0.000978 0.999999 0.000000
101.89499664 303.84799194 402.50000000 0.302731 -0.578232 -0.757629 0.000000
101.89499664 286.40600586 417.50000000 -0.000978 -0.000978 -0.999999 0.000000
146.87500000 149.62899780 422.50000000 -0.199871 0.559944 -0.804061 0.000000
92.71479797 187.26600647 417.50000000 0.680930 0.427871 -0.594357 0.000000
193.69099426 145.03900146 412.50000000 -0.000978 -0.000978 -0.999999 0.000000
149.62899780 166.15199280 347.50000000 -0.625710 -0.079478 0.775996 0.000000
138.61300659 310.27301025 392.50000000 -0.354786 -0.632729 0.688317 0.000000
144.12100220 268.96499634 427.50000000 -0.000978 -0.000978 -0.999999 0.000000
285.48800659 200.11700439 402.50000000 0.211643 0.067286 -0.975028 0.000000
93.17379761 221.22999573 310.00000000 -0.511987 0.151973 0.845443 0.000000
191.85499573 160.64500427 422.50000000 -0.664094 0.634284 -0.395807 0.000000
56.45510101 222.14799500 310.00000000 0.000978 0.000978 -0.999999 0.000000
241.42599487 193.69099426 372.50000000 -0.560188 -0.647665 0.516450 0.000000
176.25000000 281.81600952 402.50000000 -0.925063 -0.338301 0.172660 0.000000
90.87889862 251.52299500 322.50000000 -0.693322 -0.512891 0.506209 0.000000
109.23799896 216.64100647 322.50000000 -0.638768 0.055731 0.767379 0.000000
189.10200500 219.39500427 427.50000000 0.000978 0.000978 -0.999999 0.000000
173.49600220 200.11700439 437.50000000 -0.000978 -0.000978 -0.999999 0.000000
130.35200500 243.26199341 357.50000000 0.000978 0.000978 0.999999 0.000000
288.24200439 184.51199341 402.50000000 -0.841995 0.133255 -0.522769 0.000000
146.41600037 213.88699341 440.00000000 -0.561814 -0.026227 -0.826847 0.000000
98.68160248 242.34399414 325.00000000 -0.583900 -0.466786 0.664208 0.000000
87.20700073 270.80099487 412.50000000 0.383573 0.032728 -0.922931 0.000000
209.29699707 188.18400574 422.50000000 -0.000978 -0.000978 -0.999999 0.000000
263.45700073 207.46099854 402.50000000 -0.463070 -0.443434 -0.767419 0.000000
241.42599487 197.36300659 407.50000000 -0.000978 -0.000978 -0.999999 0.000000
100.05899811 191.85499573 427.50000000 0.323173 0.888350 -0.326179 0.000000
209.29699707 205.62500000 362.50000000 -0.327394 0.746717 0.578988 0.000000
245.09800720 176.70899963 410.00000000 -0.481332 -0.320362 -0.815897 0.000000
195.52699280 226.73800659 367.50000000 -0.655082 -0.720746 0.226699 0.000000
180.83999634 127.59799957 412.50000000 -0.259754 0.776114 -0.574608 0.000000
164.31599426 289.16000366 417.50000000 -0.001326 -0.876523 -0.481358 0.000000
104.64800262 266.67001343 355.00000000 -0.701367 -0.358041 0.616353 0.000000
85.37110138 197.82200623 410.00000000 0.884868 0.351234 -0.306011 0.000000
95.46880341 302.01199341 367.50000000 -0.000978 -0.000978 0.999999 0.000000
91.79689789 223.98399353 307.50000000 -0.463452 0.402089 0.789644 0.000000
89.04299927 181.29899597 390.00000000 -0.001137 0.983522 -0.180786 0.000000
189.56100464 257.03100586 400.00000000 -0.667202 -0.337679 0.663939 0.000000
110.15599823 159.72700500 412.50000000 0.747901 0.573444 -0.334375 0.000000
129.43400574 185.42999268 352.50000000 -0.305400 0.805433 0.507945 0.000000
138.15400696 201.95300293 340.00000000 -0.584342 -0.249089 0.772334 0.000000
256.11300659 208.37899780 402.50000000 -0.000978 -0.000978 -0.999999 0.000000
65.63480377 257.94900513 335.00000000 0.955743 -0.225903 0.188475 0.000000
91.79689789 224.90199280 307.50000000 -0.463452 0.402089 0.789644 0.000000
145.95700073 268.96499634 427.50000000 -0.000978 -0.000978 -0.999999 0.000000
188.18400574 256.11300659 412.50000000 -0.571954 -0.517964 -0.636067 0.000000
203.78900146 143.20300293 412.50000000 -0.000978 -0.000978 -0.999999 0.000000
235.91799927 185.42999268 412.50000000 -0.000978 -0.000978 -0.999999 0.000000
79.86329651 270.34201050 330.00000000 -0.015338 -0.718090 0.695781 0.000000
218.47700500 123.00800323 377.50000000 0.000978 0.000978 0.999999 0.000000
205.62500000 191.85499573 427.50000000 0.000978 0.000978 -0.999999 0.000000
174.41400146 165.23399353 427.50000000 0.376734 0.925427 0.040693 0.000000
105.56600189 226.73800659 432.50000000 0.167989 -0.109131 -0.979730 0.000000
123.00800323 233.62300110 345.00000000 -0.684577 -0.665248 0.297992 0.000000
57.37300110 226.73800659 310.00000000 -0.000978 -0.000978 -0.999999 0.000000
205.62500000 188.18400574 422.50000000 -0.729401 0.363884 -0.579278 0.000000
196.44500732 192.77299500 427.50000000 -0.000978 -0.000978 -0.999999 0.000000
282.73400879 156.97300720 387.50000000 0.000978 0.000978 0.999999 0.000000
152.38299561 154.21899414 427.50000000 -0.087103 0.432749 -0.897297 0.000000
113.82800293 313.02700806 387.50000000 0.208762 -0.857575 0.470089 0.000000
249.68800354 124.84400177 412.50000000 0.000978 0.000978 -0.999999 0.000000
126.68000031 276.30899048 427.50000000 -0.025003 -0.220265 -0.975120 0.000000
204.70700073 132.18800354 367.50000000 0.000978 0.000978 0.999999 0.000000
193.69099426 193.69099426 427.50000000 -0.000978 -0.000978 -0.999999 0.000000
138.61300659 203.78900146 442.50000000 -0.000978 -0.000978 -0.999999 0.000000
137.69500732 267.12899780 427.50000000 -0.000978 -0.000978 -0.999999 0.000000
248.77000427 140.44900513 377.50000000 0.000978 0.000978 0.999999 0.000000
208.37899780 172.57800293 422.50000000 0.000978 0.000978 -0.999999 0.000000
171.66000366 184.51199341 437.50000000 -0.778622 0.082647 -0.622027 0.000000
251.98199463 207.46099854 390.00000000 -0.187421 -0.844144 0.502288 0.000000
105.56600189 156.05499268 377.50000000 0.735490 -0.001380 0.677534 0.000000
90.87889862 176.70899963 385.00000000 0.763798 0.572450 -0.298184 0.000000
159.72700500 174.41400146 352.50000000 0.000978 0.000978 0.999999 0.000000
204.70700073 112.91000366 377.50000000 -0.175033 0.409376 0.895419 0.000000
123.92600250 305.68399048 407.50000000 0.156037 -0.743828 -0.649902 0.000000
173.49600220 268.04699707 422.50000000 -0.622323 -0.384619 -0.681749 0.000000
183.59399414 239.58999634 372.50000000 -0.416481 -0.853089 0.314296 0.000000
88.12500000 278.14498901 347.50000000 -0.571656 -0.484483 0.662182 0.000000
95.46880341 183.59399414 417.50000000 0.803228 0.466546 -0.370351 0.000000
169.82400513 168.90600586 432.50000000 -0.000978 -0.000978 -0.999999 0.000000
129.43400574 224.90199280 442.50000000 0.983522 0.001137 -0.180786 0.000000
62.42190170 249.22900391 355.00000000 0.991465 -0.130369 0.001096 0.000000
106.48400116 236.83599854 327.50000000 -0.682326 -0.423341 0.595998 0.000000
104.64800262 147.33399963 360.00000000 0.661209 0.733836 -0.155846 0.000000
159.72700500 281.81600952 387.50000000 0.000978 0.000978 0.999999 0.000000
180.83999634 161.56199646 422.50000000 -0.441910 0.662032 -0.605334 0.000000
159.72700500 174.41400146 437.50000000 -0.049830 0.767384 -0.639249 0.000000
146.87500000 296.50399780 387.50000000 0.000978 0.000978 0.999999 0.000000
122.08999634 178.08599854 432.50000000 0.333784 0.838378 -0.430942 0.000000
179.92199707 223.98399353 432.50000000 0.858001 -0.458509 0.231524 0.000000
273.55499268 172.57800293 382.50000000 -0.784306 0.023682 0.619922 0.000000
114.74600220 201.95300293 437.50000000 -0.000978 -0.000978 -0.999999 0.000000
69.76560211 267.12899780 377.50000000 -0.000978 -0.000978 -0.999999 0.000000
227.65600586 201.03500366 412.50000000 -0.276488 0.209798 -0.937837 0.000000
160.64500427 152.38299561 352.50000000 0.000978 0.000978 0.999999 0.000000
189.10200500 255.19500732 412.50000000 -0.571954 -0.517964 -0.636067 0.000000
186.34800720 240.50799561 422.50000000 0.163873 -0.886074 -0.433611 0.000000
84.45310211 267.12899780 412.50000000 -0.000978 -0.000978 -0.999999 0.000000
106.48400116 289.16000366 417.50000000 -0.000978 -0.000978 -0.999999 0.000000
167.98800659 217.55900574 437.50000000 -0.000978 -0.000978 -0.999999 0.000000
173.49600220 213.88699341 432.50000000 -0.000978 -0.000978 -0.999999 0.000000
85.37110138 294.66799927 357.50000000 -0.408836 -0.600839 0.686910 0.000000
281.81600952 178.08599854 402.50000000 -0.000978 -0.000978 -0.999999 0.000000
87.20700073 232.24600220 307.50000000 0.000978 0.000978 0.999999 0.000000
203.78900146 134.02299500 412.50000000 0.828209 0.413313 -0.378474 0.000000
248.77000427 207.46099854 387.50000000 0.063114 -0.917174 0.393458 0.000000
169.82400513 242.34399414 432.50000000 -0.000978 -0.000978 -0.999999 0.000000
279.06201172 193.69099426 402.50000000 -0.000978 -0.000978 -0.999999 0.000000
183.59399414 153.75999451 420.00000000 -0.744983 0.209091 -0.633468 0.000000
84.45310211 231.78700256 420.00000000 0.662655 0.041150 -0.747793 0.000000
60.12699890 223.98399353 340.00000000 0.947044 -0.236419 -0.217287 0.000000
145.95700073 276.30899048 382.50000000 0.000978 0.000978 0.999999 0.000000
245.55700684 167.98800659 370.00000000 -0.371102 -0.319178 0.872014 0.000000
128.97500610 224.90199280 440.00000000 0.727329 -0.445675 -0.521887 0.000000
143.20300293 212.05099487 442.50000000 -0.334408 -0.055952 -0.940766 0.000000
238.67199707 174.41400146 367.50000000 0.000978 0.000978 0.999999 0.000000
175.33200073 195.52699280 432.50000000 -0.000978 -0.000978 -0.999999 0.000000
257.94900513 148.71099854 377.50000000 -0.496279 0.004013 0.868154 0.000000
186.34800720 115.66400146 372.50000000 -0.067130 0.154280 0.985744 0.000000
134.94099426 143.20300293 412.50000000 0.242928 0.311925 -0.918525 0.000000
115.66400146 159.72700500 347.50000000 -0.580690 -0.584076 0.567146 0.000000
214.80499268 156.05499268 412.50000000 -0.244164 0.408938 -0.879291 0.000000
252.44099426 114.74600220 407.50000000 -0.000978 -0.000978 -0.999999 0.000000
217.55900574 189.10200500 422.50000000 -0.000978 -0.000978 -0.999999 0.000000
187.26600647 198.28100586 432.50000000 -0.000978 -0.000978 -0.999999 0.000000
288.24200439 156.97300720 397.50000000 -0.763918 0.492375 -0.417129 0.000000
267.12899780 181.75799561 382.50000000 0.000978 0.000978 0.999999 0.000000
92.71479797 243.26199341 427.50000000 0.758290 -0.306202 -0.575531 0.000000
171.66000366 119.33599854 407.50000000 0.000978 0.000978 -0.999999 0.000000
85.37110138 235.00000000 307.50000000 -0.701855 -0.165948 0.692720 0.000000
156.05499268 300.17599487 397.50000000 -0.633647 -0.475656 0.610117 0.000000
87.20700073 235.00000000 307.50000000 -0.613713 -0.188246 0.766759 0.000000
84.45310211 268.96499634 412.50000000 -0.000978 -0.000978 -0.999999 0.000000
110.15599823 197.36300659 432.50000000 0.737082 0.306716 -0.602192 0.000000
67.92970276 207.46099854 362.50000000 0.918387 0.286906 -0.272489 0.000000
71.14260101 235.91799927 395.00000000 0.957099 0.006112 -0.289697 0.000000
163.39799500 212.05099487 437.50000000 -0.000978 -0.000978 -0.999999 0.000000
131.27000427 288.24200439 422.50000000 -0.000978 -0.000978 -0.999999 0.000000
151.92399597 163.39799500 350.00000000 -0.587654 -0.109910 0.801613 0.000000
246.01600647 153.30099487 412.50000000 -0.000978 -0.000978 -0.999999 0.000000
167.98800659 278.14498901 392.50000000 -0.327394 -0.578988 0.746717 0.000000
200.11700439 242.34399414 397.50000000 -0.842745 -0.240129 0.481787 0.000000
169.82400513 177.16799927 352.50000000 -0.615172 -0.303570 0.727605 0.000000
216.64100647 115.20500183 380.00000000 -0.532339 0.472263 0.702554 0.000000
105.56600189 273.55499268 422.50000000 -0.000978 -0.000978 -0.999999 0.000000
144.58000183 151.46499634 425.00000000 0.223382 0.667022 -0.710761 0.000000
114.74600220 274.47299194 367.50000000 -0.461513 0.020066 0.886907 0.000000
175.33200073 185.42999268 432.50000000 -0.000978 -0.000978 -0.999999 0.000000
239.58999634 121.17199707 387.50000000 0.031993 0.993978 0.104803 0.000000
215.72300720 218.47700500 362.50000000 -0.507919 -0.481274 0.714418 0.000000
116.58200073 306.60198975 407.50000000 0.019167 -0.356514 -0.934093 0.000000
101.89499664 234.08200073 322.50000000 -0.686426 -0.230903 0.689567 0.000000
110.15599823 222.14799500 322.50000000 0.000978 0.000978 0.999999 0.000000
61.96289825 245.09800720 355.00000000 0.993685 -0.110653 0.018625 0.000000
167.07000732 235.91799927 432.50000000 -0.000978 -0.000978 -0.999999 0.000000
275.39099121 145.03900146 387.50000000 -0.093318 0.205300 0.974240 0.000000
105.10700226 168.90600586 420.00000000 0.360030 0.360030 -0.860672 0.000000
67.92970276 228.57400513 382.50000000 0.937426 0.233309 -0.258456 0.000000
81.69920349 297.88101196 365.00000000 0.405593 -0.405593 0.819139 0.000000
149.62899780 217.55900574 347.50000000 0.000978 0.000978 0.999999 0.000000
286.40600586 152.38299561 402.50000000 -0.000978 -0.000978 -0.999999 0.000000
197.36300659 119.33599854 407.50000000 -0.000978 -0.000978 -0.999999 0.000000
170.74200439 125.76200104 407.50000000 -0.000978 -0.000978 -0.999999 0.000000
128.51600647 249.68800354 362.50000000 -0.639353 -0.464831 0.612503 0.000000
131.27000427 308.43798828 387.50000000 -0.227962 -0.352833 0.907492 0.000000
233.16400146 184.51199341 367.50000000 0.033518 -0.279318 0.959613 0.000000
180.83999634 234.08200073 427.50000000 0.000978 0.000978 -0.999999 0.000000
215.26400757 215.72300720 360.00000000 -0.624924 -0.409433 0.664707 0.000000
155.13699341 284.57000732 387.50000000 0.000978 0.000978 0.999999 0.000000
145.95700073 245.09800720 437.50000000 0.254990 -0.174041 -0.951152 0.000000
87.20700073 283.65200806 407.50000000 0.823837 -0.215512 -0.524260 0.000000
167.07000732 174.41400146 352.50000000 0.000978 0.000978 0.999999 0.000000
139.53100586 206.54299927 442.50000000 -0.000978 -0.000978 -0.999999 0.000000
185.42999268 179.92199707 432.50000000 0.000978 0.000978 -0.999999 0.000000
150.54699707 212.05099487 437.50000000 -0.252557 0.096151 -0.962793 0.000000
85.37110138 239.58999634 307.50000000 -0.704658 -0.083158 0.704658 0.000000
200.11700439 196.90400696 380.00000000 -0.502799 0.820356 0.272414 0.000000
170.74200439 258.86700439 427.50000000 -0.167870 -0.981859 -0.088162 0.000000
87.66600037 239.58999634 310.00000000 -0.679708 -0.182585 0.710394 0.000000
76.19139862 270.80099487 332.50000000 -0.175798 -0.723067 0.668034 0.000000
204.70700073 190.02000427 427.50000000 -0.876724 0.431687 -0.212135 0.000000
65.17579651 252.44099426 317.50000000 0.855490 -0.493269 0.157552 0.000000
272.63699341 196.44500732 387.50000000 -0.332102 -0.026721 0.942865 0.000000
69.30660248 273.55499268 350.00000000 0.905422 -0.387629 0.173074 0.000000
159.72700500 147.79299927 372.50000000 0.840299 -0.250400 0.480829 0.000000
72.97850037 192.77299500 360.00000000 0.889225 0.373862 -0.263640 0.000000
231.32800293 203.78900146 382.50000000 -0.470637 -0.840974 0.266951 0.000000
285.48800659 174.41400146 402.50000000 -0.000978 -0.000978 -0.999999 0.000000
164.31599426 164.31599426 352.50000000 0.000978 0.000978 0.999999 0.000000
195.52699280 179.00399780 372.50000000 0.282580 0.954522 0.095062 0.000000
152.38299561 170.74200439 352.50000000 0.000978 0.000978 0.999999 0.000000
205.62500000 111.99199677 407.50000000 -0.000978 -0.000978 -0.999999 0.000000
136.77699280 196.90400696 440.00000000 -0.671150 0.341291 -0.658087 0.000000
148.71099854 202.87100220 357.50000000 -0.915242 0.337648 0.219831 0.000000
68.38870239 257.94900513 380.00000000 0.196137 -0.390822 -0.899327 0.000000
153.30099487 264.37500000 427.50000000 -0.172088 -0.331585 -0.927598 0.000000
169.82400513 235.00000000 357.50000000 -0.101271 -0.930345 0.352424 0.000000
111.07399750 185.42999268 327.50000000 -0.000978 -0.000978 0.999999 0.000000
152.38299561 209.75599670 365.00000000 -0.648554 0.567695 0.507051 0.000000
156.05499268 250.60499573 432.50000000 -0.000978 -0.000978 -0.999999 0.000000
78.48629761 213.88699341 405.00000000 -0.000978 -0.000978 -0.999999 0.000000
190.47900391 257.94900513 410.00000000 -0.435377 -0.403246 -0.804885 0.000000
189.10200500 212.50999451 355.00000000 0.058262 0.903742 0.424095 0.000000
130.35200500 250.60499573 437.50000000 0.099073 -0.305145 -0.947138 0.000000
136.77699280 238.67199707 437.50000000 -0.000978 -0.000978 -0.999999 0.000000
198.28100586 108.31999969 407.50000000 0.067824 0.220738 -0.972972 0.000000
103.73000336 150.08799744 365.00000000 0.700566 0.662440 -0.265294 0.000000
268.04699707 195.52699280 402.50000000 -0.000978 -0.000978 -0.999999 0.000000
135.85899353 142.28500366 347.50000000 0.321523 0.812520 0.486245 0.000000
166.15199280 296.50399780 397.50000000 -0.406430 -0.130789 0.904272 0.000000
178.08599854 111.07399750 407.50000000 -0.000978 -0.000978 -0.999999 0.000000
106.48400116 189.10200500 432.50000000 -0.000978 -0.000978 -0.999999 0.000000
126.68000031 291.91400146 417.50000000 0.160327 -0.338777 -0.927106 0.000000
201.03500366 179.00399780 362.50000000 0.983522 -0.001137 -0.180786 0.000000
284.57000732 138.61300659 402.50000000 -0.866956 0.472221 -0.159356 0.000000
172.57800293 119.79499817 370.00000000 0.424517 0.604313 0.674233 0.000000
144.12100220 191.85499573 357.50000000 -0.572623 0.495377 0.653226 0.000000
132.18800354 268.04699707 427.50000000 -0.000978 -0.000978 -0.999999 0.000000
