123.16999817 170.97399902 267.50000000 0.055867 -0.663237 0.746321 0.000000
253.66099548 188.63099670 242.50000000 0.329672 -0.061243 0.942107 0.000000
71.49019623 216.19299316 236.25000000 -0.945148 0.001242 0.326641 0.000000
105.08200073 245.47799683 266.25000000 -0.275739 0.390254 0.878448 0.000000
104.22100067 205.85699463 281.25000000 -0.528695 -0.235832 0.815393 0.000000
192.07600403 240.31100464 226.25000000 -0.006785 -0.837213 -0.546835 0.000000
154.17799377 248.92399597 263.75000000 0.220348 0.445192 0.867900 0.000000
142.11900330 261.84399414 258.75000000 0.227315 0.501924 0.834506 0.000000
66.32230377 239.44900513 191.25000000 -0.945148 0.001242 -0.326641 0.000000
156.76199341 205.85699463 271.25000000 0.449781 -0.306598 0.838865 0.000000
148.14799500 242.89500427 268.75000000 0.466835 -0.028252 0.883893 0.000000
157.62300110 319.55300903 203.75000000 0.004074 0.835164 0.549986 0.000000
254.09199524 198.96699524 243.75000000 0.572520 -0.040594 0.818885 0.000000
158.91499329 280.79299927 240.00000000 0.471135 0.625386 0.622032 0.000000
129.19900513 254.09199524 263.75000000 0.029469 0.646919 0.761989 0.000000
87.85549927 236.86500549 113.75000000 0.752722 0.067644 -0.654854 0.000000
172.69599915 233.41999817 262.50000000 0.000978 0.000978 0.999999 0.000000
177.00300598 246.33999634 205.00000000 0.953629 0.159161 -0.255460 0.000000
81.82620239 237.29600525 115.00000000 -0.910509 0.391421 -0.133279 0.000000
152.45500183 264.42800903 181.25000000 0.537186 0.084069 -0.839264 0.000000
179.58700562 204.13499451 212.50000000 -0.590194 0.026385 0.806830 0.000000
231.26699829 179.15600586 220.00000000 -0.724602 0.111135 0.680148 0.000000
211.02499390 135.22900391 216.25000000 -0.380298 -0.108461 0.918482 0.000000
225.66799927 149.00999451 223.75000000 -0.611597 0.012425 0.791072 0.000000
132.64500427 180.87899780 156.25000000 0.181194 -0.121213 -0.975949 0.000000
161.06799316 184.32400513 266.25000000 0.122342 -0.080396 0.989226 0.000000
68.04489899 235.14300537 228.75000000 -0.809053 0.081911 0.582000 0.000000
203.27299500 186.04699707 201.25000000 -0.536296 -0.143308 0.831775 0.000000
211.88699341 247.20100403 211.25000000 -0.910509 -0.391421 0.133279 0.000000
105.94300079 181.30999756 132.50000000 0.825479 -0.127561 -0.549830 0.000000
135.22900391 276.48599243 168.75000000 0.685354 0.061782 -0.725584 0.000000
80.96479797 245.47799683 128.75000000 -0.869060 0.290701 -0.400285 0.000000
88.71679688 259.26000977 243.75000000 -0.402153 0.773371 0.490073 0.000000
191.21499634 218.34700012 190.00000000 0.258934 0.850344 0.458113 0.000000
161.06799316 135.22900391 213.75000000 -0.736053 -0.189007 -0.650001 0.000000
199.82800293 232.55900574 236.25000000 -0.206930 0.804727 0.556412 0.000000
167.95899963 126.18499756 230.00000000 -0.820654 -0.543589 0.176177 0.000000
89.57810211 239.44900513 113.75000000 0.736712 0.196148 -0.647133 0.000000
118.00199890 296.72799683 232.50000000 -0.226916 0.677620 0.699529 0.000000
68.47560120 215.33200073 222.50000000 0.962989 0.239775 -0.123128 0.000000
154.17799377 199.82800293 181.25000000 -0.942200 -0.153634 -0.297751 0.000000
106.80500031 176.14199829 135.00000000 0.837476 -0.210505 -0.504303 0.000000
211.88699341 155.89999390 253.75000000 0.293390 -0.228192 0.928359 0.000000
242.46400452 229.97500610 237.50000000 -0.284059 0.944598 -0.164455 0.000000
84.41010284 192.07600403 158.75000000 -0.937633 -0.345308 0.040092 0.000000
114.55699921 190.78399658 140.00000000 0.918283 -0.228493 -0.323339 0.000000
170.54299927 178.29499817 191.25000000 0.363033 -0.279371 -0.888909 0.000000
135.22900391 141.25799561 226.25000000 -0.454248 -0.800953 0.390043 0.000000
160.63800049 302.32598877 180.00000000 -0.000978 -0.999999 -0.000978 0.000000
91.30079651 202.41200256 271.25000000 -0.582028 -0.309453 0.751986 0.000000
196.38299561 211.02499390 208.75000000 0.052540 0.620536 0.782416 0.000000
108.09700012 318.69100952 160.00000000 -0.541071 0.815417 -0.205759 0.000000
209.30299377 214.47099304 196.25000000 0.195213 -0.978491 0.066688 0.000000
80.96479797 158.48399353 146.25000000 -0.925357 -0.003829 0.379077 0.000000
69.76760101 232.55900574 231.25000000 -0.835738 0.054779 0.546390 0.000000
215.33200073 230.83599854 218.75000000 0.331893 -0.907954 -0.255865 0.000000
140.39599609 298.01998901 166.25000000 -0.000978 -0.000978 -0.999999 0.000000
250.64599609 206.71899414 231.25000000 -0.237899 -0.498821 0.833415 0.000000
149.00999451 206.71899414 278.75000000 0.629880 -0.052608 0.774909 0.000000
130.06100464 208.44099426 153.75000000 0.459520 -0.159009 -0.873818 0.000000
135.22900391 133.93699646 200.00000000 -0.393543 -0.918266 0.043727 0.000000
187.77000427 114.12599945 227.50000000 -0.707106 -0.707106 0.001384 0.000000
228.25199890 219.63900757 221.25000000 -0.408982 -0.767452 0.493711 0.000000
212.74800110 230.40499878 240.00000000 0.052278 0.580711 0.812430 0.000000
213.60899353 181.74000549 253.75000000 -0.000978 -0.000978 0.999999 0.000000
187.77000427 187.77000427 261.25000000 0.000978 0.000978 0.999999 0.000000
167.09800720 160.20700073 211.25000000 0.483095 -0.150329 0.862566 0.000000
188.63099670 144.70300293 256.25000000 -0.591581 -0.632031 0.500569 0.000000
212.74800110 190.35299683 253.75000000 0.425603 0.201756 0.882132 0.000000
183.46299744 195.52099609 263.75000000 0.187728 0.092023 0.977901 0.000000
123.16999817 290.26800537 238.75000000 0.409051 0.680647 0.607780 0.000000
168.38999939 260.12100220 242.50000000 0.797171 0.070128 -0.599667 0.000000
139.53500366 173.98800659 266.25000000 0.366586 -0.751094 0.549065 0.000000
86.99410248 302.32598877 198.75000000 -0.629565 0.757612 -0.172254 0.000000
164.51400757 306.63299561 213.75000000 0.517346 0.618456 0.591494 0.000000
70.62889862 219.20799255 195.00000000 -0.958767 -0.208775 -0.192817 0.000000
127.47699738 168.82000732 263.75000000 0.119997 -0.620723 0.774793 0.000000
207.58000183 229.11300659 241.25000000 0.335328 0.778152 0.531069 0.000000
215.33200073 207.58000183 248.75000000 0.504557 -0.031449 0.862806 0.000000
147.28700256 213.60899353 163.75000000 0.322685 0.164805 -0.932048 0.000000
102.49800110 196.81300354 275.00000000 -0.800132 -0.213471 0.560553 0.000000
247.20100403 225.66799927 243.75000000 0.273457 0.465032 0.842001 0.000000
118.00199890 143.41099548 195.00000000 -0.290701 -0.869060 0.400285 0.000000
79.24220276 185.18600464 141.25000000 -0.945148 0.001242 0.326641 0.000000
133.50599670 181.74000549 196.25000000 0.657756 -0.329690 -0.677245 0.000000
205.85699463 210.16400146 206.25000000 0.586288 -0.653484 0.478774 0.000000
170.54299927 239.44900513 261.25000000 0.469057 0.291408 0.833707 0.000000
211.88699341 116.27899933 231.25000000 0.001358 -0.824239 0.566240 0.000000
96.46869659 168.82000732 173.75000000 -0.941079 -0.263944 0.211432 0.000000
258.39801025 165.37500000 238.75000000 -0.824239 0.001358 -0.566240 0.000000
171.40400696 182.60200500 198.75000000 0.686901 0.686901 -0.237350 0.000000
87.85549927 246.33999634 113.75000000 -0.803840 0.434812 -0.405931 0.000000
136.08999634 193.79899597 156.25000000 0.766383 -0.149061 -0.624851 0.000000
80.53420258 285.96099854 217.50000000 -0.708486 0.705724 0.001381 0.000000
107.66600037 264.42800903 253.75000000 -0.183691 0.575362 0.797005 0.000000
133.50599670 210.16400146 286.25000000 0.000978 0.000978 0.999999 0.000000
164.08299255 229.11300659 175.00000000 0.229898 0.639648 -0.733483 0.000000
94.74610138 150.73199463 158.75000000 -0.893393 -0.275005 0.355276 0.000000
87.85549927 166.66700745 122.50000000 0.674957 -0.490725 -0.551019 0.000000
118.00199890 227.82099915 282.50000000 0.524051 -0.732349 0.434781 0.000000
129.19900513 229.11300659 281.25000000 0.009096 0.406724 0.913506 0.000000
82.68750000 295.00500488 160.00000000 -0.781084 0.622889 -0.043786 0.000000
167.95899963 279.07000732 193.75000000 0.713023 -0.111178 -0.692270 0.000000
155.89999390 271.31799316 251.25000000 0.340265 0.762773 0.549906 0.000000
159.34599304 127.90699768 212.50000000 -0.027644 -0.972331 0.231965 0.000000
129.19900513 317.39898682 210.00000000 -0.660092 0.576111 0.482052 0.000000
94.74610138 234.28100586 266.25000000 -0.637331 0.233323 0.734418 0.000000
67.61430359 266.14999390 195.00000000 -0.943392 0.313575 0.108083 0.000000
227.39100647 200.68899536 216.25000000 -0.218648 0.357656 0.907896 0.000000
254.95300293 193.79899597 233.75000000 0.000978 0.000978 0.999999 0.000000
131.78300476 212.74800110 286.25000000 0.000978 0.000978 0.999999 0.000000
236.00399780 180.01800537 223.75000000 -0.708308 0.354972 0.610159 0.000000
142.97999573 148.14799500 238.75000000 -0.227378 -0.672725 0.704088 0.000000
87.85549927 163.65199280 156.25000000 -0.001364 0.587928 0.808912 0.000000
181.74000549 123.16999817 236.25000000 -0.126168 -0.610062 0.782244 0.000000
177.00300598 232.55900574 240.00000000 0.828927 -0.305559 -0.468524 0.000000
130.06100464 136.52000427 202.50000000 -0.392274 -0.909682 0.136382 0.000000
103.35900116 291.98999023 131.25000000 -0.576131 0.495506 -0.650037 0.000000
169.68200684 252.36900330 251.25000000 0.922851 0.379052 -0.068310 0.000000
91.30079651 308.78601074 175.00000000 -0.707106 0.707106 -0.001384 0.000000
130.06100464 282.94601440 245.00000000 -0.192095 0.763771 0.616242 0.000000
102.49800110 286.82199097 128.75000000 -0.530701 0.655374 -0.537440 0.000000
96.46869659 251.50799561 121.25000000 0.754247 0.029496 -0.655928 0.000000
152.45500183 202.41200256 188.75000000 -0.751583 0.659209 -0.023793 0.000000
125.75399780 223.94500732 283.75000000 -0.053734 0.189859 0.980340 0.000000
199.82800293 134.36700439 211.25000000 0.686901 0.686901 0.237350 0.000000
255.38400269 140.39599609 237.50000000 -0.311201 0.941687 0.127983 0.000000
68.47560120 241.17199707 227.50000000 -0.778696 0.061438 0.624386 0.000000
102.49800110 248.06199646 128.75000000 0.846097 0.001349 -0.533028 0.000000
96.46869659 225.66799927 121.25000000 0.724890 0.079898 -0.684215 0.000000
131.35299683 146.42599487 232.50000000 -0.338575 -0.879080 0.335538 0.000000
129.19900513 161.06799316 193.75000000 0.513409 0.331077 -0.791706 0.000000
188.63099670 217.05499268 211.25000000 -0.045977 0.837334 -0.544755 0.000000
78.81150055 156.76199341 117.50000000 0.094520 -0.798334 -0.594751 0.000000
106.37400055 181.74000549 272.50000000 -0.519299 -0.367230 0.771668 0.000000
144.70300293 135.65899658 220.00000000 -0.311487 -0.914179 0.259331 0.000000
84.84079742 248.06199646 120.00000000 -0.911212 0.236133 -0.337540 0.000000
224.80700684 219.63900757 218.75000000 -0.421229 -0.718567 0.553379 0.000000
80.96479797 177.43400574 146.25000000 -0.945148 0.001242 0.326641 0.000000
74.07420349 245.47799683 153.75000000 -0.889804 0.126304 -0.438516 0.000000
79.67279816 178.29499817 142.50000000 -0.923404 0.014206 0.383568 0.000000
93.02339935 300.60299683 213.75000000 -0.481764 0.636197 0.602625 0.000000
211.88699341 190.35299683 253.75000000 0.425603 0.201756 0.882132 0.000000
126.61499786 223.08399963 283.75000000 -0.012508 0.167151 0.985852 0.000000
74.07420349 260.12100220 156.25000000 -0.553441 0.220452 -0.803184 0.000000
93.02339935 200.68899536 271.25000000 -0.537867 -0.384191 0.750398 0.000000
191.21499634 133.50599670 208.75000000 -0.268819 0.221462 0.937385 0.000000
155.03900146 222.22300720 168.75000000 -0.000978 -0.000978 -0.999999 0.000000
107.66600037 219.63900757 281.25000000 -0.274370 0.277243 0.920792 0.000000
158.48399353 242.03300476 266.25000000 0.053917 0.364266 0.929733 0.000000
203.27299500 131.78300476 246.25000000 -0.096642 -0.073903 0.992572 0.000000
129.19900513 326.44299316 196.25000000 -0.190307 0.951533 0.241595 0.000000
130.92199707 219.63900757 286.25000000 0.506758 0.506758 0.697419 0.000000
88.71679688 181.30999756 255.00000000 -0.682103 -0.675713 0.279550 0.000000
182.60200500 276.05599976 222.50000000 0.882993 0.414042 0.221119 0.000000
157.19200134 209.30299377 197.50000000 0.056046 0.965231 0.255319 0.000000
75.36620331 195.52099609 132.50000000 -0.887520 -0.017350 0.460443 0.000000
167.09800720 163.65199280 261.25000000 0.011813 -0.426589 0.904368 0.000000
201.55099487 125.75399780 243.75000000 0.094704 -0.779487 0.619218 0.000000
140.39599609 187.33900452 182.50000000 0.533870 -0.818396 0.212630 0.000000
209.30299377 216.19299316 251.25000000 0.062744 0.115221 0.991356 0.000000
172.26600647 270.45700073 198.75000000 0.780372 -0.015247 -0.625129 0.000000
106.37400055 270.45700073 135.00000000 0.886099 -0.185395 -0.424802 0.000000
83.54879761 237.72700500 248.75000000 -0.842992 0.364410 0.395690 0.000000
166.66700745 198.96699524 212.50000000 0.507945 0.305400 -0.805433 0.000000
148.14799500 131.35299683 212.50000000 -0.426793 -0.855127 0.294287 0.000000
123.16999817 248.92399597 153.75000000 0.692896 -0.383480 -0.610605 0.000000
80.96479797 293.28201294 202.50000000 -0.743864 0.533678 0.402311 0.000000
212.74800110 234.28100586 226.25000000 -0.705755 -0.061807 -0.705755 0.000000
148.14799500 220.50000000 163.75000000 -0.000978 -0.000978 -0.999999 0.000000
78.38089752 195.95199585 195.00000000 -0.811019 -0.573433 -0.115860 0.000000
201.55099487 229.97500610 186.25000000 0.719930 -0.325182 -0.613154 0.000000
66.32230377 248.49299622 212.50000000 -0.795871 -0.055328 -0.602933 0.000000
117.14099884 288.54501343 146.25000000 0.903752 -0.271860 -0.330641 0.000000
167.95899963 178.29499817 211.25000000 -0.965344 0.259947 0.023188 0.000000
254.09199524 209.30299377 233.75000000 -0.568774 0.031985 0.821872 0.000000
127.47699738 309.64700317 225.00000000 -0.413344 0.685586 0.599265 0.000000
100.77500153 175.71099854 128.75000000 0.943392 -0.313575 -0.108083 0.000000
82.25679779 198.96699524 160.00000000 -0.843867 -0.507511 -0.174131 0.000000
109.38899994 227.39100647 281.25000000 -0.503455 0.001335 0.864020 0.000000
203.70399475 165.37500000 205.00000000 -0.532019 0.111622 0.839343 0.000000
196.38299561 145.56399536 256.25000000 0.583935 -0.556854 0.590706 0.000000
87.42479706 180.87899780 252.50000000 -0.747222 -0.618228 0.243830 0.000000
76.65820313 189.92300415 227.50000000 -0.876771 -0.436168 -0.202559 0.000000
96.89939880 169.68200684 190.00000000 -0.821320 -0.570092 0.020706 0.000000
154.60800171 214.47099304 275.00000000 0.591826 -0.006866 0.806037 0.000000
123.16999817 229.97500610 151.25000000 0.508951 0.004029 -0.860786 0.000000
219.63900757 161.92999268 253.75000000 0.000978 0.000978 0.999999 0.000000
142.55000305 158.48399353 195.00000000 -0.272237 0.651139 -0.708452 0.000000
68.04489899 251.50799561 223.75000000 -0.818335 0.232709 0.525522 0.000000
157.62300110 315.24600220 173.75000000 -0.000978 -0.000978 -0.999999 0.000000
80.53420258 192.07600403 207.50000000 -0.855097 -0.499657 -0.138389 0.000000
178.29499817 206.71899414 263.75000000 0.319185 -0.428175 0.845451 0.000000
133.50599670 194.66000366 283.75000000 0.404976 -0.274534 0.872139 0.000000
256.67599487 192.07600403 241.25000000 0.375998 -0.003824 0.926612 0.000000
90.00879669 180.01800537 190.00000000 -0.787135 -0.608971 -0.097844 0.000000
142.11900330 199.82800293 283.75000000 0.456534 -0.283206 0.843428 0.000000
176.57200623 275.62500000 231.25000000 0.724863 0.032499 0.688126 0.000000
121.44699860 241.60299683 275.00000000 0.158423 0.449107 0.879321 0.000000
149.87100220 189.92300415 170.00000000 -0.414691 -0.909687 -0.022380 0.000000
95.17669678 181.74000549 122.50000000 0.659767 -0.098451 -0.744993 0.000000
111.97299957 264.42800903 253.75000000 -0.031637 0.532328 0.845947 0.000000
80.53420258 283.37701416 225.00000000 0.092421 0.906281 0.412448 0.000000
110.25000000 237.72700500 138.75000000 0.848663 0.193082 -0.492434 0.000000
189.92300415 242.03300476 222.50000000 0.136002 -0.843795 -0.519146 0.000000
130.06100464 169.68200684 266.25000000 0.023793 -0.659209 0.751583 0.000000
170.54299927 229.97500610 178.75000000 0.406497 0.432204 -0.804960 0.000000
178.29499817 216.19299316 266.25000000 0.000978 0.000978 0.999999 0.000000
216.19299316 136.95100403 218.75000000 -0.399945 0.063291 0.914351 0.000000
149.00999451 326.87399292 190.00000000 0.004151 0.715354 0.698750 0.000000
167.52799988 277.34799194 237.50000000 0.536927 0.346665 0.769112 0.000000
84.41010284 291.98999023 213.75000000 -0.786925 0.543089 0.292920 0.000000
133.50599670 213.60899353 156.25000000 0.686099 -0.192724 -0.701517 0.000000
98.19139862 308.78601074 205.00000000 -0.574693 0.760387 0.302554 0.000000
151.59399414 200.68899536 168.75000000 0.701368 0.018199 -0.712567 0.000000
164.94400024 164.51400757 215.00000000 0.777208 -0.252789 0.576233 0.000000
215.33200073 130.92199707 243.75000000 0.323010 -0.406467 0.854663 0.000000
175.71099854 231.69700623 183.75000000 0.456267 0.660167 -0.596657 0.000000
147.28700256 323.85900879 171.25000000 0.432538 0.442258 -0.785696 0.000000
113.69499969 196.38299561 283.75000000 -0.198135 -0.139333 0.970221 0.000000
149.00999451 296.72799683 232.50000000 0.686901 0.686901 0.237350 0.000000
138.67399597 326.01300049 172.50000000 -0.001242 0.945148 -0.326641 0.000000
92.16210175 273.04098511 126.25000000 -0.506622 0.377134 -0.775309 0.000000
82.68750000 196.38299561 176.25000000 -0.848675 -0.508619 -0.145110 0.000000
136.95100403 300.60299683 231.25000000 0.232320 0.587816 0.774919 0.000000
163.22200012 269.59600830 247.50000000 0.459172 0.721082 0.518847 0.000000
123.60099792 169.68200684 192.50000000 0.812127 0.260317 -0.522193 0.000000
165.37500000 191.21499634 211.25000000 -0.000978 -0.000978 -0.999999 0.000000
82.25679779 198.10499573 162.50000000 -0.843867 -0.507511 -0.174131 0.000000
192.07600403 109.81900024 222.50000000 -0.383499 -0.860947 0.334214 0.000000
228.25199890 181.74000549 216.25000000 -0.669876 -0.046934 0.740988 0.000000
173.98800659 244.61700439 256.25000000 0.799529 0.499506 0.333536 0.000000
74.50489807 198.96699524 217.50000000 -0.851628 -0.336618 -0.401770 0.000000
238.58799744 230.40499878 242.50000000 -0.084682 0.825289 0.558326 0.000000
138.67399597 311.36999512 222.50000000 0.274261 0.960538 -0.046336 0.000000
127.47699738 238.58799744 276.25000000 0.288984 0.739225 0.608304 0.000000
159.77600098 171.40400696 190.00000000 -0.375377 0.188408 -0.907521 0.000000
132.64500427 160.63800049 247.50000000 0.126848 -0.702886 0.699901 0.000000
102.49800110 181.74000549 268.75000000 -0.591640 -0.177948 0.786318 0.000000
164.51400757 254.95300293 188.75000000 0.658345 0.126892 -0.741944 0.000000
242.46400452 222.22300720 245.00000000 0.339711 0.593275 0.729809 0.000000
208.44099426 181.74000549 256.25000000 0.153337 0.260006 0.953355 0.000000
115.41799927 195.52099609 283.75000000 -0.198135 -0.139333 0.970221 0.000000
137.81199646 156.76199341 193.75000000 -0.009527 0.834309 -0.551215 0.000000
112.83399963 257.53698730 258.75000000 -0.449086 0.449086 0.772427 0.000000
151.59399414 196.38299561 201.25000000 0.498471 0.056928 -0.865035 0.000000
93.88480377 169.68200684 208.75000000 -0.794430 -0.514230 -0.323185 0.000000
99.91400146 254.09199524 126.25000000 0.801148 -0.001369 -0.598464 0.000000
167.52799988 254.09199524 247.50000000 0.855127 0.426793 -0.294287 0.000000
185.18600464 151.59399414 253.75000000 -0.763122 -0.113657 0.636181 0.000000
85.70210266 242.89500427 250.00000000 -0.736865 0.206322 0.643787 0.000000
80.96479797 266.14999390 231.25000000 -0.539055 0.398147 0.742225 0.000000
124.89299774 144.27200317 217.50000000 -0.260143 -0.958214 -0.118960 0.000000
73.21289825 195.52099609 233.75000000 -0.823322 -0.492118 0.282773 0.000000
176.14199829 263.56600952 200.00000000 0.643860 0.196092 -0.739590 0.000000
101.63700104 255.81399536 256.25000000 -0.561658 0.190264 0.805196 0.000000
186.04699707 235.14300537 233.75000000 -0.171070 -0.504284 -0.846424 0.000000
73.64350128 213.60899353 190.00000000 -0.791462 -0.438622 -0.425674 0.000000
209.30299377 238.15699768 227.50000000 -0.537040 -0.215734 -0.815504 0.000000
154.17799377 161.06799316 188.75000000 -0.570499 0.570499 -0.590814 0.000000
219.63900757 177.43400574 211.25000000 -0.452224 0.145925 0.879886 0.000000
208.01100159 116.27899933 215.00000000 -0.529653 -0.087086 0.843732 0.000000
219.63900757 134.36700439 246.25000000 0.039765 -0.495008 0.867978 0.000000
80.53420258 183.46299744 237.50000000 -0.785323 -0.593929 0.174685 0.000000
93.02339935 305.77099609 203.75000000 -0.591282 0.766941 0.249373 0.000000
84.41010284 148.57899475 152.50000000 -0.873648 -0.215807 0.436080 0.000000
198.10499573 245.04800415 222.50000000 0.196337 -0.966084 -0.167732 0.000000
152.45500183 232.98899841 170.00000000 0.466893 0.418088 -0.779239 0.000000
167.95899963 214.90100098 190.00000000 -0.640214 0.682786 0.352036 0.000000
165.37500000 147.28700256 246.25000000 -0.526650 -0.530015 0.664623 0.000000
68.47560120 249.78500366 167.50000000 -0.945148 -0.001242 -0.326641 0.000000
211.02499390 162.79100037 256.25000000 -0.000978 -0.000978 0.999999 0.000000
88.71679688 182.60200500 116.25000000 0.771255 -0.256038 -0.582761 0.000000
76.65820313 271.31799316 153.75000000 -0.945148 0.001242 -0.326641 0.000000
126.61499786 242.89500427 156.25000000 0.547809 0.182603 -0.816432 0.000000
171.40400696 228.25199890 178.75000000 0.446216 0.385441 -0.807667 0.000000
152.45500183 262.70498657 256.25000000 0.730700 -0.104807 0.674606 0.000000
86.56349945 302.32598877 167.50000000 -0.832985 0.544255 -0.099612 0.000000
149.87100220 196.38299561 273.75000000 0.709463 -0.362105 0.604600 0.000000
164.08299255 254.95300293 235.00000000 0.743238 -0.463082 0.482858 0.000000
150.30200195 137.81199646 230.00000000 -0.296317 -0.823103 0.484455 0.000000
85.70210266 302.32598877 185.00000000 -0.701936 0.701936 0.120715 0.000000
85.70210266 302.32598877 175.00000000 -0.686901 0.686901 -0.237350 0.000000
221.36099243 128.33799744 241.25000000 0.136493 -0.706463 0.694464 0.000000
124.89299774 231.69700623 281.25000000 0.045335 0.340664 0.939092 0.000000
71.92089844 201.55099487 237.50000000 -0.924054 -0.157970 0.348093 0.000000
69.33689880 185.18600464 117.50000000 -0.971818 0.194364 0.133387 0.000000
86.56349945 186.04699707 182.50000000 -0.926414 -0.370831 -0.065128 0.000000
88.71679688 299.31100464 210.00000000 -0.736554 0.622507 0.264526 0.000000
96.46869659 221.36099243 273.75000000 -0.620406 0.145713 0.770626 0.000000
75.79689789 209.30299377 186.25000000 -0.912764 -0.114961 -0.391976 0.000000
203.27299500 242.89500427 196.25000000 -0.708778 0.314833 -0.631280 0.000000
111.54199982 279.93200684 242.50000000 -0.351373 0.674964 0.648815 0.000000
75.79689789 243.75599670 143.75000000 -0.999999 -0.000978 -0.000978 0.000000
167.95899963 273.90200806 238.75000000 0.562810 0.370313 0.738994 0.000000
248.92399597 174.85000610 243.75000000 0.318060 -0.055371 0.946452 0.000000
172.69599915 238.58799744 187.50000000 0.570499 0.570499 -0.590814 0.000000
79.67279816 187.77000427 217.50000000 -0.846655 -0.510938 -0.148717 0.000000
83.54879761 146.42599487 143.75000000 -0.479180 -0.637225 0.603598 0.000000
91.30079651 186.47799683 117.50000000 0.718680 -0.303871 -0.625429 0.000000
95.60739899 275.62500000 126.25000000 -0.374675 0.510920 -0.773679 0.000000
128.33799744 204.99600220 153.75000000 0.478498 0.017424 -0.877916 0.000000
87.85549927 260.98199463 241.25000000 -0.354972 0.708308 0.610159 0.000000
172.26600647 281.65399170 233.75000000 0.407457 0.439667 0.800420 0.000000
191.64500427 148.14799500 205.00000000 -0.613477 0.296327 0.732008 0.000000
149.87100220 319.12200928 170.00000000 0.642864 0.286964 -0.710196 0.000000
220.50000000 174.85000610 253.75000000 0.392936 0.130046 0.910324 0.000000
94.31539917 173.98800659 197.50000000 -0.746385 -0.664859 0.029518 0.000000
216.19299316 186.90800476 253.75000000 0.105931 -0.041257 0.993517 0.000000
81.39550018 185.18600464 247.50000000 -0.706773 -0.422077 0.567735 0.000000
136.95100403 165.37500000 198.75000000 0.680660 -0.136733 -0.719726 0.000000
141.25799561 298.88101196 231.25000000 0.116792 0.500333 0.857920 0.000000
167.95899963 160.20700073 258.75000000 0.001364 -0.587928 0.808912 0.000000
70.62889862 267.01199341 218.75000000 -0.845465 0.457383 0.275662 0.000000
167.52799988 211.88699341 195.00000000 -0.654134 0.657429 0.374026 0.000000
86.99410248 174.41900635 222.50000000 -0.778562 -0.616054 -0.119665 0.000000
208.44099426 208.44099426 251.25000000 0.637277 0.296968 0.711118 0.000000
175.71099854 238.58799744 236.25000000 -0.334363 0.026698 -0.942066 0.000000
204.13499451 147.28700256 211.25000000 -0.406716 0.344384 0.846157 0.000000
107.23500061 151.59399414 197.50000000 -0.814097 -0.579503 0.037703 0.000000
123.16999817 304.91000366 143.75000000 0.901143 0.140493 -0.410126 0.000000
125.75399780 257.53698730 158.75000000 0.555535 0.072461 -0.828330 0.000000
75.79689789 193.79899597 218.75000000 -0.843122 -0.316366 -0.434808 0.000000
161.06799316 321.27499390 188.75000000 0.707106 0.707106 -0.001384 0.000000
198.10499573 192.93699646 198.75000000 0.608282 -0.303339 0.733470 0.000000
161.92999268 155.03900146 253.75000000 -0.587381 -0.583995 0.560297 0.000000
148.14799500 275.19400024 250.00000000 0.308288 0.631103 0.711806 0.000000
212.74800110 127.04599762 242.50000000 0.395321 -0.610349 0.686436 0.000000
164.51400757 218.77699280 171.25000000 0.573680 -0.134896 -0.807895 0.000000
149.00999451 200.25900269 277.50000000 0.734880 -0.310354 0.603019 0.000000
223.94500732 215.33200073 248.75000000 -0.164622 0.505730 0.846839 0.000000
65.89160156 255.81399536 187.50000000 -0.862308 -0.172462 -0.476112 0.000000
144.70300293 207.58000183 281.25000000 0.565591 0.143996 0.812017 0.000000
170.54299927 184.75500488 202.50000000 0.767083 0.640872 -0.029449 0.000000
149.00999451 321.27499390 171.25000000 0.432538 0.442258 -0.785696 0.000000
182.60200500 214.90100098 207.50000000 -0.597877 0.742137 0.302946 0.000000
257.53698730 184.32400513 241.25000000 0.000978 0.000978 0.999999 0.000000
196.38299561 158.48399353 201.25000000 -0.557931 0.240889 0.794157 0.000000
148.14799500 312.66198730 166.25000000 0.543559 -0.202502 -0.814577 0.000000
130.92199707 223.08399963 283.75000000 0.032399 0.361568 0.931783 0.000000
192.93699646 214.47099304 196.25000000 0.001381 0.694569 0.719425 0.000000
159.34599304 242.89500427 178.75000000 0.457684 0.438139 -0.773666 0.000000
137.81199646 169.68200684 198.75000000 0.199217 -0.027112 -0.979580 0.000000
83.54879761 189.06100464 190.00000000 -0.849890 -0.520717 -0.080874 0.000000
97.33010101 304.47900391 212.50000000 -0.329794 0.770592 0.545366 0.000000
88.28610229 174.85000610 237.50000000 -0.686901 -0.686901 0.237350 0.000000
215.33200073 124.03099823 238.75000000 0.162852 -0.725985 0.668150 0.000000
70.19819641 229.97500610 170.00000000 -0.943392 -0.313575 -0.108083 0.000000
147.28700256 162.79100037 251.25000000 -0.544507 -0.632167 0.551250 0.000000
183.46299744 139.53500366 206.25000000 -0.231825 0.323979 0.917221 0.000000
173.98800659 186.90800476 266.25000000 0.000000 0.000000 0.000000 0.000000
91.30079651 195.52099609 116.25000000 0.832692 -0.277564 -0.479147 0.000000
180.87899780 178.29499817 261.25000000 0.235562 -0.005919 0.971841 0.000000
74.50489807 215.33200073 182.50000000 -0.934507 -0.331511 -0.129603 0.000000
165.37500000 223.08399963 268.75000000 0.399028 0.060459 0.914943 0.000000
207.58000183 214.47099304 201.25000000 0.280931 -0.930321 0.235757 0.000000
224.80700684 131.78300476 223.75000000 -0.288147 0.092572 0.953101 0.000000
210.16400146 177.43400574 256.25000000 0.000978 0.000978 0.999999 0.000000
211.02499390 144.70300293 251.25000000 0.173613 -0.354284 0.918880 0.000000
80.10350037 148.57899475 137.50000000 -0.987156 -0.159438 0.010177 0.000000
106.80500031 155.89999390 231.25000000 -0.593759 -0.793166 0.135419 0.000000
116.27899933 278.20901489 151.25000000 0.696587 -0.038305 -0.716449 0.000000
99.05269623 275.62500000 241.25000000 -0.315991 0.669254 0.672495 0.000000
128.33799744 291.12899780 158.75000000 0.316368 -0.476914 -0.820039 0.000000
163.22200012 235.14300537 177.50000000 0.503061 0.392355 -0.770057 0.000000
229.97500610 165.37500000 251.25000000 0.638537 -0.333079 0.693779 0.000000
208.44099426 219.63900757 251.25000000 0.680107 0.337607 0.650750 0.000000
147.28700256 204.13499451 166.25000000 0.442819 -0.532378 -0.721447 0.000000
162.79100037 273.04098511 186.25000000 0.395913 -0.203070 -0.895553 0.000000
218.77699280 227.82099915 225.00000000 -0.185016 -0.775230 0.603976 0.000000
145.56399536 149.87100220 241.25000000 -0.304281 -0.616611 0.726088 0.000000
217.48500061 218.77699280 202.50000000 -0.872401 0.487398 -0.036862 0.000000
65.89160156 245.47799683 187.50000000 -0.995536 0.056102 -0.075903 0.000000
180.44799805 254.09199524 215.00000000 0.919277 -0.393609 -0.001282 0.000000
242.03300476 165.37500000 246.25000000 0.210736 -0.059688 0.975719 0.000000
137.81199646 326.87399292 175.00000000 -0.072364 0.975077 -0.209734 0.000000
211.02499390 141.25799561 251.25000000 0.321281 -0.360870 0.875529 0.000000
190.35299683 198.10499573 203.75000000 0.524453 -0.412658 0.744757 0.000000
71.05960083 199.82800293 117.50000000 -0.989071 0.030660 0.144216 0.000000
211.02499390 187.77000427 253.75000000 0.223363 -0.152827 0.962680 0.000000
242.89500427 151.59399414 231.25000000 -0.264612 -0.144938 0.953401 0.000000
64.16889954 236.00399780 200.00000000 -0.971059 -0.170159 -0.167600 0.000000
167.09800720 136.95100403 238.75000000 -0.475427 -0.426414 0.769506 0.000000
107.66600037 165.37500000 258.75000000 -0.140046 -0.924860 0.353582 0.000000
164.51400757 150.73199463 188.75000000 -0.525290 0.342161 0.779100 0.000000
108.52700043 186.90800476 278.75000000 -0.729809 0.339711 0.593275 0.000000
142.97999573 320.84500122 205.00000000 0.175932 0.696078 0.696078 0.000000
121.44699860 260.12100220 258.75000000 -0.219341 0.364600 0.904962 0.000000
173.98800659 180.01800537 203.75000000 0.512977 0.854015 0.086680 0.000000
236.86500549 198.96699524 223.75000000 -0.672851 0.046943 0.738287 0.000000
186.90800476 212.74800110 261.25000000 0.881095 -0.455542 0.127095 0.000000
225.66799927 175.71099854 216.25000000 -0.750247 0.500712 0.431761 0.000000
161.92999268 179.15600586 191.25000000 -0.244019 0.741502 -0.625003 0.000000
116.70999908 287.68399048 147.50000000 0.846020 -0.367495 -0.386261 0.000000
180.01800537 173.12699890 261.25000000 0.488082 -0.103877 0.866594 0.000000
100.77500153 194.66000366 126.25000000 0.771087 -0.061515 -0.633751 0.000000
77.51950073 267.01199341 151.25000000 -0.985683 -0.165244 -0.033511 0.000000
238.15699768 158.48399353 247.50000000 0.377128 -0.129420 0.917074 0.000000
65.89160156 251.50799561 207.50000000 -0.996496 -0.076654 0.033468 0.000000
94.74610138 169.25100708 165.00000000 -0.824193 -0.414478 0.385894 0.000000
78.38089752 242.03300476 241.25000000 -0.686521 0.139708 0.713562 0.000000
252.36900330 174.85000610 243.75000000 0.000978 0.000978 0.999999 0.000000
167.95899963 166.23599243 261.25000000 0.000978 0.000978 0.999999 0.000000
74.93550110 203.27299500 196.25000000 -0.824239 0.001358 -0.566240 0.000000
107.23500061 163.65199280 255.00000000 -0.574446 -0.716000 0.396681 0.000000
134.79800415 183.46299744 280.00000000 0.384921 -0.642636 0.662461 0.000000
123.16999817 318.69100952 148.75000000 0.063573 0.829279 -0.555207 0.000000
127.47699738 314.38500977 211.25000000 -0.211876 0.473341 0.855019 0.000000
204.99600220 229.11300659 246.25000000 -0.115998 0.992176 0.046174 0.000000
161.92999268 208.87199402 205.00000000 -0.400567 0.900198 0.170851 0.000000
113.26499939 260.12100220 257.50000000 -0.359919 0.445539 0.819728 0.000000
134.79800415 180.87899780 277.50000000 0.384921 -0.642636 0.662461 0.000000
198.10499573 236.43499756 195.00000000 -0.283948 0.873103 -0.396313 0.000000
131.78300476 182.17100525 190.00000000 0.436634 -0.898795 0.038961 0.000000
148.57899475 293.71301270 175.00000000 0.559212 -0.031915 -0.828410 0.000000
166.23599243 304.91000366 211.25000000 0.855127 0.426793 0.294287 0.000000
193.79899597 105.94300079 216.25000000 -0.125020 -0.872268 0.472778 0.000000
118.00199890 189.49200439 283.75000000 0.000978 0.000978 0.999999 0.000000
170.54299927 161.06799316 191.25000000 -0.469000 -0.022845 0.882903 0.000000
173.55799866 232.55900574 262.50000000 0.185507 0.383956 0.904525 0.000000
166.23599243 166.23599243 213.75000000 -0.741182 -0.136258 0.657331 0.000000
71.92089844 206.71899414 117.50000000 -0.855127 0.426793 0.294287 0.000000
130.06100464 250.64599609 268.75000000 -0.189851 0.946521 0.260874 0.000000
164.51400757 211.02499390 191.25000000 -0.557745 0.725562 0.403090 0.000000
113.69499969 239.01899719 145.00000000 0.754591 -0.250480 -0.606508 0.000000
160.63800049 291.98999023 182.50000000 0.552776 -0.304265 -0.775797 0.000000
133.07499695 270.45700073 167.50000000 0.815229 0.124855 -0.565520 0.000000
103.35900116 260.98199463 131.25000000 0.818473 0.090941 -0.567302 0.000000
76.22750092 212.74800110 175.00000000 -0.883830 -0.442636 -0.151390 0.000000
247.20100403 223.08399963 233.75000000 -0.339792 -0.427480 0.837736 0.000000
167.09800720 280.79299927 236.25000000 0.405986 0.383870 0.829349 0.000000
242.89500427 158.48399353 246.25000000 0.437593 -0.044432 0.898075 0.000000
161.92999268 319.55300903 198.75000000 0.280022 0.959899 0.013451 0.000000
110.25000000 310.50900269 212.50000000 -0.326818 0.671522 0.665018 0.000000
132.64500427 237.72700500 276.25000000 0.129088 0.609831 0.781948 0.000000
143.41099548 231.69700623 277.50000000 0.384343 0.001277 0.923189 0.000000
66.32230377 257.53698730 206.25000000 -0.928660 0.186292 -0.320759 0.000000
236.00399780 168.82000732 248.75000000 0.383784 -0.278432 0.880446 0.000000
111.97299957 260.98199463 256.25000000 -0.235832 0.528695 0.815393 0.000000
111.11100006 248.06199646 266.25000000 -0.251004 0.623563 0.740382 0.000000
105.51300049 154.17799377 210.00000000 -0.622249 -0.769190 0.145441 0.000000
223.08399963 197.24400330 248.75000000 0.000978 0.000978 0.999999 0.000000
202.84300232 245.47799683 197.50000000 -0.702805 0.525852 -0.479109 0.000000
79.67279816 282.51599121 222.50000000 -0.752472 0.614805 0.236223 0.000000
75.79689789 189.49200439 231.25000000 -0.686901 -0.686901 -0.237350 0.000000
105.94300079 304.91000366 221.25000000 -0.409120 0.890092 0.200894 0.000000
121.01699829 232.55900574 150.00000000 0.508951 0.004029 -0.860786 0.000000
133.07499695 161.06799316 247.50000000 0.126848 -0.702886 0.699901 0.000000
237.72700500 180.01800537 248.75000000 0.550323 0.028964 0.834449 0.000000
181.30999756 233.41999817 242.50000000 0.542116 0.130754 -0.830069 0.000000
140.39599609 192.50700378 282.50000000 0.705327 -0.439792 0.555964 0.000000
94.74610138 286.82199097 133.75000000 -0.386582 0.490102 -0.781252 0.000000
78.81150055 197.24400330 142.50000000 -0.944918 -0.181873 0.272125 0.000000
73.21289825 198.96699524 128.75000000 -0.920562 -0.068339 0.384572 0.000000
215.33200073 154.17799377 253.75000000 -0.133389 -0.265456 0.954851 0.000000
124.89299774 158.48399353 246.25000000 -0.202822 -0.874947 0.439694 0.000000
213.60899353 124.03099823 238.75000000 0.120174 -0.749233 0.651313 0.000000
165.37500000 147.71800232 247.50000000 -0.540038 -0.516485 0.664532 0.000000
195.52099609 236.00399780 196.25000000 -0.326006 0.867818 -0.374983 0.000000
132.64500427 243.75599670 161.25000000 0.642599 0.213162 -0.735954 0.000000
157.62300110 245.47799683 178.75000000 0.457180 0.434403 -0.776067 0.000000
251.50799561 155.03900146 233.75000000 0.000978 0.000978 0.999999 0.000000
156.33099365 130.06100464 220.00000000 -0.686901 -0.686901 0.237350 0.000000
139.53500366 256.67599487 261.25000000 0.040354 0.555211 0.830730 0.000000
163.65199280 255.38400269 187.50000000 0.658345 0.126892 -0.741944 0.000000
248.49299622 142.97999573 242.50000000 0.353032 -0.125003 0.927223 0.000000
238.58799744 169.68200684 228.75000000 -0.618804 0.329704 0.713005 0.000000
126.61499786 227.82099915 282.50000000 -0.047846 0.337507 0.940106 0.000000
111.54199982 238.58799744 142.50000000 0.107283 0.960379 -0.257221 0.000000
145.56399536 242.03300476 271.25000000 0.271840 0.631114 0.726497 0.000000
142.55000305 210.16400146 282.50000000 0.598297 0.365535 0.713039 0.000000
204.13499451 211.02499390 253.75000000 0.644111 0.082877 0.760429 0.000000
80.10350037 195.95199585 187.50000000 -0.834271 -0.500563 -0.231147 0.000000
100.34500122 187.77000427 125.00000000 0.530714 -0.102116 -0.841377 0.000000
77.08889771 236.86500549 132.50000000 -0.886133 0.418819 -0.198388 0.000000
98.19139862 260.55200195 122.50000000 0.762033 -0.168834 -0.625141 0.000000
180.87899780 246.77000427 227.50000000 -0.760272 -0.420193 -0.495403 0.000000
83.54879761 279.93200684 143.75000000 -0.859115 0.305839 -0.410346 0.000000
176.57200623 155.89999390 258.75000000 -0.001242 -0.945148 0.326641 0.000000
89.57810211 298.01998901 213.75000000 -0.482788 0.721693 0.496060 0.000000
127.47699738 186.04699707 283.75000000 0.057517 -0.223951 0.972902 0.000000
224.80700684 204.13499451 248.75000000 0.000978 0.000978 0.999999 0.000000
112.83399963 310.07800293 143.75000000 -0.408615 0.749948 -0.520204 0.000000
230.83599854 225.66799927 246.25000000 -0.000978 -0.000978 0.999999 0.000000
165.37500000 159.34599304 188.75000000 0.000978 0.000978 0.999999 0.000000
198.10499573 217.05499268 191.25000000 -0.172088 0.331585 0.927598 0.000000
164.51400757 246.77000427 185.00000000 0.623066 0.340002 -0.704406 0.000000
153.74699402 230.83599854 170.00000000 0.552835 0.355047 -0.753866 0.000000
194.66000366 178.29499817 198.75000000 -0.367051 0.260057 0.893109 0.000000
196.38299561 219.63900757 218.75000000 0.134667 -0.806521 0.575664 0.000000
75.36620331 275.62500000 157.50000000 -0.892953 0.225077 -0.389840 0.000000
170.54299927 273.47198486 237.50000000 0.532894 0.178632 0.827112 0.000000
110.25000000 211.02499390 283.75000000 -0.246674 -0.896593 0.367795 0.000000
99.91400146 214.47099304 123.75000000 0.684795 0.126814 -0.717617 0.000000
169.68200684 127.47699738 233.75000000 -0.551867 -0.710964 0.435859 0.000000
136.52000427 266.14999390 170.00000000 0.733668 -0.123518 -0.668188 0.000000
145.56399536 322.56698608 202.50000000 0.165933 0.707879 0.686567 0.000000
233.85099792 223.94500732 227.50000000 -0.402378 -0.601083 0.690500 0.000000
116.27899933 252.36900330 263.75000000 0.149796 0.688457 0.709640 0.000000
87.85549927 191.21499634 261.25000000 -0.686918 -0.398909 0.607467 0.000000
259.26000977 174.85000610 233.75000000 -0.922103 -0.200334 0.331048 0.000000
238.58799744 142.11900330 231.25000000 -0.655314 -0.038215 0.754389 0.000000
200.68899536 192.93699646 256.25000000 0.282314 -0.188668 0.940587 0.000000
73.64350128 237.72700500 150.00000000 -0.945148 -0.001242 -0.326641 0.000000
93.45410156 174.85000610 195.00000000 -0.746385 -0.664859 0.029518 0.000000
131.78300476 306.63299561 156.25000000 -0.000978 -0.000978 -0.999999 0.000000
216.62399292 204.13499451 207.50000000 -0.609623 -0.275365 0.743326 0.000000
89.14739990 293.71301270 220.00000000 -0.551857 0.729769 0.403597 0.000000
149.87100220 309.21701050 168.75000000 0.677452 -0.107743 -0.727633 0.000000
119.29399872 295.43600464 145.00000000 0.751097 -0.522004 -0.404185 0.000000
249.78500366 155.03900146 233.75000000 0.000978 0.000978 0.999999 0.000000
96.46869659 168.82000732 203.75000000 -0.863495 -0.327851 -0.383262 0.000000
77.08889771 289.40600586 175.00000000 -0.904570 0.400616 -0.145807 0.000000
84.41010284 181.74000549 151.25000000 -0.854472 0.068751 0.514928 0.000000
223.94500732 216.19299316 246.25000000 -0.164622 0.505730 0.846839 0.000000
181.30999756 245.47799683 217.50000000 0.835289 0.503608 -0.220614 0.000000
211.02499390 228.25199890 223.75000000 0.793994 -0.597330 0.113008 0.000000
96.46869659 310.50900269 197.50000000 -0.561447 0.796543 0.224269 0.000000
149.00999451 297.15798950 231.25000000 0.686901 0.686901 0.237350 0.000000
236.43499756 196.38299561 222.50000000 -0.697373 -0.001381 0.716707 0.000000
124.03099823 273.90200806 158.75000000 0.455823 0.817940 -0.350999 0.000000
70.62889862 261.84399414 161.25000000 -0.945148 -0.001242 -0.326641 0.000000
75.36620331 223.94500732 117.50000000 -0.943392 -0.313575 0.108083 0.000000
143.84199524 309.21701050 166.25000000 0.509977 -0.231251 -0.828521 0.000000
90.00879669 192.07600403 265.00000000 -0.549287 -0.512332 0.660152 0.000000
95.60739899 168.82000732 206.25000000 -0.835376 -0.472708 -0.280525 0.000000
118.00199890 211.02499390 143.75000000 0.694569 0.001381 -0.719425 0.000000
65.03029633 244.61700439 220.00000000 -0.894688 -0.446689 -0.001310 0.000000
96.46869659 253.22999573 121.25000000 0.761640 -0.012486 -0.647880 0.000000
153.31599426 272.17999268 251.25000000 -0.083158 0.701734 0.707569 0.000000
92.16210175 224.80700684 116.25000000 0.699659 0.244802 -0.671230 0.000000
178.29499817 195.52099609 263.75000000 0.000978 0.000978 0.999999 0.000000
117.14099884 322.13699341 156.25000000 -0.337548 0.847760 -0.409102 0.000000
196.38299561 219.63900757 256.25000000 0.648790 0.759524 0.046849 0.000000
74.50489807 256.67599487 155.00000000 -0.912932 0.088966 -0.398296 0.000000
101.20600128 316.10699463 175.00000000 -0.705755 0.705755 -0.061807 0.000000
137.81199646 299.74200439 166.25000000 -0.329042 -0.620803 -0.711573 0.000000
214.47099304 220.50000000 248.75000000 0.095906 0.426710 0.899289 0.000000
129.19900513 272.17999268 253.75000000 -0.579898 0.342741 0.739085 0.000000
221.36099243 118.00199890 231.25000000 -0.337250 -0.559932 0.756795 0.000000
156.76199341 155.89999390 188.75000000 0.000978 0.000978 0.999999 0.000000
192.93699646 240.31100464 226.25000000 0.079510 -0.784981 -0.614396 0.000000
70.62889862 216.19299316 198.75000000 -0.949301 -0.174693 -0.261362 0.000000
74.07420349 257.96798706 230.00000000 0.570499 -0.570499 0.590814 0.000000
146.42599487 226.52900696 278.75000000 0.369635 0.242987 0.896843 0.000000
100.77500153 286.82199097 128.75000000 -0.530701 0.655374 -0.537440 0.000000
82.68750000 201.55099487 261.25000000 -0.777258 -0.290875 0.557909 0.000000
182.60200500 271.31799316 208.75000000 0.832692 0.277564 -0.479147 0.000000
80.10350037 246.33999634 241.25000000 -0.580707 0.352979 0.733611 0.000000
156.76199341 175.71099854 263.75000000 0.000978 0.000978 0.999999 0.000000
129.19900513 189.49200439 283.75000000 -0.030940 -0.062946 0.997537 0.000000
118.43299866 314.38500977 210.00000000 -0.250480 0.754591 0.606508 0.000000
173.98800659 198.96699524 211.25000000 0.127589 -0.986133 -0.106126 0.000000
98.19139862 232.55900574 271.25000000 -0.432718 0.416632 0.799483 0.000000
208.44099426 223.94500732 193.75000000 -0.619936 -0.088562 0.779638 0.000000
104.65100098 240.31100464 270.00000000 -0.486122 0.492758 0.721717 0.000000
126.61499786 152.45500183 238.75000000 -0.120705 -0.710821 0.692939 0.000000
231.69700623 131.78300476 243.75000000 0.292209 -0.440633 0.848797 0.000000
105.94300079 265.28900146 251.25000000 -0.504628 0.484643 0.714473 0.000000
87.85549927 231.69700623 261.25000000 -0.602931 0.471932 0.643238 0.000000
74.07420349 254.09199524 156.25000000 -0.916669 0.153012 -0.369195 0.000000
202.41200256 118.86299896 213.75000000 0.000978 0.000978 0.999999 0.000000
212.74800110 165.37500000 211.25000000 -0.299888 0.357153 0.884595 0.000000
164.51400757 133.07499695 235.00000000 -0.449086 -0.449086 0.772427 0.000000
189.49200439 170.54299927 261.25000000 0.000978 0.000978 0.999999 0.000000
129.19900513 325.15100098 165.00000000 0.158267 0.956250 -0.246045 0.000000
131.78300476 143.41099548 225.00000000 -0.407348 -0.835142 0.369601 0.000000
110.25000000 304.04901123 138.75000000 -0.680998 0.584426 -0.441234 0.000000
214.47099304 212.31700134 250.00000000 0.410923 -0.171578 0.895379 0.000000
152.45500183 250.21600342 262.50000000 0.118896 0.474150 0.872379 0.000000
90.43939972 231.69700623 116.25000000 0.798820 0.029276 -0.600857 0.000000
237.72700500 136.95100403 243.75000000 0.370313 -0.562810 0.738994 0.000000
71.92089844 216.19299316 237.50000000 -0.945148 0.001242 0.326641 0.000000
179.15600586 147.28700256 248.75000000 -0.715531 -0.095502 0.692023 0.000000
136.08999634 170.54299927 261.25000000 -0.446689 -0.894688 -0.001310 0.000000
227.39100647 217.91600037 246.25000000 0.150063 0.165195 0.974778 0.000000
167.95899963 139.53500366 241.25000000 -0.416494 -0.612296 0.672032 0.000000
154.17799377 235.57299805 172.50000000 0.466584 0.392318 -0.792708 0.000000
111.11100006 149.00999451 181.25000000 -0.672544 -0.726709 0.139925 0.000000
230.83599854 197.24400330 218.75000000 -0.489523 0.034089 0.871324 0.000000
251.93800354 160.20700073 242.50000000 0.236512 0.063152 0.969574 0.000000
71.05960083 226.52900696 180.00000000 -0.933557 -0.310258 -0.179477 0.000000
150.30200195 195.52099609 185.00000000 0.480237 -0.722848 0.496854 0.000000
142.97999573 196.38299561 161.25000000 0.437259 0.108260 -0.892796 0.000000
90.43939972 173.12699890 158.75000000 -0.928428 -0.168932 0.330883 0.000000
124.03099823 291.98999023 236.25000000 0.202480 0.644536 0.737275 0.000000
144.70300293 167.95899963 198.75000000 -0.545514 0.348028 -0.762424 0.000000
162.79100037 180.87899780 191.25000000 -0.244019 0.741502 -0.625003 0.000000
83.11810303 295.43600464 162.50000000 -0.781084 0.622889 -0.043786 0.000000
231.69700623 206.71899414 218.75000000 -0.682818 -0.098385 0.723934 0.000000
128.33799744 298.45001221 232.50000000 -0.238624 0.572385 0.784496 0.000000
95.17669678 253.22999573 120.00000000 0.756703 -0.015329 -0.653579 0.000000
169.68200684 146.42599487 193.75000000 -0.545818 -0.289521 0.786295 0.000000
189.49200439 217.91600037 218.75000000 0.492503 -0.289248 0.820839 0.000000
167.52799988 264.42800903 190.00000000 0.771485 -0.004140 -0.636234 0.000000
84.41010284 180.01800537 243.75000000 -0.386441 -0.787433 0.480221 0.000000
103.35900116 303.18701172 143.75000000 -0.506758 0.506758 -0.697419 0.000000
166.23599243 196.38299561 211.25000000 0.481358 0.001326 -0.876523 0.000000
73.21289825 206.71899414 198.75000000 -0.905661 -0.213011 -0.366612 0.000000
114.55699921 211.02499390 286.25000000 -0.516392 0.255870 0.817233 0.000000
85.70210266 295.43600464 210.00000000 -0.809583 0.554405 0.192902 0.000000
230.83599854 135.22900391 243.75000000 0.153903 -0.300996 0.941124 0.000000
220.06900024 185.18600464 252.50000000 0.352253 0.121987 0.927921 0.000000
120.58599854 321.70599365 152.50000000 -0.340132 0.720949 -0.603774 0.000000
73.64350128 282.51599121 177.50000000 -0.876398 0.396717 -0.273026 0.000000
69.76760101 213.17900085 202.50000000 -0.941623 -0.202663 -0.268838 0.000000
152.45500183 306.63299561 171.25000000 0.265066 -0.646000 -0.715838 0.000000
167.95899963 248.06199646 258.75000000 0.352613 0.573606 0.739351 0.000000
161.92999268 320.41400146 191.25000000 0.705227 0.689995 0.162979 0.000000
173.98800659 183.46299744 266.25000000 0.000978 0.000978 0.999999 0.000000
153.31599426 193.36799622 177.50000000 0.686901 -0.686901 0.237350 0.000000
112.83399963 161.92999268 158.75000000 0.710156 0.254644 -0.656380 0.000000
71.49019623 247.20100403 231.25000000 -0.843070 0.210389 0.494944 0.000000
185.18600464 263.99700928 220.00000000 0.957279 -0.256767 0.132992 0.000000
90.43939972 238.58799744 116.25000000 0.714758 -0.226783 -0.661582 0.000000
194.22900391 189.49200439 260.00000000 0.321445 0.021430 0.946686 0.000000
121.44699860 249.78500366 268.75000000 -0.172906 0.714576 0.677853 0.000000
106.80500031 198.96699524 281.25000000 -0.547760 -0.237414 0.802243 0.000000
259.69000244 178.29499817 240.00000000 -0.999273 -0.033891 0.017459 0.000000
90.43939972 239.44900513 116.25000000 0.714758 -0.226783 -0.661582 0.000000
163.65199280 160.20700073 258.75000000 -0.055453 -0.604296 0.794828 0.000000
91.73139954 239.44900513 117.50000000 0.603634 0.770367 -0.205328 0.000000
148.14799500 162.79100037 251.25000000 -0.544507 -0.632167 0.551250 0.000000
224.80700684 194.66000366 248.75000000 0.000978 0.000978 0.999999 0.000000
249.78500366 170.54299927 231.25000000 0.000978 0.000978 0.999999 0.000000
74.50489807 226.52900696 240.00000000 -0.887245 0.210408 0.410517 0.000000
156.76199341 284.66900635 182.50000000 0.645625 -0.067582 -0.760658 0.000000
83.11810303 241.17199707 117.50000000 -0.821693 0.444886 -0.356225 0.000000
118.86299896 218.34700012 285.00000000 -0.001193 0.254023 0.967197 0.000000
177.43400574 155.89999390 193.75000000 -0.570499 -0.570499 0.590814 0.000000
