128.90600586 234.60899353 111.25000000 0.100932 -0.621683 -0.776738 0.000000
134.06199646 290.46899414 136.25000000 0.902627 0.299891 -0.308755 0.000000
89.80470276 237.18800354 22.50000000 -0.811783 -0.335198 -0.478174 0.000000
136.64100647 262.96899414 96.25000000 0.712488 0.601111 -0.361977 0.000000
144.80499268 262.96899414 175.00000000 0.432499 -0.163453 0.886695 0.000000
143.94500732 250.07800293 175.00000000 -0.264842 -0.950472 0.162669 0.000000
90.23439789 298.20300293 96.25000000 -0.604981 0.753462 -0.257472 0.000000
190.78100586 217.42199707 161.25000000 0.796190 0.194081 0.573074 0.000000
97.53910065 237.18800354 22.50000000 0.315978 -0.942600 0.107992 0.000000
228.16400146 194.21899414 142.50000000 -0.602207 -0.685156 0.409766 0.000000
89.80470276 238.04699707 22.50000000 -0.871567 -0.097786 -0.480425 0.000000
96.25000000 254.37500000 176.25000000 0.000978 0.000978 0.999999 0.000000
158.12500000 234.60899353 168.75000000 0.000978 0.000978 0.999999 0.000000
108.28099823 249.21899414 178.75000000 0.000978 0.000978 0.999999 0.000000
194.21899414 201.09399414 111.25000000 -0.458673 -0.565419 0.685508 0.000000
65.74220276 250.07800293 127.50000000 -0.997710 0.001040 0.067624 0.000000
148.67199707 175.74200439 62.50000000 -0.195213 -0.978491 -0.066688 0.000000
89.37500000 305.50799561 117.50000000 -0.488841 0.774674 -0.401142 0.000000
73.90619659 240.62500000 158.75000000 -0.708633 0.110955 0.696798 0.000000
146.09399414 171.87500000 103.75000000 -0.937868 0.166640 -0.304359 0.000000
120.74199677 269.84399414 42.50000000 0.945148 0.001242 -0.326641 0.000000
210.97700500 211.40600586 105.00000000 -0.402408 0.408770 0.819131 0.000000
171.87500000 179.17999268 65.00000000 0.270364 -0.807967 -0.523538 0.000000
151.25000000 256.95300293 171.25000000 0.654145 0.107794 0.748649 0.000000
231.60200500 192.50000000 157.50000000 0.422540 -0.521188 0.741501 0.000000
238.90600586 189.92199707 148.75000000 -0.757229 -0.505364 0.413777 0.000000
99.68750000 226.87500000 171.25000000 -0.000978 -0.000978 0.999999 0.000000
215.70300293 210.97700500 145.00000000 -0.686901 -0.686901 0.237350 0.000000
189.06199646 220.85899353 161.25000000 0.567118 0.349371 0.745866 0.000000
211.40600586 163.71099854 117.50000000 -0.001081 -0.993536 -0.113516 0.000000
135.78100586 304.21899414 171.25000000 0.285705 0.452495 0.844761 0.000000
227.73399353 196.79699707 146.25000000 0.001240 -0.946173 0.323658 0.000000
207.10899353 201.95300293 158.75000000 0.000978 0.000978 0.999999 0.000000
90.23439789 241.48399353 21.25000000 -0.946173 -0.001240 -0.323658 0.000000
96.67970276 296.48400879 82.50000000 -0.624807 0.756831 -0.191894 0.000000
140.93800354 277.57800293 133.75000000 0.751758 0.044054 -0.657966 0.000000
144.37500000 226.01600647 171.25000000 0.130825 -0.196873 0.971662 0.000000
164.14100647 214.84399414 123.75000000 0.575539 0.263329 -0.774218 0.000000
186.48399353 235.46899414 156.25000000 0.478295 0.176214 0.860339 0.000000
210.54699707 217.85200500 110.00000000 -0.265960 -0.676845 0.686401 0.000000
158.12500000 184.76600647 148.75000000 -0.442877 -0.786796 -0.429899 0.000000
194.21899414 224.29699707 113.75000000 0.000978 0.000978 0.999999 0.000000
141.79699707 243.20300293 176.25000000 0.302673 -0.021175 0.952859 0.000000
204.53100586 213.98399353 106.25000000 -0.012514 -0.738307 0.674348 0.000000
212.26600647 189.92199707 158.75000000 0.437266 -0.001305 0.899331 0.000000
100.54699707 287.89099121 176.25000000 -0.577386 0.299089 0.759718 0.000000
125.03900146 235.46899414 100.00000000 0.810954 -0.583269 0.046380 0.000000
72.61720276 226.01600647 147.50000000 -0.889909 -0.378843 0.254047 0.000000
122.89099884 182.61700439 140.00000000 -0.138312 -0.891183 0.432045 0.000000
79.92189789 209.25799561 140.00000000 -0.691333 -0.639280 0.336720 0.000000
104.84400177 224.72700500 72.50000000 0.299616 -0.901801 0.311424 0.000000
119.02300262 291.32800293 120.00000000 0.271994 0.637834 -0.720546 0.000000
141.79699707 163.28100586 111.25000000 0.001240 -0.946173 0.323658 0.000000
128.90600586 229.45300293 113.75000000 -0.000978 -0.000978 -0.999999 0.000000
125.46900177 272.42199707 178.75000000 0.000978 0.000978 0.999999 0.000000
182.18800354 237.18800354 158.75000000 0.592395 0.122615 0.796262 0.000000
188.20300293 165.85899353 133.75000000 -0.107115 -0.905605 0.410374 0.000000
105.70300293 288.75000000 178.75000000 0.000978 0.000978 0.999999 0.000000
130.62500000 196.79699707 158.75000000 0.686901 -0.686901 0.237350 0.000000
128.90600586 202.81199646 86.25000000 0.465658 -0.050526 -0.883521 0.000000
153.82800293 190.78100586 156.25000000 0.073773 -0.672638 0.736285 0.000000
186.48399353 195.07800293 156.25000000 0.000978 0.000978 0.999999 0.000000
79.06250000 242.34399414 163.75000000 0.000978 0.000978 0.999999 0.000000
173.59399414 180.89799500 150.00000000 -0.223208 -0.549554 0.805089 0.000000
159.84399414 180.03900146 57.50000000 0.350327 -0.859614 -0.371934 0.000000
90.23439789 245.78100586 21.25000000 -0.946173 -0.001240 -0.323658 0.000000
107.42199707 311.52301025 170.00000000 -0.394328 0.423064 0.815796 0.000000
106.56199646 185.62500000 58.75000000 -0.421454 -0.556981 -0.715646 0.000000
126.32800293 291.32800293 128.75000000 0.570499 0.570499 -0.590814 0.000000
146.95300293 174.02299500 75.00000000 0.239742 -0.960277 -0.142797 0.000000
71.32810211 264.68798828 88.75000000 -0.966167 0.250580 0.061087 0.000000
176.17199707 182.18800354 151.25000000 -0.097121 -0.569681 0.816108 0.000000
125.03900146 269.84399414 90.00000000 0.805600 0.545829 -0.230392 0.000000
134.92199707 212.26600647 91.25000000 -0.001381 0.697373 -0.716707 0.000000
84.21880341 288.75000000 88.75000000 -0.755890 0.568932 -0.323953 0.000000
179.60899353 197.22700500 100.00000000 0.055795 -0.736777 0.673829 0.000000
214.84399414 168.00799561 140.00000000 0.144362 -0.858879 0.491413 0.000000
86.79689789 276.71899414 171.25000000 -0.462130 0.218270 0.859531 0.000000
120.31199646 292.18798828 121.25000000 0.111781 0.387783 -0.914948 0.000000
139.21899414 204.53100586 93.75000000 0.411521 -0.089461 -0.906999 0.000000
146.95300293 257.81201172 103.75000000 0.650396 0.326009 -0.686078 0.000000
211.40600586 216.56199646 126.25000000 -0.867796 0.140528 -0.476636 0.000000
161.56199646 249.64799500 120.00000000 0.851217 0.347023 0.393707 0.000000
148.67199707 281.01599121 143.75000000 0.570499 -0.570499 -0.590814 0.000000
68.75000000 236.75799561 142.50000000 -0.994895 -0.076701 0.065585 0.000000
70.03910065 278.43798828 122.50000000 -0.993211 0.110357 0.036786 0.000000
106.13300323 173.59399414 80.00000000 -0.524841 -0.826054 -0.205372 0.000000
136.64100647 227.73399353 113.75000000 -0.000978 -0.000978 -0.999999 0.000000
95.39060211 293.47698975 172.50000000 -0.248768 0.215783 0.944220 0.000000
76.05470276 294.76599121 130.00000000 -0.893601 0.443369 -0.070006 0.000000
105.27300262 175.31199646 102.50000000 -0.590842 -0.771681 0.235402 0.000000
122.89099884 292.61700439 125.00000000 0.867973 0.028525 -0.495791 0.000000
72.61720276 244.06199646 77.50000000 -0.946173 -0.001240 -0.323658 0.000000
206.25000000 220.85899353 146.25000000 -0.565441 -0.729337 0.385155 0.000000
220.85899353 170.15600586 141.25000000 0.133533 -0.688668 0.712674 0.000000
209.68800354 218.28100586 158.75000000 -0.230479 0.377281 0.896961 0.000000
159.41400146 285.31201172 160.00000000 0.918872 0.394537 0.003855 0.000000
213.98399353 220.85899353 113.75000000 0.132864 -0.625508 0.768822 0.000000
165.00000000 195.93800354 158.75000000 0.283517 -0.565449 0.774523 0.000000
121.17199707 188.20300293 68.75000000 0.879852 0.400205 -0.256311 0.000000
155.54699707 170.15600586 128.75000000 -0.269528 -0.821049 0.503223 0.000000
111.71900177 241.48399353 43.75000000 0.829954 -0.368341 -0.418929 0.000000
139.21899414 260.39099121 176.25000000 0.350058 -0.092544 0.932146 0.000000
159.84399414 171.87500000 136.25000000 -0.348484 -0.845425 0.404741 0.000000
95.82029724 299.92199707 92.50000000 -0.533891 0.772610 -0.343561 0.000000
84.21880341 298.63299561 112.50000000 -0.686901 0.686901 -0.237350 0.000000
134.92199707 325.27301025 157.50000000 0.355438 0.855224 0.377168 0.000000
134.06199646 242.34399414 96.25000000 0.445631 -0.859323 -0.250953 0.000000
212.26600647 197.65600586 158.75000000 -0.000978 -0.000978 0.999999 0.000000
137.50000000 220.85899353 171.25000000 0.000978 0.000978 0.999999 0.000000
208.82800293 176.60200500 92.50000000 -0.455630 -0.748417 0.481948 0.000000
117.30500031 232.89100647 80.00000000 0.542248 -0.821634 0.175742 0.000000
207.96899414 211.40600586 103.75000000 0.000978 -0.999999 0.000978 0.000000
123.75000000 166.71899414 91.25000000 0.168163 -0.837839 -0.519371 0.000000
125.89800262 238.90600586 80.00000000 0.686901 -0.686901 0.237350 0.000000
167.57800293 164.14100647 101.25000000 0.000978 -0.999999 0.000978 0.000000
90.23439789 278.43798828 173.75000000 -0.395439 0.112388 0.911590 0.000000
128.47700500 314.53100586 170.00000000 0.325263 0.858633 0.396174 0.000000
211.40600586 207.10899353 116.25000000 -0.687410 0.687410 -0.234380 0.000000
122.03099823 219.14100647 171.25000000 0.000978 0.000978 0.999999 0.000000
83.35939789 220.85899353 158.75000000 -0.524375 -0.500920 0.688556 0.000000
106.99199677 253.51600647 22.50000000 0.783180 -0.397265 -0.478340 0.000000
134.06199646 213.55499268 92.50000000 0.193778 0.497213 -0.845712 0.000000
103.98400116 216.56199646 168.75000000 -0.354570 -0.545617 0.759330 0.000000
112.57800293 170.15600586 86.25000000 -0.001381 -0.697373 -0.716707 0.000000
220.00000000 192.50000000 158.75000000 0.000978 0.000978 0.999999 0.000000
141.79699707 271.56201172 176.25000000 0.265435 0.072391 0.961407 0.000000
104.84400177 201.09399414 153.75000000 -0.329690 -0.657756 0.677245 0.000000
145.23399353 233.75000000 116.25000000 0.677620 -0.226916 -0.699529 0.000000
114.29699707 253.51600647 178.75000000 0.649267 -0.759601 -0.038192 0.000000
130.62500000 320.54699707 138.75000000 0.622842 0.445841 -0.642879 0.000000
79.92189789 276.71899414 76.25000000 -0.763139 0.578328 -0.288368 0.000000
90.23439789 256.09399414 21.25000000 -0.819179 0.225928 -0.527164 0.000000
207.10899353 209.68800354 158.75000000 0.000978 0.000978 0.999999 0.000000
187.34399414 186.48399353 153.75000000 0.001364 -0.587928 0.808912 0.000000
128.04699707 328.71099854 152.50000000 0.313575 0.943392 0.108083 0.000000
177.03100586 191.64100647 93.75000000 -0.332693 -0.709203 0.621567 0.000000
120.31199646 173.59399414 73.75000000 0.570532 -0.573918 0.587462 0.000000
146.09399414 232.89100647 171.25000000 0.507192 -0.204391 0.837246 0.000000
124.18000031 262.96899414 55.00000000 0.981746 0.133263 -0.135708 0.000000
128.90600586 218.28100586 171.25000000 -0.001251 -0.341642 0.939829 0.000000
140.93800354 219.14100647 168.75000000 0.456267 -0.596657 0.660167 0.000000
210.54699707 205.39100647 106.25000000 -0.652610 0.272852 0.706861 0.000000
122.03099823 181.32800293 136.25000000 -0.001243 -0.945912 0.324419 0.000000
158.98399353 245.78100586 131.25000000 0.428466 0.887434 0.169934 0.000000
147.81199646 174.88299561 70.00000000 0.278627 -0.950532 -0.137314 0.000000
117.30500031 289.60900879 67.50000000 0.897328 0.437090 0.061274 0.000000
71.32810211 244.06199646 83.75000000 -0.946173 0.001240 -0.323658 0.000000
90.23439789 187.77299500 80.00000000 -0.838305 -0.527060 -0.139473 0.000000
78.20310211 250.07800293 166.25000000 -0.219224 -0.161464 0.962222 0.000000
214.41400146 177.03100586 102.50000000 -0.675017 -0.712089 0.193083 0.000000
91.09380341 258.67199707 21.25000000 -0.818642 0.334107 -0.467117 0.000000
82.92970276 297.34399414 112.50000000 -0.768695 0.617078 -0.168294 0.000000
127.61699677 250.93800354 65.00000000 0.931270 -0.037666 -0.362377 0.000000
79.92189789 229.45300293 161.25000000 -0.353296 0.933805 -0.056475 0.000000
220.85899353 201.95300293 141.25000000 -0.428632 -0.628771 0.648785 0.000000
177.03100586 197.65600586 101.25000000 0.317187 -0.478147 0.819004 0.000000
79.92189789 240.62500000 48.75000000 -0.980964 -0.046261 -0.188601 0.000000
151.67999268 192.50000000 90.00000000 -0.530553 -0.822433 0.205228 0.000000
88.51560211 305.07800293 163.75000000 -0.559669 0.509248 0.653787 0.000000
197.65600586 231.17199707 146.25000000 0.836973 0.436478 0.330096 0.000000
90.66410065 260.39099121 22.50000000 -0.812514 0.354580 -0.462703 0.000000
76.48439789 282.73400879 96.25000000 -0.817326 0.545388 -0.185825 0.000000
233.75000000 172.73399353 131.25000000 -0.544348 -0.108870 0.831764 0.000000
126.75800323 223.43800354 107.50000000 0.724302 0.528724 -0.442537 0.000000
154.68800354 285.31201172 168.75000000 0.641925 0.009705 0.766706 0.000000
142.65600586 306.79699707 171.25000000 0.824239 -0.001358 0.566240 0.000000
99.68750000 290.03900146 60.00000000 -0.526242 0.807321 -0.267025 0.000000
77.77339935 231.17199707 65.00000000 -0.946173 0.001240 -0.323658 0.000000
83.35939789 205.82000732 140.00000000 -0.686901 -0.686901 0.237350 0.000000
76.48439789 286.17199707 158.75000000 -0.551689 -0.387983 0.738314 0.000000
116.87500000 287.89099121 178.75000000 0.000978 0.000978 0.999999 0.000000
187.34399414 243.63299561 122.50000000 0.528756 0.623358 -0.576057 0.000000
150.39100647 166.71899414 96.25000000 -0.713576 -0.595467 -0.369091 0.000000
121.17199707 235.03900146 80.00000000 0.471979 -0.804765 0.359984 0.000000
135.78100586 197.65600586 91.25000000 0.687410 0.687410 -0.234380 0.000000
190.78100586 247.07000732 132.50000000 0.686901 0.686901 -0.237350 0.000000
140.93800354 278.43798828 176.25000000 0.268196 -0.033370 0.962786 0.000000
85.07810211 220.00000000 158.75000000 -0.601629 -0.470913 0.645201 0.000000
146.52299500 202.81199646 117.50000000 0.049582 0.952237 0.301309 0.000000
169.29699707 248.35899353 161.25000000 0.822858 0.188729 0.535990 0.000000
122.03099823 267.26599121 181.25000000 0.500316 0.039751 0.864930 0.000000
168.43800354 241.48399353 113.75000000 0.001305 0.437266 -0.899331 0.000000
110.85900116 170.15600586 101.25000000 -0.499765 -0.816230 0.289832 0.000000
85.93750000 301.21099854 115.00000000 -0.621145 0.693257 -0.365476 0.000000
156.40600586 230.31199646 118.75000000 -0.006857 -0.585627 -0.810552 0.000000
97.96880341 307.22698975 107.50000000 -0.452628 0.874496 -0.174313 0.000000
80.78119659 242.34399414 43.75000000 -0.966452 -0.001195 -0.256844 0.000000
78.20310211 285.74200439 97.50000000 -0.723964 0.569650 -0.389069 0.000000
203.67199707 164.57000732 110.00000000 -0.000978 -0.999999 -0.000978 0.000000
118.59400177 181.75799561 137.50000000 -0.226046 -0.902725 0.366048 0.000000
92.81250000 264.25799561 22.50000000 -0.800879 0.370747 -0.470255 0.000000
163.28100586 220.00000000 121.25000000 0.029439 -0.637836 -0.769609 0.000000
152.10899353 204.53100586 121.25000000 0.224307 0.216150 -0.950245 0.000000
158.12500000 274.14099121 168.75000000 0.929733 0.053917 0.364266 0.000000
177.89100647 183.04699707 151.25000000 0.120294 -0.511612 0.850754 0.000000
87.65619659 295.62500000 96.25000000 -0.686901 0.686901 -0.237350 0.000000
222.57800293 195.50799561 137.50000000 -0.901801 0.299616 0.311424 0.000000
121.17199707 183.90600586 141.25000000 -0.043608 -0.800419 0.597853 0.000000
139.21899414 277.57800293 176.25000000 0.000978 0.000978 0.999999 0.000000
158.98399353 267.26599121 168.75000000 0.799260 0.100453 0.592530 0.000000
67.89060211 271.99200439 122.50000000 -0.943392 0.313575 -0.108083 0.000000
226.87500000 172.73399353 143.75000000 0.248069 -0.856828 0.452003 0.000000
85.07810211 298.20300293 163.75000000 -0.684372 0.380940 0.621707 0.000000
68.75000000 235.46899414 108.75000000 -0.832241 -0.554373 0.006810 0.000000
112.57800293 217.42199707 171.25000000 -0.109653 -0.586275 0.802656 0.000000
110.85900116 312.81201172 171.25000000 -0.399143 0.553544 0.730941 0.000000
94.53119659 266.40600586 21.25000000 -0.652019 0.082773 -0.753671 0.000000
121.17199707 256.52301025 180.00000000 0.708308 0.354972 0.610159 0.000000
104.84400177 197.22700500 70.00000000 -0.471607 0.877048 0.091506 0.000000
79.49220276 203.67199707 112.50000000 -0.693011 -0.699131 -0.175930 0.000000
180.46899414 168.86700439 85.00000000 -0.001243 -0.945912 -0.324419 0.000000
153.82800293 225.15600586 168.75000000 0.631026 -0.329301 0.702401 0.000000
138.35899353 321.40600586 148.75000000 0.403956 0.812702 0.419923 0.000000
125.46900177 188.20300293 81.25000000 0.930908 0.032368 -0.363818 0.000000
97.96880341 188.20300293 128.75000000 -0.565010 -0.749569 0.344834 0.000000
143.51600647 176.60200500 135.00000000 -0.277976 -0.833928 0.476752 0.000000
110.00000000 267.26599121 21.25000000 0.691001 0.240827 -0.681557 0.000000
139.64799500 213.98399353 97.50000000 0.511578 0.756743 -0.406974 0.000000
129.76600647 171.87500000 118.75000000 -0.193869 -0.792269 0.578554 0.000000
124.60900116 188.20300293 78.75000000 0.920672 0.032741 -0.388961 0.000000
201.95300293 198.51600647 113.75000000 -0.746505 -0.557846 0.362681 0.000000
173.16400146 241.48399353 115.00000000 0.434474 0.380364 -0.816429 0.000000
152.10899353 254.37500000 111.25000000 0.764261 0.423862 -0.486051 0.000000
135.78100586 237.18800354 108.75000000 0.381139 -0.674830 -0.631931 0.000000
109.14099884 183.04699707 128.75000000 -0.341722 -0.904903 0.253725 0.000000
165.00000000 197.65600586 98.75000000 -0.186359 -0.706931 0.682289 0.000000
71.32810211 248.35899353 156.25000000 -0.943392 -0.313575 -0.108083 0.000000
181.32800293 178.75000000 66.25000000 -0.085196 -0.884082 -0.459499 0.000000
111.71900177 268.12500000 21.25000000 0.751628 -0.162473 -0.639263 0.000000
195.93800354 179.17999268 75.00000000 -0.636378 -0.636378 0.435944 0.000000
102.26599884 238.04699707 176.25000000 -0.622145 -0.578308 0.527727 0.000000
141.79699707 174.45300293 108.75000000 0.999999 -0.000978 -0.000978 0.000000
134.92199707 270.70300293 116.25000000 0.652485 0.757770 -0.006927 0.000000
149.53100586 165.85899353 118.75000000 -0.281782 -0.848425 0.448079 0.000000
125.46900177 257.81201172 178.75000000 0.274228 -0.048835 0.960424 0.000000
134.49200439 245.78100586 87.50000000 0.745048 -0.185878 -0.640588 0.000000
83.78910065 201.09399414 85.00000000 -0.926507 -0.309779 -0.213592 0.000000
163.28100586 197.65600586 98.75000000 -0.000978 -0.000978 0.999999 0.000000
101.40599823 308.08599854 102.50000000 -0.314746 0.949175 0.001234 0.000000
224.29699707 204.53100586 158.75000000 0.000978 0.000978 0.999999 0.000000
128.90600586 240.19500732 97.50000000 0.649280 -0.732958 -0.202997 0.000000
77.34380341 229.45300293 71.25000000 -0.941309 -0.269538 -0.203190 0.000000
127.18800354 285.31201172 123.75000000 0.751308 0.501420 -0.429084 0.000000
147.81199646 241.48399353 108.75000000 0.254777 -0.697866 -0.669382 0.000000
210.54699707 221.71899414 151.25000000 0.195213 0.978491 -0.066688 0.000000
148.67199707 290.46899414 148.75000000 0.475484 0.326994 -0.816695 0.000000
161.56199646 207.96899414 166.25000000 0.000978 0.000978 0.999999 0.000000
167.57800293 224.29699707 166.25000000 0.166501 -0.163959 0.972314 0.000000
213.12500000 220.85899353 158.75000000 0.000978 0.000978 0.999999 0.000000
133.20300293 244.92199707 86.25000000 0.745048 -0.185878 -0.640588 0.000000
84.21880341 216.99200439 55.00000000 -0.785710 -0.498530 -0.366234 0.000000
86.79689789 205.39100647 143.75000000 -0.420446 -0.800619 0.426889 0.000000
123.31999969 300.78100586 127.50000000 0.916251 0.019550 -0.400127 0.000000
79.06250000 247.50000000 166.25000000 0.000978 0.000978 0.999999 0.000000
82.50000000 222.57800293 158.75000000 -0.497016 -0.431403 0.752905 0.000000
122.03099823 289.60900879 178.75000000 0.000978 0.000978 0.999999 0.000000
95.39060211 274.14099121 176.25000000 -0.582000 0.081911 0.809053 0.000000
113.43800354 194.21899414 56.25000000 0.645928 0.755307 -0.110857 0.000000
95.39060211 238.90600586 173.75000000 -0.139877 -0.177681 0.974096 0.000000
218.28100586 184.76600647 156.25000000 0.361745 -0.286694 0.887100 0.000000
233.75000000 171.87500000 128.75000000 -0.437166 -0.129583 0.889997 0.000000
81.64060211 252.65600586 43.75000000 -0.966413 0.175122 -0.188094 0.000000
76.48439789 270.70300293 76.25000000 -0.860541 0.347615 -0.372335 0.000000
73.90619659 222.57800293 146.25000000 -0.843289 -0.411475 0.345764 0.000000
88.08589935 304.21899414 162.50000000 -0.793166 0.593759 -0.135419 0.000000
150.82000732 203.67199707 120.00000000 0.366881 0.407820 -0.836111 0.000000
177.03100586 234.60899353 151.25000000 0.607648 -0.503288 0.614381 0.000000
219.14100647 202.81199646 158.75000000 0.000978 0.000978 0.999999 0.000000
142.65600586 234.60899353 173.75000000 0.737615 -0.146316 0.659178 0.000000
150.39100647 242.34399414 108.75000000 0.233989 -0.645433 -0.727094 0.000000
188.20300293 183.90600586 78.75000000 -0.274261 -0.960538 0.046336 0.000000
76.48439789 279.72698975 90.00000000 -0.864984 0.442304 -0.237003 0.000000
189.92199707 183.04699707 66.25000000 -0.887323 -0.025506 0.460442 0.000000
103.12500000 272.42199707 21.25000000 -0.089100 0.685050 -0.723027 0.000000
149.96099854 171.01600647 90.00000000 -0.375759 -0.911747 -0.165901 0.000000
125.89800262 268.12500000 72.50000000 0.943392 0.313575 -0.108083 0.000000
124.60900116 326.99200439 160.00000000 0.048871 0.836387 0.545956 0.000000
119.45300293 188.20300293 146.25000000 -0.318844 -0.716995 0.619885 0.000000
197.65600586 234.17999268 140.00000000 0.768690 0.600976 0.218960 0.000000
132.34399414 184.76600647 148.75000000 -0.088589 -0.788589 0.608506 0.000000
177.89100647 228.59399414 161.25000000 0.657756 -0.329690 0.677245 0.000000
103.98400116 250.07800293 178.75000000 0.000978 0.000978 0.999999 0.000000
73.04689789 256.95300293 76.25000000 -0.946173 0.001240 -0.323658 0.000000
128.90600586 256.52301025 72.50000000 0.991467 0.108638 -0.072044 0.000000
127.18800354 259.53100586 66.25000000 0.957144 0.182377 -0.224975 0.000000
165.85899353 261.25000000 158.75000000 0.449086 0.449086 0.772427 0.000000
91.09380341 186.05499268 82.50000000 -0.793542 -0.602047 -0.088494 0.000000
146.09399414 281.44500732 140.00000000 0.722289 0.315093 -0.615642 0.000000
169.29699707 181.32800293 61.25000000 0.360069 -0.744577 -0.562099 0.000000
137.07000732 295.62500000 142.50000000 0.578566 0.266424 -0.770896 0.000000
165.00000000 220.00000000 166.25000000 0.000978 0.000978 0.999999 0.000000
97.10939789 187.34399414 123.75000000 -0.459207 -0.852813 0.248674 0.000000
102.26599884 178.75000000 106.25000000 -0.508228 -0.798189 0.323418 0.000000
226.01600647 218.28100586 158.75000000 0.387498 0.677710 0.624944 0.000000
108.71099854 273.28100586 22.50000000 0.570499 0.570499 -0.590814 0.000000
115.15599823 244.06199646 46.25000000 0.614319 -0.358762 -0.702781 0.000000
137.50000000 264.68798828 103.75000000 0.686901 0.686901 -0.237350 0.000000
122.89099884 221.71899414 101.25000000 0.088841 0.627715 -0.773357 0.000000
122.03099823 233.75000000 76.25000000 0.439927 -0.821091 0.363694 0.000000
95.39060211 219.57000732 50.00000000 0.660342 -0.686174 0.305146 0.000000
98.82810211 293.04699707 71.25000000 0.474670 0.793262 -0.381345 0.000000
80.35160065 252.65600586 167.50000000 -0.648164 -0.004146 0.761489 0.000000
185.62500000 223.43800354 111.25000000 0.026679 -0.734380 0.678214 0.000000
197.65600586 205.39100647 158.75000000 0.000978 0.000978 0.999999 0.000000
126.32800293 279.29699707 178.75000000 -0.000978 -0.000978 0.999999 0.000000
119.45300293 278.43798828 178.75000000 0.000978 0.000978 0.999999 0.000000
130.62500000 254.37500000 76.25000000 0.937736 0.114687 -0.327870 0.000000
94.53119659 212.26600647 68.75000000 0.899565 -0.288987 -0.327519 0.000000
194.21899414 204.10200500 112.50000000 0.098227 0.038629 0.994414 0.000000
164.14100647 238.04699707 141.25000000 0.289389 0.824369 0.486487 0.000000
197.65600586 165.00000000 133.75000000 0.001240 -0.946173 0.323658 0.000000
233.75000000 192.50000000 146.25000000 -0.430015 -0.579441 0.692341 0.000000
121.60199738 280.15600586 67.50000000 0.797052 0.496760 -0.343419 0.000000
155.54699707 192.50000000 113.75000000 0.636378 -0.636378 0.435944 0.000000
68.32029724 238.04699707 137.50000000 -0.981628 -0.123468 0.145472 0.000000
162.42199707 220.00000000 121.25000000 0.029439 -0.637836 -0.769609 0.000000
124.60900116 251.79699707 58.75000000 0.913134 -0.068992 -0.401779 0.000000
187.34399414 184.33599854 82.50000000 -0.247877 -0.968755 -0.008382 0.000000
177.89100647 180.46899414 151.25000000 0.000978 0.000978 0.999999 0.000000
188.20300293 207.10899353 161.25000000 0.000978 0.000978 0.999999 0.000000
120.74199677 328.28100586 137.50000000 -0.107683 0.969151 -0.221701 0.000000
153.39799500 265.54699707 132.50000000 0.807370 0.465237 -0.362917 0.000000
131.05499268 286.17199707 130.00000000 0.694003 0.434376 -0.574175 0.000000
166.71899414 183.04699707 151.25000000 0.000978 0.000978 0.999999 0.000000
172.73399353 187.77299500 62.50000000 0.434812 -0.803840 -0.405931 0.000000
96.25000000 194.64799500 67.50000000 0.179101 -0.126498 0.975664 0.000000
143.51600647 173.59399414 71.25000000 0.034415 -0.993589 -0.107685 0.000000
178.75000000 215.70300293 111.25000000 0.655314 -0.544130 0.523914 0.000000
123.75000000 213.12500000 168.75000000 0.090793 -0.569255 0.817133 0.000000
226.01600647 176.17199707 148.75000000 -0.133407 -0.667033 0.732987 0.000000
145.23399353 243.20300293 103.75000000 0.581689 -0.467698 -0.665505 0.000000
147.81199646 179.60899353 141.25000000 -0.001333 -0.867668 0.497143 0.000000
94.53119659 229.45300293 23.75000000 -0.288368 -0.578328 0.763139 0.000000
149.53100586 168.00799561 122.50000000 -0.210702 -0.885538 0.414037 0.000000
175.31199646 241.48399353 151.25000000 0.000978 0.000978 0.999999 0.000000
149.53100586 302.50000000 153.75000000 0.571421 0.308919 -0.760294 0.000000
135.78100586 227.73399353 113.75000000 -0.000978 -0.000978 -0.999999 0.000000
201.95300293 163.71099854 120.00000000 0.237715 -0.957502 -0.163346 0.000000
202.81199646 169.29699707 141.25000000 0.426793 -0.855127 0.294287 0.000000
122.03099823 208.82800293 166.25000000 0.000978 0.000978 0.999999 0.000000
106.13300323 171.87500000 90.00000000 -0.508178 -0.859887 -0.048464 0.000000
95.39060211 186.48399353 68.75000000 -0.737906 -0.101628 -0.667208 0.000000
161.13299561 281.01599121 162.50000000 0.929731 0.258966 0.261796 0.000000
174.45300293 190.78100586 91.25000000 -0.407432 -0.569085 0.714242 0.000000
233.75000000 183.90600586 138.75000000 -0.519313 -0.485917 0.702993 0.000000
91.09380341 231.17199707 23.75000000 -0.426793 -0.855127 -0.294287 0.000000
119.88300323 229.45300293 100.00000000 -0.336712 -0.169055 -0.926307 0.000000
101.83599854 189.06199646 135.00000000 -0.610964 -0.651137 0.450272 0.000000
138.35899353 177.89100647 103.75000000 -0.592825 -0.171328 -0.786896 0.000000
122.89099884 288.75000000 123.75000000 0.801188 0.359815 -0.478154 0.000000
205.39100647 205.39100647 101.25000000 -0.377506 0.547465 0.746841 0.000000
170.15600586 241.91400146 130.00000000 -0.063349 0.994688 0.081131 0.000000
141.79699707 241.48399353 103.75000000 0.417575 -0.867038 -0.271803 0.000000
147.81199646 189.92199707 113.75000000 0.322665 0.935042 0.146916 0.000000
143.51600647 239.33599854 175.00000000 0.627200 -0.120102 0.769543 0.000000
157.26600647 220.85899353 118.75000000 -0.000978 -0.000978 -0.999999 0.000000
119.45300293 284.02301025 50.00000000 0.802438 0.536523 -0.261222 0.000000
82.92970276 250.07800293 170.00000000 -0.768950 -0.101062 0.631271 0.000000
201.09399414 199.37500000 113.75000000 -0.576407 -0.733164 0.360867 0.000000
128.90600586 194.21899414 156.25000000 -0.347934 -0.619093 0.704035 0.000000
171.01600647 168.86700439 135.00000000 -0.025265 -0.897572 0.440143 0.000000
151.25000000 299.06201172 153.75000000 0.688941 0.333884 -0.643337 0.000000
127.18800354 266.83599854 80.00000000 0.850742 0.488915 -0.192875 0.000000
163.71099854 194.21899414 95.00000000 -0.189330 -0.706523 0.681894 0.000000
221.28900146 201.09399414 140.00000000 -0.428632 -0.628771 0.648785 0.000000
122.03099823 329.57000732 142.50000000 -0.123599 0.985195 -0.118799 0.000000
142.22700500 216.56199646 110.00000000 0.744450 0.107614 -0.658949 0.000000
144.37500000 256.95300293 101.25000000 0.753777 0.376074 -0.538877 0.000000
182.18800354 235.46899414 158.75000000 0.413263 -0.098133 0.905309 0.000000
101.40599823 320.11700439 140.00000000 -0.413213 0.886716 -0.207342 0.000000
160.70300293 222.57800293 166.25000000 0.342572 0.191897 0.919685 0.000000
98.39839935 308.51599121 167.50000000 -0.449086 0.449086 0.772427 0.000000
225.15600586 188.63299561 135.00000000 -0.666405 -0.569046 0.481759 0.000000
110.00000000 169.72700500 95.00000000 -0.451719 -0.891303 0.039104 0.000000
210.54699707 194.21899414 121.25000000 -0.868812 -0.326379 0.372348 0.000000
168.43800354 225.15600586 166.25000000 0.166501 -0.163959 0.972314 0.000000
103.12500000 221.28900146 60.00000000 -0.057136 -0.997187 0.048512 0.000000
130.62500000 163.28100586 98.75000000 -0.355577 0.161626 0.920566 0.000000
161.13299561 257.81201172 147.50000000 0.383609 -0.431361 -0.816561 0.000000
78.20310211 259.53100586 166.25000000 -0.674853 0.035370 0.737104 0.000000
189.06199646 236.32800293 118.75000000 0.268309 0.102398 -0.957875 0.000000
177.03100586 208.82800293 113.75000000 0.073433 -0.776084 0.626339 0.000000
100.54699707 215.70300293 166.25000000 -0.435124 -0.591835 0.678527 0.000000
116.01599884 248.78900146 45.00000000 0.705677 -0.347134 -0.617671 0.000000
118.59400177 165.42999268 100.00000000 -0.750608 -0.559309 0.351797 0.000000
177.03100586 172.73399353 141.25000000 -0.119697 -0.604398 0.787639 0.000000
159.84399414 252.65600586 148.75000000 0.541893 -0.585785 -0.602667 0.000000
157.69500732 288.75000000 157.50000000 0.809072 0.332212 -0.484807 0.000000
215.70300293 174.45300293 146.25000000 0.095812 -0.300562 0.948937 0.000000
164.14100647 229.45300293 116.25000000 -0.001382 -0.673154 -0.739501 0.000000
205.39100647 211.40600586 133.75000000 -0.855127 -0.426793 0.294287 0.000000
145.23399353 285.31201172 141.25000000 0.636197 0.602625 -0.481764 0.000000
154.68800354 217.42199707 118.75000000 0.121916 -0.131573 -0.983781 0.000000
128.04699707 232.03100586 176.25000000 0.329447 -0.344629 0.879031 0.000000
236.75799561 179.60899353 147.50000000 0.787601 -0.514908 0.338460 0.000000
150.39100647 205.39100647 163.75000000 -0.115157 -0.555375 0.823588 0.000000
172.73399353 240.62500000 161.25000000 0.313143 0.570081 0.759572 0.000000
118.16400146 284.45300293 95.00000000 0.945677 0.285462 -0.155584 0.000000
99.25779724 238.04699707 25.00000000 0.711632 -0.508309 -0.484976 0.000000
99.68750000 268.98400879 178.75000000 0.000978 0.000978 0.999999 0.000000
75.62500000 232.46099854 75.00000000 -0.933557 -0.310258 -0.179477 0.000000
85.07810211 219.57000732 47.50000000 -0.906679 -0.412875 -0.086416 0.000000
124.60900116 265.54699707 58.75000000 0.978491 0.195213 -0.066688 0.000000
218.28100586 220.00000000 158.75000000 -0.993536 -0.001081 -0.113516 0.000000
130.19500732 269.84399414 102.50000000 0.708486 0.705724 0.001381 0.000000
142.65600586 286.17199707 141.25000000 0.453401 0.667554 -0.590593 0.000000
146.95300293 180.03900146 55.00000000 -0.057315 -0.921046 -0.385213 0.000000
189.92199707 248.35899353 133.75000000 0.686901 0.686901 -0.237350 0.000000
189.06199646 184.33599854 90.00000000 -0.413996 -0.835862 0.360475 0.000000
168.43800354 172.30499268 140.00000000 -0.098711 -0.854062 0.510720 0.000000
107.85199738 213.98399353 90.00000000 0.945148 0.001242 0.326641 0.000000
113.86699677 300.78100586 95.00000000 0.915502 0.378780 -0.135578 0.000000
230.31199646 178.75000000 131.25000000 -0.426793 -0.855127 0.294287 0.000000
144.37500000 259.10198975 102.50000000 0.713174 0.347611 -0.608728 0.000000
230.31199646 206.25000000 153.75000000 -0.618894 -0.384539 0.684909 0.000000
135.78100586 174.88299561 75.00000000 -0.022397 -0.997192 0.071457 0.000000
154.68800354 252.65600586 171.25000000 0.399966 -0.368596 0.839145 0.000000
157.26600647 241.05499268 142.50000000 0.739574 0.662194 -0.120534 0.000000
107.42199707 273.28100586 178.75000000 0.000978 0.000978 0.999999 0.000000
186.48399353 184.33599854 85.00000000 -0.238381 -0.969580 0.055581 0.000000
232.03100586 185.62500000 156.25000000 0.329690 -0.657756 0.677245 0.000000
152.96899414 164.14100647 101.25000000 -0.292302 -0.937861 -0.187018 0.000000
175.31199646 228.59399414 163.75000000 0.458509 -0.231524 0.858001 0.000000
86.79689789 285.74200439 75.00000000 -0.716252 0.619243 -0.321748 0.000000
100.54699707 255.23399353 178.75000000 0.000978 0.000978 0.999999 0.000000
170.15600586 180.46899414 148.75000000 -0.146316 -0.737615 0.659178 0.000000
129.33599854 262.10900879 77.50000000 0.902627 0.299891 -0.308755 0.000000
173.59399414 232.03100586 148.75000000 -0.623740 -0.760994 -0.178429 0.000000
146.95300293 164.57000732 115.00000000 -0.500459 -0.734997 0.457515 0.000000
130.62500000 235.46899414 178.75000000 0.640407 -0.304879 0.704931 0.000000
102.26599884 232.03100586 173.75000000 -0.394933 -0.354347 0.847624 0.000000
112.57800293 322.26599121 128.75000000 -0.999999 0.000978 0.000978 0.000000
156.40600586 285.31201172 168.75000000 0.641925 0.009705 0.766706 0.000000
102.26599884 243.20300293 23.75000000 0.722736 -0.503423 -0.473517 0.000000
144.37500000 286.17199707 143.75000000 0.309779 0.926507 -0.213592 0.000000
74.76560211 264.68798828 161.25000000 -0.842434 0.250122 0.477226 0.000000
177.89100647 244.92199707 151.25000000 -0.191656 -0.223822 0.955600 0.000000
159.84399414 199.37500000 98.75000000 -0.340558 -0.669709 0.659932 0.000000
114.29699707 222.57800293 173.75000000 0.000978 0.000978 0.999999 0.000000
168.00799561 164.14100647 102.50000000 0.000978 -0.999999 0.000978 0.000000
175.31199646 199.37500000 158.75000000 0.231239 -0.037531 0.972173 0.000000
154.68800354 244.92199707 171.25000000 0.000978 0.000978 0.999999 0.000000
82.92970276 203.67199707 85.00000000 -0.926507 -0.309779 -0.213592 0.000000
116.87500000 244.06199646 178.75000000 -0.000978 -0.000978 0.999999 0.000000
114.29699707 176.60200500 117.50000000 -0.430046 -0.852386 0.297487 0.000000
85.50779724 209.68800354 70.00000000 -0.885632 -0.347336 -0.308242 0.000000
79.49220276 231.17199707 57.50000000 -0.964529 -0.207524 -0.163148 0.000000
141.79699707 209.68800354 166.25000000 -0.328911 -0.341036 0.880632 0.000000
121.17199707 168.43800354 86.25000000 0.001242 -0.945148 -0.326641 0.000000
134.49200439 267.26599121 102.50000000 0.686901 0.686901 -0.237350 0.000000
189.92199707 248.78900146 135.00000000 0.686901 0.686901 -0.237350 0.000000
131.05499268 274.14099121 115.00000000 0.727224 0.684362 -0.052863 0.000000
118.59400177 285.74200439 72.50000000 0.924420 0.361252 0.122249 0.000000
158.12500000 278.43798828 166.25000000 0.794526 0.171012 0.582652 0.000000
85.93750000 272.85198975 52.50000000 -0.570499 0.570499 -0.590814 0.000000
135.78100586 262.53900146 95.00000000 0.697537 0.588185 -0.409244 0.000000
136.64100647 293.04699707 141.25000000 0.729866 0.261232 -0.631706 0.000000
158.12500000 251.79699707 168.75000000 0.587928 -0.001364 0.808912 0.000000
201.52299500 228.59399414 140.00000000 0.662063 0.464282 0.588315 0.000000
118.16400146 219.14100647 97.50000000 0.439564 0.640126 -0.630097 0.000000
143.51600647 260.39099121 176.25000000 0.330334 -0.213072 0.919500 0.000000
166.71899414 164.57000732 125.00000000 0.001240 -0.946173 0.323658 0.000000
73.04689789 270.70300293 88.75000000 -0.906438 0.361125 -0.218995 0.000000
88.51560211 249.21899414 23.75000000 -0.886001 0.009298 -0.463590 0.000000
82.50000000 287.89099121 91.25000000 -0.755890 0.568932 -0.323953 0.000000
116.87500000 280.15600586 38.75000000 0.780956 0.436751 -0.446493 0.000000
139.21899414 203.67199707 93.75000000 0.411521 -0.089461 -0.906999 0.000000
108.28099823 170.58599854 90.00000000 -0.509616 -0.855070 0.095642 0.000000
89.80470276 187.34399414 95.00000000 -0.724475 -0.683495 0.089279 0.000000
73.47660065 217.42199707 105.00000000 -0.893112 -0.371760 -0.253271 0.000000
84.21880341 204.53100586 138.75000000 -0.686901 -0.686901 0.237350 0.000000
76.48439789 209.68800354 108.75000000 -0.869205 -0.444327 -0.216927 0.000000
142.65600586 267.26599121 118.75000000 0.426793 0.855127 -0.294287 0.000000
106.56199646 220.85899353 56.25000000 0.000978 -0.999999 0.000978 0.000000
92.38279724 299.06201172 95.00000000 -0.516518 0.760926 -0.392684 0.000000
153.82800293 213.12500000 166.25000000 0.000978 0.000978 0.999999 0.000000
196.36700439 233.75000000 145.00000000 0.830587 0.517788 0.204989 0.000000
143.51600647 299.06201172 171.25000000 -0.000978 -0.000978 0.999999 0.000000
133.20300293 240.19500732 177.50000000 0.619151 -0.416641 0.665629 0.000000
118.16400146 281.01599121 87.50000000 0.808364 0.576564 -0.118834 0.000000
118.59400177 299.06201172 116.25000000 0.994057 -0.100846 -0.041003 0.000000
208.82800293 216.56199646 108.75000000 -0.175340 -0.635799 0.751676 0.000000
201.95300293 175.31199646 148.75000000 -0.137950 -0.489361 0.861101 0.000000
155.97700500 290.46899414 155.00000000 0.833330 0.337412 -0.437851 0.000000
91.52339935 275.00000000 42.50000000 -0.731084 0.601974 -0.321160 0.000000
76.05470276 258.67199707 67.50000000 -0.961327 0.148199 -0.232135 0.000000
158.98399353 161.99200439 110.00000000 -0.077483 -0.993801 0.079729 0.000000
157.26600647 197.65600586 116.25000000 -0.000978 -0.000978 -0.999999 0.000000
169.29699707 222.57800293 166.25000000 0.136486 -0.197714 0.970711 0.000000
133.63299561 170.15600586 100.00000000 0.637115 0.104469 -0.763656 0.000000
79.49220276 217.42199707 85.00000000 0.000000 0.000000 0.000000 0.000000
103.55500031 214.84399414 85.00000000 0.765819 -0.023801 -0.642616 0.000000
161.56199646 245.78100586 126.25000000 0.364630 0.424612 0.828704 0.000000
233.75000000 171.01600647 138.75000000 0.428656 -0.632142 0.645485 0.000000
158.12500000 191.21099854 67.50000000 -0.314746 -0.949175 0.001234 0.000000
151.25000000 261.25000000 118.75000000 0.686901 0.686901 -0.237350 0.000000
213.12500000 176.17199707 96.25000000 -0.377328 -0.852481 0.361800 0.000000
107.42199707 320.97698975 132.50000000 -0.402788 0.909387 -0.103811 0.000000
140.07800293 320.11700439 160.00000000 0.686901 0.686901 0.237350 0.000000
137.50000000 322.69500732 160.00000000 0.528804 0.751459 0.394557 0.000000
125.89800262 206.25000000 85.00000000 0.348484 0.404741 -0.845425 0.000000
106.56199646 178.75000000 68.75000000 -0.404497 -0.813790 -0.417287 0.000000
106.56199646 277.57800293 178.75000000 0.000978 0.000978 0.999999 0.000000
104.84400177 284.45300293 41.25000000 -0.290152 0.894263 -0.340742 0.000000
126.32800293 166.28900146 110.00000000 -0.267584 -0.857799 0.438838 0.000000
157.26600647 165.85899353 96.25000000 -0.275237 -0.882865 -0.380519 0.000000
145.23399353 177.46099854 137.50000000 -0.277976 -0.833928 0.476752 0.000000
130.62500000 257.81201172 178.75000000 -0.000978 -0.000978 0.999999 0.000000
171.87500000 235.46899414 143.75000000 -0.479382 -0.800038 -0.360739 0.000000
73.04689789 265.54699707 81.25000000 -0.963617 0.085287 -0.253315 0.000000
145.23399353 243.20300293 173.75000000 0.587928 0.001364 0.808912 0.000000
93.67189789 218.71099854 165.00000000 -0.611237 -0.506838 0.607869 0.000000
135.78100586 160.70300293 98.75000000 -0.014270 -0.917162 0.398259 0.000000
184.76600647 226.01600647 113.75000000 0.664495 -0.434670 0.607872 0.000000
87.65619659 287.03100586 171.25000000 -0.504805 0.113617 0.855724 0.000000
89.37500000 257.81201172 23.75000000 -0.845156 0.315961 -0.431138 0.000000
225.15600586 165.00000000 116.25000000 0.328823 -0.457835 -0.825992 0.000000
140.93800354 229.45300293 113.75000000 0.500502 -0.107558 -0.859028 0.000000
115.15599823 196.36700439 152.50000000 -0.409850 0.011710 0.912078 0.000000
116.01599884 226.01600647 173.75000000 0.082382 -0.307296 0.948041 0.000000
197.65600586 232.89100647 123.75000000 -0.676875 -0.640819 0.362202 0.000000
129.76600647 211.40600586 91.25000000 -0.147394 0.561289 -0.814389 0.000000
98.82810211 209.68800354 161.25000000 -0.202090 0.609357 0.766710 0.000000
141.79699707 181.32800293 141.25000000 0.344667 -0.690967 0.635428 0.000000
133.20300293 241.05499268 100.00000000 0.335030 -0.901778 -0.273042 0.000000
175.31199646 199.80499268 160.00000000 0.184690 -0.934561 0.304114 0.000000
110.85900116 201.09399414 71.25000000 -0.177317 0.948848 -0.261238 0.000000
127.18800354 262.96899414 68.75000000 0.662032 0.441910 -0.605334 0.000000
74.76560211 213.98399353 106.25000000 -0.919535 -0.360795 -0.155830 0.000000
145.23399353 174.45300293 96.25000000 -0.734427 -0.678041 0.029603 0.000000
93.67189789 183.04699707 81.25000000 -0.726650 -0.669003 -0.156252 0.000000
89.80470276 260.39099121 25.00000000 -0.840013 0.362697 -0.403520 0.000000
136.64100647 286.17199707 136.25000000 0.656911 0.482183 -0.579627 0.000000
156.40600586 293.90600586 163.75000000 0.940034 0.304249 0.154171 0.000000
223.43800354 208.82800293 158.75000000 0.000978 0.000978 0.999999 0.000000
160.70300293 274.14099121 163.75000000 0.873654 0.133855 0.467772 0.000000
91.09380341 261.25000000 23.75000000 -0.822312 0.366000 -0.435714 0.000000
91.95310211 292.61700439 82.50000000 -0.579360 0.711408 -0.397794 0.000000
165.00000000 203.24200439 165.00000000 0.235621 -0.395666 0.887655 0.000000
108.28099823 205.39100647 88.75000000 -0.000978 -0.000978 -0.999999 0.000000
146.09399414 247.50000000 101.25000000 0.967101 -0.240830 -0.081958 0.000000
122.89099884 287.03100586 121.25000000 0.943327 0.311766 -0.113734 0.000000
175.31199646 241.91400146 125.00000000 -0.001081 0.993536 -0.113516 0.000000
132.77299500 190.78100586 155.00000000 -0.313575 -0.943392 -0.108083 0.000000
149.53100586 281.87500000 143.75000000 0.570499 -0.570499 -0.590814 0.000000
129.76600647 314.53100586 136.25000000 0.688130 -0.189351 -0.700445 0.000000
202.81199646 194.21899414 111.25000000 -0.902627 -0.299891 0.308755 0.000000
134.06199646 324.84399414 146.25000000 0.504284 0.846424 -0.171070 0.000000
72.18750000 225.58599854 102.50000000 -0.961154 -0.191176 -0.199087 0.000000
136.64100647 310.23400879 143.75000000 0.697373 0.001381 -0.716707 0.000000
80.78119659 265.54699707 58.75000000 -0.953008 0.282616 -0.109103 0.000000
118.59400177 177.89100647 66.25000000 0.001242 -0.945148 -0.326641 0.000000
89.37500000 300.35198975 105.00000000 -0.591595 0.761975 -0.263457 0.000000
236.32800293 194.21899414 156.25000000 -0.000978 -0.000978 0.999999 0.000000
106.99199677 171.01600647 90.00000000 -0.527667 -0.847888 0.051514 0.000000
127.61699677 256.09399414 65.00000000 0.945338 0.152823 -0.288064 0.000000
68.32029724 242.34399414 142.50000000 -0.970216 -0.112875 0.214335 0.000000
122.89099884 180.03900146 132.50000000 -0.214282 -0.913214 0.346590 0.000000
136.64100647 286.17199707 176.25000000 0.000978 0.000978 0.999999 0.000000
156.40600586 253.94500732 122.50000000 0.706984 0.605283 0.365795 0.000000
77.34380341 246.64100647 58.75000000 -0.943392 0.313575 -0.108083 0.000000
131.48399353 232.89100647 176.25000000 0.366586 -0.549065 0.751094 0.000000
123.75000000 201.09399414 83.75000000 0.398057 0.215920 -0.891588 0.000000
70.46880341 281.44500732 125.00000000 -0.832143 0.412124 -0.371069 0.000000
136.64100647 232.89100647 111.25000000 -0.359074 0.359074 -0.861470 0.000000
152.96899414 191.21099854 87.50000000 -0.107839 -0.897725 0.427155 0.000000
94.53119659 197.65600586 141.25000000 -0.570499 -0.570499 0.590814 0.000000
136.64100647 287.89099121 176.25000000 0.000978 0.000978 0.999999 0.000000
110.43000031 303.35900879 87.50000000 0.294354 0.925722 -0.237474 0.000000
81.64060211 203.24200439 127.50000000 -0.686901 -0.686901 0.237350 0.000000
106.56199646 177.03100586 108.75000000 -0.456576 -0.870302 0.184699 0.000000
114.29699707 229.88299561 87.50000000 0.686901 -0.686901 -0.237350 0.000000
232.03100586 192.50000000 156.25000000 0.500509 -0.490532 0.713350 0.000000
158.98399353 181.32800293 53.75000000 0.153596 -0.891429 -0.426336 0.000000
113.43800354 266.40600586 23.75000000 0.558272 -0.544779 -0.625737 0.000000
140.93800354 317.10900879 163.75000000 0.413202 0.635568 0.652163 0.000000
73.47660065 276.71899414 157.50000000 -0.909358 0.097973 0.404313 0.000000
160.70300293 170.58599854 82.50000000 -0.174740 -0.870761 -0.459609 0.000000
196.79699707 170.15600586 141.25000000 -0.238499 -0.777849 0.581438 0.000000
67.89060211 271.56201172 121.25000000 -0.943392 0.313575 -0.108083 0.000000
112.57800293 267.26599121 23.75000000 0.555614 -0.538726 -0.633299 0.000000
217.42199707 188.20300293 156.25000000 0.178529 -0.188954 0.965621 0.000000
220.42999268 189.06199646 127.50000000 -0.636378 -0.636378 0.435944 0.000000
97.53910065 185.62500000 117.50000000 -0.595736 -0.769946 0.228651 0.000000
91.09380341 214.84399414 158.75000000 -0.570499 -0.570499 0.590814 0.000000
101.40599823 293.90600586 176.25000000 -0.567048 0.224038 0.792631 0.000000
219.14100647 207.10899353 143.75000000 -0.504792 -0.759639 0.410041 0.000000
140.93800354 283.59399414 176.25000000 0.298545 0.087347 0.950390 0.000000
113.43800354 268.12500000 23.75000000 0.555614 -0.538726 -0.633299 0.000000
165.42999268 257.81201172 162.50000000 0.836587 -0.127021 0.532905 0.000000
159.84399414 163.71099854 120.00000000 -0.001243 -0.945912 0.324419 0.000000
209.25799561 226.87500000 130.00000000 -0.813637 -0.156756 -0.559842 0.000000
137.07000732 250.07800293 90.00000000 0.849311 -0.158046 -0.503678 0.000000
183.04699707 198.51600647 101.25000000 -0.130055 -0.701101 0.701101 0.000000
238.90600586 189.06199646 146.25000000 -0.757229 -0.505364 0.413777 0.000000
181.32800293 171.87500000 141.25000000 -0.120628 -0.674625 0.728238 0.000000
151.25000000 238.90600586 111.25000000 -0.026500 -0.615076 -0.788022 0.000000
154.68800354 296.48400879 166.25000000 0.801250 0.447994 0.396611 0.000000
171.01600647 184.76600647 151.25000000 0.065481 -0.378184 0.923412 0.000000
125.46900177 293.04699707 176.25000000 0.253880 0.245464 0.935570 0.000000
162.42199707 272.42199707 153.75000000 0.905456 0.176499 -0.386003 0.000000
144.37500000 200.66400146 100.00000000 0.145238 -0.612394 -0.777097 0.000000
96.25000000 290.46899414 173.75000000 -0.444473 0.261185 0.856870 0.000000
93.67189789 219.57000732 50.00000000 0.001375 -0.639507 -0.768784 0.000000
184.76600647 177.03100586 68.75000000 0.001242 -0.945148 -0.326641 0.000000
97.10939789 305.07800293 168.75000000 -0.449086 0.449086 0.772427 0.000000
203.67199707 210.54699707 158.75000000 0.000978 0.000978 0.999999 0.000000
103.12500000 287.46099854 50.00000000 -0.529808 0.712500 -0.460052 0.000000
139.64799500 298.20300293 145.00000000 0.557787 0.157018 -0.814997 0.000000
114.29699707 263.82800293 181.25000000 0.000978 0.000978 0.999999 0.000000
150.39100647 201.95300293 118.75000000 0.502270 0.224419 -0.835081 0.000000
90.23439789 301.64099121 166.25000000 -0.507674 0.588632 0.629111 0.000000
74.33589935 264.68798828 77.50000000 -0.914696 0.138675 -0.379606 0.000000
141.79699707 175.31199646 66.25000000 -0.097100 -0.940410 -0.325885 0.000000
158.98399353 274.14099121 166.25000000 0.885436 0.129750 0.446283 0.000000
139.21899414 303.35900879 171.25000000 -0.000978 -0.000978 0.999999 0.000000
122.03099823 183.90600586 141.25000000 -0.043608 -0.800419 0.597853 0.000000
143.51600647 278.43798828 136.25000000 0.697373 0.001381 -0.716707 0.000000
177.89100647 165.42999268 125.00000000 0.001242 -0.945148 0.326641 0.000000
215.70300293 163.71099854 130.00000000 0.043627 -0.961031 0.272978 0.000000
80.35160065 291.32800293 162.50000000 -0.857575 0.208762 0.470089 0.000000
96.25000000 217.42199707 66.25000000 0.826964 -0.510907 -0.234741 0.000000
152.10899353 187.34399414 113.75000000 0.928022 0.347836 0.133360 0.000000
109.56999969 170.15600586 97.50000000 -0.410842 -0.899872 0.146425 0.000000
116.87500000 227.30499268 67.50000000 0.291055 -0.870117 0.397724 0.000000
111.71900177 220.00000000 93.75000000 0.946173 -0.001240 -0.323658 0.000000
134.06199646 276.71899414 123.75000000 0.340594 0.708891 -0.617632 0.000000
201.95300293 223.00799561 152.50000000 0.079330 0.786087 0.613004 0.000000
99.68750000 314.10198975 165.00000000 -0.345037 0.568582 0.746769 0.000000
85.07810211 219.14100647 158.75000000 -0.601629 -0.470913 0.645201 0.000000
81.64060211 256.09399414 46.25000000 -0.938555 0.209958 -0.273919 0.000000
