204.40600586 286.26599121 168.00000000 -0.746505 -0.557846 0.362681 0.000000
176.79699707 150.15600586 177.00000000 0.286171 0.792108 -0.539139 0.000000
221.84399414 145.79699707 181.50000000 -0.043921 0.647476 -0.760819 0.000000
227.65600586 141.43800354 150.75000000 0.016234 0.310937 -0.950292 0.000000
126.42199707 245.09399414 57.00000000 0.889934 -0.401574 0.216232 0.000000
129.81199646 294.50000000 125.25000000 0.642737 -0.642737 0.416866 0.000000
141.92199707 162.75000000 165.00000000 0.703752 0.709416 -0.038232 0.000000
199.56199646 205.37500000 98.25000000 0.000978 0.999999 0.000978 0.000000
134.65600586 304.67199707 171.00000000 0.597920 -0.747799 -0.288596 0.000000
232.50000000 153.54699707 150.00000000 0.929562 -0.121485 -0.348074 0.000000
194.71899414 254.78100586 204.75000000 -0.275098 -0.277978 -0.920353 0.000000
176.31199646 162.26600647 88.50000000 0.616777 0.616777 0.489052 0.000000
131.26600647 178.25000000 75.00000000 0.872338 0.448758 -0.194017 0.000000
282.87500000 165.17199707 127.50000000 0.452147 0.562264 -0.692403 0.000000
174.37500000 297.89099121 186.00000000 -0.078665 -0.559237 -0.825267 0.000000
263.98400879 176.31199646 190.50000000 -0.249883 0.071574 -0.965627 0.000000
159.84399414 197.14100647 210.00000000 0.201467 0.347210 -0.915891 0.000000
201.98399353 248.96899414 127.50000000 -0.643626 -0.643626 0.414116 0.000000
129.81199646 268.34399414 195.75000000 0.643626 0.643626 0.414116 0.000000
277.06201172 156.93800354 186.75000000 -0.196453 0.193816 -0.961167 0.000000
316.78100586 183.09399414 161.25000000 0.228841 0.526796 -0.818607 0.000000
124.00000000 242.67199707 61.50000000 0.926403 -0.299343 0.228409 0.000000
173.40600586 195.68800354 50.25000000 -0.659982 0.139814 0.738157 0.000000
138.04699707 223.78100586 22.50000000 -0.439456 -0.468862 0.766190 0.000000
217.00000000 269.31201172 168.75000000 -0.768922 -0.553816 0.319448 0.000000
155.00000000 262.04699707 87.00000000 -0.649784 -0.701125 0.293606 0.000000
222.81199646 171.95300293 114.00000000 0.144099 0.325252 -0.934584 0.000000
279.96899414 211.18800354 171.75000000 -0.035331 0.713696 -0.699564 0.000000
169.04699707 235.40600586 67.50000000 -0.742151 -0.511771 0.432784 0.000000
160.81199646 297.89099121 141.00000000 -0.344403 -0.461850 0.817363 0.000000
117.70300293 252.84399414 190.50000000 0.786749 -0.110292 -0.607340 0.000000
211.67199707 273.18798828 187.50000000 -0.537868 -0.490951 -0.685321 0.000000
274.15600586 173.40600586 129.75000000 0.364385 0.573539 -0.733673 0.000000
263.50000000 154.03100586 114.75000000 0.131305 0.410858 -0.902194 0.000000
156.93800354 294.98400879 136.50000000 -0.359465 -0.658199 0.661482 0.000000
190.84399414 172.92199707 114.00000000 0.213517 -0.443458 -0.870492 0.000000
145.31199646 161.29699707 81.00000000 0.654266 0.755572 -0.032362 0.000000
241.21899414 215.06199646 144.75000000 -0.161087 -0.506907 0.846815 0.000000
257.20300293 217.00000000 181.50000000 -0.064641 -0.932680 0.354867 0.000000
132.71899414 181.15600586 23.25000000 0.661032 0.466906 0.587398 0.000000
155.96899414 149.67199707 151.50000000 0.620425 0.763717 -0.178353 0.000000
115.28099823 248.48399353 112.50000000 0.980501 -0.012764 0.196100 0.000000
254.78100586 140.95300293 162.00000000 0.161972 0.943247 -0.289916 0.000000
126.42199707 299.34399414 142.50000000 0.707106 -0.707106 0.001384 0.000000
238.31199646 142.89100647 171.00000000 -0.025272 0.971163 -0.237074 0.000000
146.76600647 155.96899414 108.00000000 0.608341 0.785099 0.116365 0.000000
198.59399414 249.45300293 123.00000000 -0.621890 -0.605037 0.497175 0.000000
224.75000000 193.75000000 162.75000000 0.549074 -0.209535 -0.809081 0.000000
181.15600586 160.32800293 100.50000000 0.774820 0.349555 -0.526749 0.000000
262.53100586 208.28100586 192.75000000 -0.348093 -0.157970 -0.924054 0.000000
108.98400116 229.59399414 169.50000000 0.999999 -0.000978 -0.000978 0.000000
238.31199646 194.71899414 159.75000000 0.580326 -0.389624 -0.715133 0.000000
240.25000000 173.40600586 197.25000000 -0.238700 0.958757 -0.154298 0.000000
264.46899414 164.68800354 191.25000000 0.000978 0.000978 -0.999999 0.000000
194.23399353 191.81199646 120.00000000 -0.876651 0.456438 -0.152146 0.000000
212.15600586 261.56201172 153.75000000 -0.713129 -0.477082 0.513653 0.000000
155.48399353 238.31199646 49.50000000 -0.708587 -0.596792 0.376488 0.000000
162.26600647 244.12500000 69.00000000 -0.670556 -0.627508 0.395711 0.000000
303.21899414 167.10899353 150.00000000 0.664261 0.220378 -0.714276 0.000000
146.28100586 276.09399414 198.75000000 0.220378 0.664261 -0.714276 0.000000
286.75000000 141.43800354 110.25000000 0.095228 0.672455 -0.733987 0.000000
268.34399414 161.78100586 119.25000000 0.181350 0.461484 -0.868415 0.000000
216.03100586 235.40600586 162.75000000 -0.538831 -0.515331 -0.666405 0.000000
303.21899414 135.14100647 151.50000000 -0.149530 0.947021 -0.284241 0.000000
246.06199646 148.21899414 183.75000000 -0.162998 0.892881 -0.419755 0.000000
306.12500000 196.65600586 182.25000000 -0.359825 -0.001263 -0.933019 0.000000
167.10899353 298.37500000 144.00000000 -0.403947 -0.472082 0.783559 0.000000
129.32800293 208.28100586 199.50000000 0.778761 0.259587 -0.571092 0.000000
217.96899414 145.31199646 180.75000000 0.052942 0.736892 -0.673934 0.000000
190.35899353 155.96899414 102.00000000 0.185371 0.888905 -0.418909 0.000000
153.54699707 284.81201172 124.50000000 -0.544897 -0.622499 0.561767 0.000000
240.25000000 186.00000000 134.25000000 0.154692 0.599246 -0.785477 0.000000
240.25000000 139.50000000 155.25000000 0.013748 0.948594 -0.316198 0.000000
245.57800293 237.34399414 159.00000000 0.751308 -0.501420 0.429084 0.000000
124.48400116 198.59399414 190.50000000 0.789240 0.265172 -0.553880 0.000000
162.75000000 144.82800293 147.00000000 0.488623 0.733763 -0.472059 0.000000
226.68800354 192.78100586 162.75000000 0.549074 -0.209535 -0.809081 0.000000
184.06199646 304.67199707 175.50000000 -0.129971 -0.646869 -0.751444 0.000000
129.32800293 185.03100586 24.00000000 0.850025 0.422690 0.314308 0.000000
221.84399414 174.37500000 198.75000000 0.090860 0.451504 -0.887631 0.000000
220.87500000 216.51600647 138.00000000 0.336157 -0.822242 -0.459256 0.000000
127.39099884 181.15600586 168.00000000 0.877615 0.471701 -0.085382 0.000000
186.00000000 154.51600647 97.50000000 0.643626 0.643626 -0.414116 0.000000
301.76599121 188.90600586 160.50000000 0.498730 0.498730 -0.708898 0.000000
236.85899353 184.06199646 126.00000000 0.745082 0.576994 -0.334560 0.000000
248.00000000 147.25000000 108.75000000 0.142411 0.634102 -0.760023 0.000000
138.04699707 167.59399414 97.50000000 0.786000 0.612299 0.085403 0.000000
265.43798828 179.21899414 189.75000000 -0.252415 0.053467 -0.966141 0.000000
227.17199707 244.12500000 190.50000000 -0.716098 0.503429 -0.483491 0.000000
229.59399414 147.25000000 108.75000000 0.113845 0.652022 -0.749604 0.000000
221.84399414 159.84399414 110.25000000 0.239305 -0.958543 -0.154689 0.000000
143.37500000 163.71899414 171.75000000 0.492477 0.786349 -0.372991 0.000000
168.56199646 145.79699707 91.50000000 0.490571 0.855921 0.163524 0.000000
190.84399414 185.51600647 114.00000000 -0.761800 0.643266 -0.076614 0.000000
135.62500000 298.85900879 129.00000000 -0.122385 -0.803612 0.582434 0.000000
125.45300293 237.34399414 49.50000000 0.916653 -0.293966 0.270796 0.000000
143.85899353 292.56201172 123.00000000 -0.497175 -0.605037 0.621890 0.000000
279.96899414 136.10899353 151.50000000 0.080295 0.974663 -0.208768 0.000000
198.10899353 196.65600586 117.00000000 -0.804794 0.574853 -0.147819 0.000000
279.96899414 148.70300293 114.00000000 0.244850 0.684002 -0.687161 0.000000
136.59399414 170.01600647 75.00000000 0.789313 0.613289 -0.029337 0.000000
111.89099884 234.43800354 183.00000000 0.852027 0.092767 -0.515212 0.000000
114.79699707 251.87500000 186.00000000 0.818670 -0.131282 -0.559056 0.000000
174.37500000 139.98399353 136.50000000 0.443255 0.885075 -0.142014 0.000000
231.53100586 176.79699707 199.50000000 -0.174537 0.402446 -0.898651 0.000000
129.32800293 290.62500000 120.00000000 0.706061 -0.573778 0.415038 0.000000
271.25000000 134.17199707 132.00000000 0.024880 0.977448 -0.209707 0.000000
259.62500000 195.68800354 194.25000000 -0.651645 0.023824 -0.758150 0.000000
256.71899414 135.14100647 135.00000000 -0.058166 0.991098 -0.119753 0.000000
125.45300293 276.09399414 108.00000000 0.762245 -0.524958 0.378685 0.000000
317.75000000 171.46899414 174.75000000 -0.610776 0.346921 -0.711758 0.000000
228.62500000 195.68800354 164.25000000 0.624077 -0.175474 -0.761404 0.000000
184.54699707 158.87500000 187.50000000 0.178639 0.633634 -0.752726 0.000000
119.64099884 210.21899414 81.00000000 0.999999 0.000978 0.000978 0.000000
187.93800354 273.67199707 138.00000000 -0.584076 -0.580690 0.567146 0.000000
150.15600586 280.93798828 116.25000000 -0.418336 -0.418336 0.806219 0.000000
225.71899414 155.00000000 159.75000000 -0.274820 -0.376938 0.884529 0.000000
204.40600586 159.84399414 110.25000000 -0.167899 0.014848 -0.985692 0.000000
246.06199646 199.07800293 168.00000000 0.752240 0.117213 0.648380 0.000000
199.56199646 135.14100647 108.00000000 0.612421 -0.001370 -0.790530 0.000000
135.62500000 255.75000000 56.25000000 0.430300 -0.733653 0.525922 0.000000
289.65600586 140.95300293 168.00000000 -0.198942 0.879767 -0.431778 0.000000
203.43800354 262.53100586 141.75000000 -0.626615 -0.449492 0.636641 0.000000
295.46899414 139.50000000 164.25000000 -0.044094 0.907272 -0.418227 0.000000
139.50000000 275.12500000 197.25000000 0.267554 -0.477885 -0.836685 0.000000
129.81199646 232.01600647 201.00000000 0.449766 0.022688 -0.892858 0.000000
232.50000000 206.34399414 144.75000000 -0.553824 -0.293574 -0.779162 0.000000
181.64100647 167.59399414 91.50000000 -0.934184 0.355326 0.032302 0.000000
265.43798828 212.15600586 173.25000000 0.004148 -0.734214 0.678906 0.000000
173.40600586 158.87500000 183.75000000 0.208388 0.606641 -0.767177 0.000000
176.31199646 179.70300293 201.00000000 0.365068 0.607356 -0.705581 0.000000
281.42199707 218.93800354 180.00000000 -0.256235 0.842355 -0.474112 0.000000
248.96899414 241.21899414 182.25000000 0.903857 0.375761 -0.204565 0.000000
210.21899414 191.32800293 129.00000000 -0.000978 0.999999 -0.000978 0.000000
126.90599823 195.68800354 23.25000000 0.871766 0.200491 0.447021 0.000000
161.78100586 203.43800354 212.25000000 0.287544 0.217411 -0.932765 0.000000
142.40600586 195.68800354 23.25000000 -0.644958 0.189331 0.740394 0.000000
127.39099884 269.31201172 94.50000000 0.799488 -0.520855 0.299214 0.000000
184.06199646 271.73400879 133.50000000 -0.410570 -0.545777 0.730451 0.000000
293.53100586 180.18800354 149.25000000 0.467398 0.517298 -0.716898 0.000000
236.37500000 172.43800354 197.25000000 -0.064064 0.260025 -0.963474 0.000000
236.37500000 166.62500000 153.75000000 0.782358 -0.046687 -0.621076 0.000000
115.76599884 273.18798828 133.50000000 0.889011 -0.416040 0.191232 0.000000
173.40600586 272.70300293 202.50000000 -0.012339 -0.574430 -0.818460 0.000000
322.59399414 136.10899353 156.00000000 -0.450265 0.792403 -0.411533 0.000000
248.96899414 138.04699707 151.50000000 -0.005346 0.995448 -0.095161 0.000000
235.40600586 139.98399353 142.50000000 0.751067 0.601806 -0.271527 0.000000
229.59399414 190.35899353 133.50000000 0.382163 0.924094 0.001278 0.000000
226.68800354 216.51600647 142.50000000 -0.109213 0.288163 0.951333 0.000000
137.07800293 309.03100586 163.50000000 0.551555 -0.795302 -0.251559 0.000000
125.93800354 198.10899353 24.00000000 0.873988 0.131026 0.467951 0.000000
207.31199646 246.54699707 133.50000000 -0.850772 -0.337509 0.402833 0.000000
203.43800354 155.96899414 110.25000000 -0.174740 0.459609 -0.870761 0.000000
282.87500000 197.62500000 188.25000000 -0.277841 -0.051545 -0.959243 0.000000
123.51599884 201.50000000 111.00000000 0.927639 0.348726 -0.133701 0.000000
297.40600586 150.15600586 176.25000000 0.173096 0.558424 -0.811295 0.000000
124.00000000 260.59399414 90.75000000 0.859920 -0.410731 0.303049 0.000000
213.60899353 248.96899414 150.00000000 -0.872941 -0.216370 0.437217 0.000000
136.10899353 171.46899414 124.50000000 0.878628 0.464154 0.112135 0.000000
296.43798828 165.65600586 180.75000000 -0.515119 0.161810 -0.841707 0.000000
143.37500000 200.53100586 23.25000000 -0.558591 0.105915 0.822653 0.000000
286.26599121 155.96899414 121.50000000 0.329802 0.622236 -0.709967 0.000000
261.07800293 234.43800354 171.00000000 0.999999 0.000978 0.000978 0.000000
231.53100586 142.89100647 171.00000000 -0.062211 0.958552 -0.278044 0.000000
197.62500000 267.37500000 140.25000000 -0.531450 -0.551695 0.642801 0.000000
122.06199646 290.14099121 139.50000000 0.897725 -0.391391 0.202243 0.000000
175.34399414 163.23399353 79.50000000 -0.824860 0.541454 0.162585 0.000000
221.84399414 235.40600586 180.75000000 -0.928957 -0.298341 0.219160 0.000000
239.28100586 133.68800354 117.75000000 0.048855 0.980672 -0.189462 0.000000
200.04699707 230.56199646 99.00000000 -0.745047 -0.435844 0.504921 0.000000
216.03100586 205.85899353 154.50000000 0.078598 -0.564473 -0.821701 0.000000
231.53100586 221.84399414 204.75000000 -0.423100 -0.311513 -0.850850 0.000000
118.67199707 219.90600586 76.50000000 0.992402 -0.076164 0.096626 0.000000
125.93800354 246.06199646 198.75000000 0.055821 0.682732 -0.728534 0.000000
178.25000000 204.40600586 56.25000000 -0.794597 -0.097684 0.599228 0.000000
118.18800354 210.70300293 186.00000000 0.863458 0.217742 -0.455005 0.000000
193.26600647 209.25000000 84.00000000 -0.895310 0.047407 0.442914 0.000000
258.65600586 237.34399414 162.75000000 0.888110 0.341118 -0.308058 0.000000
149.67199707 254.78100586 64.50000000 -0.570655 -0.734167 0.367901 0.000000
279.00000000 170.50000000 129.75000000 0.386943 0.604290 -0.696498 0.000000
286.26599121 173.40600586 138.00000000 0.567457 0.520309 -0.638178 0.000000
225.71899414 247.51600647 193.50000000 -0.652173 0.318804 -0.687775 0.000000
154.03100586 170.50000000 189.75000000 0.170711 0.793125 -0.584646 0.000000
325.98400879 139.50000000 154.50000000 -0.887226 0.398437 0.232545 0.000000
271.25000000 187.93800354 189.75000000 -0.321999 0.161691 -0.932830 0.000000
188.90600586 186.00000000 206.25000000 0.061032 0.421800 -0.904632 0.000000
155.00000000 236.37500000 44.25000000 -0.708102 -0.616944 0.343470 0.000000
219.90600586 161.78100586 150.75000000 -0.969838 0.065815 -0.234698 0.000000
305.15600586 176.31199646 155.25000000 0.349860 0.520760 -0.778721 0.000000
144.82800293 206.34399414 24.00000000 -0.706680 -0.176287 0.685219 0.000000
124.00000000 201.01600647 114.00000000 0.933345 0.340014 -0.115144 0.000000
173.89100647 167.59399414 64.50000000 -0.783986 0.483324 0.389569 0.000000
136.59399414 230.56199646 206.25000000 0.415374 -0.033177 -0.909045 0.000000
181.15600586 139.98399353 103.50000000 0.417693 0.905229 0.078061 0.000000
191.81199646 161.78100586 191.25000000 0.054651 0.545109 -0.836582 0.000000
193.26600647 193.75000000 88.50000000 -0.907150 0.303360 0.291636 0.000000
235.89100647 188.90600586 159.00000000 0.724475 0.089279 -0.683495 0.000000
297.40600586 162.75000000 179.25000000 -0.375749 0.291244 -0.879767 0.000000
129.81199646 238.31199646 38.25000000 0.738833 -0.497514 0.454539 0.000000
153.06199646 275.12500000 111.75000000 -0.474187 -0.717104 0.510791 0.000000
197.14100647 247.03100586 207.00000000 -0.327740 -0.315768 -0.890436 0.000000
209.73399353 267.37500000 154.50000000 -0.839219 -0.396864 0.371766 0.000000
195.68800354 271.25000000 141.75000000 -0.475691 -0.529102 0.702687 0.000000
136.59399414 217.96899414 206.25000000 0.658512 0.110985 -0.744341 0.000000
219.90600586 186.00000000 204.75000000 -0.054547 0.530090 -0.846185 0.000000
234.43800354 178.25000000 168.75000000 0.424190 -0.408183 -0.808362 0.000000
159.84399414 150.64100647 91.50000000 0.491448 0.870527 0.025723 0.000000
156.93800354 197.62500000 209.25000000 0.215535 0.388550 -0.895865 0.000000
173.89100647 227.65600586 64.50000000 -0.718620 -0.469675 0.512826 0.000000
305.15600586 175.34399414 153.75000000 0.337509 0.402833 -0.850772 0.000000
128.84399414 182.60899353 96.00000000 0.913367 0.405794 -0.033045 0.000000
167.10899353 224.75000000 51.00000000 -0.745967 -0.395116 0.536112 0.000000
231.53100586 225.23399353 157.50000000 0.418336 -0.418336 -0.806219 0.000000
309.03100586 192.29699707 165.00000000 0.529025 0.485635 -0.695910 0.000000
276.09399414 160.32800293 120.00000000 0.375601 0.521939 -0.765835 0.000000
134.65600586 170.98399353 166.50000000 0.774086 0.602407 -0.194671 0.000000
139.98399353 310.00000000 145.50000000 0.327519 -0.899565 0.288987 0.000000
172.43800354 218.93800354 53.25000000 -0.730414 -0.317642 0.604648 0.000000
186.00000000 304.18798828 161.25000000 -0.683787 -0.408948 0.604315 0.000000
152.09399414 235.89100647 211.50000000 0.211179 -0.129267 -0.968862 0.000000
278.03100586 168.56199646 188.25000000 -0.368791 0.087807 -0.925355 0.000000
135.14100647 246.06199646 202.50000000 0.518557 -0.101988 -0.848939 0.000000
189.87500000 259.62500000 204.75000000 -0.227785 -0.454062 -0.861360 0.000000
232.98399353 154.03100586 156.00000000 0.916373 -0.321813 0.238113 0.000000
172.43800354 252.84399414 209.25000000 -0.063791 -0.324163 -0.943848 0.000000
212.15600586 213.12500000 210.75000000 -0.199512 -0.397568 -0.895620 0.000000
302.25000000 190.84399414 182.25000000 -0.251998 0.216195 -0.943269 0.000000
133.68800354 265.43798828 72.75000000 0.496205 -0.814406 0.300873 0.000000
134.17199707 170.50000000 141.00000000 0.707106 0.707106 -0.001384 0.000000
202.46899414 238.31199646 111.75000000 -0.722662 -0.561339 0.403308 0.000000
202.46899414 168.07800293 196.50000000 -0.028941 0.547132 -0.836546 0.000000
120.60900116 287.71899414 142.50000000 0.900241 -0.398987 0.174287 0.000000
155.00000000 153.54699707 63.00000000 0.581044 0.806436 0.109769 0.000000
169.53100586 233.46899414 213.75000000 -0.000978 -0.000978 -0.999999 0.000000
232.50000000 214.09399414 206.25000000 -0.312248 0.034132 -0.949387 0.000000
310.96899414 164.20300293 175.50000000 -0.307428 0.185013 -0.933412 0.000000
278.03100586 213.12500000 186.75000000 -0.218874 -0.355127 -0.908834 0.000000
122.54699707 193.75000000 43.50000000 0.705724 -0.708486 -0.001381 0.000000
169.53100586 244.12500000 212.25000000 -0.001263 -0.359825 -0.933019 0.000000
146.28100586 212.15600586 209.25000000 0.346216 0.163997 -0.923710 0.000000
126.90599823 217.48399353 24.00000000 0.736902 -0.254050 0.626446 0.000000
120.12500000 251.87500000 192.75000000 0.693264 -0.117276 -0.711078 0.000000
123.51599884 294.50000000 154.50000000 0.801428 -0.597225 -0.032169 0.000000
261.56201172 141.92199707 169.50000000 0.234312 0.906686 -0.350740 0.000000
143.37500000 217.96899414 23.25000000 -0.641746 -0.261452 0.720974 0.000000
226.68800354 217.00000000 207.75000000 -0.087618 -0.198683 -0.976139 0.000000
177.28100586 262.53100586 206.25000000 -0.090163 -0.356615 -0.929890 0.000000
186.00000000 138.04699707 130.50000000 0.241002 0.965282 -0.100736 0.000000
247.03100586 177.28100586 126.75000000 0.251813 0.669919 -0.698426 0.000000
261.07800293 227.65600586 175.50000000 0.999999 0.000978 0.000978 0.000000
134.17199707 171.46899414 135.00000000 0.840909 0.526114 0.126792 0.000000
324.53100586 163.71899414 168.75000000 -0.369050 0.220263 -0.902932 0.000000
110.92199707 225.71899414 141.00000000 0.951475 0.301750 -0.060350 0.000000
242.67199707 162.75000000 192.00000000 -0.230931 0.264521 -0.936322 0.000000
187.93800354 233.95300293 88.50000000 -0.643626 -0.643626 0.414116 0.000000
127.39099884 248.96899414 60.00000000 0.880802 -0.402268 0.249735 0.000000
197.14100647 197.62500000 97.50000000 -0.907457 0.328789 0.261570 0.000000
144.34399414 230.56199646 209.25000000 0.367123 0.082031 -0.926548 0.000000
142.40600586 305.15600586 138.75000000 -0.157800 -0.798018 0.581606 0.000000
178.25000000 280.93798828 137.25000000 -0.382709 -0.589667 0.711215 0.000000
182.12500000 212.15600586 65.25000000 -0.802353 -0.336574 0.492897 0.000000
173.89100647 305.15600586 153.00000000 -0.533368 -0.493240 0.687192 0.000000
167.59399414 315.32800293 165.00000000 -0.057509 -0.952101 -0.300327 0.000000
193.75000000 260.59399414 203.25000000 -0.226365 -0.487671 -0.843170 0.000000
222.81199646 187.93800354 161.25000000 0.922118 -0.227313 0.313091 0.000000
190.35899353 213.12500000 213.00000000 -0.153613 -0.062149 -0.986175 0.000000
184.06199646 138.04699707 121.50000000 0.276148 0.959584 0.054221 0.000000
276.57800293 157.90600586 118.50000000 0.287122 0.431451 -0.855225 0.000000
322.59399414 146.76600647 165.00000000 -0.352087 0.512857 -0.782951 0.000000
283.84399414 200.53100586 186.75000000 -0.293888 -0.044146 -0.954820 0.000000
149.67199707 157.90600586 87.00000000 0.664001 0.744661 -0.067696 0.000000
232.01600647 145.31199646 142.50000000 0.296212 0.734925 -0.610036 0.000000
142.40600586 221.35899353 24.00000000 -0.531157 -0.393873 0.750157 0.000000
278.03100586 169.53100586 188.25000000 -0.368791 0.087807 -0.925355 0.000000
218.93800354 192.78100586 207.75000000 -0.045545 0.350046 -0.935625 0.000000
269.31201172 140.95300293 166.50000000 0.001230 0.951115 -0.308835 0.000000
217.00000000 273.67199707 183.00000000 -0.774477 -0.615687 0.145308 0.000000
260.59399414 183.09399414 131.25000000 0.114343 0.519610 -0.846718 0.000000
178.73399353 310.00000000 171.00000000 -0.196154 -0.810466 -0.551968 0.000000
313.39099121 163.71899414 154.50000000 0.531543 -0.034516 -0.846328 0.000000
243.15600586 195.68800354 162.75000000 0.488005 -0.223479 -0.843747 0.000000
148.70300293 154.03100586 141.00000000 0.705724 0.708486 -0.001381 0.000000
138.53100586 168.07800293 42.00000000 -0.210889 0.927064 0.309965 0.000000
124.00000000 247.03100586 68.25000000 0.958543 -0.239305 0.154689 0.000000
196.65600586 175.82800293 112.50000000 -0.340995 0.510692 -0.789251 0.000000
254.78100586 150.64100647 112.50000000 0.045592 0.507036 -0.860718 0.000000
125.45300293 187.93800354 48.00000000 0.864217 0.478171 0.156466 0.000000
141.92199707 259.62500000 204.00000000 0.441661 -0.264385 -0.857342 0.000000
108.98400116 246.06199646 151.50000000 0.999999 0.000978 0.000978 0.000000
166.62500000 277.06201172 126.75000000 -0.645568 -0.642249 0.413230 0.000000
199.56199646 258.17199707 202.50000000 -0.387792 -0.435667 -0.812288 0.000000
124.48400116 189.87500000 48.00000000 0.865024 0.475690 0.159539 0.000000
141.43800354 311.45300293 165.00000000 0.530700 -0.807723 -0.256790 0.000000
126.42199707 185.03100586 61.50000000 0.768942 0.630738 -0.104388 0.000000
243.15600586 190.84399414 164.25000000 -0.163871 -0.497518 -0.851834 0.000000
136.59399414 224.75000000 23.25000000 0.064539 -0.449025 0.891185 0.000000
264.46899414 180.18800354 191.25000000 -0.373734 0.093773 -0.922783 0.000000
273.18798828 152.09399414 185.25000000 -0.092156 0.677275 -0.729936 0.000000
146.28100586 175.82800293 192.00000000 0.293208 0.719401 -0.629676 0.000000
130.29699707 177.28100586 142.50000000 0.642737 0.642737 -0.416866 0.000000
123.03099823 204.40600586 189.75000000 0.822776 0.279463 -0.494915 0.000000
277.06201172 143.85899353 175.50000000 -0.142026 0.847765 -0.511002 0.000000
131.26600647 225.71899414 24.00000000 0.378763 -0.485139 0.788149 0.000000
122.54699707 272.21899414 112.50000000 0.643626 -0.643626 0.414116 0.000000
175.34399414 215.06199646 213.75000000 -0.239099 0.334738 -0.911473 0.000000
204.40600586 274.64099121 153.00000000 -0.692025 -0.465241 0.551953 0.000000
147.25000000 199.07800293 207.00000000 0.353765 0.228564 -0.906978 0.000000
137.56199646 169.04699707 124.50000000 0.886762 0.417731 0.197873 0.000000
318.71899414 170.50000000 173.25000000 -0.610776 0.346921 -0.711758 0.000000
301.76599121 151.12500000 132.00000000 0.619970 0.626691 -0.472118 0.000000
296.43798828 217.48399353 177.00000000 0.416599 0.834771 -0.360005 0.000000
224.26600647 168.56199646 160.50000000 -0.642737 0.642737 0.416866 0.000000
147.25000000 286.26599121 193.50000000 0.290982 -0.256580 -0.921681 0.000000
199.56199646 191.81199646 209.25000000 -0.151960 0.452985 -0.878472 0.000000
249.45300293 137.56199646 100.50000000 0.097943 0.615432 -0.782081 0.000000
267.37500000 216.51600647 178.50000000 -0.320680 -0.853597 0.410532 0.000000
304.18798828 172.43800354 179.25000000 -0.302211 0.175255 -0.936992 0.000000
250.90600586 135.62500000 137.25000000 0.072010 0.985710 -0.152283 0.000000
294.50000000 179.70300293 150.00000000 0.571625 0.393713 -0.719885 0.000000
130.29699707 287.71899414 181.50000000 0.555230 -0.425953 -0.714341 0.000000
296.43798828 146.76600647 120.00000000 -0.418336 -0.418336 -0.806219 0.000000
195.68800354 295.95300293 165.00000000 -0.654345 -0.463564 0.597445 0.000000
218.45300293 242.18800354 169.50000000 -0.974366 -0.093092 0.204803 0.000000
155.00000000 308.06201172 143.25000000 -0.455104 -0.438792 0.774818 0.000000
174.37500000 286.26599121 139.50000000 -0.411724 -0.513425 0.752913 0.000000
184.06199646 139.98399353 153.00000000 0.086663 0.955880 -0.280685 0.000000
188.90600586 269.79699707 135.00000000 -0.460207 -0.610820 0.644289 0.000000
134.17199707 273.18798828 196.50000000 0.289129 -0.411512 -0.864328 0.000000
113.34400177 263.98400879 129.00000000 0.930409 -0.261987 0.256323 0.000000
166.62500000 230.56199646 57.75000000 -0.675199 -0.544515 0.497603 0.000000
124.96900177 197.14100647 129.00000000 0.705724 -0.708486 0.001381 0.000000
267.37500000 186.96899414 137.25000000 0.209691 0.365875 -0.906733 0.000000
131.75000000 178.73399353 183.00000000 0.794749 0.558346 -0.237958 0.000000
249.93800354 169.53100586 122.25000000 0.492908 0.791542 -0.361252 0.000000
222.32800293 208.28100586 150.00000000 -0.395456 -0.789298 -0.469705 0.000000
122.54699707 195.68800354 82.50000000 0.947919 0.254320 0.191760 0.000000
118.67199707 225.71899414 81.00000000 0.922062 -0.367998 0.119909 0.000000
323.07800293 141.43800354 150.00000000 0.695407 0.701468 -0.156050 0.000000
227.65600586 257.68798828 183.75000000 -0.861851 -0.500748 -0.080402 0.000000
175.34399414 304.18798828 153.75000000 -0.533368 -0.493240 0.687192 0.000000
159.35899353 282.87500000 127.50000000 -0.428503 -0.658594 0.618578 0.000000
157.90600586 218.93800354 39.75000000 -0.678536 -0.095259 0.728364 0.000000
131.75000000 179.70300293 25.50000000 0.278718 0.746964 0.603623 0.000000
297.40600586 211.67199707 174.00000000 0.220847 0.416497 -0.881905 0.000000
236.37500000 135.14100647 126.00000000 -0.055648 0.968274 -0.243614 0.000000
263.98400879 207.31199646 192.00000000 -0.569421 -0.244929 -0.784709 0.000000
273.18798828 195.68800354 143.25000000 0.591494 0.517346 -0.618456 0.000000
238.79699707 180.18800354 126.00000000 0.707716 0.676744 -0.202868 0.000000
210.21899414 257.20300293 147.00000000 -0.839697 -0.247150 0.483555 0.000000
173.89100647 142.40600586 103.50000000 0.349269 0.932723 0.089659 0.000000
288.68798828 142.89100647 172.50000000 -0.218600 0.776727 -0.590685 0.000000
140.46899414 254.78100586 204.75000000 0.413551 -0.265097 -0.871033 0.000000
139.98399353 310.00000000 166.50000000 0.530700 -0.807723 -0.256790 0.000000
192.29699707 226.68800354 87.00000000 -0.730849 -0.430591 0.529577 0.000000
301.28100586 133.20300293 129.00000000 -0.111149 0.991178 -0.072190 0.000000
215.06199646 210.21899414 150.75000000 -0.277184 -0.581294 -0.765027 0.000000
206.82800293 248.00000000 133.50000000 -0.820027 -0.418771 0.390110 0.000000
321.62500000 151.12500000 155.25000000 0.405204 0.330684 -0.852325 0.000000
250.90600586 158.87500000 116.25000000 0.410048 0.095264 -0.907075 0.000000
108.98400116 233.46899414 159.00000000 0.973982 0.215483 0.070186 0.000000
139.98399353 182.12500000 25.50000000 -0.522528 0.522528 0.673742 0.000000
121.57800293 195.68800354 49.50000000 0.894688 0.446689 0.001310 0.000000
112.37500000 261.07800293 180.00000000 0.835193 -0.174808 -0.521435 0.000000
131.75000000 254.78100586 57.75000000 0.587038 -0.702792 0.401832 0.000000
229.59399414 152.57800293 186.00000000 0.023734 0.621279 -0.783230 0.000000
196.65600586 294.50000000 180.75000000 -0.522528 -0.522528 -0.673742 0.000000
119.64099884 264.46899414 111.00000000 0.878497 -0.362626 0.311039 0.000000
298.37500000 147.25000000 173.25000000 0.001381 0.719425 -0.694569 0.000000
255.75000000 196.65600586 141.75000000 -0.012023 0.474225 -0.880322 0.000000
122.54699707 225.71899414 48.00000000 0.954924 -0.172287 0.241736 0.000000
318.23400879 191.81199646 177.00000000 -0.737332 -0.349948 -0.577821 0.000000
246.06199646 137.07800293 144.00000000 0.038556 0.961417 -0.272381 0.000000
141.92199707 184.06199646 25.50000000 -0.582607 0.382387 0.717181 0.000000
136.10899353 309.03100586 148.50000000 0.382828 -0.912898 0.141632 0.000000
270.28100586 153.06199646 186.75000000 -0.199513 0.644937 -0.737734 0.000000
232.50000000 196.65600586 167.25000000 0.423800 0.339353 -0.839781 0.000000
200.53100586 212.15600586 210.75000000 -0.000978 -0.000978 -0.999999 0.000000
211.18800354 227.65600586 131.25000000 -0.879403 -0.025588 0.475390 0.000000
259.62500000 170.50000000 123.75000000 0.226913 0.449318 -0.864074 0.000000
115.76599884 240.25000000 109.50000000 0.977717 0.001160 0.209925 0.000000
110.43800354 239.28100586 131.25000000 0.968150 -0.073895 0.239219 0.000000
201.50000000 185.51600647 117.00000000 0.446689 0.894688 0.001310 0.000000
111.40599823 221.84399414 179.25000000 0.952535 0.167936 -0.253920 0.000000
257.68798828 212.15600586 192.75000000 -0.276875 -0.394888 -0.876016 0.000000
125.45300293 266.40600586 94.50000000 0.799488 -0.520855 0.299214 0.000000
115.28099823 217.00000000 128.25000000 0.902965 0.418987 0.095413 0.000000
266.40600586 195.68800354 141.75000000 0.001370 0.612421 -0.790530 0.000000
154.51600647 234.43800354 40.50000000 -0.726930 -0.465301 0.505042 0.000000
246.06199646 233.46899414 155.25000000 0.145872 -0.648154 0.747407 0.000000
114.31199646 222.81199646 123.75000000 0.929043 0.310618 0.200988 0.000000
211.67199707 245.09399414 144.00000000 -0.943095 -0.125118 0.308087 0.000000
252.84399414 242.18800354 161.25000000 0.159813 0.822961 -0.545156 0.000000
197.62500000 244.12500000 113.25000000 -0.585575 -0.659401 0.471480 0.000000
169.53100586 282.39099121 133.50000000 -0.578308 -0.527727 0.622145 0.000000
254.78100586 175.34399414 192.75000000 -0.000978 -0.000978 -0.999999 0.000000
130.29699707 302.25000000 162.00000000 0.722261 -0.673807 -0.155960 0.000000
198.59399414 207.31199646 125.25000000 -0.581583 -0.072877 -0.810216 0.000000
232.98399353 151.12500000 153.00000000 0.816754 -0.350490 0.458334 0.000000
212.64100647 132.71899414 106.50000000 0.001121 0.987433 -0.158034 0.000000
289.65600586 158.87500000 126.75000000 0.534289 0.652271 -0.537660 0.000000
301.28100586 204.40600586 185.25000000 -0.239207 -0.958148 -0.157268 0.000000
142.40600586 268.82800293 82.50000000 -0.488658 -0.811267 0.321028 0.000000
221.84399414 160.81199646 192.75000000 0.001369 0.606331 -0.795211 0.000000
174.85899353 254.78100586 105.00000000 -0.643626 -0.643626 0.414116 0.000000
319.68798828 177.28100586 174.75000000 -0.544345 0.182454 -0.818779 0.000000
150.15600586 285.78100586 122.25000000 -0.535510 -0.666450 0.518723 0.000000
186.96899414 164.20300293 114.00000000 0.500743 0.738720 -0.451164 0.000000
164.68800354 293.04699707 139.50000000 -0.406974 -0.511578 0.756743 0.000000
311.93798828 189.87500000 165.75000000 0.369059 0.618379 -0.693832 0.000000
261.07800293 230.56199646 174.00000000 0.999999 0.000978 0.000978 0.000000
179.70300293 312.90600586 165.00000000 -0.223616 -0.924375 0.309074 0.000000
291.59399414 148.21899414 176.25000000 -0.234371 0.693675 -0.681091 0.000000
115.76599884 212.15600586 142.50000000 0.929662 0.356527 0.092832 0.000000
183.57800293 171.46899414 96.00000000 -0.947921 0.303703 0.095975 0.000000
309.03100586 147.73399353 135.00000000 0.567064 0.733751 -0.374229 0.000000
279.96899414 168.56199646 128.25000000 0.449502 0.629971 -0.633313 0.000000
268.34399414 217.96899414 186.75000000 -0.129971 -0.646869 -0.751444 0.000000
228.62500000 226.20300293 163.50000000 -0.575560 -0.817758 0.001361 0.000000
229.59399414 152.09399414 158.25000000 0.321572 -0.389272 0.863168 0.000000
320.17199707 143.37500000 144.00000000 0.656746 0.722265 -0.216835 0.000000
173.89100647 154.03100586 81.00000000 -0.944754 -0.090918 0.314918 0.000000
181.15600586 139.98399353 105.00000000 0.417693 0.905229 0.078061 0.000000
150.15600586 209.25000000 210.75000000 0.336686 0.249235 -0.908033 0.000000
194.71899414 139.01600647 159.00000000 0.054455 0.988294 -0.142509 0.000000
150.64100647 162.75000000 177.00000000 0.356793 0.834614 -0.419665 0.000000
297.89099121 187.93800354 183.00000000 -0.304249 0.154171 -0.940034 0.000000
217.96899414 206.34399414 209.25000000 -0.075545 0.018088 -0.996978 0.000000
231.53100586 216.03100586 144.75000000 -0.126646 -0.153696 0.979968 0.000000
163.71899414 148.70300293 81.00000000 0.317711 0.948187 -0.001236 0.000000
319.68798828 152.09399414 167.25000000 -0.436226 0.323651 -0.839617 0.000000
152.09399414 150.64100647 133.50000000 0.607141 0.786490 -0.113196 0.000000
128.84399414 253.81199646 62.25000000 0.790339 -0.494163 0.362171 0.000000
200.53100586 152.57800293 184.50000000 0.018125 0.639942 -0.768209 0.000000
171.46899414 157.90600586 182.25000000 0.243863 0.548304 -0.799933 0.000000
186.96899414 205.37500000 213.75000000 -0.155203 0.113653 -0.981323 0.000000
267.37500000 156.93800354 116.25000000 0.070429 0.459859 -0.885194 0.000000
288.68798828 181.15600586 144.75000000 0.650499 0.505944 -0.566455 0.000000
148.21899414 170.50000000 44.25000000 -0.532865 0.446544 0.718786 0.000000
142.89100647 159.84399414 145.50000000 0.689399 0.723373 -0.038221 0.000000
121.57800293 197.62500000 73.50000000 0.957264 0.273319 -0.094561 0.000000
209.25000000 248.96899414 201.75000000 -0.324008 -0.360516 -0.874670 0.000000
251.87500000 131.26600647 109.50000000 0.112045 0.978854 -0.171146 0.000000
208.28100586 170.01600647 111.00000000 0.374785 0.304987 -0.875511 0.000000
296.43798828 154.03100586 177.75000000 -0.094228 0.325154 -0.940955 0.000000
155.00000000 182.12500000 200.25000000 0.001316 0.459279 -0.888291 0.000000
149.18800354 155.96899414 98.25000000 0.643626 0.643626 0.414116 0.000000
155.00000000 188.42199707 205.50000000 -0.270806 0.809289 -0.521263 0.000000
174.37500000 165.17199707 189.00000000 0.220378 0.664261 -0.714276 0.000000
190.84399414 139.01600647 154.50000000 0.124114 0.984475 -0.124114 0.000000
197.62500000 211.18800354 141.75000000 0.340492 -0.679356 -0.650031 0.000000
145.31199646 199.56199646 24.75000000 -0.572071 0.115585 0.812019 0.000000
313.87500000 135.14100647 148.50000000 -0.001160 0.977717 -0.209925 0.000000
177.76600647 238.31199646 81.00000000 -0.557354 -0.641546 0.527044 0.000000
135.62500000 269.31201172 198.75000000 0.222778 -0.334885 -0.915545 0.000000
122.06199646 247.51600647 81.00000000 0.948983 -0.256592 0.183280 0.000000
223.29699707 228.62500000 204.00000000 -0.222610 -0.393621 -0.891912 0.000000
140.46899414 291.59399414 188.25000000 0.338188 -0.520906 -0.783764 0.000000
315.81201172 134.17199707 144.00000000 -0.254673 0.939369 -0.229624 0.000000
292.56201172 131.26600647 115.50000000 -0.135033 0.989091 -0.058861 0.000000
139.98399353 165.65600586 75.00000000 0.784798 0.614252 -0.082382 0.000000
131.26600647 265.43798828 198.00000000 0.643626 0.643626 0.414116 0.000000
204.89100647 170.50000000 198.00000000 -0.009461 0.517649 -0.855541 0.000000
241.21899414 226.68800354 185.25000000 0.449533 -0.880276 0.151772 0.000000
251.87500000 216.03100586 147.75000000 -0.540555 -0.215916 0.813130 0.000000
180.18800354 163.71899414 189.75000000 0.222645 0.529743 -0.818414 0.000000
114.31199646 235.40600586 117.75000000 0.965310 0.130517 0.226144 0.000000
315.81201172 161.78100586 173.25000000 -0.397568 0.199512 -0.895620 0.000000
131.75000000 247.03100586 200.25000000 0.553762 0.001354 -0.832674 0.000000
240.25000000 173.89100647 117.00000000 0.373055 0.705025 -0.603133 0.000000
255.75000000 232.01600647 184.50000000 0.019878 0.441285 0.897147 0.000000
193.26600647 193.75000000 129.00000000 -0.966940 0.203226 -0.154037 0.000000
128.35899353 180.18800354 144.00000000 0.840227 0.537009 0.075096 0.000000
221.35899353 232.50000000 168.00000000 -0.872713 -0.484224 -0.062436 0.000000
181.15600586 311.93798828 162.75000000 -0.496037 -0.799082 0.339729 0.000000
120.60900116 191.81199646 159.00000000 0.862450 0.505480 -0.025887 0.000000
163.71899414 284.81201172 195.75000000 -0.999999 -0.000978 -0.000978 0.000000
148.21899414 211.18800354 210.75000000 0.391391 0.202243 -0.897725 0.000000
280.93798828 216.03100586 185.25000000 0.485364 -0.727217 -0.485364 0.000000
184.54699707 171.46899414 117.00000000 -0.305797 -0.008666 -0.952057 0.000000
136.59399414 285.78100586 110.25000000 -0.001350 -0.840871 0.541234 0.000000
223.29699707 170.50000000 156.00000000 -0.967895 0.045505 0.247201 0.000000
129.32800293 182.12500000 39.00000000 0.927860 0.372926 0.001273 0.000000
123.51599884 217.96899414 37.50000000 0.987081 0.001120 0.160219 0.000000
145.79699707 208.28100586 25.50000000 -0.691713 -0.133541 0.709718 0.000000
244.60899353 174.37500000 196.50000000 -0.198064 0.141839 -0.969872 0.000000
146.28100586 285.29699707 117.00000000 -0.643626 -0.643626 0.414116 0.000000
156.93800354 237.34399414 212.25000000 0.278728 -0.134696 -0.950877 0.000000
217.00000000 256.71899414 194.25000000 -0.400899 -0.585675 -0.704460 0.000000
113.82800293 230.56199646 186.00000000 0.840871 -0.001350 -0.541234 0.000000
286.75000000 167.59399414 132.75000000 0.589296 0.619689 -0.518378 0.000000
320.65600586 143.85899353 148.50000000 0.694154 0.709082 -0.123903 0.000000
150.15600586 259.62500000 206.25000000 0.137663 -0.279335 -0.950274 0.000000
282.87500000 155.48399353 120.00000000 0.325066 0.609701 -0.722908 0.000000
124.96900177 212.15600586 24.75000000 0.786337 -0.141750 0.601316 0.000000
124.96900177 211.67199707 25.50000000 0.941187 -0.091596 0.325234 0.000000
200.04699707 217.96899414 94.50000000 -0.865753 -0.023033 0.499942 0.000000
287.71899414 133.20300293 130.50000000 -0.545705 0.819310 -0.175889 0.000000
309.03100586 206.34399414 180.75000000 -0.601147 -0.201407 -0.773342 0.000000
116.73400116 201.50000000 171.00000000 0.894132 0.389072 -0.221698 0.000000
118.18800354 237.34399414 95.25000000 0.971028 -0.199805 0.131082 0.000000
124.00000000 295.95300293 154.50000000 0.801428 -0.597225 -0.032169 0.000000
189.87500000 189.87500000 207.75000000 0.065199 0.484138 -0.872559 0.000000
167.59399414 208.28100586 47.25000000 -0.670158 -0.159561 0.724865 0.000000
118.18800354 202.46899414 144.75000000 0.874212 0.349380 0.337174 0.000000
280.93798828 133.20300293 130.50000000 0.001160 0.977717 -0.209925 0.000000
206.82800293 229.59399414 111.00000000 -0.892799 -0.159582 0.421240 0.000000
173.89100647 218.93800354 55.50000000 -0.742137 -0.302946 0.597877 0.000000
216.03100586 191.32800293 127.50000000 -0.303619 0.907922 -0.288951 0.000000
128.84399414 201.01600647 196.50000000 0.694645 0.237849 -0.678893 0.000000
250.90600586 213.12500000 146.25000000 -0.428418 -0.209021 0.879072 0.000000
233.95300293 154.03100586 154.50000000 0.972037 -0.233720 -0.022773 0.000000
125.45300293 216.03100586 25.50000000 0.858789 -0.224885 0.460335 0.000000
118.18800354 281.90600586 177.75000000 0.595955 -0.541931 -0.592578 0.000000
164.68800354 180.18800354 201.75000000 0.001370 0.612421 -0.790530 0.000000
152.57800293 257.68798828 75.00000000 -0.655361 -0.687725 0.312308 0.000000
159.35899353 212.15600586 39.00000000 -0.698460 -0.192732 0.689209 0.000000
177.28100586 245.09399414 90.75000000 -0.519633 -0.734085 0.437152 0.000000
205.85899353 283.84399414 184.50000000 -0.464287 -0.524195 -0.713903 0.000000
122.06199646 219.90600586 192.75000000 0.723448 -0.035394 -0.689470 0.000000
186.00000000 275.60900879 138.00000000 -0.498860 -0.569405 0.653389 0.000000
187.45300293 179.21899414 82.50000000 -0.642737 0.642737 0.416866 0.000000
181.15600586 158.87500000 186.75000000 0.189294 0.712545 -0.675609 0.000000
170.01600647 142.40600586 121.50000000 0.376876 0.926002 -0.022017 0.000000
220.87500000 232.98399353 171.00000000 -0.889317 -0.441113 0.120561 0.000000
112.37500000 248.00000000 125.25000000 0.974318 -0.008247 0.225024 0.000000
192.29699707 190.84399414 88.50000000 -0.939427 0.273364 0.206757 0.000000
159.35899353 235.40600586 51.00000000 -0.643626 -0.643626 0.414116 0.000000
225.71899414 260.59399414 183.75000000 -0.793282 -0.537791 -0.285455 0.000000
193.75000000 250.42199707 207.00000000 -0.314613 -0.363249 -0.876966 0.000000
168.07800293 230.56199646 60.00000000 -0.643626 -0.643626 0.414116 0.000000
247.03100586 166.62500000 192.75000000 -0.127657 0.225656 -0.965807 0.000000
241.70300293 227.65600586 171.00000000 0.385136 -0.918611 0.088459 0.000000
292.56201172 154.03100586 125.25000000 0.596799 0.532555 -0.600180 0.000000
190.35899353 185.03100586 129.00000000 -0.373353 0.552693 -0.745076 0.000000
207.31199646 259.14099121 198.00000000 -0.341633 -0.407152 -0.847062 0.000000
153.54699707 154.03100586 90.00000000 0.484224 0.872713 -0.062436 0.000000
118.67199707 238.31199646 94.50000000 0.971028 -0.199805 0.131082 0.000000
127.87500000 220.87500000 24.75000000 0.742499 -0.346066 0.573527 0.000000
125.93800354 191.81199646 102.75000000 0.894256 0.392063 -0.215855 0.000000
235.40600586 150.64100647 184.50000000 0.020867 0.610720 -0.791571 0.000000
222.32800293 232.50000000 177.00000000 -0.908870 -0.380955 0.169789 0.000000
138.53100586 168.07800293 85.50000000 0.776196 0.629157 0.041001 0.000000
141.43800354 309.51599121 144.00000000 0.478716 -0.482029 0.733811 0.000000
142.40600586 221.84399414 24.75000000 -0.531157 -0.393873 0.750157 0.000000
296.43798828 184.06199646 153.75000000 0.591528 0.393803 -0.703572 0.000000
160.81199646 149.67199707 162.00000000 0.705724 0.708486 -0.001381 0.000000
220.87500000 158.87500000 149.25000000 -0.533841 0.361844 -0.764253 0.000000
279.96899414 133.20300293 130.50000000 0.001160 0.977717 -0.209925 0.000000
230.56199646 226.20300293 190.50000000 -0.528454 -0.843522 -0.095952 0.000000
124.96900177 258.17199707 82.50000000 0.872347 -0.395970 0.286737 0.000000
215.06199646 135.62500000 128.25000000 -0.255095 0.958896 -0.124277 0.000000
314.84399414 151.12500000 150.75000000 0.615649 0.347834 -0.707098 0.000000
247.51600647 198.59399414 166.50000000 0.752240 0.117213 0.648380 0.000000
181.15600586 169.53100586 194.25000000 0.304281 0.616611 -0.726088 0.000000
200.53100586 215.54699707 136.50000000 -0.150794 -0.911811 -0.381918 0.000000
183.57800293 159.84399414 103.50000000 0.771345 0.354140 -0.528784 0.000000
114.31199646 222.81199646 185.25000000 0.840077 0.001353 -0.542465 0.000000
148.21899414 246.06199646 209.25000000 0.333617 -0.112106 -0.936019 0.000000
193.75000000 217.00000000 126.75000000 -0.937558 0.331297 -0.105961 0.000000
146.28100586 267.85900879 202.50000000 0.225929 -0.360028 -0.905172 0.000000
129.32800293 224.75000000 25.50000000 0.717770 -0.346678 0.603838 0.000000
199.56199646 188.90600586 207.75000000 -0.151960 0.452985 -0.878472 0.000000
226.68800354 176.31199646 155.25000000 -0.000978 -0.000978 -0.999999 0.000000
119.15599823 202.46899414 182.25000000 0.875708 0.327439 -0.354852 0.000000
119.15599823 201.50000000 182.25000000 0.901416 0.267032 -0.340797 0.000000
291.59399414 206.34399414 186.75000000 -0.254115 0.013248 -0.967083 0.000000
294.50000000 213.12500000 173.25000000 0.178918 0.530739 -0.828435 0.000000
191.32800293 181.15600586 121.50000000 -0.607356 0.365068 0.705581 0.000000
201.50000000 230.56199646 209.25000000 -0.283047 -0.189158 -0.940268 0.000000
185.03100586 149.67199707 90.00000000 0.260897 0.873174 -0.411704 0.000000
176.31199646 206.34399414 213.75000000 -0.000978 -0.000978 -0.999999 0.000000
119.64099884 206.34399414 55.50000000 0.990143 0.037428 0.134968 0.000000
192.78100586 175.34399414 200.25000000 0.009178 0.428745 -0.903379 0.000000
195.68800354 191.32800293 112.50000000 -0.801428 0.597225 -0.032169 0.000000
264.46899414 150.15600586 183.75000000 -0.001350 0.840871 -0.541234 0.000000
186.96899414 218.93800354 213.75000000 -0.197613 -0.119575 -0.972960 0.000000
162.75000000 147.73399353 157.50000000 0.491466 0.849982 -0.189715 0.000000
115.76599884 244.12500000 189.00000000 0.839487 -0.099356 -0.534219 0.000000
178.73399353 196.65600586 55.50000000 -0.673259 0.319595 0.666770 0.000000
230.07800293 255.75000000 183.00000000 -0.873098 -0.479431 -0.088575 0.000000
129.32800293 181.15600586 43.50000000 0.914079 0.403153 0.043908 0.000000
138.53100586 216.03100586 207.75000000 0.397192 0.118461 -0.910058 0.000000
210.21899414 224.26600647 129.00000000 -0.801142 0.004108 0.598460 0.000000
203.43800354 190.35899353 123.00000000 -0.344613 0.069979 -0.936133 0.000000
158.87500000 160.32800293 180.00000000 0.273018 0.668975 -0.691327 0.000000
226.68800354 160.81199646 161.25000000 -0.250218 -0.374587 0.892791 0.000000
268.82800293 200.53100586 145.50000000 0.316942 0.794744 -0.517619 0.000000
149.18800354 177.76600647 195.00000000 0.192926 0.726946 -0.659036 0.000000
174.37500000 284.81201172 138.75000000 -0.398276 -0.589978 0.702355 0.000000
309.03100586 173.40600586 155.25000000 0.288987 0.327519 -0.899565 0.000000
171.46899414 248.00000000 210.75000000 0.069806 -0.343763 -0.936458 0.000000
206.34399414 279.96899414 161.25000000 -0.734167 -0.367901 0.570655 0.000000
133.20300293 174.37500000 40.50000000 0.000978 0.999999 0.000978 0.000000
131.26600647 181.15600586 105.00000000 0.929043 0.310618 0.200988 0.000000
287.71899414 167.59399414 134.25000000 0.598200 0.628532 -0.497096 0.000000
123.03099823 195.20300293 90.00000000 0.969101 0.241968 -0.047902 0.000000
150.15600586 267.85900879 93.00000000 -0.737806 -0.602782 0.303802 0.000000
193.26600647 283.84399414 150.00000000 -0.545375 -0.585899 0.599406 0.000000
260.59399414 132.71899414 119.25000000 0.148390 0.959940 -0.237687 0.000000
221.35899353 241.21899414 196.50000000 -0.623894 -0.361891 -0.692670 0.000000
296.43798828 167.59399414 144.75000000 0.625759 0.548171 -0.554918 0.000000
154.03100586 206.34399414 210.75000000 0.238753 0.255508 -0.936863 0.000000
198.59399414 208.28100586 210.75000000 -0.248919 0.050775 -0.967192 0.000000
267.37500000 138.53100586 156.75000000 0.077768 0.959995 -0.269002 0.000000
134.65600586 228.62500000 24.75000000 0.046307 -0.390301 0.919522 0.000000
168.56199646 155.96899414 180.75000000 0.340456 0.646704 -0.682542 0.000000
172.43800354 155.00000000 180.75000000 0.149771 0.715574 -0.682292 0.000000
186.48399353 296.43798828 183.00000000 -0.339908 -0.619642 -0.707465 0.000000
116.25000000 264.95300293 120.00000000 0.908148 -0.329039 0.258844 0.000000
122.54699707 237.34399414 196.50000000 0.764788 0.152354 -0.626010 0.000000
232.50000000 148.21899414 182.25000000 -0.052951 0.676912 -0.734157 0.000000
143.37500000 233.46899414 209.25000000 0.322761 0.180243 -0.929160 0.000000
110.92199707 267.37500000 157.50000000 0.892518 -0.439974 -0.099169 0.000000
200.04699707 246.06199646 121.50000000 -0.635107 -0.668099 0.387663 0.000000
132.23399353 175.34399414 57.00000000 0.769625 0.633894 0.076529 0.000000
154.51600647 278.03100586 117.00000000 -0.557517 -0.713026 0.425169 0.000000
221.84399414 183.57800293 159.00000000 0.993950 -0.018589 -0.108252 0.000000
136.10899353 229.59399414 25.50000000 -0.230958 -0.451349 0.861941 0.000000
115.28099823 264.46899414 183.75000000 0.782905 -0.154778 -0.602581 0.000000
290.62500000 216.51600647 175.50000000 -0.503455 -0.001335 -0.864020 0.000000
225.71899414 197.62500000 161.25000000 0.524199 -0.232123 -0.819350 0.000000
114.31199646 233.46899414 186.75000000 0.831187 0.124167 -0.541951 0.000000
225.71899414 132.71899414 114.75000000 -0.122002 0.979716 -0.158973 0.000000
203.43800354 227.17199707 102.00000000 -0.799069 -0.400339 0.448572 0.000000
233.46899414 157.42199707 159.00000000 0.257591 -0.750648 0.608420 0.000000
199.56199646 142.89100647 174.00000000 -0.001350 0.840871 -0.541234 0.000000
119.64099884 232.50000000 82.50000000 0.985178 -0.116397 0.125997 0.000000
138.53100586 280.93798828 192.75000000 0.159586 -0.673303 -0.721939 0.000000
