117.87500000 167.46899414 183.75000000 -0.064403 -0.268977 -0.960991 0.000000
52.46879959 204.12500000 133.75000000 0.847723 -0.357511 -0.391857 0.000000
66.12500000 222.81199646 131.25000000 0.549406 -0.739647 -0.388684 0.000000
115.00000000 153.81199646 186.25000000 -0.000978 -0.000978 -0.999999 0.000000
85.53119659 142.31199646 8.75000000 0.485477 0.616506 0.619865 0.000000
99.18750000 230.00000000 93.75000000 -0.264734 -0.493861 0.828262 0.000000
99.18750000 228.56199646 93.75000000 -0.264734 -0.493861 0.828262 0.000000
125.78099823 222.09399414 111.25000000 -0.283931 0.028517 0.958421 0.000000
123.62500000 170.34399414 96.25000000 -0.580154 -0.167265 0.797147 0.000000
66.12500000 183.28100586 36.25000000 -0.336146 -0.853531 0.398108 0.000000
122.90599823 118.59400177 88.75000000 0.032499 0.724863 -0.688126 0.000000
138.00000000 153.81199646 181.25000000 -0.633232 -0.004139 -0.773951 0.000000
247.25000000 153.09399414 161.25000000 0.068125 0.296923 -0.952468 0.000000
102.78099823 190.46899414 86.25000000 -0.603977 -0.222027 0.765451 0.000000
204.12500000 127.21900177 176.25000000 -0.563643 0.034793 -0.825285 0.000000
120.03099823 208.43800354 158.75000000 -0.169456 -0.728202 -0.664083 0.000000
81.21880341 131.53100586 36.25000000 0.495292 0.853085 0.164112 0.000000
115.00000000 232.87500000 131.25000000 -0.165841 -0.722700 -0.670970 0.000000
111.40599823 176.81199646 88.75000000 -0.315667 0.227109 0.921290 0.000000
137.28100586 150.93800354 123.75000000 -0.692828 0.692828 0.199944 0.000000
103.14099884 212.75000000 92.50000000 -0.767476 -0.152289 0.622726 0.000000
127.21900177 164.59399414 98.75000000 -0.503323 -0.255533 0.825450 0.000000
67.20310211 148.78100586 35.00000000 0.893449 0.374863 0.247439 0.000000
119.67199707 207.00000000 160.00000000 -0.187656 -0.782664 -0.593482 0.000000
87.68750000 219.21899414 151.25000000 0.197763 -0.780320 -0.593288 0.000000
156.68800354 160.28100586 181.25000000 -0.171970 -0.295789 -0.939646 0.000000
169.98399353 106.37500000 110.00000000 -0.131754 0.986375 0.098519 0.000000
110.68800354 100.26599884 135.00000000 0.302583 0.947390 0.104385 0.000000
168.90600586 106.01599884 110.00000000 -0.136272 0.980910 0.138727 0.000000
135.12500000 158.84399414 103.75000000 -0.032315 0.625225 0.779775 0.000000
126.50000000 191.90600586 101.25000000 -0.513823 -0.191365 0.836281 0.000000
74.75000000 184.71899414 166.25000000 0.280871 -0.049121 -0.958488 0.000000
124.34400177 134.40600586 186.25000000 -0.168292 0.231898 -0.958071 0.000000
83.37500000 125.06199646 76.25000000 -0.351705 0.842530 0.407978 0.000000
129.37500000 147.70300293 112.50000000 -0.206010 0.976415 0.064607 0.000000
119.31199646 229.28100586 136.25000000 0.382009 -0.918738 -0.099952 0.000000
141.59399414 159.92199707 107.50000000 -0.571954 -0.517964 0.636067 0.000000
149.50000000 117.51599884 107.50000000 -0.705724 -0.708486 -0.001381 0.000000
119.31199646 194.06199646 98.75000000 -0.504680 -0.290859 0.812834 0.000000
56.78120041 162.43800354 148.75000000 0.753472 0.229317 -0.616193 0.000000
86.25000000 118.95300293 87.50000000 0.270515 0.839368 0.471468 0.000000
79.06250000 201.25000000 161.25000000 0.535326 -0.300227 -0.789487 0.000000
199.81199646 143.03100586 143.75000000 0.600938 0.380320 -0.703015 0.000000
116.43800354 169.62500000 91.25000000 -0.985610 0.162130 0.047822 0.000000
72.23439789 201.25000000 62.50000000 0.491241 -0.768686 0.409639 0.000000
190.10899353 131.53100586 102.50000000 0.439361 0.896405 -0.058491 0.000000
189.75000000 163.87500000 156.25000000 0.608113 0.727477 -0.317767 0.000000
196.21899414 122.90599823 178.75000000 -0.156867 0.380155 -0.911524 0.000000
72.95310211 230.71899414 127.50000000 0.441189 -0.823869 -0.355798 0.000000
115.00000000 112.84400177 166.25000000 -0.306008 0.915124 0.262500 0.000000
57.85940170 206.28100586 140.00000000 0.527319 -0.564383 -0.635142 0.000000
63.96879959 201.25000000 78.75000000 0.955801 -0.292847 -0.026169 0.000000
209.87500000 141.59399414 173.75000000 -0.216411 -0.059910 -0.974462 0.000000
94.87500000 235.03100586 101.25000000 0.006611 -0.887154 0.461426 0.000000
78.34380341 200.53100586 161.25000000 0.535326 -0.300227 -0.789487 0.000000
147.34399414 129.73399353 122.50000000 0.041898 0.447361 0.893371 0.000000
104.93800354 203.76600647 165.00000000 -0.258594 -0.331644 -0.907272 0.000000
57.85940170 183.28100586 82.50000000 0.948187 -0.317711 0.001236 0.000000
51.39059830 209.15600586 122.50000000 0.888976 -0.414465 -0.194784 0.000000
100.62500000 122.18800354 86.25000000 0.217920 0.789767 -0.573393 0.000000
135.84399414 124.34400177 176.25000000 0.243515 0.339754 -0.908442 0.000000
94.15619659 106.73400116 150.00000000 0.650191 0.758319 -0.046950 0.000000
235.03100586 133.68800354 166.25000000 -0.000978 -0.000978 -0.999999 0.000000
109.25000000 136.56199646 91.25000000 -0.753587 0.451495 0.477764 0.000000
185.43800354 163.87500000 176.25000000 -0.187320 -0.089375 -0.978225 0.000000
92.00000000 108.89099884 155.00000000 0.604720 0.795537 -0.037883 0.000000
79.78119659 137.28100586 173.75000000 0.600886 0.267941 -0.753089 0.000000
145.54699707 177.53100586 150.00000000 -0.964429 0.238210 -0.114598 0.000000
77.98439789 150.21899414 10.00000000 0.857811 0.375582 0.350853 0.000000
131.89100647 196.21899414 165.00000000 -0.225334 -0.359080 -0.905696 0.000000
97.03119659 117.15599823 171.25000000 0.339463 0.605837 -0.719532 0.000000
164.59399414 162.43800354 121.25000000 0.000978 0.000978 0.999999 0.000000
81.21880341 183.28100586 61.25000000 -0.802949 -0.097283 0.588055 0.000000
89.84380341 150.21899414 8.75000000 -0.598491 -0.733998 -0.321023 0.000000
182.56199646 143.75000000 133.75000000 0.405180 0.749665 -0.523289 0.000000
57.14059830 161.71899414 67.50000000 0.970462 0.207320 0.123375 0.000000
127.21900177 168.18800354 181.25000000 -0.259649 -0.262487 -0.929345 0.000000
194.78100586 132.60899353 117.50000000 0.487565 0.855091 -0.176353 0.000000
147.70300293 174.65600586 125.00000000 -0.907769 -0.121689 0.401432 0.000000
90.56250000 178.96899414 71.25000000 -0.625405 -0.233547 0.744530 0.000000
88.40619659 150.57800293 10.00000000 -0.598491 -0.733998 -0.321023 0.000000
108.53099823 158.84399414 186.25000000 -0.000978 -0.000978 -0.999999 0.000000
102.06199646 125.78099823 181.25000000 0.287651 0.117977 -0.950441 0.000000
160.28100586 105.29699707 107.50000000 -0.102662 0.918483 0.381903 0.000000
109.25000000 114.28099823 176.25000000 -0.049609 0.792333 -0.608069 0.000000
54.26559830 190.46899414 95.00000000 0.928398 -0.177838 0.326269 0.000000
78.34380341 178.96899414 56.25000000 -0.894688 -0.446689 0.001310 0.000000
123.62500000 200.53100586 163.75000000 -0.043575 -0.583342 -0.811057 0.000000
236.82800293 125.06199646 162.50000000 -0.370189 0.633434 -0.679502 0.000000
173.21899414 178.25000000 166.25000000 0.384709 -0.545141 -0.744862 0.000000
204.12500000 119.31199646 176.25000000 -0.303486 0.420566 -0.854997 0.000000
51.03120041 196.93800354 108.75000000 0.933765 -0.265386 0.240111 0.000000
161.71899414 161.00000000 121.25000000 0.028918 0.543937 0.838627 0.000000
46.00000000 186.15600586 128.75000000 0.406652 -0.406652 -0.818088 0.000000
143.03100586 103.14099884 100.00000000 0.064003 0.987966 0.140806 0.000000
86.96880341 152.01600647 10.00000000 -0.557043 -0.779225 -0.287250 0.000000
231.43800354 120.75000000 146.25000000 0.492086 0.796635 -0.351032 0.000000
167.46899414 151.65600586 181.25000000 -0.413213 0.207342 -0.886716 0.000000
140.87500000 181.12500000 111.25000000 -0.682163 -0.064899 0.728314 0.000000
129.37500000 230.35899353 135.00000000 -0.835105 0.464984 -0.293920 0.000000
80.50000000 198.37500000 163.75000000 0.379940 -0.424452 -0.821879 0.000000
150.21899414 179.68800354 166.25000000 -0.755949 0.341553 -0.558464 0.000000
236.46899414 112.48400116 135.00000000 0.533341 0.450266 -0.716106 0.000000
242.93800354 128.65600586 161.25000000 0.923804 -0.377253 -0.065319 0.000000
117.15599823 117.87500000 178.75000000 -0.046818 0.642686 -0.764697 0.000000
161.00000000 103.14099884 115.00000000 -0.262985 0.963446 0.051101 0.000000
97.75000000 224.60899353 145.00000000 0.004062 -0.838034 -0.545602 0.000000
138.71899414 126.50000000 178.75000000 0.020971 0.669667 -0.742366 0.000000
170.34399414 173.21899414 151.25000000 0.820252 -0.548329 0.162855 0.000000
94.15619659 231.79699707 132.50000000 -0.264562 -0.948354 -0.175018 0.000000
86.96880341 146.62500000 181.25000000 0.465545 0.344789 -0.815100 0.000000
181.84399414 143.39100647 132.50000000 0.405180 0.749665 -0.523289 0.000000
57.50000000 203.04699707 142.50000000 0.534788 -0.578650 -0.615765 0.000000
172.14100647 176.09399414 150.00000000 0.974979 -0.215445 0.054774 0.000000
90.56250000 150.21899414 183.75000000 0.169384 0.026502 -0.985194 0.000000
164.95300293 155.96899414 135.00000000 -0.544208 0.838816 0.015003 0.000000
117.15599823 227.12500000 106.25000000 -0.667006 -0.104542 0.737682 0.000000
194.78100586 125.06199646 181.25000000 -0.106573 0.338605 -0.934874 0.000000
74.75000000 131.53100586 56.25000000 0.534220 0.826160 0.179077 0.000000
135.84399414 150.57800293 117.50000000 -0.223411 0.670232 -0.707727 0.000000
133.68800354 101.34400177 116.25000000 0.001065 0.995500 0.094759 0.000000
75.46880341 155.60899353 10.00000000 0.807948 0.439972 0.391975 0.000000
192.26600647 166.75000000 165.00000000 0.474112 0.842355 -0.256235 0.000000
94.87500000 166.03100586 73.75000000 -0.718317 -0.251016 0.648854 0.000000
65.76560211 143.75000000 50.00000000 0.934310 0.234631 0.268351 0.000000
144.82800293 208.43800354 125.00000000 -0.944368 -0.187777 -0.270015 0.000000
76.90619659 121.46900177 156.25000000 0.721457 0.590580 -0.361546 0.000000
157.40600586 123.62500000 176.25000000 -0.000978 -0.000978 -0.999999 0.000000
178.25000000 106.37500000 123.75000000 -0.076022 0.996853 -0.022485 0.000000
139.79699707 137.28100586 132.50000000 -0.706861 0.272852 0.652610 0.000000
146.62500000 127.21900177 123.75000000 -0.097973 0.404313 0.909358 0.000000
122.18800354 178.25000000 96.25000000 -0.729212 -0.185757 0.658593 0.000000
235.75000000 160.28100586 166.25000000 -0.154203 -0.436669 -0.886308 0.000000
75.46880341 157.40600586 8.75000000 0.880605 0.240709 0.408158 0.000000
155.96899414 164.59399414 121.25000000 -0.183437 -0.568504 0.801969 0.000000
97.75000000 190.46899414 171.25000000 0.422782 -0.581947 -0.694689 0.000000
204.12500000 109.60900116 160.00000000 0.007998 0.983747 -0.179382 0.000000
74.75000000 158.12500000 8.75000000 0.880605 0.240709 0.408158 0.000000
161.00000000 129.37500000 176.25000000 0.506500 0.193883 -0.840159 0.000000
80.50000000 150.21899414 176.25000000 0.616934 -0.216004 -0.756793 0.000000
148.06199646 170.34399414 163.75000000 -0.770896 -0.266424 0.578566 0.000000
223.89100647 115.00000000 110.00000000 0.391820 0.682792 -0.616662 0.000000
112.84400177 224.25000000 101.25000000 -0.657839 0.117312 0.743967 0.000000
173.93800354 115.35900116 82.50000000 -0.155368 0.936335 0.314861 0.000000
106.37500000 114.28099823 176.25000000 0.224769 0.779716 -0.584399 0.000000
174.65600586 169.62500000 123.75000000 -0.681087 0.058789 0.729839 0.000000
56.06250000 177.53100586 153.75000000 -0.000978 -0.000978 -0.999999 0.000000
66.12500000 224.60899353 107.50000000 0.738611 -0.621572 0.260965 0.000000
141.59399414 163.87500000 178.75000000 -0.373423 -0.240585 -0.895921 0.000000
90.56250000 206.28100586 161.25000000 0.120688 -0.716680 -0.686880 0.000000
179.68800354 109.96900177 158.75000000 0.001209 0.960928 -0.276796 0.000000
141.59399414 206.28100586 151.25000000 -0.517717 -0.642509 -0.564935 0.000000
176.81199646 145.90600586 131.25000000 0.756234 -0.001377 -0.654300 0.000000
182.56199646 159.56199646 146.25000000 0.222137 0.762721 -0.607381 0.000000
185.43800354 117.87500000 176.25000000 -0.020761 0.812434 -0.582683 0.000000
110.68800354 104.21900177 111.25000000 0.242481 0.946633 0.212342 0.000000
136.20300293 145.90600586 127.50000000 -0.381918 0.150794 0.911811 0.000000
77.62500000 180.40600586 168.75000000 0.638784 -0.142787 -0.756020 0.000000
77.62500000 226.40600586 138.75000000 0.960928 -0.001209 -0.276796 0.000000
63.25000000 219.93800354 133.75000000 0.558300 -0.714027 -0.422452 0.000000
178.96899414 159.92199707 145.00000000 0.189655 0.808688 -0.556826 0.000000
136.20300293 142.31199646 127.50000000 -0.531046 0.195171 0.824559 0.000000
63.96879959 191.90600586 158.75000000 0.954596 -0.258896 -0.147372 0.000000
97.03119659 191.90600586 81.25000000 -0.723181 -0.130262 0.678263 0.000000
74.75000000 161.00000000 8.75000000 0.960739 0.093888 0.261084 0.000000
158.84399414 144.46899414 181.25000000 -0.000978 -0.000978 -0.999999 0.000000
188.67199707 166.75000000 172.50000000 -0.603114 -0.603114 -0.522023 0.000000
170.34399414 129.37500000 178.75000000 -0.000978 -0.000978 -0.999999 0.000000
212.75000000 113.20300293 167.50000000 -0.001209 0.960928 -0.276796 0.000000
132.96899414 224.25000000 116.25000000 -0.469991 -0.516492 0.715782 0.000000
232.87500000 140.15600586 156.25000000 0.193144 0.356243 -0.914214 0.000000
61.09379959 222.09399414 111.25000000 0.722178 -0.519636 0.456549 0.000000
108.53099823 108.53099823 166.25000000 -0.307420 0.898498 -0.313360 0.000000
150.21899414 140.15600586 183.75000000 0.298854 0.480357 -0.824587 0.000000
210.59399414 109.60900116 157.50000000 0.001209 0.960928 -0.276796 0.000000
181.12500000 158.12500000 178.75000000 -0.355989 -0.362153 -0.861462 0.000000
54.98440170 150.93800354 90.00000000 0.913032 0.352272 0.205612 0.000000
247.25000000 159.20300293 162.50000000 0.119761 0.607678 -0.785102 0.000000
141.59399414 177.53100586 173.75000000 -0.481233 -0.415981 -0.771605 0.000000
74.75000000 126.14099884 82.50000000 0.618472 0.779304 0.100885 0.000000
104.21900177 103.14099884 125.00000000 0.306850 0.946890 0.096138 0.000000
126.50000000 196.93800354 103.75000000 -0.516210 -0.211661 0.829895 0.000000
154.53100586 134.40600586 141.25000000 0.153654 0.007851 0.988094 0.000000
197.65600586 121.46900177 178.75000000 -0.172578 0.302356 -0.937442 0.000000
93.43750000 168.18800354 73.75000000 -0.692583 -0.297281 0.657231 0.000000
120.03099823 98.10939789 135.00000000 0.066210 0.988507 0.135905 0.000000
74.03119659 196.93800354 58.75000000 -0.029566 -0.699723 0.713802 0.000000
68.64060211 127.93800354 110.00000000 0.692828 0.692828 -0.199944 0.000000
229.28100586 130.45300293 155.00000000 0.368103 0.322281 -0.872144 0.000000
131.53100586 139.43800354 181.25000000 -0.767270 0.256807 -0.587663 0.000000
52.82809830 201.96899414 107.50000000 0.907270 -0.345141 0.240288 0.000000
72.59380341 213.10899353 150.00000000 0.315936 -0.841978 -0.437330 0.000000
147.34399414 181.12500000 168.75000000 -0.393640 -0.242126 -0.886805 0.000000
125.06199646 201.25000000 163.75000000 -0.212463 -0.539564 -0.814696 0.000000
169.62500000 143.75000000 131.25000000 -0.001333 0.867668 -0.497143 0.000000
120.75000000 200.53100586 101.25000000 -0.478320 -0.273989 0.834350 0.000000
182.56199646 184.35899353 145.00000000 -0.511862 -0.854054 0.092677 0.000000
189.03100586 107.45300293 140.00000000 0.014103 0.994798 -0.100890 0.000000
93.43750000 126.14099884 85.00000000 -0.091787 0.227582 0.969423 0.000000
145.90600586 182.56199646 168.75000000 -0.453316 -0.257947 -0.853210 0.000000
141.59399414 143.03100586 181.25000000 0.187607 0.146767 -0.971217 0.000000
86.96880341 206.28100586 71.25000000 -0.614164 -0.222343 0.757210 0.000000
63.25000000 186.15600586 58.75000000 0.857541 -0.384735 0.341471 0.000000
67.92189789 149.50000000 165.00000000 -0.000978 -0.000978 -0.999999 0.000000
80.14060211 166.75000000 10.00000000 -0.208775 -0.192817 0.958767 0.000000
189.39100647 130.09399414 95.00000000 0.341876 0.858558 -0.382097 0.000000
65.04689789 150.21899414 42.50000000 0.920353 0.277978 0.275098 0.000000
169.62500000 173.21899414 153.75000000 0.832596 -0.549881 0.066438 0.000000
70.43750000 185.07800293 162.50000000 0.715467 -0.117509 -0.688693 0.000000
67.20310211 153.81199646 165.00000000 0.655707 0.213377 -0.724237 0.000000
144.46899414 154.17199707 120.00000000 -0.001210 0.961569 0.274561 0.000000
112.12500000 127.93800354 183.75000000 -0.041117 0.177390 -0.983281 0.000000
140.15600586 147.34399414 181.25000000 0.132651 0.018950 -0.990982 0.000000
54.26559830 193.34399414 97.50000000 0.873103 -0.283948 0.396313 0.000000
213.46899414 130.09399414 173.75000000 -0.485027 -0.091915 -0.869655 0.000000
121.46900177 164.59399414 93.75000000 -0.538740 -0.182598 0.822446 0.000000
86.96880341 184.71899414 171.25000000 0.362624 -0.544749 -0.756144 0.000000
83.73439789 113.56199646 125.00000000 0.579129 0.812488 0.066877 0.000000
74.03119659 219.93800354 86.25000000 0.513425 -0.697388 0.500045 0.000000
238.62500000 148.06199646 158.75000000 -0.000978 -0.000978 -0.999999 0.000000
95.59380341 122.90599823 83.75000000 0.271712 0.485976 -0.830662 0.000000
72.59380341 218.50000000 143.75000000 0.511708 -0.669415 -0.538552 0.000000
139.43800354 100.62500000 146.25000000 -0.094356 0.992443 -0.078441 0.000000
147.34399414 108.89099884 170.00000000 0.135650 0.785575 -0.603715 0.000000
53.18750000 161.71899414 143.75000000 0.764464 0.287667 -0.576924 0.000000
94.15619659 146.62500000 61.25000000 -0.960928 -0.001209 0.276796 0.000000
92.00000000 227.12500000 88.75000000 -0.192554 -0.747110 0.636199 0.000000
106.73400116 140.87500000 85.00000000 -0.758290 0.306202 0.575531 0.000000
168.18800354 150.93800354 181.25000000 -0.413213 0.207342 -0.886716 0.000000
153.81199646 164.59399414 176.25000000 -0.371803 -0.902533 -0.217249 0.000000
88.40619659 122.90599823 171.25000000 0.323201 0.674011 -0.664267 0.000000
68.28119659 150.21899414 31.25000000 0.844033 0.364860 0.393047 0.000000
65.76560211 130.09399414 100.00000000 0.548903 0.825562 -0.130971 0.000000
187.59399414 116.07800293 175.00000000 0.023340 0.841618 -0.539569 0.000000
144.46899414 143.39100647 135.00000000 -0.614274 0.431157 0.660886 0.000000
97.75000000 199.81199646 166.25000000 0.318696 -0.456850 -0.830494 0.000000
53.18750000 168.90600586 146.25000000 0.779321 0.132619 -0.612430 0.000000
117.15599823 191.90600586 96.25000000 -0.574289 -0.052208 0.816986 0.000000
129.37500000 104.57800293 92.50000000 -0.001209 0.960928 0.276796 0.000000
91.28119659 191.90600586 168.75000000 0.241857 -0.299101 -0.923062 0.000000
128.65600586 189.03100586 103.75000000 -0.608524 -0.168444 0.775451 0.000000
138.71899414 181.84399414 171.25000000 -0.310030 -0.579901 -0.753390 0.000000
143.75000000 170.34399414 116.25000000 -0.756626 -0.152533 0.635807 0.000000
76.18750000 171.78100586 8.75000000 0.645523 -0.748323 0.152688 0.000000
76.18750000 227.84399414 98.75000000 0.457460 -0.821529 0.340325 0.000000
89.84380341 224.96899414 143.75000000 0.202589 -0.731484 -0.651067 0.000000
63.96879959 149.50000000 158.75000000 0.934666 0.234017 -0.267648 0.000000
99.18750000 193.70300293 170.00000000 0.189889 -0.355507 -0.915181 0.000000
67.56250000 128.29699707 122.50000000 0.692828 0.692828 0.199944 0.000000
144.46899414 135.12500000 108.75000000 0.199944 0.692828 -0.692828 0.000000
145.90600586 194.06199646 126.25000000 -0.927347 -0.073387 0.366936 0.000000
88.40619659 231.79699707 95.00000000 0.039504 -0.875906 0.480863 0.000000
74.03119659 129.73399353 165.00000000 0.674398 0.594469 -0.437942 0.000000
93.79689789 125.78099823 85.00000000 -0.091787 0.227582 0.969423 0.000000
127.21900177 197.65600586 103.75000000 -0.521690 -0.218773 0.824607 0.000000
74.75000000 172.85899353 10.00000000 0.488923 -0.842288 0.226946 0.000000
87.68750000 200.53100586 71.25000000 -0.810552 -0.006857 0.585627 0.000000
61.81250000 159.56199646 43.75000000 0.958581 0.126852 0.255011 0.000000
223.53100586 142.31199646 171.25000000 -0.211424 -0.190148 -0.958720 0.000000
235.75000000 120.03099823 161.25000000 -0.517676 0.415784 -0.747754 0.000000
96.31250000 135.48399353 12.50000000 -0.447955 0.447955 -0.773740 0.000000
115.71900177 150.93800354 186.25000000 -0.000978 -0.000978 -0.999999 0.000000
181.12500000 164.59399414 176.25000000 -0.304102 -0.124588 -0.944457 0.000000
136.56199646 219.21899414 141.25000000 -0.391380 -0.642391 -0.658905 0.000000
141.59399414 103.14099884 97.50000000 -0.644110 0.640782 0.417756 0.000000
97.75000000 142.31199646 68.75000000 -0.927268 -0.021985 0.373752 0.000000
188.31199646 166.03100586 153.75000000 0.956250 -0.246045 -0.158267 0.000000
57.85940170 183.28100586 80.00000000 0.948187 -0.317711 0.001236 0.000000
94.15619659 134.04699707 182.50000000 0.283180 0.361091 -0.888494 0.000000
111.40599823 150.21899414 86.25000000 -0.593324 -0.026401 0.804531 0.000000
117.15599823 105.29699707 97.50000000 0.366607 0.917219 0.155913 0.000000
173.21899414 168.54699707 177.50000000 0.142623 -0.393979 -0.907987 0.000000
175.37500000 131.53100586 93.75000000 -0.121779 0.820171 -0.559007 0.000000
89.12500000 194.78100586 73.75000000 -0.834049 -0.102630 0.542060 0.000000
97.75000000 178.96899414 178.75000000 -0.124589 -0.131847 -0.983409 0.000000
66.84380341 194.06199646 58.75000000 0.669637 -0.640022 0.376774 0.000000
209.87500000 120.39099884 100.00000000 0.487897 0.831749 -0.264859 0.000000
199.81199646 160.64100647 172.50000000 -0.304401 -0.652287 -0.694162 0.000000
188.67199707 166.75000000 155.00000000 0.985316 0.135286 0.104159 0.000000
127.21900177 193.34399414 103.75000000 -0.538352 -0.192593 0.820418 0.000000
97.75000000 136.92199707 12.50000000 -0.983663 -0.167710 0.065419 0.000000
148.42199707 194.78100586 132.50000000 -0.928458 -0.104367 0.356474 0.000000
102.06199646 218.50000000 153.75000000 -0.117213 -0.648380 -0.752240 0.000000
56.06250000 201.96899414 98.75000000 0.845689 -0.354846 0.398615 0.000000
146.62500000 209.87500000 141.25000000 -0.000978 -0.000978 -0.999999 0.000000
74.75000000 230.00000000 106.25000000 0.479558 -0.833406 0.274698 0.000000
111.40599823 157.40600586 86.25000000 0.000000 0.000000 0.000000 0.000000
122.90599823 144.10899353 110.00000000 0.789882 -0.607267 -0.085510 0.000000
232.15600586 113.56199646 128.75000000 0.847760 0.409102 -0.337548 0.000000
117.15599823 98.82810211 145.00000000 0.030330 0.969338 -0.243851 0.000000
153.45300293 161.71899414 117.50000000 -0.757295 0.474747 0.448463 0.000000
210.59399414 117.15599823 173.75000000 0.147664 0.800965 -0.580215 0.000000
94.15619659 222.81199646 86.25000000 -0.078081 -0.529529 0.844691 0.000000
101.34400177 208.43800354 161.25000000 -0.000978 -0.000978 -0.999999 0.000000
84.09380341 126.85900116 75.00000000 -0.259107 0.916284 0.305428 0.000000
172.50000000 179.68800354 153.75000000 0.975404 0.079951 0.205413 0.000000
230.00000000 121.46900177 146.25000000 0.564322 0.743213 -0.359409 0.000000
110.68800354 106.73400116 100.00000000 0.433694 0.865876 0.249336 0.000000
131.53100586 151.65600586 98.75000000 0.174742 0.840854 0.512279 0.000000
143.03100586 106.37500000 166.25000000 -0.020941 0.772043 -0.635225 0.000000
79.78119659 121.10900116 95.00000000 0.508788 0.843007 0.174570 0.000000
153.09399414 161.71899414 116.25000000 -0.892580 0.385063 0.234579 0.000000
125.06199646 98.82810211 147.50000000 0.001209 0.960928 -0.276796 0.000000
87.68750000 198.37500000 71.25000000 -0.867647 -0.020304 0.496765 0.000000
79.78119659 223.53100586 86.25000000 0.353271 -0.740729 0.571420 0.000000
127.21900177 186.15600586 101.25000000 -0.515128 -0.074799 0.853843 0.000000
155.96899414 145.90600586 136.25000000 0.423987 0.360941 0.830636 0.000000
48.87500000 186.87500000 136.25000000 0.909686 -0.351437 -0.221275 0.000000
137.28100586 201.96899414 113.75000000 -0.731105 -0.169421 0.660895 0.000000
110.68800354 221.01600647 147.50000000 -0.221286 -0.781465 -0.583391 0.000000
148.78100586 183.28100586 166.25000000 -0.607663 -0.325707 -0.724334 0.000000
168.90600586 157.40600586 181.25000000 -0.205981 -0.114996 -0.971776 0.000000
58.93750000 147.34399414 151.25000000 0.692828 0.692828 -0.199944 0.000000
111.40599823 184.71899414 176.25000000 -0.895112 -0.162356 -0.415229 0.000000
127.21900177 171.78100586 98.75000000 -0.637471 -0.257836 0.726052 0.000000
184.00000000 112.84400177 93.75000000 -0.045572 0.933579 0.355463 0.000000
154.53100586 167.82800293 142.50000000 -0.031329 -0.999505 -0.003032 0.000000
111.40599823 163.15600586 88.75000000 -0.617751 -0.246786 0.746646 0.000000
64.68750000 165.31199646 161.25000000 0.857753 -0.312610 -0.408087 0.000000
160.64100647 166.03100586 150.00000000 0.166971 -0.978329 -0.122446 0.000000
65.76560211 132.96899414 87.50000000 0.692828 0.692828 0.199944 0.000000
157.76600647 133.68800354 105.00000000 -0.456665 0.617251 -0.640670 0.000000
234.31199646 115.00000000 158.75000000 -0.468520 0.626373 -0.623014 0.000000
112.48400116 200.53100586 97.50000000 -0.420538 -0.153575 0.894182 0.000000
62.89059830 135.12500000 147.50000000 0.810737 0.544067 -0.216094 0.000000
62.53120041 196.93800354 76.25000000 0.955801 -0.292847 -0.026169 0.000000
178.96899414 165.31199646 178.75000000 -0.304202 -0.121949 -0.944769 0.000000
172.50000000 108.17199707 102.50000000 -0.114327 0.973665 0.197246 0.000000
158.12500000 106.01599884 152.50000000 -0.273794 0.929196 -0.248258 0.000000
145.90600586 195.85899353 157.50000000 -0.417520 -0.731072 -0.539640 0.000000
182.56199646 158.84399414 143.75000000 0.249236 0.779059 -0.575281 0.000000
99.90619659 187.59399414 83.75000000 -0.604520 -0.282322 0.744883 0.000000
89.84380341 231.79699707 95.00000000 -0.006717 -0.863808 0.503776 0.000000
215.62500000 110.68800354 161.25000000 -0.106715 0.949893 -0.293795 0.000000
140.87500000 106.37500000 166.25000000 0.067809 0.748785 -0.659335 0.000000
112.84400177 230.00000000 136.25000000 -0.023542 -0.810126 -0.585783 0.000000
177.53100586 122.90599823 178.75000000 0.097548 0.116352 -0.988406 0.000000
55.70309830 189.75000000 150.00000000 0.785874 -0.317219 -0.530824 0.000000
65.40619659 223.53100586 106.25000000 0.738611 -0.621572 0.260965 0.000000
214.18800354 164.59399414 166.25000000 -0.076871 0.921102 -0.381657 0.000000
222.09399414 156.68800354 171.25000000 -0.573878 -0.248628 -0.780287 0.000000
88.40619659 128.65600586 176.25000000 0.618193 0.454011 -0.641647 0.000000
86.96880341 134.40600586 178.75000000 0.661959 0.251197 -0.706195 0.000000
101.34400177 228.20300293 140.00000000 -0.168423 -0.839134 -0.517193 0.000000
234.31199646 160.28100586 166.25000000 -0.447884 -0.217201 -0.867308 0.000000
105.65599823 204.84399414 93.75000000 -0.563220 -0.118496 0.817766 0.000000
52.46879959 190.46899414 98.75000000 0.896179 -0.193180 0.399431 0.000000
236.46899414 116.43800354 143.75000000 0.746505 0.557846 -0.362681 0.000000
199.09399414 124.70300293 95.00000000 0.416599 0.834771 -0.360005 0.000000
108.17199707 105.65599823 105.00000000 0.194627 0.967980 0.158537 0.000000
158.12500000 128.65600586 138.75000000 0.809591 -0.448708 0.378448 0.000000
109.96900177 225.68800354 141.25000000 -0.173434 -0.881745 -0.438686 0.000000
163.87500000 166.39100647 152.50000000 -0.243224 -0.969230 0.037889 0.000000
133.68800354 180.40600586 173.75000000 -0.216004 -0.616934 -0.756793 0.000000
71.87500000 144.46899414 168.75000000 0.765161 -0.001379 -0.643838 0.000000
216.34399414 116.79699707 107.50000000 0.496037 0.799082 -0.339729 0.000000
77.26560211 227.12500000 137.50000000 0.473412 -0.790097 -0.389394 0.000000
214.18800354 163.87500000 168.75000000 -0.029425 0.940317 0.339026 0.000000
168.18800354 159.56199646 178.75000000 -0.236912 -0.375233 -0.896144 0.000000
97.03119659 202.68800354 83.75000000 -0.729282 -0.142849 0.669135 0.000000
215.62500000 151.65600586 171.25000000 -0.362340 -0.162137 -0.917835 0.000000
109.25000000 230.00000000 136.25000000 0.072517 -0.826122 -0.558805 0.000000
139.43800354 125.78099823 178.75000000 0.150991 0.429966 -0.890130 0.000000
143.03100586 119.67199707 97.50000000 0.565880 0.656555 -0.498713 0.000000
127.21900177 217.06199646 148.75000000 -0.117284 -0.699251 -0.705190 0.000000
209.15600586 163.15600586 171.25000000 -0.780245 -0.331644 -0.530310 0.000000
134.40600586 117.51599884 90.00000000 0.147282 0.557886 -0.816745 0.000000
146.98399353 172.50000000 122.50000000 -0.706473 -0.344263 0.618368 0.000000
148.42199707 112.84400177 95.00000000 0.466655 0.667367 -0.580392 0.000000
79.78119659 125.42199707 75.00000000 -0.224785 0.920615 0.319280 0.000000
89.12500000 149.14100647 12.50000000 -0.621083 -0.770741 -0.142176 0.000000
56.78120041 176.09399414 153.75000000 0.777145 0.328484 -0.536791 0.000000
147.34399414 155.25000000 116.25000000 -0.601130 0.761222 -0.243277 0.000000
158.12500000 186.87500000 153.75000000 0.155606 0.986287 0.054989 0.000000
90.56250000 117.51599884 87.50000000 0.285839 0.915556 0.282937 0.000000
57.50000000 193.70300293 87.50000000 0.867668 0.001333 -0.497143 0.000000
89.12500000 186.87500000 171.25000000 0.175155 -0.610756 -0.772203 0.000000
110.68800354 103.50000000 113.75000000 0.213822 0.942196 0.257966 0.000000
90.56250000 157.40600586 58.75000000 -0.751122 -0.461849 0.471711 0.000000
173.21899414 167.46899414 178.75000000 0.480437 -0.212356 -0.850932 0.000000
146.62500000 198.37500000 153.75000000 -0.668265 -0.567774 -0.480682 0.000000
188.31199646 130.45300293 95.00000000 0.315137 0.849163 -0.423805 0.000000
137.28100586 187.59399414 168.75000000 -0.247280 -0.406139 -0.879718 0.000000
142.31199646 112.84400177 171.25000000 0.374135 0.301428 -0.877020 0.000000
76.54689789 151.65600586 12.50000000 0.883951 0.393366 0.252771 0.000000
208.43800354 118.23400116 92.50000000 0.545779 0.388437 -0.742456 0.000000
86.96880341 132.25000000 178.75000000 0.549131 0.348269 -0.759713 0.000000
137.28100586 118.59400177 173.75000000 0.136487 0.709431 -0.691433 0.000000
148.06199646 146.62500000 136.25000000 -0.459713 0.590104 0.663658 0.000000
92.71880341 165.31199646 181.25000000 0.907320 -0.166651 -0.386003 0.000000
132.25000000 155.96899414 183.75000000 -0.000978 -0.000978 -0.999999 0.000000
95.59380341 173.21899414 178.75000000 0.419526 -0.688156 -0.591980 0.000000
139.43800354 112.12500000 168.75000000 0.494685 0.494685 -0.714545 0.000000
182.56199646 112.84400177 93.75000000 -0.222030 0.877691 0.424689 0.000000
139.43800354 187.59399414 168.75000000 -0.283876 -0.463819 -0.839218 0.000000
77.98439789 117.15599823 140.00000000 0.692828 0.692828 -0.199944 0.000000
215.62500000 155.96899414 156.25000000 -0.029781 0.363847 -0.930982 0.000000
144.46899414 179.68800354 158.75000000 -0.846281 0.510712 0.151595 0.000000
101.34400177 119.31199646 176.25000000 0.306454 0.950135 0.057701 0.000000
118.59400177 179.68800354 178.75000000 -0.205830 -0.476264 -0.854872 0.000000
157.76600647 127.93800354 137.50000000 0.809591 -0.448708 0.378448 0.000000
79.78119659 176.81199646 171.25000000 0.500712 -0.431761 -0.750247 0.000000
189.03100586 114.28099823 171.25000000 -0.001333 0.870612 -0.491969 0.000000
228.56199646 132.96899414 156.25000000 0.232793 0.235548 -0.943570 0.000000
202.68800354 117.87500000 176.25000000 -0.376464 0.499259 -0.780395 0.000000
226.40600586 113.92199707 162.50000000 -0.274584 0.829958 -0.485564 0.000000
75.46880341 155.25000000 11.25000000 0.807948 0.439972 0.391975 0.000000
90.56250000 200.53100586 166.25000000 0.118621 -0.467340 -0.876084 0.000000
186.87500000 148.42199707 137.50000000 0.347879 0.554988 -0.755625 0.000000
90.56250000 139.43800354 181.25000000 0.438902 0.256659 -0.861099 0.000000
170.34399414 178.96899414 156.25000000 0.966682 0.215535 0.138097 0.000000
181.12500000 123.62500000 178.75000000 -0.000978 -0.000978 -0.999999 0.000000
47.79690170 171.78100586 115.00000000 0.970249 0.120804 0.209818 0.000000
80.50000000 117.87500000 103.75000000 0.426150 0.765765 0.481664 0.000000
117.15599823 209.15600586 158.75000000 -0.165933 -0.686567 -0.707879 0.000000
143.39100647 218.50000000 132.50000000 0.403459 -0.409837 0.818080 0.000000
84.81250000 156.32800293 12.50000000 -0.847852 -0.509887 0.145472 0.000000
164.59399414 185.79699707 150.00000000 -0.046818 0.642686 0.764697 0.000000
212.75000000 137.28100586 148.75000000 0.607467 0.398909 -0.686918 0.000000
115.00000000 152.37500000 88.75000000 -0.630637 0.061491 0.773638 0.000000
158.12500000 168.54699707 125.00000000 -0.001209 -0.960928 0.276796 0.000000
121.46900177 230.71899414 111.25000000 -0.591894 -0.445171 0.671925 0.000000
143.75000000 141.95300293 182.50000000 0.363185 0.442483 -0.819942 0.000000
212.75000000 107.81199646 101.25000000 0.132914 0.946512 0.294023 0.000000
197.65600586 107.45300293 140.00000000 0.000000 0.000000 0.000000 0.000000
242.93800354 162.43800354 168.75000000 -0.760873 0.612107 0.215400 0.000000
65.40619659 143.75000000 51.25000000 0.934310 0.234631 0.268351 0.000000
201.25000000 127.21900177 178.75000000 -0.500118 -0.126117 -0.856724 0.000000
97.03119659 120.75000000 176.25000000 0.362226 0.706422 -0.608080 0.000000
171.78100586 176.09399414 133.75000000 0.910149 -0.381950 0.160447 0.000000
151.65600586 108.89099884 170.00000000 -0.113954 0.759199 -0.640805 0.000000
177.53100586 126.50000000 178.75000000 -0.000978 -0.000978 -0.999999 0.000000
67.92189789 144.46899414 42.50000000 0.826689 0.497874 0.262121 0.000000
64.32810211 138.00000000 70.00000000 0.840854 0.512279 0.174742 0.000000
184.71899414 115.71900177 173.75000000 -0.012248 0.839653 -0.542985 0.000000
132.96899414 210.59399414 111.25000000 -0.953242 0.081485 0.291017 0.000000
217.06199646 163.15600586 163.75000000 -0.079784 0.872030 -0.482906 0.000000
112.12500000 134.40600586 186.25000000 0.365926 0.276312 -0.888679 0.000000
163.15600586 139.07800293 112.50000000 -0.122857 0.952475 -0.278741 0.000000
120.03099823 206.28100586 103.75000000 -0.152941 -0.077063 0.985226 0.000000
181.84399414 137.28100586 113.75000000 0.219821 0.970981 -0.094209 0.000000
209.15600586 162.43800354 161.25000000 0.126297 0.892592 -0.432815 0.000000
62.53120041 177.53100586 158.75000000 0.335174 0.293463 -0.895286 0.000000
51.03120041 168.90600586 143.75000000 0.762715 0.123402 -0.634852 0.000000
110.68800354 213.46899414 98.75000000 -0.506809 -0.352353 0.786761 0.000000
233.95300293 139.43800354 157.50000000 0.310238 0.148969 -0.938915 0.000000
131.53100586 166.03100586 101.25000000 -0.600158 -0.138498 0.787800 0.000000
56.78120041 157.40600586 71.25000000 0.974799 0.111085 0.193462 0.000000
131.53100586 126.50000000 176.25000000 -0.000978 -0.000978 -0.999999 0.000000
99.18750000 157.40600586 76.25000000 -0.738783 -0.233713 0.632122 0.000000
178.96899414 167.46899414 126.25000000 -0.290426 0.253229 0.922783 0.000000
75.46880341 118.95300293 137.50000000 0.551135 0.825971 0.118414 0.000000
155.96899414 148.78100586 133.75000000 0.249917 0.532432 0.808738 0.000000
143.03100586 138.71899414 113.75000000 0.226698 0.914012 -0.336437 0.000000
78.34380341 132.60899353 40.00000000 0.495292 0.853085 0.164112 0.000000
123.62500000 148.78100586 96.25000000 -0.570310 0.319695 0.756665 0.000000
193.34399414 146.62500000 141.25000000 0.167329 0.571331 -0.803481 0.000000
53.54690170 165.31199646 87.50000000 0.960928 -0.001209 0.276796 0.000000
142.31199646 139.79699707 135.00000000 -0.685497 0.262429 0.679135 0.000000
109.96900177 104.21900177 111.25000000 0.259638 0.943764 0.204688 0.000000
56.78120041 213.82800293 110.00000000 0.846469 -0.332040 0.416220 0.000000
86.25000000 228.56199646 88.75000000 0.181662 -0.830241 0.526971 0.000000
98.46880341 235.39100647 102.50000000 -0.052252 -0.912397 0.405957 0.000000
161.00000000 132.25000000 101.25000000 -0.180234 0.880657 -0.438131 0.000000
169.98399353 176.09399414 162.50000000 0.951344 0.128703 0.279963 0.000000
138.00000000 201.96899414 113.75000000 -0.731105 -0.169421 0.660895 0.000000
83.01560211 164.59399414 35.00000000 -0.830730 -0.555211 -0.040354 0.000000
241.85899353 135.84399414 167.50000000 0.270565 -0.296609 -0.915870 0.000000
198.37500000 113.56199646 91.25000000 0.279325 0.784319 0.553915 0.000000
159.56199646 158.84399414 181.25000000 -0.073782 -0.299009 -0.951394 0.000000
109.25000000 149.50000000 186.25000000 -0.000978 -0.000978 -0.999999 0.000000
240.78100586 129.37500000 158.75000000 0.823734 -0.029073 -0.566231 0.000000
227.12500000 132.96899414 153.75000000 0.575664 0.419720 -0.701745 0.000000
203.40600586 110.32800293 162.50000000 0.040515 0.929239 -0.367252 0.000000
102.06199646 224.25000000 146.25000000 -0.026319 -0.815878 -0.577625 0.000000
151.65600586 167.46899414 168.75000000 -0.417602 -0.905032 -0.080782 0.000000
145.90600586 115.71900177 96.25000000 0.561448 0.628889 -0.537843 0.000000
76.18750000 224.96899414 93.75000000 0.542688 -0.739433 0.398408 0.000000
102.78099823 107.81199646 103.75000000 0.934187 0.001261 -0.356781 0.000000
132.96899414 166.75000000 181.25000000 -0.000978 -0.000978 -0.999999 0.000000
143.39100647 187.59399414 117.50000000 -0.960928 0.001209 0.276796 0.000000
212.75000000 106.73400116 137.50000000 -0.120507 0.970397 -0.209301 0.000000
78.34380341 154.53100586 173.75000000 0.507373 -0.071679 -0.858740 0.000000
184.71899414 166.75000000 131.25000000 -0.692828 0.692828 0.199944 0.000000
127.21900177 146.62500000 118.75000000 -0.521259 0.792251 0.317219 0.000000
93.43750000 230.00000000 138.75000000 -0.133216 -0.880945 -0.454081 0.000000
144.46899414 116.07800293 95.00000000 0.542128 0.633328 -0.552262 0.000000
152.37500000 182.92199707 162.50000000 -0.457645 -0.638691 -0.618575 0.000000
120.75000000 148.06199646 93.75000000 -0.621803 0.344358 0.703405 0.000000
72.95310211 170.34399414 12.50000000 0.488923 -0.842288 0.226946 0.000000
110.68800354 182.92199707 177.50000000 -0.719736 -0.179550 -0.670628 0.000000
147.34399414 101.70300293 142.50000000 -0.206068 0.977928 -0.034543 0.000000
88.40619659 198.37500000 166.25000000 0.313523 -0.441428 -0.840741 0.000000
139.43800354 153.81199646 181.25000000 -0.000978 -0.000978 -0.999999 0.000000
203.40600586 156.68800354 156.25000000 -0.032462 0.667598 -0.743814 0.000000
78.34380341 159.56199646 173.75000000 0.255521 -0.098870 -0.961735 0.000000
72.95310211 135.12500000 167.50000000 0.656222 0.279413 -0.700928 0.000000
58.21879959 184.71899414 153.75000000 -0.000978 -0.000978 -0.999999 0.000000
97.03119659 158.12500000 73.75000000 -0.735447 -0.226411 0.638636 0.000000
117.87500000 236.46899414 113.75000000 -0.323610 -0.836384 0.442424 0.000000
77.62500000 221.73399353 85.00000000 0.461232 -0.759966 0.457949 0.000000
68.28119659 205.56199646 73.75000000 0.746221 -0.571402 0.341546 0.000000
231.07800293 158.12500000 167.50000000 -0.390359 -0.106211 -0.914516 0.000000
238.62500000 129.37500000 166.25000000 -0.032401 -0.669158 -0.742413 0.000000
107.81199646 237.90600586 113.75000000 0.023337 -0.992363 0.121128 0.000000
96.31250000 231.07800293 135.00000000 -0.173481 -0.934021 -0.312265 0.000000
125.78099823 229.28100586 113.75000000 -0.504008 -0.584919 0.635488 0.000000
145.18800354 204.84399414 126.25000000 -0.994895 -0.076701 0.065585 0.000000
194.42199707 141.59399414 137.50000000 0.566513 0.660652 -0.492547 0.000000
103.50000000 197.65600586 168.75000000 -0.014696 -0.468942 -0.883107 0.000000
141.59399414 197.65600586 158.75000000 -0.449441 -0.643253 -0.619862 0.000000
184.71899414 128.65600586 178.75000000 0.165306 -0.463734 -0.870416 0.000000
217.78100586 117.15599823 171.25000000 0.094962 0.775770 -0.623830 0.000000
78.34380341 125.78099823 166.25000000 0.637117 0.495909 -0.590048 0.000000
127.21900177 138.71899414 186.25000000 -0.499058 0.122956 -0.857801 0.000000
179.68800354 185.79699707 155.00000000 -0.001209 -0.960928 -0.276796 0.000000
191.90600586 109.96900177 158.75000000 0.099885 0.977887 -0.183739 0.000000
189.03100586 165.31199646 173.75000000 -0.543165 -0.380052 -0.748687 0.000000
186.87500000 118.23400116 177.50000000 -0.172442 0.749281 -0.639407 0.000000
51.39059830 150.93800354 125.00000000 0.812433 0.583040 -0.004096 0.000000
84.81250000 120.03099823 166.25000000 0.526150 0.670715 -0.522788 0.000000
127.21900177 126.85900116 97.50000000 0.154854 0.511755 -0.845060 0.000000
148.06199646 169.98399353 155.00000000 -0.603114 -0.603114 -0.522023 0.000000
55.34379959 205.56199646 103.75000000 0.838086 -0.455583 0.300094 0.000000
214.18800354 157.40600586 171.25000000 -0.000978 -0.000978 -0.999999 0.000000
52.46879959 177.53100586 148.75000000 0.742708 -0.377067 -0.553358 0.000000
194.06199646 129.37500000 181.25000000 0.027793 0.116732 -0.992774 0.000000
146.62500000 126.50000000 123.75000000 -0.097973 0.404313 0.909358 0.000000
185.43800354 182.20300293 150.00000000 -0.883319 -0.446687 0.142193 0.000000
63.96879959 168.90600586 156.25000000 0.001333 0.867668 -0.497143 0.000000
60.73440170 183.28100586 62.50000000 0.947462 -0.209180 0.241992 0.000000
158.84399414 165.67199707 172.50000000 0.010557 -0.977143 -0.212320 0.000000
77.62500000 231.79699707 107.50000000 0.458351 -0.874505 0.158604 0.000000
132.25000000 134.40600586 106.25000000 0.063151 0.846227 -0.529067 0.000000
60.01559830 150.93800354 60.00000000 0.000978 0.000978 0.999999 0.000000
141.23399353 181.12500000 112.50000000 -0.776154 -0.049662 0.628585 0.000000
177.53100586 139.79699707 122.50000000 0.095976 0.963597 -0.249537 0.000000
103.50000000 155.25000000 81.25000000 0.000978 0.000978 0.999999 0.000000
104.21900177 196.93800354 168.75000000 -0.014696 -0.468942 -0.883107 0.000000
70.43750000 230.35899353 125.00000000 0.502416 -0.769071 -0.395104 0.000000
146.62500000 175.37500000 123.75000000 -0.934495 -0.086651 0.345270 0.000000
90.56250000 195.14100647 75.00000000 -0.798223 -0.091267 0.595408 0.000000
81.93750000 122.54699707 82.50000000 -0.269322 0.902155 0.337020 0.000000
97.75000000 195.50000000 168.75000000 0.111251 -0.527358 -0.842328 0.000000
74.03119659 132.25000000 53.75000000 0.643861 0.742207 0.185936 0.000000
134.40600586 181.84399414 106.25000000 -0.711237 0.001381 0.702951 0.000000
102.78099823 137.28100586 183.75000000 -0.055917 0.445968 -0.893300 0.000000
119.31199646 174.65600586 93.75000000 -0.456187 -0.014630 0.889764 0.000000
59.29690170 199.81199646 147.50000000 0.774331 -0.381484 -0.504857 0.000000
53.54690170 148.06199646 115.00000000 0.894006 0.405573 0.190431 0.000000
205.56199646 150.21899414 151.25000000 0.635717 0.461272 -0.618944 0.000000
61.09379959 195.50000000 153.75000000 0.645384 -0.381288 -0.661890 0.000000
115.71900177 106.01599884 97.50000000 0.227688 0.967994 0.105576 0.000000
212.03100586 158.12500000 158.75000000 0.101747 0.712229 -0.694534 0.000000
222.81199646 119.31199646 121.25000000 0.598468 0.748484 -0.285669 0.000000
133.68800354 102.06199646 156.25000000 -0.144655 0.944992 -0.293367 0.000000
141.59399414 181.84399414 171.25000000 -0.291076 -0.561474 -0.774611 0.000000
181.84399414 184.35899353 142.50000000 -0.509887 -0.847852 0.145472 0.000000
119.31199646 137.28100586 108.75000000 0.901552 0.374312 -0.217013 0.000000
148.78100586 167.46899414 121.25000000 -0.260652 -0.747204 0.611348 0.000000
179.68800354 127.57800293 87.50000000 0.037738 0.817662 -0.574460 0.000000
143.75000000 125.06199646 108.75000000 0.397215 -0.906102 -0.145598 0.000000
207.71899414 115.71900177 171.25000000 0.052515 0.784888 -0.617408 0.000000
57.85940170 199.09399414 90.00000000 0.898324 -0.233770 0.371974 0.000000
181.12500000 172.50000000 128.75000000 -0.551288 -0.359394 0.752939 0.000000
63.60940170 200.53100586 77.50000000 0.955801 -0.292847 -0.026169 0.000000
95.59380341 221.37500000 151.25000000 -0.004096 -0.812433 -0.583040 0.000000
242.21899414 154.53100586 166.25000000 -0.935153 -0.298749 0.190365 0.000000
223.53100586 129.01600647 150.00000000 0.344888 0.652181 -0.675065 0.000000
120.03099823 182.56199646 176.25000000 -0.213824 -0.495890 -0.841648 0.000000
96.31250000 139.79699707 15.00000000 -0.940234 -0.318792 -0.119715 0.000000
136.56199646 124.34400177 176.25000000 0.197354 0.455546 -0.868061 0.000000
201.25000000 136.92199707 140.00000000 0.590814 0.570499 -0.570499 0.000000
159.92199707 109.25000000 97.50000000 0.469705 0.789298 0.395456 0.000000
52.46879959 173.93800354 96.25000000 0.926946 -0.062327 0.369983 0.000000
221.37500000 134.40600586 171.25000000 -0.165402 0.262223 -0.950727 0.000000
222.09399414 117.15599823 111.25000000 0.391820 0.682792 -0.616662 0.000000
66.48439789 176.81199646 160.00000000 0.339132 0.339132 -0.877485 0.000000
239.34399414 118.59400177 158.75000000 -0.383255 0.603668 -0.699071 0.000000
245.09399414 154.53100586 161.25000000 -0.191495 0.419535 -0.887310 0.000000
103.50000000 136.56199646 183.75000000 -0.077793 0.516261 -0.852891 0.000000
112.12500000 232.15600586 133.75000000 -0.006853 -0.812787 -0.582520 0.000000
203.04699707 125.06199646 100.00000000 0.457507 0.855735 -0.241673 0.000000
136.56199646 189.75000000 168.75000000 -0.092210 -0.495094 -0.863932 0.000000
135.12500000 189.03100586 108.75000000 -0.691955 -0.244312 0.679345 0.000000
191.90600586 153.81199646 176.25000000 -0.041949 -0.063462 -0.997102 0.000000
60.01559830 136.56199646 140.00000000 0.793166 0.593759 -0.135419 0.000000
92.71880341 200.53100586 78.75000000 -0.697513 -0.101751 0.709311 0.000000
148.06199646 107.09400177 166.25000000 -0.025615 0.877659 -0.478601 0.000000
175.37500000 147.34399414 178.75000000 -0.000978 -0.000978 -0.999999 0.000000
196.93800354 133.68800354 126.25000000 0.454139 0.848240 -0.272483 0.000000
61.09379959 203.40600586 86.25000000 0.810467 -0.508312 0.291139 0.000000
71.51560211 123.62500000 127.50000000 0.658511 0.746508 0.095330 0.000000
71.87500000 201.96899414 158.75000000 0.332475 -0.531639 -0.778987 0.000000
83.37500000 209.15600586 68.75000000 -0.458859 -0.515181 0.723904 0.000000
58.21879959 169.62500000 58.75000000 0.916312 -0.249641 0.313133 0.000000
92.35939789 212.03100586 80.00000000 0.001286 -0.916599 0.399807 0.000000
47.07809830 173.93800354 137.50000000 0.986310 0.115407 -0.117786 0.000000
248.68800354 141.59399414 158.75000000 0.531715 0.299982 -0.792017 0.000000
169.98399353 173.93800354 167.50000000 0.899132 -0.435412 0.044485 0.000000
94.15619659 237.18800354 108.75000000 -0.001209 -0.960928 0.276796 0.000000
177.53100586 108.17199707 105.00000000 -0.170546 0.952102 0.253804 0.000000
160.28100586 133.68800354 178.75000000 -0.111896 0.285664 -0.951775 0.000000
115.00000000 212.03100586 101.25000000 -0.641117 -0.230426 0.732033 0.000000
62.89059830 223.53100586 125.00000000 0.678566 -0.684922 -0.265387 0.000000
100.62500000 232.87500000 131.25000000 -0.001302 -0.902354 -0.430994 0.000000
104.21900177 138.00000000 186.25000000 0.109465 0.567761 -0.815883 0.000000
209.87500000 109.60900116 95.00000000 -0.001209 0.960928 0.276796 0.000000
89.84380341 222.45300293 147.50000000 0.128322 -0.806807 -0.576712 0.000000
149.50000000 190.10899353 162.50000000 -0.230261 -0.712712 -0.662587 0.000000
143.03100586 202.68800354 153.75000000 -0.538431 -0.602570 -0.589068 0.000000
92.00000000 173.21899414 73.75000000 -0.661996 -0.092066 0.743832 0.000000
89.84380341 227.84399414 88.75000000 -0.188600 -0.768200 0.611800 0.000000
167.46899414 130.81199646 93.75000000 -0.273419 0.874639 -0.400310 0.000000
123.62500000 166.03100586 96.25000000 -0.643674 -0.129930 0.754189 0.000000
241.50000000 148.78100586 158.75000000 -0.000978 -0.000978 -0.999999 0.000000
146.98399353 165.31199646 117.50000000 -0.701375 -0.416182 0.578676 0.000000
81.57810211 194.78100586 62.50000000 -0.585792 -0.088230 0.805645 0.000000
61.09379959 137.64100647 147.50000000 0.831369 0.515236 -0.208222 0.000000
92.00000000 113.20300293 100.00000000 0.388240 0.863949 0.320720 0.000000
56.42190170 171.06199646 70.00000000 0.960928 -0.001209 0.276796 0.000000
134.40600586 100.62500000 151.25000000 -0.144655 0.944992 -0.293367 0.000000
167.46899414 114.64099884 85.00000000 0.001333 0.867668 0.497143 0.000000
94.15619659 151.65600586 183.75000000 0.153947 -0.064634 -0.985963 0.000000
123.62500000 168.90600586 183.75000000 -0.535582 -0.028913 -0.843988 0.000000
115.00000000 224.25000000 103.75000000 -0.597526 -0.110109 0.794254 0.000000
192.62500000 147.34399414 141.25000000 0.167329 0.571331 -0.803481 0.000000
161.35899353 105.65599823 142.50000000 -0.001106 0.989771 0.142660 0.000000
185.07800293 130.09399414 92.50000000 0.294256 0.832946 -0.468630 0.000000
143.03100586 160.28100586 108.75000000 -0.588741 -0.412948 0.694880 0.000000
83.37500000 131.89100647 175.00000000 0.672491 0.366664 -0.642895 0.000000
