181.15199280 138.08599854 342.00000000 -0.043231 -0.835326 0.548052 0.000000
224.90199280 137.74400330 312.00000000 0.681355 0.351298 -0.642141 0.000000
170.89799500 166.79699707 366.00000000 0.000978 0.000978 0.999999 0.000000
155.85899353 140.47900391 340.00000000 -0.162970 -0.708234 0.686910 0.000000
72.11920166 198.24200439 316.00000000 -0.985809 0.001127 -0.167869 0.000000
82.03130341 223.53500366 358.00000000 -0.924727 0.119541 0.361372 0.000000
186.62100220 168.16400146 314.00000000 0.156379 0.702947 -0.693838 0.000000
135.35200500 267.28500366 338.00000000 0.467830 0.816721 0.337789 0.000000
252.92999268 150.39100647 338.00000000 0.001127 -0.985809 0.167869 0.000000
164.74600220 196.87500000 358.00000000 0.248997 0.870736 0.424050 0.000000
224.56100464 163.37899780 352.00000000 0.134791 -0.418560 0.898131 0.000000
188.67199707 199.60899353 334.00000000 0.746802 0.489625 -0.450060 0.000000
71.09380341 211.23100281 214.00000000 0.347565 0.403674 -0.846313 0.000000
131.93400574 251.56300354 354.00000000 -0.582967 0.572829 0.576208 0.000000
178.41799927 194.48199463 356.00000000 -0.021797 0.168637 0.985437 0.000000
244.72700500 176.36700439 342.00000000 0.276042 0.332136 -0.901935 0.000000
82.03130341 242.67599487 242.00000000 -0.286695 0.925698 -0.246758 0.000000
154.49200439 194.82400513 366.00000000 0.390530 0.524519 0.756549 0.000000
131.93400574 241.99200439 322.00000000 0.313002 0.858829 -0.405515 0.000000
142.87100220 143.55499268 342.00000000 0.128234 -0.925213 0.357124 0.000000
124.41400146 237.89100647 310.00000000 0.819078 0.540500 -0.192279 0.000000
161.32800293 214.64900208 358.00000000 0.723062 0.162879 0.671306 0.000000
102.53900146 172.26600647 362.00000000 -0.073269 -0.457586 0.886141 0.000000
105.95700073 179.44299316 368.00000000 -0.295790 -0.583586 0.756264 0.000000
120.65399933 203.71099854 260.00000000 0.818468 -0.238912 -0.522524 0.000000
186.62100220 181.15199280 366.00000000 0.000978 0.000978 0.999999 0.000000
132.61700439 184.57000732 302.00000000 0.540454 0.540454 -0.644841 0.000000
72.46099854 211.91400146 214.00000000 0.360516 -0.324008 -0.874670 0.000000
72.80280304 211.91400146 216.00000000 0.605367 -0.125810 -0.785941 0.000000
133.98399353 244.72700500 358.00000000 0.466249 0.162237 0.869650 0.000000
123.04699707 259.76599121 346.00000000 -0.035308 0.732990 0.679322 0.000000
129.19900513 170.89799500 366.00000000 0.158288 -0.163353 0.973787 0.000000
115.86900330 224.21899414 264.00000000 0.743238 0.463082 -0.482858 0.000000
223.53500366 179.10200500 338.00000000 0.420239 0.666070 -0.616239 0.000000
159.96099854 130.22500610 324.00000000 0.071877 -0.964671 0.253463 0.000000
101.17199707 245.41000366 266.00000000 0.684038 0.618106 -0.387347 0.000000
130.56599426 248.82800293 354.00000000 0.102256 0.111659 0.988472 0.000000
103.22299957 149.70700073 330.00000000 -0.566839 -0.773251 0.284213 0.000000
199.60899353 132.95899963 332.00000000 -0.054367 -0.924241 0.377918 0.000000
139.45300293 235.83999634 322.00000000 0.279953 0.651092 -0.705483 0.000000
75.87889862 242.67599487 298.00000000 -0.916885 0.396742 -0.043788 0.000000
188.67199707 128.85699463 320.00000000 0.032494 -0.929325 0.367831 0.000000
212.59800720 159.96099854 354.00000000 0.000978 0.000978 0.999999 0.000000
146.28900146 237.89100647 326.00000000 0.531818 0.357239 -0.767822 0.000000
123.04699707 182.52000427 370.00000000 0.047661 -0.325898 0.944203 0.000000
66.30860138 213.28100586 214.00000000 -0.327486 -0.034405 -0.944229 0.000000
203.71099854 156.54299927 310.00000000 0.273427 0.576883 -0.769704 0.000000
184.57000732 161.32800293 306.00000000 -0.244106 0.738617 -0.628376 0.000000
192.08999634 177.05099487 362.00000000 0.000978 0.000978 0.999999 0.000000
69.04299927 213.28100586 214.00000000 0.080963 -0.061000 -0.994849 0.000000
224.90199280 169.53100586 330.00000000 0.125110 0.409068 -0.903886 0.000000
115.52700043 259.08200073 310.00000000 0.778152 0.101116 -0.619884 0.000000
177.73399353 185.93800354 318.00000000 -0.000978 -0.000978 -0.999999 0.000000
146.97300720 191.40600586 314.00000000 -0.244821 -0.674443 -0.696556 0.000000
101.85600281 184.57000732 254.00000000 0.835121 -0.321200 -0.446547 0.000000
73.14459991 213.28100586 214.00000000 0.245522 -0.155276 -0.956874 0.000000
73.82810211 212.94000244 216.00000000 0.763304 -0.168443 -0.623694 0.000000
144.92199707 178.41799927 366.00000000 0.000978 0.000978 0.999999 0.000000
137.40199280 178.41799927 294.00000000 0.083663 0.341291 -0.936227 0.000000
76.22070313 190.72300720 276.00000000 -0.896729 -0.442421 0.011886 0.000000
163.37899780 163.37899780 366.00000000 0.471944 0.143761 0.869829 0.000000
119.62899780 266.60198975 342.00000000 0.048910 0.549190 0.834265 0.000000
176.36700439 187.30499268 318.00000000 -0.000978 -0.000978 -0.999999 0.000000
231.73800659 143.55499268 318.00000000 0.000978 0.000978 -0.999999 0.000000
97.07029724 177.05099487 362.00000000 -0.486400 -0.631142 0.604214 0.000000
112.79299927 185.93800354 374.00000000 0.999999 0.000978 0.000978 0.000000
175.68400574 128.85699463 320.00000000 0.001240 -0.946173 0.323658 0.000000
146.97300720 160.64500427 362.00000000 -0.072975 -0.282939 0.956358 0.000000
226.27000427 173.63299561 330.00000000 0.346095 0.486447 -0.802239 0.000000
164.06300354 168.16400146 310.00000000 0.009298 0.886001 -0.463590 0.000000
166.11300659 142.87100220 290.00000000 0.009661 0.622475 -0.782580 0.000000
201.66000366 172.26600647 362.00000000 0.282806 -0.423445 0.860648 0.000000
120.99600220 175.00000000 366.00000000 -0.544749 -0.362624 0.756144 0.000000
175.68400574 188.67199707 362.00000000 0.058884 0.673576 0.736769 0.000000
83.74030304 251.56300354 340.00000000 -0.366695 0.646239 0.669260 0.000000
170.89799500 165.42999268 306.00000000 -0.702642 -0.314977 -0.638031 0.000000
143.89700317 144.92199707 344.00000000 -0.082948 -0.682503 0.726160 0.000000
124.07199860 237.20700073 308.00000000 0.779744 0.505300 -0.369692 0.000000
177.05099487 184.57000732 318.00000000 -0.000978 -0.000978 -0.999999 0.000000
240.62500000 159.96099854 346.00000000 0.000978 0.000978 0.999999 0.000000
162.01199341 162.69500732 366.00000000 0.471944 0.143761 0.869829 0.000000
75.53710175 198.92599487 352.00000000 -0.920784 -0.014246 0.389812 0.000000
67.67579651 214.64900208 214.00000000 -0.000978 -0.000978 -0.999999 0.000000
89.55079651 163.37899780 306.00000000 -0.829958 -0.485564 -0.274584 0.000000
118.60399628 274.80499268 324.00000000 0.053270 0.991733 -0.116741 0.000000
123.73100281 206.44500732 266.00000000 0.859044 -0.051348 -0.509320 0.000000
185.93800354 185.25399780 362.00000000 -0.412110 0.882242 -0.227627 0.000000
157.22700500 162.35400391 300.00000000 0.092395 0.690759 -0.717158 0.000000
187.30499268 179.10200500 366.00000000 0.467212 0.165502 0.868517 0.000000
208.49600220 147.65600586 306.00000000 0.583924 0.634408 -0.506517 0.000000
100.48799896 174.31599426 250.00000000 0.354891 -0.842670 -0.404919 0.000000
138.77000427 258.39898682 346.00000000 -0.000978 -0.000978 0.999999 0.000000
90.23439789 255.32200623 268.00000000 -0.195203 0.862767 -0.466401 0.000000
132.61700439 176.36700439 366.00000000 0.000978 0.000978 0.999999 0.000000
244.04299927 141.50399780 326.00000000 0.942953 -0.332733 -0.011300 0.000000
223.53500366 132.61700439 310.00000000 -0.000978 -0.000978 -0.999999 0.000000
164.06300354 138.42799377 284.00000000 0.346982 0.487694 -0.801098 0.000000
265.91799927 177.05099487 350.00000000 0.000978 0.000978 0.999999 0.000000
143.55499268 163.37899780 362.00000000 -0.023246 -0.116232 0.992950 0.000000
209.17999268 133.64300537 332.00000000 0.164787 -0.844720 0.509208 0.000000
250.19500732 145.94700623 336.00000000 0.815712 -0.272944 0.510015 0.000000
80.66410065 186.27900696 356.00000000 -0.854207 -0.212422 0.474560 0.000000
177.73399353 176.36700439 318.00000000 0.084325 0.289299 -0.953518 0.000000
134.66799927 182.52000427 302.00000000 0.558883 0.813601 -0.160323 0.000000
129.88299561 234.47300720 362.00000000 -0.000978 -0.000978 0.999999 0.000000
135.35200500 198.92599487 302.00000000 -0.440506 -0.263694 -0.858149 0.000000
122.36299896 151.75799561 350.00000000 -0.001370 -0.790530 0.612421 0.000000
224.90199280 162.01199341 322.00000000 -0.206664 0.334938 -0.919297 0.000000
116.55300140 156.54299927 352.00000000 -0.203294 -0.675060 0.709201 0.000000
239.94099426 144.23800659 338.00000000 0.408948 -0.683787 0.604315 0.000000
66.30860138 216.01600647 214.00000000 -0.000978 -0.000978 -0.999999 0.000000
125.78099823 157.56799316 356.00000000 -0.001379 -0.745961 0.665988 0.000000
211.91400146 144.23800659 306.00000000 0.494169 0.675085 -0.547774 0.000000
133.98399353 241.99200439 322.00000000 -0.114087 0.718599 -0.686003 0.000000
144.23800659 207.12899780 294.00000000 0.828490 0.331711 -0.451189 0.000000
204.39500427 142.87100220 346.00000000 0.195596 -0.759282 0.620671 0.000000
131.25000000 181.15199280 298.00000000 0.312109 0.936328 -0.160867 0.000000
198.92599487 177.05099487 362.00000000 0.000978 0.000978 0.999999 0.000000
150.39100647 181.83599854 370.00000000 0.000978 0.000978 0.999999 0.000000
110.74199677 187.98800659 258.00000000 0.707670 -0.507857 -0.491206 0.000000
113.13500214 146.28900146 272.00000000 -0.314973 -0.947489 -0.055281 0.000000
73.82810211 216.01600647 214.00000000 0.736478 -0.186041 -0.650376 0.000000
149.02299500 149.70700073 350.00000000 -0.152003 -0.624567 0.766036 0.000000
252.24600220 146.97300720 326.00000000 0.465019 -0.548355 -0.695028 0.000000
144.23800659 172.26600647 366.00000000 0.000978 0.000978 0.999999 0.000000
218.75000000 157.91000366 350.00000000 0.000978 0.000978 0.999999 0.000000
151.75799561 225.58599854 358.00000000 0.488841 0.401142 0.774674 0.000000
100.48799896 234.47300720 362.00000000 -0.153808 0.568941 0.807867 0.000000
164.74600220 226.61099243 336.00000000 0.842385 0.534780 -0.066318 0.000000
127.14800262 158.59399414 270.00000000 0.827409 0.248069 -0.503841 0.000000
92.96880341 252.24600220 262.00000000 0.083847 0.845571 -0.527238 0.000000
72.46099854 232.76400757 248.00000000 -0.880226 0.473342 -0.033907 0.000000
111.42600250 152.44099426 346.00000000 -0.365186 -0.793114 0.487451 0.000000
175.68400574 185.93800354 366.00000000 0.423264 0.742771 0.518787 0.000000
145.60600281 198.92599487 294.00000000 0.596217 -0.401332 -0.695311 0.000000
108.00800323 167.48100281 262.00000000 0.502127 0.462355 -0.730819 0.000000
112.10900116 265.91799927 302.00000000 0.832168 0.197848 -0.518028 0.000000
229.34599304 166.11300659 352.00000000 0.111737 -0.544174 0.831498 0.000000
140.13699341 157.91000366 294.00000000 0.793728 -0.327393 -0.512649 0.000000
198.92599487 146.97300720 354.00000000 0.149057 -0.751306 0.642901 0.000000
203.02699280 131.93400574 290.00000000 0.475193 0.232283 -0.848667 0.000000
221.48399353 175.00000000 358.00000000 0.000978 0.000978 0.999999 0.000000
113.47699738 188.67199707 262.00000000 0.776482 -0.494420 -0.390673 0.000000
133.98399353 231.05499268 362.00000000 0.184767 0.771134 0.609272 0.000000
96.38670349 209.17999268 370.00000000 0.000978 0.000978 0.999999 0.000000
116.21099854 159.27699280 354.00000000 -0.098323 -0.670654 0.735225 0.000000
153.80900574 151.07400513 354.00000000 -0.337288 -0.470302 0.815508 0.000000
80.32230377 181.83599854 296.00000000 -0.899687 -0.418164 -0.125308 0.000000
183.88699341 172.26600647 318.00000000 -0.000978 -0.000978 -0.999999 0.000000
70.41020203 217.38299561 214.00000000 -0.000978 -0.000978 -0.999999 0.000000
156.54299927 143.55499268 346.00000000 -0.162269 -0.835166 0.525515 0.000000
137.74400330 243.35899353 356.00000000 0.439545 0.309080 0.843368 0.000000
213.28100586 131.93400574 294.00000000 -0.253309 -0.756781 0.602592 0.000000
110.74199677 235.83999634 362.00000000 0.000978 0.000978 0.999999 0.000000
97.07029724 241.30900574 358.00000000 -0.309265 0.068582 0.948500 0.000000
126.12300110 170.89799500 280.00000000 0.734646 0.381231 -0.561211 0.000000
123.73100281 270.01998901 338.00000000 0.273018 0.691327 0.668975 0.000000
141.50399780 218.06599426 302.00000000 0.321973 0.830846 -0.453903 0.000000
185.93800354 194.14100647 326.00000000 0.357449 0.599012 -0.716530 0.000000
149.70700073 142.18800354 290.00000000 -0.440171 -0.022607 -0.897629 0.000000
78.61329651 236.52400208 346.00000000 -0.719355 0.567911 0.400007 0.000000
136.71899414 221.48399353 366.00000000 0.000978 0.000978 0.999999 0.000000
66.99220276 218.06599426 214.00000000 -0.000978 -0.000978 -0.999999 0.000000
214.64900208 134.66799927 298.00000000 0.336808 0.552752 -0.762250 0.000000
140.13699341 236.52400208 358.00000000 0.351426 0.237686 0.905541 0.000000
144.92199707 149.70700073 350.00000000 -0.039198 -0.890746 0.452807 0.000000
194.82400513 140.82000732 294.00000000 0.485918 0.842359 -0.233058 0.000000
78.95510101 246.77699280 268.00000000 -0.859118 0.486099 -0.160075 0.000000
136.71899414 204.39500427 286.00000000 0.324476 0.945651 -0.021463 0.000000
73.14459991 218.06599426 214.00000000 0.367214 -0.105113 -0.924178 0.000000
73.82810211 218.06599426 214.00000000 0.562899 -0.099846 -0.820473 0.000000
225.58599854 134.66799927 310.00000000 0.413777 0.505364 -0.757229 0.000000
75.19529724 218.06599426 214.00000000 0.576704 -0.502724 -0.643958 0.000000
120.31300354 241.30900574 362.00000000 0.658578 0.594899 0.460837 0.000000
78.27149963 183.20300293 264.00000000 -0.730582 -0.649923 0.209403 0.000000
129.19900513 239.60000610 360.00000000 0.459723 0.566713 0.683733 0.000000
105.27300262 153.80900574 342.00000000 -0.336539 -0.820018 0.462939 0.000000
157.91000366 221.48399353 354.00000000 0.597236 0.546480 0.587085 0.000000
152.44099426 146.97300720 290.00000000 0.100469 0.283140 -0.953802 0.000000
118.26200104 223.53500366 266.00000000 0.769239 0.547621 -0.329215 0.000000
213.28100586 151.07400513 350.00000000 0.132180 -0.056320 0.989624 0.000000
137.40199280 237.89100647 322.00000000 0.348487 0.271375 -0.897169 0.000000
175.68400574 187.30499268 318.00000000 -0.000978 -0.000978 -0.999999 0.000000
134.66799927 202.34399414 370.00000000 0.000978 0.000978 0.999999 0.000000
163.03700256 194.14100647 368.00000000 -0.286049 0.456133 0.842686 0.000000
72.11920166 233.78900146 312.00000000 -0.948930 0.315485 0.001237 0.000000
203.02699280 171.58200073 322.00000000 0.334766 0.514162 -0.789664 0.000000
148.33999634 213.28100586 366.00000000 0.725562 0.403090 0.557745 0.000000
129.88299561 197.55900574 374.00000000 0.000978 0.000978 0.999999 0.000000
170.89799500 149.70700073 358.00000000 -0.165841 -0.722700 0.670970 0.000000
116.89499664 235.83999634 362.00000000 -0.402335 0.152120 0.902766 0.000000
127.83200073 223.87699890 292.00000000 0.640022 0.669637 -0.376774 0.000000
151.75799561 144.92199707 346.00000000 -0.218926 -0.874214 0.433384 0.000000
124.41400146 257.03100586 350.00000000 -0.071849 0.522664 0.849506 0.000000
105.27300262 187.30499268 254.00000000 0.454073 -0.628329 -0.631680 0.000000
98.43750000 248.14500427 262.00000000 0.708288 0.552365 -0.439570 0.000000
67.67579651 219.43400574 214.00000000 -0.000978 -0.000978 -0.999999 0.000000
194.14100647 135.69299316 340.00000000 0.266323 -0.901967 0.339893 0.000000
69.72660065 219.43400574 214.00000000 -0.000978 -0.000978 -0.999999 0.000000
93.65239716 238.57400513 242.00000000 0.819682 0.465908 -0.333243 0.000000
216.01600647 179.44299316 340.00000000 0.187571 0.872868 -0.450465 0.000000
153.80900574 155.85899353 298.00000000 -0.000978 -0.000978 -0.999999 0.000000
190.38099670 188.67199707 352.00000000 0.743398 -0.317678 0.588591 0.000000
124.41400146 250.19500732 354.00000000 0.056833 0.279111 0.958576 0.000000
236.52400208 162.01199341 350.00000000 0.306262 -0.379399 0.873075 0.000000
192.08999634 126.46499634 310.00000000 -0.105297 -0.958068 0.266491 0.000000
146.97300720 216.35699463 308.00000000 0.674468 0.644929 -0.359388 0.000000
225.58599854 134.66799927 326.00000000 0.182753 -0.542218 0.820123 0.000000
168.84800720 126.80699921 308.00000000 -0.001127 -0.985809 0.167869 0.000000
216.69900513 180.46899414 342.00000000 -0.429695 0.854770 -0.291084 0.000000
224.90199280 143.55499268 342.00000000 0.202989 -0.554022 0.807376 0.000000
81.34770203 171.24000549 332.00000000 -0.949061 -0.304170 -0.082243 0.000000
233.10600281 137.40199280 318.00000000 -0.079781 -0.388089 -0.918162 0.000000
136.37699890 187.30499268 308.00000000 0.889912 0.001314 -0.456129 0.000000
156.54299927 207.81300354 302.00000000 0.467988 0.537937 -0.701150 0.000000
199.60899353 136.37699890 340.00000000 0.094346 -0.805568 0.584944 0.000000
153.46699524 131.93400574 328.00000000 -0.343844 -0.872600 0.346901 0.000000
111.42600250 272.07000732 310.00000000 0.207733 0.862318 -0.461796 0.000000
226.95300293 167.13900757 328.00000000 -0.026431 0.799887 -0.599568 0.000000
142.87100220 241.30900574 326.00000000 0.195878 0.233703 -0.952373 0.000000
73.82810211 220.11700439 214.00000000 -0.000978 -0.000978 -0.999999 0.000000
151.07400513 204.39500427 366.00000000 0.063138 0.120537 0.990699 0.000000
167.48100281 166.79699707 366.00000000 0.000978 0.000978 0.999999 0.000000
98.43750000 262.50000000 342.00000000 -0.401687 0.686009 0.606663 0.000000
147.65600586 218.75000000 362.00000000 0.317365 0.214898 0.923633 0.000000
136.71899414 155.85899353 290.00000000 0.577904 -0.214210 -0.787490 0.000000
128.51600647 257.71499634 322.00000000 0.180563 0.140157 -0.973526 0.000000
74.16989899 241.30900574 328.00000000 -0.894013 0.446332 0.039105 0.000000
192.08999634 179.10200500 322.00000000 -0.771276 0.445155 0.454939 0.000000
118.94499969 191.40600586 270.00000000 0.679524 -0.582688 -0.445781 0.000000
218.75000000 149.02299500 314.00000000 -0.000978 -0.000978 -0.999999 0.000000
156.54299927 129.19900513 322.00000000 0.025003 -0.975120 0.220265 0.000000
105.95700073 168.16400146 362.00000000 -0.064619 -0.650495 0.756757 0.000000
116.89499664 220.11700439 370.00000000 0.000978 0.000978 0.999999 0.000000
116.89499664 272.75399780 314.00000000 0.673387 0.576473 -0.462849 0.000000
107.66600037 229.68800354 256.00000000 0.779986 0.491343 -0.387561 0.000000
247.46099854 172.94900513 342.00000000 0.231901 0.297345 -0.926179 0.000000
199.60899353 166.11300659 358.00000000 0.000978 0.000978 0.999999 0.000000
91.60160065 233.78900146 358.00000000 -0.244465 0.352791 0.903203 0.000000
122.36299896 250.19500732 318.00000000 0.349269 0.089659 -0.932723 0.000000
150.04899597 248.14500427 348.00000000 0.420426 0.736983 0.529243 0.000000
198.24200439 162.01199341 358.00000000 0.000978 0.000978 0.999999 0.000000
83.05670166 198.24200439 364.00000000 -0.868614 0.190888 0.457243 0.000000
133.98399353 224.90199280 366.00000000 -0.030778 0.149329 0.988308 0.000000
142.18800354 197.55900574 370.00000000 0.000978 0.000978 0.999999 0.000000
125.09799957 206.44500732 374.00000000 0.111149 0.072190 0.991178 0.000000
143.21299744 231.05499268 320.00000000 0.592126 0.397500 -0.700985 0.000000
239.94099426 150.39100647 322.00000000 0.191160 0.172954 -0.966201 0.000000
164.06300354 145.26400757 352.00000000 -0.255711 -0.849818 0.460892 0.000000
123.04699707 264.55099487 318.00000000 -0.000978 -0.000978 -0.999999 0.000000
84.08209991 188.67199707 242.00000000 -0.000978 -0.000978 -0.999999 0.000000
123.04699707 265.23400879 318.00000000 -0.000978 -0.000978 -0.999999 0.000000
193.45700073 169.53100586 362.00000000 0.685948 0.182613 0.704363 0.000000
114.84400177 177.05099487 370.00000000 -0.038067 -0.254188 0.966405 0.000000
100.48799896 229.68800354 242.00000000 0.639575 0.626216 -0.445866 0.000000
82.03130341 251.56300354 338.00000000 -0.746769 0.568582 0.345037 0.000000
163.37899780 224.21899414 350.00000000 0.636913 0.178702 0.749938 0.000000
151.07400513 157.22700500 298.00000000 -0.000978 -0.000978 -0.999999 0.000000
175.00000000 187.98800659 362.00000000 0.032432 0.686718 0.726200 0.000000
141.50399780 231.05499268 318.00000000 0.736855 0.515963 -0.436838 0.000000
132.61700439 159.27699280 282.00000000 0.949312 0.123823 -0.288921 0.000000
79.29689789 201.66000366 358.00000000 -0.827460 0.034767 0.560448 0.000000
119.97100067 226.95300293 284.00000000 0.722396 0.571006 -0.389995 0.000000
99.80470276 189.35600281 370.00000000 -0.156014 -0.143533 0.977271 0.000000
137.40199280 254.98100281 350.00000000 -0.632427 0.741736 0.223302 0.000000
172.26600647 140.82000732 346.00000000 -0.170428 -0.806892 0.565579 0.000000
85.79100037 172.94900513 268.00000000 -0.870638 -0.481478 0.100841 0.000000
177.73399353 137.40199280 286.00000000 -0.147214 0.374344 -0.915530 0.000000
245.41000366 146.28900146 326.00000000 0.728683 -0.089077 -0.679033 0.000000
110.05899811 215.33200073 370.00000000 -0.054875 0.218282 0.974342 0.000000
222.85200500 177.05099487 358.00000000 0.000978 0.000978 0.999999 0.000000
166.11300659 135.35200500 338.00000000 -0.346665 -0.769112 0.536927 0.000000
227.29499817 136.03500366 312.00000000 0.442537 0.528724 -0.724302 0.000000
250.87899780 173.63299561 342.00000000 -0.000978 -0.000978 -0.999999 0.000000
183.20300293 168.84800720 366.00000000 0.000978 0.000978 0.999999 0.000000
247.46099854 151.75799561 326.00000000 -0.000978 -0.000978 -0.999999 0.000000
173.63299561 144.23800659 354.00000000 0.001381 -0.697373 0.716707 0.000000
133.98399353 192.08999634 374.00000000 0.393756 -0.293416 0.871128 0.000000
157.22700500 128.17399597 316.00000000 0.230629 -0.921083 0.313713 0.000000
226.95300293 178.75999451 340.00000000 0.244675 0.658254 -0.711924 0.000000
82.71489716 173.97500610 260.00000000 -0.740397 -0.543395 0.395644 0.000000
106.29900360 175.00000000 260.00000000 0.768542 0.070654 -0.635886 0.000000
213.96499634 175.68400574 358.00000000 0.000978 0.000978 0.999999 0.000000
263.86700439 165.77200317 336.00000000 0.822312 0.366000 -0.435714 0.000000
104.58999634 239.94099426 266.00000000 0.873409 0.459305 -0.161850 0.000000
196.19099426 181.15199280 330.00000000 0.494850 0.748029 -0.442241 0.000000
98.09570313 268.65200806 332.00000000 -0.547782 0.761078 0.347413 0.000000
112.79299927 184.57000732 370.00000000 0.527335 -0.493853 0.691395 0.000000
84.08209991 255.32200623 284.00000000 -0.748048 0.653246 -0.117021 0.000000
147.65600586 179.10200500 314.00000000 0.167621 0.250761 -0.953427 0.000000
149.70700073 200.29299927 366.00000000 0.000978 0.000978 0.999999 0.000000
83.39849854 221.48399353 358.00000000 0.000978 0.000978 0.999999 0.000000
213.96499634 127.48999786 316.00000000 -0.086730 -0.935353 0.342918 0.000000
222.85200500 159.27699280 350.00000000 -0.015853 -0.271947 0.962182 0.000000
239.25799561 154.14999390 344.00000000 0.082910 -0.673464 0.734556 0.000000
162.69500732 144.23800659 350.00000000 -0.346632 -0.803483 0.484006 0.000000
229.34599304 172.94900513 332.00000000 0.492386 0.562966 -0.663796 0.000000
131.25000000 261.81600952 346.00000000 0.017144 0.428590 0.903336 0.000000
126.46499634 259.76599121 346.00000000 -0.073350 0.605493 0.792463 0.000000
79.29689789 248.48599243 336.00000000 -0.777160 0.565064 0.276992 0.000000
165.42999268 221.82600403 332.00000000 0.765109 -0.101329 -0.635878 0.000000
159.96099854 210.54699707 358.00000000 0.884997 -0.384847 0.262055 0.000000
122.36299896 162.69500732 358.00000000 -0.567845 -0.353072 0.743567 0.000000
241.30900574 159.27699280 346.00000000 0.000978 0.000978 0.999999 0.000000
184.91200256 196.19099426 328.00000000 0.125965 0.789878 -0.600188 0.000000
131.25000000 145.26400757 340.00000000 0.037337 -0.842161 0.537932 0.000000
238.57400513 171.58200073 354.00000000 -0.000978 -0.000978 0.999999 0.000000
241.99200439 163.37899780 326.00000000 -0.000978 -0.000978 -0.999999 0.000000
234.47300720 136.03500366 326.00000000 0.287705 -0.832011 0.474324 0.000000
86.13279724 169.53100586 346.00000000 -0.586989 -0.683435 0.434006 0.000000
101.85600281 270.70300293 322.00000000 -0.537403 0.833195 -0.130324 0.000000
101.85600281 237.89100647 254.00000000 0.750465 0.513995 -0.415465 0.000000
265.23400879 177.05099487 342.00000000 -0.000978 -0.000978 -0.999999 0.000000
160.64500427 228.32000732 330.00000000 0.463928 0.621362 -0.631411 0.000000
85.44920349 247.46099854 346.00000000 -0.600837 0.677398 0.424414 0.000000
233.78900146 168.16400146 354.00000000 0.401687 -0.297829 0.865994 0.000000
73.48639679 198.92599487 284.00000000 -0.981438 -0.191189 -0.015063 0.000000
79.98049927 179.10200500 242.00000000 -0.289024 0.003659 -0.957315 0.000000
123.04699707 169.87300110 276.00000000 0.613110 0.439368 -0.656546 0.000000
73.48639679 233.10600281 280.00000000 -0.966491 0.255872 0.020615 0.000000
118.94499969 221.48399353 266.00000000 0.779100 0.525290 -0.342161 0.000000
111.42600250 165.77200317 360.00000000 -0.040649 -0.578900 0.814385 0.000000
103.90599823 146.63099670 320.00000000 -0.550838 -0.774366 0.311343 0.000000
71.09380341 197.55900574 262.00000000 -0.873667 -0.390491 0.290210 0.000000
132.61700439 240.62500000 318.00000000 0.496330 0.570359 -0.654483 0.000000
68.70120239 224.21899414 216.00000000 -0.516518 0.760926 -0.392684 0.000000
102.88099670 175.68400574 256.00000000 0.895622 0.039057 -0.443097 0.000000
142.87100220 210.54699707 294.00000000 0.854001 0.293899 -0.429309 0.000000
224.90199280 151.75799561 318.00000000 0.169754 0.305006 -0.937099 0.000000
142.87100220 229.68800354 362.00000000 0.217966 0.464493 0.858334 0.000000
164.40400696 198.92599487 316.00000000 0.657626 0.604079 -0.450131 0.000000
75.19529724 181.83599854 242.00000000 -0.152118 -0.275966 -0.949054 0.000000
239.25799561 164.06300354 350.00000000 0.460557 -0.289980 0.838927 0.000000
98.43750000 158.93600464 260.00000000 -0.643815 -0.761920 -0.070575 0.000000
136.71899414 168.16400146 362.00000000 -0.183034 -0.809282 0.558177 0.000000
131.93400574 265.23400879 326.00000000 0.688649 0.514392 -0.511041 0.000000
76.90429688 185.93800354 336.00000000 -0.844616 -0.522996 0.114451 0.000000
194.14100647 180.46899414 362.00000000 0.000978 0.000978 0.999999 0.000000
113.47699738 270.36099243 308.00000000 0.445474 0.685729 -0.575612 0.000000
247.46099854 151.75799561 342.00000000 0.331938 -0.299191 0.894596 0.000000
188.67199707 159.96099854 362.00000000 0.195114 -0.158934 0.967817 0.000000
164.06300354 187.30499268 370.00000000 0.368811 0.223036 0.902349 0.000000
95.01959991 265.91799927 298.00000000 -0.365364 0.922371 -0.125464 0.000000
235.83999634 133.64300537 320.00000000 -0.045218 -0.480952 -0.875580 0.000000
98.43750000 181.15199280 366.00000000 0.000978 0.000978 0.999999 0.000000
179.10200500 146.63099670 356.00000000 0.020740 -0.587634 0.808861 0.000000
161.32800293 214.99000549 324.00000000 0.943037 -0.116375 -0.311670 0.000000
91.94339752 246.77699280 252.00000000 0.586267 0.562613 -0.582888 0.000000
208.49600220 177.05099487 330.00000000 0.329892 0.625657 -0.706912 0.000000
158.59399414 171.58200073 318.00000000 -0.000978 -0.000978 -0.999999 0.000000
144.92199707 243.35899353 354.00000000 0.331013 0.479890 0.812487 0.000000
170.21499634 133.30099487 334.00000000 -0.075723 -0.933914 0.349387 0.000000
75.19529724 224.90199280 214.00000000 -0.336973 0.216523 -0.916279 0.000000
147.65600586 127.48999786 300.00000000 -0.110706 -0.989361 -0.094391 0.000000
114.16000366 200.29299927 374.00000000 0.000978 0.000978 0.999999 0.000000
115.52700043 172.26600647 270.00000000 0.686120 0.620305 -0.380081 0.000000
226.95300293 135.35200500 314.00000000 0.472124 0.623338 -0.623338 0.000000
111.42600250 241.99200439 294.00000000 0.722129 0.581306 -0.374983 0.000000
71.77739716 198.92599487 318.00000000 -0.985809 0.001127 -0.167869 0.000000
149.02299500 142.18800354 342.00000000 0.180403 -0.966907 0.180403 0.000000
182.52000427 157.22700500 302.00000000 0.135520 0.888729 -0.437945 0.000000
95.70320129 188.67199707 246.00000000 0.780019 -0.073532 -0.621420 0.000000
159.27699280 211.23100281 318.00000000 0.907745 0.355836 -0.222216 0.000000
207.12899780 128.51600647 318.00000000 0.036145 -0.958460 0.282926 0.000000
110.74199677 261.81600952 302.00000000 0.803608 -0.301550 -0.513109 0.000000
205.76199341 152.44099426 354.00000000 0.178085 -0.412635 0.893319 0.000000
114.16000366 225.92799377 368.00000000 -0.061604 0.646127 0.760740 0.000000
105.95700073 248.14500427 354.00000000 -0.405539 0.587617 0.700175 0.000000
215.33200073 162.01199341 354.00000000 0.000978 0.000978 0.999999 0.000000
127.83200073 240.62500000 314.00000000 0.674265 0.377522 -0.634699 0.000000
75.87889862 225.58599854 214.00000000 -0.285936 0.495311 -0.820310 0.000000
130.56599426 249.51199341 322.00000000 -0.000978 -0.000978 -0.999999 0.000000
187.98800659 198.24200439 330.00000000 -0.017697 0.848095 -0.529549 0.000000
209.17999268 174.31599426 330.00000000 -0.000978 -0.000978 -0.999999 0.000000
144.92199707 245.41000366 330.00000000 0.096827 0.177721 -0.979306 0.000000
143.55499268 138.08599854 330.00000000 0.000978 0.000978 0.999999 0.000000
183.20300293 200.29299927 338.00000000 -0.605085 0.605085 0.517440 0.000000
112.79299927 183.20300293 370.00000000 0.162802 -0.476671 0.863875 0.000000
160.64500427 127.14800262 290.00000000 -0.141716 -0.987326 -0.071444 0.000000
220.11700439 185.59599304 356.00000000 0.299371 0.448281 0.842272 0.000000
156.54299927 161.32800293 298.00000000 0.150541 0.480853 -0.863781 0.000000
87.50000000 163.72099304 340.00000000 -0.528929 -0.776512 0.342437 0.000000
133.98399353 192.08999634 306.00000000 0.757332 0.340719 -0.557099 0.000000
209.17999268 159.27699280 318.00000000 0.012521 0.685875 -0.727612 0.000000
79.63870239 181.83599854 324.00000000 -0.891562 -0.446472 -0.076025 0.000000
252.24600220 157.91000366 326.00000000 0.284233 0.298809 -0.911002 0.000000
88.86720276 165.77200317 252.00000000 0.000978 0.000978 -0.999999 0.000000
157.91000366 169.53100586 318.00000000 -0.000978 -0.000978 -0.999999 0.000000
199.60899353 151.07400513 302.00000000 -0.429211 0.548528 -0.717561 0.000000
73.14459991 217.38299561 346.00000000 -0.881065 -0.001325 0.472993 0.000000
106.64099884 173.63299561 262.00000000 0.794812 -0.085417 -0.600814 0.000000
91.60160065 166.45500183 284.00000000 -0.756901 -0.652985 -0.026681 0.000000
72.80280304 226.95300293 216.00000000 -0.334026 0.676198 -0.656645 0.000000
120.31300354 199.60899353 262.00000000 0.797553 -0.373903 -0.473397 0.000000
164.74600220 215.33200073 330.00000000 0.872809 -0.130849 -0.470195 0.000000
220.11700439 175.34199524 332.00000000 0.049894 0.677139 -0.734161 0.000000
118.94499969 157.22700500 354.00000000 -0.294377 -0.661142 0.690097 0.000000
96.04499817 165.42999268 248.00000000 0.628509 -0.283069 -0.724464 0.000000
147.65600586 247.46099854 350.00000000 0.306225 0.446124 0.840952 0.000000
77.58789825 185.93800354 304.00000000 -0.996331 -0.001057 0.085581 0.000000
158.59399414 157.91000366 298.00000000 -0.067154 0.151980 -0.986100 0.000000
78.61329651 226.95300293 214.00000000 0.407978 -0.705290 -0.579758 0.000000
184.57000732 139.45300293 290.00000000 0.450407 0.816462 -0.361280 0.000000
233.78900146 171.58200073 354.00000000 0.000978 0.000978 0.999999 0.000000
246.09399414 175.68400574 342.00000000 0.276042 0.332136 -0.901935 0.000000
193.45700073 187.98800659 346.00000000 0.799488 -0.299214 0.520855 0.000000
198.92599487 128.85699463 320.00000000 -0.272944 -0.815712 0.510015 0.000000
196.87500000 179.78500366 330.00000000 0.447627 0.779685 -0.437861 0.000000
183.20300293 167.13900757 312.00000000 0.332001 0.727163 -0.600841 0.000000
86.13279724 209.17999268 366.00000000 -0.684583 0.258903 0.681407 0.000000
134.66799927 215.33200073 290.00000000 0.589187 0.757526 -0.281094 0.000000
193.45700073 194.14100647 350.00000000 0.949012 0.293331 0.115474 0.000000
192.77299500 188.67199707 330.00000000 0.954738 0.283701 -0.089385 0.000000
245.41000366 176.36700439 342.00000000 0.276042 0.332136 -0.901935 0.000000
178.75999451 138.77000427 344.00000000 0.006785 -0.837213 0.546835 0.000000
79.29689789 203.71099854 358.00000000 -0.870026 -0.171658 0.462156 0.000000
194.82400513 149.02299500 298.00000000 0.500569 0.632031 -0.591581 0.000000
198.92599487 158.59399414 310.00000000 0.436507 0.562646 -0.702062 0.000000
116.21099854 192.08999634 262.00000000 0.809742 -0.492818 -0.318509 0.000000
203.02699280 156.54299927 354.00000000 0.237150 -0.488069 0.839969 0.000000
250.19500732 166.11300659 334.00000000 0.389695 0.831455 -0.396006 0.000000
153.12500000 162.69500732 302.00000000 0.316993 0.574449 -0.754668 0.000000
226.27000427 132.61700439 326.00000000 0.251197 -0.661959 0.706195 0.000000
149.02299500 154.14999390 356.00000000 -0.104152 -0.770140 0.629314 0.000000
99.80470276 192.08999634 370.00000000 -0.211560 -0.134629 0.968048 0.000000
179.10200500 144.23800659 354.00000000 0.012470 -0.622109 0.782832 0.000000
138.77000427 220.80099487 366.00000000 0.268003 0.130701 0.954511 0.000000
90.23439789 166.79699707 270.00000000 -0.750756 -0.641995 0.155589 0.000000
80.66410065 194.82400513 362.00000000 -0.794973 -0.020811 0.606288 0.000000
153.80900574 132.61700439 330.00000000 -0.915594 -0.305198 0.261805 0.000000
122.36299896 173.63299561 278.00000000 0.648873 0.413221 -0.638915 0.000000
71.09380341 213.28100586 282.00000000 -0.994927 -0.083188 0.056568 0.000000
174.31599426 175.00000000 370.00000000 0.378448 -0.448708 0.809591 0.000000
74.51170349 195.50799561 274.00000000 -0.953176 -0.301984 0.016156 0.000000
202.34399414 159.27699280 358.00000000 0.133855 -0.467772 0.873654 0.000000
72.46099854 233.44700623 256.00000000 -0.929579 0.368516 -0.008926 0.000000
144.23800659 192.08999634 370.00000000 0.000978 0.000978 0.999999 0.000000
78.95510101 183.88699341 352.00000000 -0.892470 -0.078869 0.444159 0.000000
174.31599426 168.84800720 366.00000000 0.000978 0.000978 0.999999 0.000000
143.55499268 252.92999268 350.00000000 0.535476 0.222476 0.814721 0.000000
101.85600281 159.27699280 350.00000000 -0.499706 -0.620847 0.604022 0.000000
179.78500366 183.20300293 366.00000000 0.406839 0.545197 0.732969 0.000000
185.25399780 132.61700439 286.00000000 -0.000978 -0.000978 -0.999999 0.000000
226.27000427 175.00000000 334.00000000 0.239392 0.884709 -0.399978 0.000000
262.50000000 157.91000366 338.00000000 0.642481 -0.001376 -0.766300 0.000000
108.00800323 222.85200500 250.00000000 0.794206 0.340374 -0.503370 0.000000
119.62899780 242.67599487 310.00000000 0.822849 0.342722 -0.453278 0.000000
103.22299957 236.52400208 362.00000000 0.000978 0.000978 0.999999 0.000000
190.03900146 199.60899353 354.00000000 0.845865 0.484436 0.223235 0.000000
135.35200500 140.82000732 334.00000000 -0.248100 -0.922128 0.296859 0.000000
227.63699341 130.56599426 322.00000000 0.274959 -0.867414 0.414718 0.000000
101.17199707 155.85899353 342.00000000 -0.278753 -0.881461 0.381213 0.000000
90.91799927 157.91000366 322.00000000 -0.701936 -0.701936 0.120715 0.000000
127.83200073 138.42799377 324.00000000 -0.240219 -0.956894 0.163243 0.000000
125.43900299 220.11700439 280.00000000 0.744209 0.603973 -0.285254 0.000000
222.16799927 139.45300293 334.00000000 0.243473 -0.804858 0.541224 0.000000
191.40600586 166.79699707 314.00000000 0.267169 0.595992 -0.757242 0.000000
137.40199280 158.59399414 290.00000000 0.753032 0.029558 -0.657320 0.000000
166.11300659 169.53100586 314.00000000 -0.045765 0.852902 -0.520062 0.000000
127.83200073 226.95300293 366.00000000 0.174334 0.404859 0.897606 0.000000
116.21099854 184.57000732 370.00000000 0.000978 0.000978 0.999999 0.000000
94.33599854 252.92999268 346.00000000 -0.392130 0.789101 0.472815 0.000000
223.87699890 162.69500732 324.00000000 -0.112652 0.477701 -0.871270 0.000000
247.80299377 149.70700073 340.00000000 0.406554 -0.387571 0.827346 0.000000
232.42199707 146.28900146 342.00000000 -0.088290 -0.794612 0.600663 0.000000
99.80470276 254.63900757 348.00000000 -0.316583 0.580135 0.750479 0.000000
95.70320129 253.61300659 346.00000000 -0.444724 0.510854 0.735696 0.000000
130.56599426 181.83599854 370.00000000 0.000978 0.000978 0.999999 0.000000
184.57000732 155.17599487 302.00000000 0.143889 0.864786 -0.481083 0.000000
131.25000000 187.30499268 294.00000000 -0.367701 0.737035 -0.567076 0.000000
191.74800110 144.23800659 352.00000000 0.061693 -0.747488 0.661405 0.000000
72.46099854 233.44700623 260.00000000 -0.928213 0.372047 0.001270 0.000000
130.56599426 141.50399780 334.00000000 -0.257112 -0.890231 0.376008 0.000000
213.28100586 181.83599854 358.00000000 -0.140666 0.248467 0.958372 0.000000
133.98399353 144.58000183 340.00000000 -0.274413 -0.762963 0.585308 0.000000
135.35200500 170.89799500 366.00000000 -0.314469 -0.736987 0.598298 0.000000
131.93400574 194.14100647 302.00000000 0.920617 0.188663 -0.341863 0.000000
126.12300110 244.04299927 316.00000000 0.567129 0.499814 -0.654638 0.000000
164.74600220 168.84800720 366.00000000 0.000978 0.000978 0.999999 0.000000
88.52539825 160.64500427 324.00000000 -0.772176 -0.623965 0.120050 0.000000
116.21099854 222.85200500 262.00000000 0.757448 0.502238 -0.417169 0.000000
167.48100281 132.61700439 334.00000000 0.001280 -0.922811 0.385251 0.000000
136.03500366 149.36500549 348.00000000 -0.891562 -0.446472 -0.076025 0.000000
152.44099426 191.06500244 312.00000000 -0.001314 -0.889912 -0.456129 0.000000
125.09799957 272.07000732 338.00000000 0.295352 0.829798 0.473500 0.000000
87.50000000 219.43400574 362.00000000 0.000978 0.000978 0.999999 0.000000
133.30099487 244.72700500 358.00000000 0.466325 0.140042 0.873458 0.000000
217.38299561 154.49200439 318.00000000 0.321672 0.806557 -0.495977 0.000000
79.29689789 177.73399353 258.00000000 -0.684767 -0.550828 0.477161 0.000000
131.93400574 142.52900696 336.00000000 -0.241964 -0.853721 0.461101 0.000000
71.09380341 196.87500000 262.00000000 -0.873667 -0.390491 0.290210 0.000000
120.31300354 170.89799500 366.00000000 0.000978 0.000978 0.999999 0.000000
138.08599854 203.02699280 286.00000000 0.554401 0.785007 -0.276411 0.000000
137.40199280 257.03100586 326.00000000 0.621431 0.161784 -0.766583 0.000000
135.35200500 248.82800293 322.00000000 0.205813 0.322203 -0.924027 0.000000
246.77699280 162.01199341 326.00000000 -0.000978 -0.000978 -0.999999 0.000000
176.36700439 187.64700317 364.00000000 0.061896 0.680856 0.729797 0.000000
116.21099854 274.46301270 332.00000000 -0.664647 0.664647 0.341305 0.000000
112.45099640 213.96499634 372.00000000 0.089128 0.696949 0.711560 0.000000
83.74030304 208.49600220 364.00000000 -0.616257 0.162014 0.770700 0.000000
75.19529724 206.44500732 354.00000000 -0.871352 -0.146434 0.468297 0.000000
211.23100281 159.27699280 354.00000000 0.000978 0.000978 0.999999 0.000000
162.69500732 225.58599854 350.00000000 0.603590 0.232390 0.762676 0.000000
160.64500427 153.80900574 358.00000000 -0.240220 -0.312142 0.919164 0.000000
82.71489716 175.68400574 262.00000000 -0.759395 -0.507897 0.406644 0.000000
224.90199280 174.31599426 330.00000000 0.265815 0.657374 -0.705125 0.000000
151.75799561 186.62100220 370.00000000 0.000978 0.000978 0.999999 0.000000
152.44099426 143.89700317 344.00000000 -0.177102 -0.846813 0.501540 0.000000
76.56250000 211.91400146 218.00000000 0.664449 0.001381 -0.747332 0.000000
77.24610138 211.57200623 220.00000000 0.942258 0.156816 -0.295904 0.000000
193.11500549 198.92599487 348.00000000 0.831521 0.477153 0.284427 0.000000
125.78099823 136.37699890 304.00000000 -0.540166 -0.839162 0.063466 0.000000
84.08209991 250.53700256 264.00000000 -0.570333 0.775716 -0.270158 0.000000
81.34770203 226.27000427 354.00000000 -0.195321 0.885552 0.421482 0.000000
141.16200256 223.53500366 364.00000000 0.322668 0.547412 0.772156 0.000000
208.49600220 174.31599426 330.00000000 0.278795 0.108638 -0.954186 0.000000
203.71099854 159.96099854 358.00000000 0.000978 0.000978 0.999999 0.000000
105.95700073 200.97700500 246.00000000 0.344395 -0.350517 -0.870936 0.000000
244.72700500 151.07400513 342.00000000 0.331938 -0.299191 0.894596 0.000000
85.44920349 172.94900513 314.00000000 -0.907797 -0.092295 -0.409129 0.000000
131.25000000 214.64900208 282.00000000 0.636664 0.609786 -0.472038 0.000000
152.44099426 198.92599487 366.00000000 0.000978 0.000978 0.999999 0.000000
73.82810211 190.72300720 242.00000000 -0.750700 -0.418881 -0.510870 0.000000
141.50399780 197.55900574 302.00000000 -0.209798 -0.937837 -0.276488 0.000000
101.85600281 200.29299927 374.00000000 -0.323816 -0.114209 0.939201 0.000000
145.60600281 257.03100586 342.00000000 0.664647 0.664647 0.341305 0.000000
107.32399750 175.68400574 262.00000000 0.642686 0.046818 -0.764697 0.000000
139.45300293 198.58399963 300.00000000 -0.209180 -0.940617 -0.267363 0.000000
96.72850037 234.47300720 360.00000000 -0.290814 0.689277 0.663570 0.000000
124.41400146 237.89100647 362.00000000 0.000978 0.000978 0.999999 0.000000
201.66000366 145.60600281 350.00000000 0.156756 -0.813637 0.559842 0.000000
116.21099854 268.65200806 310.00000000 0.620071 0.528835 -0.579522 0.000000
194.14100647 159.27699280 358.00000000 0.346500 -0.198204 0.916871 0.000000
179.10200500 143.55499268 290.00000000 0.133731 0.171226 -0.976113 0.000000
169.53100586 194.82400513 318.00000000 0.610552 0.617279 -0.496178 0.000000
166.11300659 180.46899414 318.00000000 -0.000978 -0.000978 -0.999999 0.000000
261.81600952 170.21499634 342.00000000 0.288182 0.150180 -0.945726 0.000000
152.44099426 159.27699280 362.00000000 -0.530607 -0.284985 0.798273 0.000000
109.37500000 244.72700500 290.00000000 0.880632 0.341036 -0.328911 0.000000
153.12500000 143.89700317 344.00000000 -0.164375 -0.845568 0.507933 0.000000
123.73100281 149.70700073 346.00000000 -0.945368 0.006244 -0.325946 0.000000
224.90199280 156.54299927 350.00000000 0.000978 0.000978 0.999999 0.000000
94.33599854 182.52000427 246.00000000 0.647903 0.058640 -0.759462 0.000000
90.91799927 193.79899597 368.00000000 -0.514389 -0.425644 0.744467 0.000000
97.75389862 187.98800659 370.00000000 0.000978 0.000978 0.999999 0.000000
154.83399963 245.41000366 336.00000000 0.678474 0.507599 -0.531052 0.000000
160.64500427 131.93400574 330.00000000 0.261136 -0.961744 0.082799 0.000000
86.81639862 175.00000000 242.00000000 0.425201 -0.322405 -0.845730 0.000000
219.43400574 144.92199707 314.00000000 0.729059 0.448016 -0.517450 0.000000
129.88299561 159.27699280 358.00000000 0.377326 -0.925929 0.016741 0.000000
208.49600220 138.08599854 338.00000000 0.000978 0.000978 0.999999 0.000000
192.08999634 132.61700439 334.00000000 -0.044105 -0.956442 0.288571 0.000000
85.10749817 173.63299561 316.00000000 -0.897535 -0.125796 -0.422619 0.000000
153.46699524 207.12899780 364.00000000 0.499979 0.395749 0.770327 0.000000
158.25199890 151.07400513 356.00000000 -0.286171 -0.539139 0.792108 0.000000
263.86700439 171.58200073 342.00000000 0.277635 0.100366 -0.955429 0.000000
197.55900574 153.12500000 306.00000000 0.331644 0.780245 -0.530310 0.000000
89.55079651 195.50799561 242.00000000 -0.000978 -0.000978 -0.999999 0.000000
220.11700439 175.00000000 330.00000000 -0.029562 0.694015 -0.719354 0.000000
167.48100281 138.08599854 286.00000000 0.163838 -0.095876 -0.981817 0.000000
65.28320313 216.01600647 220.00000000 -0.985809 0.001127 -0.167869 0.000000
75.19529724 216.01600647 218.00000000 0.643863 -0.282788 -0.710965 0.000000
75.87889862 216.01600647 218.00000000 0.592518 -0.336031 -0.732125 0.000000
248.14500427 176.36700439 342.00000000 0.229011 0.300132 -0.925999 0.000000
81.34770203 200.29299927 362.00000000 -0.888314 -0.102444 0.447665 0.000000
189.35600281 174.65800476 320.00000000 0.051398 0.512590 -0.857094 0.000000
232.42199707 145.60600281 342.00000000 -0.088290 -0.794612 0.600663 0.000000
105.27300262 266.94299316 296.00000000 0.671013 0.456824 -0.583998 0.000000
249.51199341 156.20100403 344.00000000 0.282780 -0.541863 0.791467 0.000000
166.79699707 185.25399780 370.00000000 0.297113 0.150591 0.942892 0.000000
77.24610138 204.39500427 354.00000000 -0.784903 -0.177628 0.593612 0.000000
139.45300293 143.55499268 342.00000000 0.128234 -0.925213 0.357124 0.000000
197.55900574 148.33999634 354.00000000 0.194671 -0.774086 0.602407 0.000000
138.08599854 253.61300659 326.00000000 0.839064 0.124036 -0.529705 0.000000
101.17199707 147.65600586 318.00000000 -0.539397 -0.779485 0.318517 0.000000
96.04499817 267.28500366 324.00000000 -0.551135 0.825971 -0.118414 0.000000
141.50399780 181.15199280 370.00000000 -0.061225 -0.795929 0.602286 0.000000
79.29689789 216.69900513 218.00000000 -0.000978 -0.000978 -0.999999 0.000000
98.77929688 149.70700073 312.00000000 -0.585192 -0.809727 -0.043504 0.000000
118.94499969 207.81300354 374.00000000 0.000978 0.000978 0.999999 0.000000
69.72660065 226.61099243 320.00000000 -0.478312 -0.478312 -0.736502 0.000000
81.34770203 216.69900513 218.00000000 -0.000978 -0.000978 -0.999999 0.000000
231.05499268 132.61700439 322.00000000 0.384454 -0.747640 0.541507 0.000000
92.28520203 193.45700073 242.00000000 0.205300 -0.093318 -0.974240 0.000000
228.32000732 143.55499268 338.00000000 0.222532 -0.751630 0.620912 0.000000
198.24200439 161.32800293 314.00000000 0.409244 0.697537 -0.588185 0.000000
138.77000427 256.00601196 328.00000000 0.793458 0.151492 -0.589469 0.000000
103.22299957 148.33999634 302.00000000 -0.577670 -0.756891 -0.305637 0.000000
125.09799957 223.87699890 368.00000000 -0.034787 0.571901 0.819585 0.000000
107.32399750 144.92199707 322.00000000 -0.487533 -0.846769 0.212824 0.000000
94.33599854 204.39500427 370.00000000 0.000978 0.000978 0.999999 0.000000
80.66410065 217.38299561 218.00000000 -0.000978 -0.000978 -0.999999 0.000000
90.91799927 190.03900146 366.00000000 -0.770592 -0.298345 0.563186 0.000000
125.78099823 212.94000244 272.00000000 0.839070 0.343470 -0.421888 0.000000
147.99800110 176.36700439 304.00000000 0.741002 0.653112 -0.156080 0.000000
122.36299896 167.48100281 274.00000000 0.554247 0.454383 -0.697386 0.000000
217.38299561 139.45300293 306.00000000 0.572166 0.735176 -0.363513 0.000000
92.96880341 184.22900391 244.00000000 0.565850 -0.055033 -0.822670 0.000000
180.46899414 193.11500549 324.00000000 0.104015 0.619697 -0.777918 0.000000
229.68800354 176.36700439 354.00000000 -0.023087 -0.501117 0.865072 0.000000
75.87889862 191.74800110 280.00000000 -0.909722 -0.415166 -0.006507 0.000000
205.76199341 159.27699280 314.00000000 0.377469 0.677467 -0.631313 0.000000
156.54299927 141.50399780 342.00000000 -0.286397 -0.789570 0.542730 0.000000
106.29900360 162.69500732 356.00000000 -0.263329 -0.575539 0.774218 0.000000
151.07400513 177.05099487 318.00000000 0.196657 -0.173214 -0.965051 0.000000
236.52400208 139.45300293 330.00000000 0.101208 -0.932461 0.346805 0.000000
77.24610138 218.75000000 218.00000000 0.369111 -0.270482 -0.889155 0.000000
193.45700073 125.43900299 300.00000000 -0.127428 -0.991232 -0.034958 0.000000
78.61329651 218.75000000 218.00000000 -0.000978 -0.000978 -0.999999 0.000000
101.85600281 235.15600586 362.00000000 -0.058480 0.611902 0.788769 0.000000
153.12500000 134.66799927 330.00000000 -0.685744 -0.462168 0.562277 0.000000
119.62899780 268.65200806 314.00000000 0.683321 0.556347 -0.472811 0.000000
142.18800354 249.51199341 350.00000000 0.000978 0.000978 0.999999 0.000000
190.72300720 179.10200500 322.00000000 -0.763181 0.525602 -0.375895 0.000000
137.40199280 155.51800537 292.00000000 0.735768 -0.032481 -0.676454 0.000000
136.03500366 263.86700439 342.00000000 0.284288 0.852863 0.437956 0.000000
128.51600647 172.26600647 366.00000000 0.000978 0.000978 0.999999 0.000000
152.44099426 228.66200256 356.00000000 0.510598 0.359190 0.781199 0.000000
134.66799927 214.64900208 370.00000000 0.000978 0.000978 0.999999 0.000000
127.14800262 250.19500732 318.00000000 0.522645 0.252793 -0.814210 0.000000
117.57800293 234.81500244 364.00000000 -0.001314 0.889912 0.456129 0.000000
242.67599487 142.18800354 334.00000000 -0.398785 -0.899786 0.177078 0.000000
208.49600220 172.94900513 358.00000000 0.553248 -0.063673 0.830580 0.000000
142.87100220 147.65600586 346.00000000 -0.118583 -0.815441 0.566563 0.000000
170.89799500 139.45300293 286.00000000 0.124715 0.190222 -0.973787 0.000000
69.72660065 216.69900513 310.00000000 -0.985809 -0.001127 -0.167869 0.000000
113.47699738 258.73999023 348.00000000 0.037070 0.512122 0.858113 0.000000
173.63299561 128.85699463 320.00000000 0.041628 -0.954923 0.293920 0.000000
166.79699707 130.22500610 324.00000000 -0.189350 -0.938459 0.288863 0.000000
114.84400177 182.52000427 270.00000000 0.880762 -0.291573 -0.373153 0.000000
