64.99220276 174.23399353 217.50000000 0.222932 -0.637617 -0.737391 0.000000
176.30900574 123.76200104 147.50000000 0.000978 0.000978 0.999999 0.000000
52.54690170 206.03900146 92.50000000 -0.417866 -0.022409 0.908232 0.000000
172.85200500 136.89799500 152.50000000 -0.112744 0.255294 0.960268 0.000000
141.04699707 219.17599487 157.50000000 0.000978 0.000978 0.999999 0.000000
172.16000366 152.80099487 212.50000000 -0.000978 -0.000978 -0.999999 0.000000
168.01199341 193.59399414 197.50000000 0.314175 -0.591294 -0.742742 0.000000
188.06199646 159.02299500 157.50000000 0.000978 0.000978 0.999999 0.000000
108.89600372 120.99600220 215.00000000 0.284915 0.580972 -0.762427 0.000000
103.71099854 190.82800293 222.50000000 -0.000978 -0.000978 -0.999999 0.000000
194.28500366 98.17970276 207.50000000 0.095680 0.351727 -0.931200 0.000000
35.26169968 222.63299561 122.50000000 0.882624 0.294208 -0.366628 0.000000
53.23830032 215.71899414 197.50000000 0.582048 -0.342095 -0.737693 0.000000
152.10899353 152.10899353 217.50000000 -0.000978 -0.000978 -0.999999 0.000000
204.65600586 166.62899780 212.50000000 -0.000978 -0.000978 -0.999999 0.000000
118.92199707 146.57800293 147.50000000 0.000978 0.000978 0.999999 0.000000
103.01999664 185.98800659 127.50000000 0.000978 0.000978 0.999999 0.000000
114.77300262 245.10400391 190.00000000 -0.342451 -0.519304 -0.782975 0.000000
123.06999969 162.47999573 157.50000000 0.000978 0.000978 0.999999 0.000000
48.39839935 256.16598511 140.00000000 0.072719 -0.934771 0.347729 0.000000
138.97300720 225.39799500 157.50000000 -0.768614 -0.208779 0.604685 0.000000
145.19500732 220.90400696 175.00000000 -0.924694 -0.379529 0.029997 0.000000
100.25399780 159.71499634 232.50000000 -0.000978 -0.000978 -0.999999 0.000000
169.39500427 118.92199707 212.50000000 -0.000978 -0.000978 -0.999999 0.000000
116.84799957 246.14100647 187.50000000 0.105833 -0.824916 -0.555260 0.000000
129.98399353 195.66799927 217.50000000 0.651471 -0.341247 -0.677595 0.000000
61.53519821 133.44099426 207.50000000 0.000978 0.000978 -0.999999 0.000000
152.80099487 129.98399353 147.50000000 0.000978 0.000978 0.999999 0.000000
108.55100250 234.38699341 132.50000000 0.000978 0.000978 0.999999 0.000000
174.23399353 173.54299927 212.50000000 -0.000978 -0.000978 -0.999999 0.000000
138.97300720 156.94900513 217.50000000 -0.314210 0.945258 -0.088084 0.000000
74.32620239 116.15599823 190.00000000 0.412791 0.872455 -0.261585 0.000000
81.93160248 154.87500000 135.00000000 -0.837677 -0.133500 0.529599 0.000000
54.62110138 257.20300293 157.50000000 0.856201 -0.475334 -0.202429 0.000000
118.92199707 158.33200073 152.50000000 -0.199944 -0.692828 0.692828 0.000000
62.22660065 175.61700439 212.50000000 -0.459331 -0.888217 -0.009266 0.000000
60.15230179 177.69099426 212.50000000 0.032115 -0.800090 -0.599020 0.000000
152.80099487 103.01999664 197.50000000 -0.000978 -0.000978 -0.999999 0.000000
116.84799957 229.54699707 197.50000000 -0.000978 -0.000978 -0.999999 0.000000
184.60499573 159.71499634 212.50000000 -0.000978 -0.000978 -0.999999 0.000000
73.98049927 149.34399414 132.50000000 -0.611570 0.493636 0.618309 0.000000
57.04100037 207.42199707 95.00000000 -0.654504 -0.384129 0.651206 0.000000
114.08200073 216.41000366 207.50000000 -0.153957 -0.563511 -0.811636 0.000000
70.52339935 150.72700500 222.50000000 0.569417 0.066740 -0.819335 0.000000
143.81199646 170.77699280 167.50000000 0.000978 0.000978 0.999999 0.000000
65.68360138 197.05099487 212.50000000 0.606223 -0.555563 -0.569072 0.000000
52.20119858 152.10899353 200.00000000 0.727522 0.311334 -0.611377 0.000000
134.82400513 161.09800720 222.50000000 -0.000978 -0.000978 -0.999999 0.000000
104.40200043 240.95500183 195.00000000 -0.251179 -0.734581 -0.630318 0.000000
180.45700073 167.32000732 212.50000000 -0.000978 -0.000978 -0.999999 0.000000
155.56599426 136.20700073 147.50000000 -0.317071 -0.122781 0.940420 0.000000
67.06639862 225.39799500 112.50000000 -0.980573 -0.141134 0.136225 0.000000
49.78120041 249.25199890 165.00000000 0.401713 -0.833358 -0.379658 0.000000
226.08999634 170.08599854 197.50000000 -0.849341 -0.126312 0.512508 0.000000
103.01999664 233.69500732 202.50000000 -0.238624 -0.784496 -0.572385 0.000000
212.26199341 121.68800354 207.50000000 -0.000978 -0.000978 -0.999999 0.000000
177.69099426 90.57420349 177.50000000 0.053150 0.967819 0.245972 0.000000
61.53519821 264.11700439 162.50000000 0.210716 -0.835283 -0.507840 0.000000
101.63700104 174.92599487 227.50000000 -0.000978 -0.000978 -0.999999 0.000000
52.89260101 137.58999634 190.00000000 0.800157 0.319745 -0.507456 0.000000
253.39999390 134.82400513 200.00000000 -0.091936 -0.757379 -0.646472 0.000000
177.00000000 122.37899780 172.50000000 0.877353 0.437939 0.196114 0.000000
171.46899414 200.50799561 192.50000000 -0.212592 -0.848860 -0.483986 0.000000
188.75399780 185.98800659 172.50000000 -0.244278 -0.801296 0.546126 0.000000
89.19139862 152.80099487 142.50000000 -0.462458 0.047746 0.885355 0.000000
54.62110138 208.80499268 92.50000000 -0.548355 -0.465019 0.695028 0.000000
196.35899353 107.85900116 152.50000000 -0.153480 -0.375955 0.913839 0.000000
66.37500000 184.60499573 107.50000000 -0.718221 0.203212 0.665479 0.000000
80.89450073 233.69500732 122.50000000 -0.288203 -0.276617 0.916745 0.000000
221.25000000 136.20700073 187.50000000 -0.215415 0.057201 0.974846 0.000000
206.72999573 91.26560211 197.50000000 -0.301380 0.701070 -0.646274 0.000000
40.79299927 182.53100586 117.50000000 0.000978 0.000978 0.999999 0.000000
238.53500366 148.65199280 197.50000000 -0.152619 -0.217841 0.963978 0.000000
102.32800293 261.35198975 182.50000000 -0.000978 -0.000978 -0.999999 0.000000
76.05470276 244.75799561 192.50000000 -0.000978 -0.000978 -0.999999 0.000000
194.97700500 143.81199646 212.50000000 -0.000978 -0.000978 -0.999999 0.000000
201.19900513 170.08599854 167.50000000 0.000978 0.000978 0.999999 0.000000
83.66020203 191.52000427 117.50000000 0.000978 0.000978 0.999999 0.000000
118.92199707 261.35198975 177.50000000 -0.711118 -0.637277 -0.296968 0.000000
126.52700043 190.82800293 217.50000000 -0.001277 -0.923189 -0.384343 0.000000
164.55499268 197.74200439 192.50000000 0.400224 -0.857623 -0.322961 0.000000
227.81799316 137.58999634 210.00000000 -0.601029 0.343678 -0.721561 0.000000
170.77699280 100.94499969 207.50000000 0.324872 0.361477 -0.873952 0.000000
144.50399780 139.66400146 147.50000000 0.000978 0.000978 0.999999 0.000000
110.62500000 268.26599121 172.50000000 -0.425962 -0.741733 -0.518062 0.000000
87.80860138 235.07800293 197.50000000 0.001102 -0.990471 -0.137718 0.000000
69.83200073 147.27000427 222.50000000 0.473203 0.182457 -0.861852 0.000000
100.94499969 141.73800659 227.50000000 0.108625 0.323194 -0.940078 0.000000
159.71499634 107.16799927 207.50000000 0.308226 0.101860 -0.945844 0.000000
135.86099243 156.94900513 165.00000000 -0.464030 -0.706855 0.533884 0.000000
154.18400574 91.26560211 192.50000000 -0.000978 -0.000978 -0.999999 0.000000
210.87899780 155.56599426 177.50000000 -0.000978 -0.000978 0.999999 0.000000
131.36700439 181.83999634 147.50000000 -0.076613 0.949217 -0.305152 0.000000
62.22660065 202.58200073 212.50000000 0.788730 -0.499582 -0.358221 0.000000
51.16410065 159.02299500 202.50000000 0.783068 0.286334 -0.552103 0.000000
103.71099854 163.17199707 142.50000000 -0.990471 0.001102 0.137718 0.000000
109.58799744 203.27299500 130.00000000 -0.326766 -0.655158 0.681169 0.000000
133.78700256 149.34399414 220.00000000 -0.251167 0.544455 -0.800302 0.000000
117.53900146 198.43400574 132.50000000 -0.268028 0.020806 0.963187 0.000000
146.23199463 217.79299927 170.00000000 -0.927897 -0.366100 0.070557 0.000000
165.24600220 109.24199677 207.50000000 0.246772 0.082257 -0.965576 0.000000
220.55900574 145.19500732 212.50000000 -0.644818 0.365889 -0.671070 0.000000
64.30079651 136.89799500 147.50000000 0.504623 0.838007 0.207607 0.000000
72.25199890 225.39799500 115.00000000 -0.307734 0.707304 0.636413 0.000000
32.84180069 209.49600220 165.00000000 0.982062 -0.123215 -0.142734 0.000000
107.85900116 258.58599854 147.50000000 -0.376580 -0.351785 0.856992 0.000000
135.16999817 131.36700439 210.00000000 -0.276559 0.692196 -0.666618 0.000000
96.79689789 225.39799500 127.50000000 0.000978 0.000978 0.999999 0.000000
109.24199677 262.04299927 182.50000000 -0.306202 -0.575531 -0.758290 0.000000
51.85549927 211.57000732 92.50000000 0.000978 0.000978 0.999999 0.000000
85.73439789 114.08200073 197.50000000 0.219919 0.904434 -0.365560 0.000000
140.35499573 136.89799500 142.50000000 0.000978 0.000978 0.999999 0.000000
203.96499634 160.40600586 212.50000000 -0.000978 -0.000978 -0.999999 0.000000
178.38299561 128.60200500 147.50000000 0.000978 0.000978 0.999999 0.000000
123.76200104 207.76800537 135.00000000 -0.396403 -0.918054 0.006456 0.000000
92.99410248 174.92599487 125.00000000 -0.679627 0.391902 0.620097 0.000000
54.62110138 221.94099426 197.50000000 0.468336 -0.488195 -0.736429 0.000000
238.53500366 116.15599823 182.50000000 0.244523 -0.247318 0.937573 0.000000
88.50000000 207.42199707 217.50000000 -0.000978 -0.000978 -0.999999 0.000000
58.07809830 204.65600586 207.50000000 0.533956 -0.146431 -0.832735 0.000000
178.38299561 158.33200073 152.50000000 0.000978 0.000978 0.999999 0.000000
114.08200073 145.19500732 227.50000000 -0.000978 -0.000978 -0.999999 0.000000
194.28500366 178.38299561 167.50000000 -0.814014 -0.153841 0.560102 0.000000
253.39999390 136.20700073 200.00000000 -0.091936 -0.757379 -0.646472 0.000000
94.03119659 229.54699707 202.50000000 0.000978 0.000978 -0.999999 0.000000
206.03900146 180.45700073 177.50000000 -0.566856 -0.207386 0.797286 0.000000
67.06639862 214.33599854 107.50000000 -0.761184 -0.443615 0.473080 0.000000
51.16410065 257.20300293 147.50000000 0.917746 -0.306876 -0.252128 0.000000
154.87500000 169.39500427 217.50000000 -0.000978 -0.000978 -0.999999 0.000000
88.50000000 118.23000336 152.50000000 0.263532 0.920200 0.289453 0.000000
235.07800293 157.64100647 202.50000000 -0.489309 -0.823853 0.286082 0.000000
151.41799927 140.35499573 212.50000000 0.336560 0.395496 -0.854582 0.000000
169.39500427 124.45300293 147.50000000 0.000978 0.000978 0.999999 0.000000
93.33979797 189.44500732 122.50000000 0.000978 0.000978 0.999999 0.000000
85.73439789 234.38699341 202.50000000 0.405046 -0.709244 -0.576984 0.000000
91.95700073 244.75799561 132.50000000 0.081908 -0.243203 0.966511 0.000000
91.95700073 219.17599487 207.50000000 -0.000978 -0.000978 -0.999999 0.000000
237.84399414 120.30500031 197.50000000 -0.162306 -0.650739 -0.741752 0.000000
89.19139862 203.27299500 122.50000000 0.000978 0.000978 0.999999 0.000000
209.49600220 130.67599487 212.50000000 -0.509528 -0.180800 -0.841245 0.000000
90.57420349 113.39099884 197.50000000 0.124730 0.875978 -0.465946 0.000000
43.21289825 166.62899780 120.00000000 0.858307 0.306648 0.411432 0.000000
213.64500427 101.63700104 202.50000000 -0.000978 -0.000978 -0.999999 0.000000
104.74800110 240.60899353 195.00000000 -0.233265 -0.753025 -0.615257 0.000000
212.26199341 95.75980377 165.00000000 -0.695430 0.558679 0.451946 0.000000
128.60200500 134.13299561 142.50000000 -0.631678 -0.435008 0.641678 0.000000
94.72270203 235.07800293 197.50000000 -0.421671 -0.560574 -0.712706 0.000000
157.64100647 132.05900574 212.50000000 -0.000978 -0.000978 -0.999999 0.000000
58.76950073 194.28500366 212.50000000 0.077901 -0.122084 -0.989458 0.000000
95.41410065 127.91000366 222.50000000 0.387742 0.741128 -0.548075 0.000000
129.29299927 125.14499664 137.50000000 -0.246867 -0.263795 0.932453 0.000000
227.47300720 153.49200439 212.50000000 -0.000978 -0.000978 -0.999999 0.000000
85.04299927 252.01800537 190.00000000 0.047069 -0.726010 -0.686072 0.000000
245.44900513 132.05900574 202.50000000 -0.000978 -0.000978 -0.999999 0.000000
142.42999268 157.29499817 170.00000000 -0.515498 0.452511 0.727664 0.000000
147.96099854 158.33200073 172.50000000 -0.197247 0.199894 0.959758 0.000000
200.50799561 118.92199707 167.50000000 -0.637485 -0.600480 0.482739 0.000000
76.74610138 179.07400513 112.50000000 -0.306427 -0.107448 0.945811 0.000000
168.70300293 94.03119659 197.50000000 0.315147 0.947992 0.044656 0.000000
190.13699341 138.97300720 157.50000000 -0.276071 -0.242093 0.930148 0.000000
98.17970276 114.08200073 152.50000000 0.283626 0.886893 0.364661 0.000000
75.70899963 116.15599823 180.00000000 0.693792 0.693792 0.193149 0.000000
109.24199677 120.30500031 142.50000000 0.000978 0.000978 0.999999 0.000000
63.95510101 125.14499664 175.00000000 0.592576 0.782445 0.191400 0.000000
87.80860138 229.54699707 202.50000000 -0.000978 -0.000978 -0.999999 0.000000
129.98399353 128.60200500 212.50000000 -0.000978 -0.000978 -0.999999 0.000000
144.50399780 200.50799561 202.50000000 -0.838213 -0.401021 -0.369569 0.000000
164.55499268 116.15599823 142.50000000 -0.389901 -0.032820 0.920272 0.000000
105.78500366 202.58200073 127.50000000 -0.213169 -0.544425 0.811270 0.000000
192.21099854 89.88279724 197.50000000 -0.044050 0.689163 -0.723266 0.000000
120.30500031 183.91400146 222.50000000 -0.000978 -0.000978 -0.999999 0.000000
116.84799957 151.41799927 232.50000000 -0.265902 0.243392 -0.932768 0.000000
58.07809830 141.04699707 147.50000000 0.566653 0.808863 0.156988 0.000000
138.62699890 229.54699707 160.00000000 -0.722052 -0.427944 0.543604 0.000000
80.89450073 201.19900513 217.50000000 -0.000978 -0.000978 -0.999999 0.000000
138.97300720 120.99600220 202.50000000 0.863340 0.397167 -0.311293 0.000000
56.00389862 167.32000732 97.50000000 -0.135678 0.972571 0.188935 0.000000
213.64500427 111.31600189 207.50000000 -0.000978 -0.000978 -0.999999 0.000000
125.14499664 231.62100220 147.50000000 -0.000978 -0.000978 0.999999 0.000000
114.77300262 128.60200500 222.50000000 -0.231589 0.788025 -0.570424 0.000000
125.14499664 116.15599823 197.50000000 0.315169 0.913554 -0.257073 0.000000
189.44500732 90.91989899 175.00000000 -0.154883 0.957097 0.244900 0.000000
208.80499268 175.61700439 212.50000000 -0.000978 -0.000978 -0.999999 0.000000
120.30500031 208.11300659 212.50000000 -0.000978 -0.000978 -0.999999 0.000000
48.39839935 147.27000427 192.50000000 0.837835 0.327304 -0.436927 0.000000
142.42999268 173.54299927 222.50000000 -0.000978 -0.000978 -0.999999 0.000000
56.00389862 262.38900757 145.00000000 0.511616 -0.682714 0.521681 0.000000
90.57420349 170.08599854 232.50000000 0.209142 -0.965170 -0.157181 0.000000
78.82029724 232.31199646 122.50000000 -0.459207 -0.248674 0.852813 0.000000
60.15230179 143.12100220 212.50000000 0.883131 0.357781 -0.303435 0.000000
174.23399353 163.17199707 152.50000000 0.000978 0.000978 0.999999 0.000000
222.28700256 105.78500366 175.00000000 -0.189093 -0.480922 0.856130 0.000000
129.98399353 130.67599487 212.50000000 -0.000978 -0.000978 -0.999999 0.000000
174.92599487 126.52700043 172.50000000 0.582177 0.757628 -0.295076 0.000000
111.31600189 159.02299500 147.50000000 -0.363595 -0.062142 0.929482 0.000000
91.95700073 150.72700500 232.50000000 -0.000978 -0.000978 -0.999999 0.000000
108.55100250 107.51399994 190.00000000 0.087583 0.995847 -0.024869 0.000000
138.28100586 96.45120239 170.00000000 0.387580 0.851431 0.353336 0.000000
67.06639862 162.82600403 220.00000000 0.832184 -0.254750 -0.492517 0.000000
52.54690170 168.35699463 100.00000000 0.785710 0.366234 0.498530 0.000000
38.02730179 200.50799561 187.50000000 0.806451 -0.223586 -0.547400 0.000000
97.48829651 177.00000000 127.50000000 -0.514737 0.759850 0.397083 0.000000
57.38669968 163.51800537 210.00000000 0.668456 0.104769 -0.736335 0.000000
108.55100250 195.66799927 127.50000000 -0.372246 0.375361 0.848845 0.000000
217.79299927 109.24199677 202.50000000 -0.000978 -0.000978 -0.999999 0.000000
106.47699738 252.36300659 187.50000000 -0.000978 -0.000978 -0.999999 0.000000
126.52700043 221.94099426 197.50000000 -0.315047 -0.456113 -0.832289 0.000000
82.27729797 189.44500732 117.50000000 -0.219229 -0.110248 0.969424 0.000000
192.90199280 185.98800659 207.50000000 -0.000978 -0.000978 -0.999999 0.000000
97.48829651 108.55100250 187.50000000 -0.194981 0.977360 0.082162 0.000000
88.50000000 177.00000000 227.50000000 -0.000978 -0.000978 -0.999999 0.000000
214.33599854 98.87110138 202.50000000 -0.000978 -0.000978 -0.999999 0.000000
131.36700439 222.63299561 197.50000000 -0.335059 -0.780734 -0.527437 0.000000
184.60499573 119.61299896 212.50000000 -0.000978 -0.000978 -0.999999 0.000000
108.55100250 233.69500732 197.50000000 -0.418124 -0.227662 -0.879399 0.000000
37.33589935 170.77699280 182.50000000 0.949704 0.149105 -0.275374 0.000000
70.52339935 188.06199646 107.50000000 -0.730582 0.209403 0.649923 0.000000
150.72700500 160.40600586 152.50000000 0.000978 0.000978 0.999999 0.000000
63.60940170 159.71499634 217.50000000 0.690909 -0.067793 -0.719757 0.000000
176.30900574 179.76600647 157.50000000 0.294208 -0.882624 0.366628 0.000000
133.44099426 244.75799561 172.50000000 -0.838138 -0.535196 -0.105308 0.000000
95.41410065 248.90600586 192.50000000 -0.000978 -0.000978 -0.999999 0.000000
209.49600220 97.48829651 202.50000000 -0.146692 0.549725 -0.822365 0.000000
212.26199341 91.95700073 172.50000000 0.311772 0.831913 0.459041 0.000000
85.73439789 132.05900574 222.50000000 -0.033313 0.265267 -0.963599 0.000000
176.65400696 195.66799927 165.00000000 -0.705256 -0.613621 0.355082 0.000000
101.63700104 196.35899353 127.50000000 0.000978 0.000978 0.999999 0.000000
54.62110138 170.08599854 97.50000000 0.303802 0.602782 0.737806 0.000000
58.76950073 170.08599854 97.50000000 -0.317219 0.521259 0.792251 0.000000
159.71499634 192.21099854 197.50000000 -0.050291 -0.452618 -0.890285 0.000000
46.32419968 246.14100647 147.50000000 0.703673 -0.703673 0.098426 0.000000
67.75779724 255.47500610 120.00000000 0.012500 -0.659730 0.751398 0.000000
184.60499573 166.62899780 212.50000000 -0.000978 -0.000978 -0.999999 0.000000
183.91400146 126.52700043 212.50000000 -0.000978 -0.000978 -0.999999 0.000000
74.67189789 120.30500031 167.50000000 0.693792 0.693792 0.193149 0.000000
114.77300262 120.30500031 137.50000000 0.481552 0.592293 0.645985 0.000000
71.90619659 198.77900696 110.00000000 -0.840353 -0.043059 0.540326 0.000000
61.53519821 239.91799927 187.50000000 -0.000978 -0.000978 -0.999999 0.000000
167.32000732 98.87110138 202.50000000 0.219907 0.552073 -0.804274 0.000000
107.16799927 120.30500031 142.50000000 0.000978 0.000978 0.999999 0.000000
161.09800720 105.09400177 207.50000000 -0.011186 0.309488 -0.950837 0.000000
131.36700439 127.91000366 212.50000000 -0.000978 -0.000978 -0.999999 0.000000
96.10549927 246.83200073 132.50000000 0.108960 -0.829547 0.547704 0.000000
179.76600647 189.44500732 167.50000000 -0.946003 -0.158344 0.282853 0.000000
140.35499573 118.23000336 202.50000000 0.588625 0.527907 -0.612237 0.000000
76.05470276 248.21499634 127.50000000 0.249205 -0.917594 0.309706 0.000000
85.73439789 163.86300659 232.50000000 0.075445 -0.277483 -0.957764 0.000000
58.76950073 264.46301270 145.00000000 0.431982 -0.467844 0.771047 0.000000
59.46089935 265.84600830 155.00000000 0.879526 -0.439029 -0.183541 0.000000
137.58999634 230.23800659 182.50000000 -0.814891 -0.406648 -0.413027 0.000000
94.03119659 266.88299561 177.50000000 -0.000978 -0.000978 -0.999999 0.000000
100.94499969 224.70700073 207.50000000 -0.000978 -0.000978 -0.999999 0.000000
150.03500366 138.97300720 212.50000000 0.041642 0.198691 -0.979177 0.000000
149.34399414 150.03500366 147.50000000 0.000978 0.000978 0.999999 0.000000
116.84799957 137.24400330 225.00000000 -0.524292 0.444904 -0.726070 0.000000
73.98049927 212.26199341 212.50000000 0.390078 -0.425106 -0.816777 0.000000
203.96499634 152.80099487 212.50000000 -0.000978 -0.000978 -0.999999 0.000000
204.65600586 160.40600586 167.50000000 0.000978 0.000978 0.999999 0.000000
217.79299927 113.39099884 177.50000000 -0.584042 -0.584042 0.563728 0.000000
55.31250000 246.14100647 177.50000000 0.666830 -0.586610 -0.459594 0.000000
89.88279724 169.39500427 232.50000000 0.579049 -0.771540 -0.263491 0.000000
118.92199707 179.76600647 227.50000000 -0.121871 0.562368 -0.817857 0.000000
168.01199341 199.81599426 192.50000000 0.351259 -0.866643 -0.354327 0.000000
74.67189789 236.46099854 122.50000000 -0.618152 -0.434873 0.654808 0.000000
219.17599487 102.32800293 202.50000000 -0.000978 -0.000978 -0.999999 0.000000
196.35899353 132.05900574 212.50000000 -0.000978 -0.000978 -0.999999 0.000000
131.36700439 183.22300720 137.50000000 -0.468358 0.435719 0.768629 0.000000
170.08599854 146.57800293 212.50000000 -0.000978 -0.000978 -0.999999 0.000000
99.56250000 248.90600586 137.50000000 0.000978 0.000978 0.999999 0.000000
55.65819931 153.49200439 205.00000000 0.898746 0.202473 -0.388922 0.000000
43.55860138 165.59199524 195.00000000 0.760983 -0.253661 -0.597127 0.000000
91.26560211 213.64500427 122.50000000 0.000978 0.000978 0.999999 0.000000
39.41019821 204.65600586 107.50000000 0.829462 0.553449 0.075406 0.000000
188.06199646 111.31600189 212.50000000 -0.276875 0.394888 -0.876016 0.000000
115.46499634 184.60499573 222.50000000 -0.000978 -0.000978 -0.999999 0.000000
157.64100647 129.98399353 212.50000000 -0.000978 -0.000978 -0.999999 0.000000
209.49600220 128.60200500 177.50000000 -0.517304 -0.092630 0.850774 0.000000
80.89450073 133.44099426 222.50000000 0.183730 0.326788 -0.927067 0.000000
194.97700500 183.91400146 207.50000000 -0.000978 -0.000978 -0.999999 0.000000
114.08200073 255.12899780 182.50000000 -0.000978 -0.000978 -0.999999 0.000000
196.35899353 113.39099884 157.50000000 -0.555430 -0.535172 0.636466 0.000000
100.94499969 242.68400574 192.50000000 0.180064 -0.258588 -0.949057 0.000000
166.62899780 160.40600586 152.50000000 0.000978 0.000978 0.999999 0.000000
224.01600647 170.08599854 197.50000000 -0.868079 -0.156108 0.471243 0.000000
58.07809830 240.60899353 187.50000000 0.627352 0.732175 0.265235 0.000000
113.39099884 262.38900757 180.00000000 -0.337637 -0.554112 -0.760895 0.000000
52.54690170 159.71499634 112.50000000 0.767736 0.559373 0.312544 0.000000
235.07800293 117.19300079 185.00000000 0.271249 -0.743951 0.610706 0.000000
82.27729797 217.79299927 117.50000000 0.000978 0.000978 0.999999 0.000000
218.48399353 153.49200439 187.50000000 -0.000978 -0.000978 0.999999 0.000000
90.57420349 268.95700073 142.50000000 -0.661519 -0.261752 0.702765 0.000000
212.95300293 191.17399597 200.00000000 -0.617001 -0.692686 0.373491 0.000000
128.60200500 127.91000366 212.50000000 -0.000978 -0.000978 -0.999999 0.000000
34.91600037 174.23399353 170.00000000 0.910140 0.413700 0.022327 0.000000
139.31799316 152.80099487 170.00000000 -0.917352 -0.393914 0.057418 0.000000
147.27000427 154.18400574 162.50000000 -0.940610 -0.253508 -0.225802 0.000000
200.50799561 174.92599487 167.50000000 0.708972 0.052994 0.703243 0.000000
218.13900757 181.83999634 190.00000000 -0.895265 -0.362545 0.258961 0.000000
72.59770203 129.29299927 212.50000000 0.000978 0.000978 -0.999999 0.000000
165.93800354 188.06199646 202.50000000 -0.000978 -0.000978 -0.999999 0.000000
127.91000366 179.76600647 137.50000000 -0.229045 0.530338 0.816260 0.000000
159.02299500 190.13699341 147.50000000 0.000978 0.000978 0.999999 0.000000
246.14100647 145.88699341 212.50000000 0.190222 0.124715 -0.973787 0.000000
80.89450073 225.39799500 122.50000000 0.000978 0.000978 0.999999 0.000000
201.89100647 116.84799957 207.50000000 -0.000978 -0.000978 -0.999999 0.000000
62.57229996 147.96099854 215.00000000 -0.243274 0.485019 -0.839985 0.000000
51.85549927 168.70300293 207.50000000 0.655478 0.318837 -0.684610 0.000000
44.94139862 240.60899353 122.50000000 0.365239 -0.913807 0.177645 0.000000
127.91000366 190.82800293 217.50000000 0.023949 -0.321426 -0.946632 0.000000
155.56599426 149.34399414 172.50000000 0.000978 0.000978 0.999999 0.000000
78.82029724 266.19100952 132.50000000 -0.000978 -0.000978 0.999999 0.000000
61.53519821 212.95300293 207.50000000 0.065853 -0.994497 -0.081480 0.000000
82.27729797 187.37100220 117.50000000 -0.249019 0.013233 0.968408 0.000000
113.39099884 246.83200073 142.50000000 0.000978 0.000978 0.999999 0.000000
138.28100586 129.98399353 142.50000000 -0.007648 -0.116901 0.993114 0.000000
39.41019821 228.16400146 147.50000000 0.864615 -0.430028 0.259840 0.000000
119.61299896 192.90199280 132.50000000 0.000978 0.000978 0.999999 0.000000
102.32800293 193.59399414 127.50000000 0.000978 0.000978 0.999999 0.000000
217.79299927 159.02299500 212.50000000 -0.000978 -0.000978 -0.999999 0.000000
89.19139862 246.14100647 132.50000000 -0.160054 -0.087849 0.983191 0.000000
209.84199524 177.69099426 180.00000000 -0.695393 -0.575898 0.429849 0.000000
44.94139862 223.32400513 107.50000000 0.901545 -0.061191 0.428336 0.000000
55.31250000 253.05499268 132.50000000 0.620512 -0.699100 0.355280 0.000000
235.07800293 109.93399811 177.50000000 -0.535178 0.803548 -0.260568 0.000000
41.48440170 235.77000427 157.50000000 0.732495 -0.586321 0.345946 0.000000
138.97300720 220.55900574 157.50000000 0.000978 0.000978 0.999999 0.000000
206.72999573 112.69899750 207.50000000 -0.000978 -0.000978 -0.999999 0.000000
94.72270203 210.18800354 122.50000000 0.000978 0.000978 0.999999 0.000000
63.60940170 263.42599487 137.50000000 0.217047 -0.926351 0.307838 0.000000
138.28100586 97.48829651 182.50000000 0.518071 0.632822 -0.575446 0.000000
232.31199646 127.21900177 187.50000000 -0.043655 -0.110818 0.992881 0.000000
77.43750000 245.44900513 192.50000000 -0.123084 -0.325970 -0.937333 0.000000
248.90600586 148.65199280 212.50000000 -0.000978 -0.000978 -0.999999 0.000000
156.25799561 183.91400146 212.50000000 -0.613500 -0.711139 -0.343365 0.000000
80.20310211 113.39099884 187.50000000 0.306907 0.923575 -0.229823 0.000000
184.60499573 124.45300293 212.50000000 -0.000978 -0.000978 -0.999999 0.000000
85.73439789 246.83200073 132.50000000 -0.515092 -0.294563 0.804930 0.000000
146.57800293 183.91400146 217.50000000 -0.139458 0.094164 -0.985741 0.000000
239.22700500 127.21900177 202.50000000 -0.000978 -0.000978 -0.999999 0.000000
105.78500366 194.28500366 127.50000000 0.000978 0.000978 0.999999 0.000000
224.01600647 95.41410065 192.50000000 0.000978 0.000978 -0.999999 0.000000
66.37500000 257.89498901 122.50000000 0.373854 -0.816115 0.440670 0.000000
165.93800354 156.25799561 152.50000000 0.000978 0.000978 0.999999 0.000000
134.82400513 129.29299927 207.50000000 -0.763173 0.208983 -0.611468 0.000000
206.03900146 139.66400146 177.50000000 -0.503023 0.315778 0.804520 0.000000
50.47269821 167.32000732 202.50000000 0.494375 0.672014 -0.551353 0.000000
107.51399994 264.80899048 180.00000000 -0.278014 -0.586212 -0.760963 0.000000
179.76600647 101.63700104 207.50000000 -0.000978 -0.000978 -0.999999 0.000000
66.37500000 248.90600586 187.50000000 0.331403 -0.738787 -0.586827 0.000000
62.57229996 177.69099426 100.00000000 -0.878997 0.020130 0.476403 0.000000
98.87110138 122.37899780 217.50000000 -0.000978 -0.000978 -0.999999 0.000000
38.71879959 232.31199646 157.50000000 0.732495 -0.586321 0.345946 0.000000
74.67189789 246.14100647 192.50000000 -0.000978 -0.000978 -0.999999 0.000000
68.44920349 123.06999969 202.50000000 0.518523 0.776977 -0.356989 0.000000
122.37899780 197.05099487 217.50000000 -0.000978 -0.000978 -0.999999 0.000000
114.77300262 180.11099243 135.00000000 -0.158673 0.517540 0.840818 0.000000
231.62100220 106.47699738 192.50000000 -0.592765 0.666235 -0.452505 0.000000
83.66020203 278.63699341 152.50000000 0.059093 -0.933664 0.353243 0.000000
120.99600220 136.89799500 137.50000000 -0.387088 -0.756210 0.527550 0.000000
33.87889862 181.14799500 147.50000000 0.953438 0.301281 -0.013638 0.000000
73.98049927 192.21099854 217.50000000 -0.000978 -0.000978 -0.999999 0.000000
113.39099884 259.96899414 182.50000000 -0.379236 -0.330105 -0.864413 0.000000
61.53519821 148.99800110 120.00000000 0.385206 0.899782 0.204959 0.000000
100.94499969 168.35699463 140.00000000 -0.385188 0.908247 0.163456 0.000000
229.54699707 169.39500427 202.50000000 0.000978 0.000978 0.999999 0.000000
181.83999634 90.57420349 197.50000000 0.069292 0.841401 -0.535951 0.000000
71.90619659 221.25000000 207.50000000 -0.799433 -0.435908 -0.413389 0.000000
76.05470276 235.07800293 197.50000000 -0.000978 -0.000978 -0.999999 0.000000
122.37899780 186.67999268 222.50000000 -0.303575 -0.166211 -0.938198 0.000000
204.65600586 181.83999634 212.50000000 -0.000978 -0.000978 -0.999999 0.000000
182.53100586 124.45300293 212.50000000 -0.000978 -0.000978 -0.999999 0.000000
53.92969894 251.67199707 132.50000000 0.600786 -0.486351 0.634444 0.000000
45.63280106 235.07800293 177.50000000 0.687838 -0.406073 -0.601651 0.000000
187.37100220 129.98399353 212.50000000 -0.000978 -0.000978 -0.999999 0.000000
94.72270203 226.08999634 207.50000000 -0.280154 -0.673971 -0.683576 0.000000
211.57000732 168.70300293 212.50000000 -0.000978 -0.000978 -0.999999 0.000000
158.33200073 115.46499634 207.50000000 -0.000978 -0.000978 -0.999999 0.000000
99.56250000 172.85200500 227.50000000 -0.120403 -0.679312 -0.723905 0.000000
125.14499664 185.29699707 132.50000000 -0.064542 0.351690 0.933889 0.000000
185.29699707 178.38299561 157.50000000 -0.435625 -0.548258 0.713894 0.000000
98.87110138 255.82000732 137.50000000 -0.694966 -0.698021 0.172596 0.000000
187.37100220 112.69899750 212.50000000 -0.276875 0.394888 -0.876016 0.000000
38.37300110 228.85499573 165.00000000 0.868154 -0.434829 -0.239231 0.000000
112.69899750 135.51600647 132.50000000 0.000978 0.000978 0.999999 0.000000
244.06599426 120.30500031 187.50000000 -0.120715 0.701936 0.701936 0.000000
35.60739899 201.19900513 125.00000000 0.990471 0.001102 0.137718 0.000000
64.99220276 208.45899963 210.00000000 0.263886 -0.523088 -0.810397 0.000000
198.43400574 147.27000427 212.50000000 0.000978 0.000978 -0.999999 0.000000
100.94499969 114.77300262 152.50000000 0.013928 0.938252 0.345672 0.000000
135.51600647 124.45300293 207.50000000 -0.000978 -0.000978 -0.999999 0.000000
177.69099426 132.75000000 212.50000000 -0.000978 -0.000978 -0.999999 0.000000
248.90600586 123.06999969 197.50000000 -0.000978 -0.000978 -0.999999 0.000000
143.81199646 151.41799927 167.50000000 -0.114454 -0.987609 -0.107374 0.000000
121.68800354 246.83200073 187.50000000 -0.000978 -0.000978 -0.999999 0.000000
105.09400177 138.28100586 227.50000000 -0.000978 -0.000978 -0.999999 0.000000
38.71879959 158.33200073 162.50000000 0.907504 0.415207 0.063566 0.000000
73.28910065 248.90600586 122.50000000 0.000978 0.000978 0.999999 0.000000
67.06639862 267.57400513 142.50000000 0.406073 -0.601651 0.687838 0.000000
136.89799500 166.62899780 222.50000000 -0.000978 -0.000978 -0.999999 0.000000
113.39099884 175.61700439 227.50000000 -0.000978 -0.000978 -0.999999 0.000000
170.77699280 203.96499634 172.50000000 -0.425690 -0.751122 0.504583 0.000000
33.53319931 206.03900146 170.00000000 0.990471 0.001102 -0.137718 0.000000
102.32800293 233.69500732 132.50000000 -0.223795 -0.015393 0.974515 0.000000
147.96099854 142.42999268 212.50000000 0.262262 0.656450 -0.707313 0.000000
125.14499664 221.59599304 200.00000000 -0.534289 -0.537660 -0.652271 0.000000
40.10160065 183.91400146 192.50000000 -0.000978 -0.000978 -0.999999 0.000000
193.59399414 174.23399353 162.50000000 -0.700453 -0.080093 0.709190 0.000000
181.49400330 190.82800293 175.00000000 -0.970434 -0.162807 0.178191 0.000000
134.82400513 175.61700439 222.50000000 -0.000978 -0.000978 -0.999999 0.000000
212.26199341 147.96099854 182.50000000 0.000978 0.000978 0.999999 0.000000
217.10200500 134.82400513 182.50000000 -0.872713 0.062436 0.484224 0.000000
40.10160065 226.08999634 117.50000000 0.237414 -0.802243 0.547760 0.000000
197.74200439 100.25399780 207.50000000 0.037148 0.122702 -0.991748 0.000000
130.67599487 210.87899780 207.50000000 -0.633680 -0.251259 -0.731655 0.000000
36.29880142 177.00000000 130.00000000 0.963529 0.230155 0.136532 0.000000
112.69899750 149.34399414 232.50000000 -0.163998 0.804946 -0.570233 0.000000
217.10200500 150.72700500 212.50000000 -0.000978 -0.000978 -0.999999 0.000000
83.66020203 169.39500427 227.50000000 0.321971 0.094074 -0.942064 0.000000
184.60499573 147.96099854 152.50000000 -0.627848 -0.038094 0.777403 0.000000
83.31449890 271.03100586 175.00000000 0.300939 -0.667860 -0.680734 0.000000
137.24400330 217.79299927 195.00000000 -0.513492 -0.634710 -0.577468 0.000000
79.51170349 190.13699341 117.50000000 -0.233995 -0.094863 0.967599 0.000000
35.60739899 202.58200073 180.00000000 0.925031 -0.169332 -0.340064 0.000000
184.60499573 105.09400177 207.50000000 -0.000978 -0.000978 -0.999999 0.000000
62.91799927 127.91000366 167.50000000 0.669830 0.724510 0.162521 0.000000
138.28100586 198.43400574 212.50000000 -0.444993 -0.331779 -0.831807 0.000000
123.76200104 113.39099884 192.50000000 -0.052278 0.812430 -0.580711 0.000000
134.13299561 109.93399811 192.50000000 0.000978 0.000978 -0.999999 0.000000
201.89100647 137.58999634 212.50000000 0.000978 0.000978 -0.999999 0.000000
221.25000000 165.93800354 187.50000000 -0.938108 -0.066914 0.339818 0.000000
175.61700439 137.58999634 212.50000000 -0.000978 -0.000978 -0.999999 0.000000
48.39839935 183.91400146 97.50000000 0.852010 0.145179 0.502994 0.000000
107.85900116 209.49600220 127.50000000 -0.602763 -0.439132 0.666212 0.000000
96.10549927 237.84399414 127.50000000 -0.140975 0.160936 0.976845 0.000000
168.01199341 174.23399353 152.50000000 0.000978 0.000978 0.999999 0.000000
90.91989899 164.55499268 130.00000000 -0.622046 0.665175 0.413039 0.000000
107.85900116 174.92599487 227.50000000 0.022368 -0.206018 -0.978292 0.000000
76.74610138 133.78700256 220.00000000 0.450535 0.713208 -0.536984 0.000000
124.45300293 183.91400146 222.50000000 -0.000978 -0.000978 -0.999999 0.000000
233.69500732 105.78500366 192.50000000 -0.000978 -0.000978 -0.999999 0.000000
136.89799500 183.56799316 140.00000000 -0.294208 0.882624 0.366628 0.000000
127.91000366 134.82400513 142.50000000 0.000978 0.000978 0.999999 0.000000
163.86300659 163.86300659 152.50000000 0.000978 0.000978 0.999999 0.000000
127.21900177 206.38499451 135.00000000 -0.327885 -0.941518 0.077692 0.000000
87.11720276 244.06599426 132.50000000 -0.380344 -0.633907 0.673424 0.000000
125.14499664 213.64500427 207.50000000 -0.779239 -0.466893 -0.418088 0.000000
150.03500366 118.92199707 147.50000000 0.000978 0.000978 0.999999 0.000000
63.60940170 265.50000000 142.50000000 0.410187 -0.828292 0.381680 0.000000
98.17970276 150.03500366 232.50000000 -0.000978 -0.000978 -0.999999 0.000000
201.19900513 177.69099426 212.50000000 -0.000978 -0.000978 -0.999999 0.000000
87.80860138 157.64100647 137.50000000 -0.721755 0.659668 0.209542 0.000000
60.15230179 163.86300659 212.50000000 0.523040 -0.037261 -0.851493 0.000000
146.23199463 217.79299927 175.00000000 -0.924694 -0.379529 0.029997 0.000000
123.06999969 221.25000000 137.50000000 0.000978 0.000978 0.999999 0.000000
138.28100586 226.78100586 157.50000000 -0.694468 -0.409388 0.591706 0.000000
237.15199280 162.47999573 212.50000000 0.286834 -0.549897 -0.784436 0.000000
134.82400513 232.31199646 187.50000000 -0.624726 -0.628076 -0.463938 0.000000
47.01559830 185.98800659 97.50000000 -0.000978 -0.000978 0.999999 0.000000
141.04699707 181.83999634 157.50000000 0.191894 0.756831 0.624807 0.000000
146.92399597 177.00000000 220.00000000 -0.158344 -0.946003 -0.282853 0.000000
148.65199280 147.96099854 217.50000000 -0.000978 -0.000978 -0.999999 0.000000
67.75779724 205.34800720 107.50000000 0.000978 0.000978 0.999999 0.000000
139.66400146 153.49200439 147.50000000 -0.221176 -0.504891 0.834366 0.000000
89.19139862 250.97999573 132.50000000 0.000978 0.000978 0.999999 0.000000
41.83010101 174.23399353 195.00000000 0.918629 0.212870 -0.332878 0.000000
58.07809830 255.12899780 172.50000000 0.174582 -0.787896 -0.590543 0.000000
42.17580032 197.05099487 107.50000000 0.000978 0.000978 0.999999 0.000000
180.45700073 145.88699341 212.50000000 -0.000978 -0.000978 -0.999999 0.000000
188.75399780 134.13299561 212.50000000 -0.000978 -0.000978 -0.999999 0.000000
157.98599243 183.91400146 205.00000000 -0.487671 -0.843170 -0.226365 0.000000
158.33200073 150.03500366 147.50000000 0.000978 0.000978 0.999999 0.000000
95.41410065 137.58999634 142.50000000 0.000978 0.000978 0.999999 0.000000
42.17580032 199.12500000 192.50000000 0.698806 -0.311477 -0.643935 0.000000
69.14060211 208.80499268 107.50000000 0.000978 0.000978 0.999999 0.000000
56.00389862 241.30099487 107.50000000 0.000978 0.000978 0.999999 0.000000
45.28710175 175.61700439 200.00000000 0.790623 0.107079 -0.602868 0.000000
110.62500000 248.56100464 190.00000000 -0.502957 -0.661078 -0.556786 0.000000
250.97999573 141.04699707 207.50000000 -0.569949 0.166924 -0.804546 0.000000
36.64450073 183.22300720 187.50000000 0.802239 0.486447 -0.346095 0.000000
210.18800354 140.35499573 177.50000000 0.111251 0.842328 -0.527358 0.000000
174.23399353 194.28500366 197.50000000 -0.160591 -0.853048 -0.496507 0.000000
161.09800720 154.87500000 217.50000000 0.000978 0.000978 -0.999999 0.000000
93.33979797 201.89100647 217.50000000 0.000978 0.000978 -0.999999 0.000000
233.69500732 161.78900146 212.50000000 -0.000978 -0.000978 -0.999999 0.000000
81.58589935 114.08200073 192.50000000 0.264305 0.931428 -0.250171 0.000000
173.88900757 197.05099487 160.00000000 -0.702312 -0.657721 0.272325 0.000000
136.89799500 181.83999634 157.50000000 0.084349 0.550412 0.830621 0.000000
114.77300262 216.41000366 137.50000000 -0.744251 -0.593150 0.307024 0.000000
104.40200043 194.28500366 127.50000000 0.000978 0.000978 0.999999 0.000000
102.32800293 216.41000366 212.50000000 -0.000978 -0.000978 -0.999999 0.000000
239.91799927 121.68800354 187.50000000 0.000978 0.000978 0.999999 0.000000
123.06999969 156.25799561 227.50000000 -0.000978 -0.000978 -0.999999 0.000000
165.93800354 125.14499664 147.50000000 0.000978 0.000978 0.999999 0.000000
246.83200073 125.14499664 197.50000000 -0.000978 -0.000978 -0.999999 0.000000
76.74610138 127.21900177 212.50000000 0.499367 0.806913 -0.315473 0.000000
116.84799957 154.87500000 232.50000000 0.207966 0.232432 -0.950119 0.000000
207.07600403 122.37899780 175.00000000 -0.509158 -0.407654 0.758008 0.000000
205.00199890 140.35499573 175.00000000 -0.897746 -0.434482 0.072642 0.000000
118.23000336 222.63299561 137.50000000 0.000978 0.000978 0.999999 0.000000
88.50000000 255.12899780 187.50000000 0.212129 -0.769550 -0.602324 0.000000
87.80860138 153.49200439 232.50000000 -0.000978 -0.000978 -0.999999 0.000000
80.89450073 212.95300293 212.50000000 -0.000978 -0.000978 -0.999999 0.000000
70.52339935 206.03900146 107.50000000 0.000978 0.000978 0.999999 0.000000
114.08200073 149.34399414 147.50000000 0.000978 0.000978 0.999999 0.000000
103.01999664 114.08200073 207.50000000 0.057657 0.913119 -0.403596 0.000000
42.52149963 173.54299927 115.00000000 0.950480 0.226434 0.212875 0.000000
59.46089935 141.04699707 142.50000000 0.548751 0.822382 0.150200 0.000000
183.22300720 89.19139862 182.50000000 0.005919 0.971841 0.235562 0.000000
132.05900574 181.83999634 157.50000000 -0.120274 0.919334 0.374646 0.000000
71.90619659 129.98399353 212.50000000 0.395875 0.727687 -0.560138 0.000000
189.44500732 182.53100586 167.50000000 -0.470620 -0.776767 0.418510 0.000000
114.08200073 210.18800354 212.50000000 -0.046348 -0.191332 -0.980430 0.000000
68.44920349 182.53100586 217.50000000 0.000978 0.000978 -0.999999 0.000000
245.44900513 142.42999268 207.50000000 0.240908 0.836272 -0.492557 0.000000
145.19500732 103.01999664 197.50000000 0.708511 0.475119 -0.521798 0.000000
186.67999268 96.45120239 205.00000000 -0.188495 0.758579 -0.623721 0.000000
233.69500732 118.92199707 187.50000000 0.092782 -0.196697 0.976064 0.000000
160.40600586 112.00800323 207.50000000 0.334939 0.172375 -0.926338 0.000000
164.55499268 163.17199707 217.50000000 -0.000978 -0.000978 -0.999999 0.000000
210.18800354 113.39099884 172.50000000 -0.786194 -0.523596 0.328248 0.000000
233.00399780 169.39500427 207.50000000 -0.541019 -0.832674 -0.118120 0.000000
77.78320313 127.91000366 215.00000000 0.047520 0.889306 -0.454836 0.000000
134.82400513 237.15199280 157.50000000 -0.611747 -0.736332 0.289102 0.000000
134.13299561 182.53100586 157.50000000 -0.112584 0.808560 0.577543 0.000000
134.47900391 229.54699707 155.00000000 -0.673869 -0.570197 0.469869 0.000000
151.41799927 136.20700073 212.50000000 -0.000978 -0.000978 -0.999999 0.000000
81.58589935 264.80899048 182.50000000 0.320884 -0.531613 -0.783850 0.000000
62.91799927 144.15800476 135.00000000 -0.001359 0.822094 0.569351 0.000000
63.60940170 190.82800293 97.50000000 -0.830521 0.072404 0.552261 0.000000
78.82029724 135.51600647 222.50000000 0.410488 0.251105 -0.876610 0.000000
146.57800293 201.19900513 197.50000000 -0.700752 -0.632465 -0.330052 0.000000
45.63280106 191.52000427 97.50000000 0.823419 0.182146 0.537405 0.000000
170.08599854 131.71299744 150.00000000 0.237292 -0.497548 0.834349 0.000000
47.01559830 191.52000427 97.50000000 0.874029 0.115492 0.471947 0.000000
40.79299927 158.33200073 147.50000000 0.933600 0.321313 0.158588 0.000000
99.56250000 263.42599487 182.50000000 -0.000978 -0.000978 -0.999999 0.000000
97.48829651 124.45300293 217.50000000 -0.000978 -0.000978 -0.999999 0.000000
69.83200073 139.66400146 222.50000000 0.475794 0.366858 -0.799397 0.000000
48.39839935 165.93800354 202.50000000 0.279285 -0.452103 -0.847114 0.000000
252.70899963 140.35499573 205.00000000 -0.717142 0.623672 -0.311030 0.000000
145.19500732 96.79689789 157.50000000 0.128703 0.951344 0.279963 0.000000
130.67599487 180.45700073 157.50000000 -0.159307 0.914957 0.370776 0.000000
137.58999634 215.02699280 197.50000000 -0.500409 -0.584653 -0.638569 0.000000
134.82400513 133.44099426 212.50000000 -0.223147 0.490316 -0.842494 0.000000
109.24199677 198.43400574 217.50000000 -0.060320 -0.971272 -0.230200 0.000000
68.44920349 126.52700043 162.50000000 0.699100 0.620512 0.355280 0.000000
48.39839935 237.15199280 117.50000000 0.191510 -0.595979 0.779829 0.000000
194.97700500 166.62899780 162.50000000 0.000978 0.000978 0.999999 0.000000
37.33589935 170.77699280 147.50000000 0.887295 0.444357 -0.123511 0.000000
224.01600647 107.85900116 177.50000000 -0.213137 -0.485227 0.848014 0.000000
224.70700073 177.00000000 212.50000000 -0.000978 -0.000978 -0.999999 0.000000
61.53519821 192.90199280 97.50000000 -0.836069 -0.093215 0.540648 0.000000
62.22660065 192.90199280 97.50000000 -0.685473 -0.058919 0.725710 0.000000
183.22300720 161.09800720 152.50000000 0.000978 0.000978 0.999999 0.000000
73.28910065 202.58200073 217.50000000 -0.001205 -0.271059 -0.962562 0.000000
72.59770203 202.58200073 112.50000000 -0.233588 -0.108497 0.966263 0.000000
152.10899353 179.76600647 217.50000000 0.048359 -0.254196 -0.965943 0.000000
121.68800354 140.35499573 142.50000000 -0.448721 -0.672247 0.588841 0.000000
224.70700073 179.76600647 212.50000000 -0.000978 -0.000978 -0.999999 0.000000
86.42579651 229.89300537 125.00000000 -0.585559 -0.266737 0.765488 0.000000
92.64839935 176.30900574 227.50000000 -0.000978 -0.000978 -0.999999 0.000000
165.93800354 119.61299896 147.50000000 0.000978 0.000978 0.999999 0.000000
74.67189789 210.18800354 112.50000000 0.000978 0.000978 0.999999 0.000000
242.68400574 119.61299896 187.50000000 -0.200998 0.162095 0.966087 0.000000
131.36700439 203.27299500 132.50000000 -0.733763 -0.488623 0.472059 0.000000
168.70300293 168.01199341 212.50000000 -0.000978 -0.000978 -0.999999 0.000000
89.19139862 228.16400146 127.50000000 -0.358932 0.064899 0.931105 0.000000
137.58999634 188.75399780 217.50000000 0.038792 -0.286558 -0.957277 0.000000
102.32800293 226.08999634 207.50000000 -0.067870 -0.671481 -0.737907 0.000000
78.82029724 174.23399353 222.50000000 0.352149 -0.673178 -0.650248 0.000000
136.89799500 168.70300293 167.50000000 -0.341366 -0.081025 0.936432 0.000000
224.01600647 171.46899414 197.50000000 -0.901146 -0.131153 0.413201 0.000000
140.35499573 123.76200104 207.50000000 -0.000978 -0.000978 -0.999999 0.000000
136.20700073 197.74200439 137.50000000 -0.635449 -0.635449 -0.438644 0.000000
60.15230179 250.28900146 182.50000000 0.759849 -0.595557 -0.260655 0.000000
73.28910065 172.16000366 112.50000000 0.000978 0.000978 0.999999 0.000000
196.35899353 108.20500183 155.00000000 -0.481911 -0.663257 0.572584 0.000000
127.91000366 138.97300720 222.50000000 -0.558000 0.477568 -0.678649 0.000000
172.85200500 96.45120239 155.00000000 -0.001102 0.990471 0.137718 0.000000
119.61299896 103.71099854 167.50000000 0.425588 0.707106 0.564691 0.000000
130.67599487 106.47699738 147.50000000 -0.001277 0.923189 0.384343 0.000000
63.60940170 194.97700500 97.50000000 -0.798693 -0.119142 0.589826 0.000000
196.35899353 189.44500732 207.50000000 -0.000978 -0.000978 -0.999999 0.000000
75.36329651 127.91000366 152.50000000 0.604391 0.219072 0.765976 0.000000
71.90619659 192.21099854 217.50000000 -0.000978 -0.000978 -0.999999 0.000000
96.79689789 114.77300262 207.50000000 0.161260 0.881847 -0.443103 0.000000
147.27000427 207.42199707 197.50000000 -0.709210 -0.223879 -0.668505 0.000000
95.41410065 271.72299194 172.50000000 -0.109653 -0.802656 -0.586275 0.000000
110.62500000 259.62298584 150.00000000 -0.644075 -0.337528 0.686470 0.000000
104.40200043 219.17599487 132.50000000 -0.675381 0.537959 0.504441 0.000000
99.56250000 211.57000732 122.50000000 -0.657541 0.355826 0.664100 0.000000
191.52000427 145.88699341 212.50000000 -0.000978 -0.000978 -0.999999 0.000000
42.86719894 173.54299927 112.50000000 0.853359 0.332981 0.401125 0.000000
97.48829651 112.69899750 157.50000000 0.206757 0.939427 0.273364 0.000000
88.50000000 208.11300659 217.50000000 -0.165428 -0.751254 -0.638945 0.000000
144.50399780 185.98800659 217.50000000 -0.000978 -0.000978 -0.999999 0.000000
114.42800140 174.23399353 145.00000000 -0.540349 0.811293 0.223221 0.000000
117.53900146 169.39500427 227.50000000 -0.000978 -0.000978 -0.999999 0.000000
124.45300293 192.90199280 132.50000000 0.000978 0.000978 0.999999 0.000000
123.06999969 130.67599487 217.50000000 -0.000978 -0.000978 -0.999999 0.000000
164.55499268 167.32000732 217.50000000 -0.000978 -0.000978 -0.999999 0.000000
228.85499573 192.21099854 212.50000000 0.976610 0.201678 -0.074560 0.000000
217.79299927 192.21099854 212.50000000 -0.001102 -0.990471 0.137718 0.000000
81.93160248 276.56201172 150.00000000 0.375166 -0.809401 0.451796 0.000000
92.64839935 190.13699341 122.50000000 0.000978 0.000978 0.999999 0.000000
101.63700104 116.84799957 147.50000000 -0.091961 0.936934 0.337190 0.000000
89.88279724 141.04699707 227.50000000 -0.000978 -0.000978 -0.999999 0.000000
110.62500000 218.48399353 207.50000000 -0.000978 -0.000978 -0.999999 0.000000
109.93399811 263.42599487 152.50000000 -0.638691 -0.457645 0.618575 0.000000
80.20310211 222.63299561 207.50000000 -0.000978 -0.000978 -0.999999 0.000000
76.05470276 123.76200104 157.50000000 0.412545 0.848441 0.331593 0.000000
44.25000000 197.74200439 97.50000000 0.389944 -0.781505 -0.487025 0.000000
85.04299927 210.87899780 122.50000000 0.000978 0.000978 0.999999 0.000000
117.53900146 111.31600189 152.50000000 0.315769 0.912383 0.260473 0.000000
62.91799927 221.25000000 107.50000000 -0.716252 0.619243 0.321748 0.000000
58.76950073 247.52299500 182.50000000 0.699348 -0.322901 -0.637689 0.000000
177.69099426 92.30269623 170.00000000 0.161371 0.961665 0.221721 0.000000
134.82400513 107.85900116 192.50000000 0.860091 0.318495 0.398504 0.000000
149.34399414 199.81599426 157.50000000 -0.703673 -0.703673 0.098426 0.000000
177.00000000 92.64839935 202.50000000 -0.032362 0.755572 -0.654266 0.000000
168.70300293 190.13699341 202.50000000 0.021033 -0.724944 -0.688487 0.000000
228.85499573 142.42999268 192.50000000 0.000978 0.000978 0.999999 0.000000
57.38669968 150.72700500 207.50000000 0.898325 0.355495 -0.258139 0.000000
142.42999268 135.51600647 212.50000000 -0.000978 -0.000978 -0.999999 0.000000
226.08999634 179.07400513 197.50000000 0.000978 0.000978 0.999999 0.000000
192.21099854 88.50000000 187.50000000 -0.134176 0.969904 0.203181 0.000000
45.63280106 198.43400574 97.50000000 0.874866 -0.283536 0.392704 0.000000
167.32000732 163.17199707 212.50000000 -0.000978 -0.000978 -0.999999 0.000000
64.30079651 258.58599854 132.50000000 0.519629 -0.838255 0.165269 0.000000
