226.36700439 103.90599823 153.75000000 -0.605730 0.097793 -0.789638 0.000000
196.67999268 156.97300720 135.00000000 -0.959382 0.218342 0.178643 0.000000
55.29299927 228.59399414 102.50000000 0.666027 0.659481 0.348559 0.000000
138.04699707 170.33200073 110.00000000 -0.383249 0.536549 -0.751821 0.000000
144.72700500 159.57000732 136.25000000 -0.747667 -0.316753 0.583662 0.000000
88.32039642 105.76200104 125.00000000 0.397609 0.915175 0.066044 0.000000
40.44919968 168.47700500 127.50000000 0.988470 0.142201 -0.052025 0.000000
70.50789642 149.92199707 58.75000000 0.598970 0.598970 0.531480 0.000000
64.57039642 237.12899780 100.00000000 0.589880 -0.744182 0.313424 0.000000
156.60200500 174.78500366 140.00000000 -0.270509 -0.962222 -0.030880 0.000000
96.48439789 166.99200439 36.25000000 -0.679926 -0.258340 0.686266 0.000000
44.53129959 202.61700439 148.75000000 0.826712 -0.198714 -0.526365 0.000000
109.10199738 138.04699707 181.25000000 -0.325461 0.281281 -0.902749 0.000000
109.84400177 192.96899414 173.75000000 -0.205363 -0.168738 -0.964030 0.000000
197.42199707 132.10899353 168.75000000 -0.000978 -0.000978 -0.999999 0.000000
111.32800293 177.38299561 178.75000000 -0.000978 -0.000978 -0.999999 0.000000
207.07000732 140.27400208 136.25000000 -0.552075 0.124473 0.824451 0.000000
124.31600189 113.55500031 162.50000000 0.093594 0.548605 -0.830827 0.000000
135.82000732 164.02400208 108.75000000 -0.598970 0.598970 -0.531480 0.000000
83.12509918 110.21499634 147.50000000 0.379861 0.806203 -0.453589 0.000000
135.82000732 166.99200439 88.75000000 -0.556637 0.389153 0.733972 0.000000
118.75000000 229.33599854 98.75000000 -0.645655 -0.185568 0.740739 0.000000
230.82000732 110.58599854 151.25000000 -0.627910 0.340865 -0.699671 0.000000
202.61700439 116.52400208 133.75000000 -0.234161 0.223206 0.946228 0.000000
61.60160065 220.80099487 152.50000000 0.499955 -0.651457 -0.570656 0.000000
172.18800354 132.85200500 171.25000000 -0.000978 -0.000978 -0.999999 0.000000
96.48439789 117.26599884 81.25000000 0.236983 0.861894 0.448306 0.000000
117.26599884 168.47700500 178.75000000 -0.225950 -0.231427 -0.946250 0.000000
95.37120056 201.87500000 42.50000000 -0.958392 0.001215 0.285453 0.000000
67.53910065 117.63700104 140.00000000 0.421311 0.890401 -0.172289 0.000000
96.85549927 169.96099854 37.50000000 -0.958392 -0.001215 0.285453 0.000000
167.73399353 98.71099854 156.25000000 0.073987 0.718104 -0.691991 0.000000
206.32800293 114.29699707 161.25000000 -0.376751 0.358146 -0.854278 0.000000
75.70320129 224.14100647 63.75000000 0.622400 -0.568425 0.538064 0.000000
123.94499969 161.79699707 78.75000000 -0.080212 0.122061 0.989276 0.000000
42.67580032 188.51600647 105.00000000 0.958392 -0.001215 0.285453 0.000000
79.41410065 144.72700500 43.75000000 0.654786 0.674380 0.341272 0.000000
116.52400208 114.29699707 163.75000000 0.001379 0.745961 -0.665988 0.000000
155.11700439 113.55500031 116.25000000 0.000978 0.000978 0.999999 0.000000
55.29299927 225.62500000 97.50000000 0.779986 -0.491343 0.387561 0.000000
77.92970276 132.10899353 71.25000000 0.563483 0.736611 0.374022 0.000000
64.57039642 205.58599854 163.75000000 0.501538 -0.362849 -0.785366 0.000000
94.25789642 113.18399811 92.50000000 0.397911 0.838288 0.372747 0.000000
76.44539642 222.65600586 158.75000000 0.514872 -0.711490 -0.478214 0.000000
106.13300323 193.71099854 173.75000000 -0.043401 -0.264128 -0.963511 0.000000
56.77740097 129.14100647 130.00000000 0.772387 0.634007 0.038125 0.000000
138.78900146 154.74600220 115.00000000 -0.530305 -0.833336 0.155972 0.000000
92.77349854 112.81300354 156.25000000 0.241081 0.450321 -0.859704 0.000000
105.39099884 169.21899414 181.25000000 -0.000978 -0.000978 -0.999999 0.000000
47.87110138 185.54699707 87.50000000 0.958392 -0.001215 0.285453 0.000000
66.42579651 141.01600647 165.00000000 0.772356 0.404877 -0.489430 0.000000
50.09769821 143.24200439 120.00000000 0.951751 0.296532 0.078989 0.000000
162.53900146 113.55500031 116.25000000 0.526615 0.486492 0.697138 0.000000
111.32800293 99.82430267 115.00000000 0.443828 0.886229 0.132720 0.000000
217.46099854 156.23100281 160.00000000 0.244929 -0.569421 -0.784709 0.000000
170.70300293 171.44500732 156.25000000 0.528508 -0.423135 -0.735959 0.000000
66.42579651 118.00800323 127.50000000 0.691826 0.691826 0.206770 0.000000
128.39900208 219.31700134 102.50000000 -0.620383 -0.566290 0.542624 0.000000
190.00000000 130.62500000 168.75000000 -0.000978 -0.000978 -0.999999 0.000000
214.49200439 154.37500000 143.75000000 -0.165111 -0.840429 0.516157 0.000000
218.20300293 103.90599823 156.25000000 -0.358234 0.084527 -0.929798 0.000000
130.62500000 173.67199707 83.75000000 -0.700155 -0.350894 0.621816 0.000000
85.35160065 228.22300720 62.50000000 0.243047 -0.754231 0.609970 0.000000
74.21880341 222.65600586 156.25000000 0.290835 -0.686113 -0.666831 0.000000
141.01600647 186.28900146 91.25000000 -0.728395 0.243847 0.640296 0.000000
99.82430267 217.46099854 67.50000000 -0.893879 -0.159775 0.418871 0.000000
129.88299561 215.97700500 153.75000000 -0.474489 -0.334840 -0.814090 0.000000
159.57000732 117.26599884 116.25000000 0.000978 0.000978 0.999999 0.000000
95.74220276 175.15600586 36.25000000 -0.885236 -0.050468 0.462396 0.000000
195.56700134 168.47700500 155.00000000 -0.691826 -0.691826 -0.206770 0.000000
66.05470276 188.51600647 51.25000000 0.844214 -0.155241 0.513034 0.000000
114.29699707 169.96099854 178.75000000 -0.205496 -0.386216 -0.899227 0.000000
117.26599884 232.30499268 96.25000000 -0.583256 0.015167 0.812147 0.000000
87.20709991 240.46899414 77.50000000 0.402281 -0.637359 0.657224 0.000000
142.50000000 177.38299561 168.75000000 -0.361280 -0.450407 -0.816462 0.000000
237.50000000 119.49199677 143.75000000 -0.455313 0.353780 0.817025 0.000000
74.96099854 195.19500732 171.25000000 0.129857 -0.389572 -0.911795 0.000000
118.75000000 100.93800354 146.25000000 0.134410 0.938157 -0.319055 0.000000
76.44539642 237.12899780 82.50000000 0.410740 -0.717557 0.562499 0.000000
135.07800293 159.94200134 100.00000000 -0.547439 0.831935 -0.090521 0.000000
135.07800293 195.93800354 163.75000000 -0.290701 -0.400285 -0.869060 0.000000
137.30499268 143.24200439 178.75000000 -0.612566 0.307087 -0.728327 0.000000
56.40629959 235.64500427 117.50000000 0.526542 -0.769561 0.361289 0.000000
181.09399414 101.68000031 161.25000000 0.312007 0.320965 -0.894222 0.000000
70.50789642 118.75000000 148.75000000 0.647892 0.720405 -0.247492 0.000000
244.92199707 131.36700439 151.25000000 -0.819131 0.408770 -0.402408 0.000000
37.10940170 193.71099854 131.25000000 0.993047 0.093769 0.071174 0.000000
138.04699707 123.94499969 171.25000000 -0.272011 0.306921 -0.912036 0.000000
46.75780106 148.80900574 132.50000000 0.941125 0.338001 -0.006283 0.000000
120.23400116 188.51600647 173.75000000 -0.140158 -0.207022 -0.968245 0.000000
74.21880341 202.24600220 45.00000000 0.768194 -0.384909 0.511588 0.000000
82.38289642 231.19200134 150.00000000 -0.001379 -0.745961 -0.665988 0.000000
138.78900146 166.25000000 133.75000000 -0.267083 -0.174892 0.947671 0.000000
167.73399353 91.28910065 123.75000000 0.000978 0.000978 0.999999 0.000000
98.71099854 246.40600586 136.25000000 -0.001381 -0.661530 -0.749918 0.000000
96.48439789 121.34799957 75.00000000 0.128732 0.794585 0.593349 0.000000
103.16400146 120.97699738 168.75000000 -0.000978 -0.000978 -0.999999 0.000000
174.41400146 83.49610138 132.50000000 0.133295 0.987328 -0.086111 0.000000
230.07800293 120.23400116 153.75000000 -0.479845 0.059462 -0.875336 0.000000
106.13300323 227.85200500 83.75000000 -0.737911 -0.554660 0.384499 0.000000
137.30499268 219.68800354 108.75000000 -0.723552 -0.364226 0.586355 0.000000
96.11329651 179.60899353 37.50000000 -0.990897 0.046644 0.126280 0.000000
143.98399353 166.25000000 133.75000000 -0.236081 0.431562 0.870643 0.000000
118.00800323 101.30899811 110.00000000 0.193750 0.966149 0.170344 0.000000
98.71099854 133.96499634 177.50000000 -0.014380 0.411789 -0.911166 0.000000
148.80900574 167.73399353 170.00000000 -0.516695 -0.661437 -0.543624 0.000000
42.30469894 209.29699707 141.25000000 0.834588 -0.443130 -0.327259 0.000000
242.69500732 120.23400116 148.75000000 -0.714810 0.286244 -0.638052 0.000000
59.00389862 127.65599823 142.50000000 0.699499 0.654680 -0.286523 0.000000
122.46099854 227.85200500 148.75000000 -0.238692 -0.518964 -0.820794 0.000000
138.78900146 232.30499268 133.75000000 -0.240461 0.724525 -0.645943 0.000000
120.23400116 136.56300354 88.75000000 -0.228803 -0.394132 0.890118 0.000000
231.93400574 143.98399353 142.50000000 -0.719024 -0.365245 0.591270 0.000000
183.32000732 156.60200500 131.25000000 0.107539 0.216342 0.970377 0.000000
168.47700500 151.77699280 140.00000000 0.361477 -0.873952 0.324872 0.000000
125.80100250 194.45300293 82.50000000 -0.613832 -0.479294 0.627286 0.000000
120.97699738 121.71900177 168.75000000 0.226198 0.478203 -0.848620 0.000000
163.28100586 120.23400116 166.25000000 -0.000978 -0.000978 -0.999999 0.000000
49.35549927 185.54699707 82.50000000 0.930027 -0.043166 0.364947 0.000000
209.29699707 115.03900146 161.25000000 -0.418792 0.331609 -0.845369 0.000000
210.03900146 112.06999969 158.75000000 -0.210154 0.229136 -0.950438 0.000000
141.75799561 204.10200500 103.75000000 -0.771901 -0.422669 0.474890 0.000000
68.28130341 169.96099854 168.75000000 0.231825 0.917221 0.323979 0.000000
101.30899811 111.32800293 160.00000000 0.067271 0.788642 -0.611162 0.000000
175.15600586 95.00009918 126.25000000 0.000978 0.000978 0.999999 0.000000
42.30469894 214.86300659 117.50000000 0.947423 -0.249465 0.200390 0.000000
178.12500000 138.04699707 123.75000000 -0.060962 -0.424026 0.903596 0.000000
196.67999268 109.84400177 163.75000000 -0.196906 -0.079496 -0.977194 0.000000
41.19139862 214.49200439 127.50000000 0.934603 -0.210949 -0.286388 0.000000
49.72660065 217.46099854 101.25000000 0.777758 -0.475748 0.410799 0.000000
88.32039642 112.81300354 101.25000000 0.402193 0.834353 0.376957 0.000000
131.36700439 154.74600220 102.50000000 -0.756743 -0.511578 0.406974 0.000000
137.30499268 200.39100647 161.25000000 -0.544778 -0.344325 -0.764629 0.000000
141.75799561 123.94499969 98.75000000 -0.747332 -0.001381 0.664449 0.000000
205.58599854 116.89499664 135.00000000 -0.253216 0.244822 0.935919 0.000000
55.66410065 153.63299561 83.75000000 0.898689 0.288706 0.330161 0.000000
143.98399353 170.70300293 93.75000000 -0.474320 0.352946 0.806504 0.000000
75.70320129 124.68800354 161.25000000 0.337665 0.751265 -0.567084 0.000000
231.56300354 143.98399353 141.25000000 -0.621989 -0.428555 0.655340 0.000000
172.18800354 156.97300720 170.00000000 -0.242644 -0.814480 -0.527016 0.000000
60.48830032 188.51600647 62.50000000 0.930058 -0.070519 0.360581 0.000000
51.95320129 180.35200500 161.25000000 0.643443 0.178819 -0.744315 0.000000
41.19139862 168.47700500 115.00000000 0.956375 0.172067 0.236093 0.000000
65.31250000 234.16000366 92.50000000 0.599012 -0.716530 0.357449 0.000000
123.20300293 104.27700043 97.50000000 0.303476 0.913331 0.271531 0.000000
119.49199677 146.21099854 181.25000000 -0.000978 -0.000978 -0.999999 0.000000
67.16799927 177.38299561 47.50000000 0.928606 0.118982 0.351475 0.000000
142.50000000 202.61700439 103.75000000 -0.771901 -0.422669 0.474890 0.000000
72.73439789 218.20300293 61.25000000 0.549945 -0.664307 0.506218 0.000000
172.92999268 150.66400146 173.75000000 -0.377862 -0.096853 -0.920782 0.000000
46.01570129 221.91400146 128.75000000 0.824493 -0.494072 -0.275870 0.000000
215.23500061 146.95300293 138.75000000 -0.384838 -0.381697 0.840361 0.000000
109.47299957 194.45300293 172.50000000 -0.121891 -0.410506 -0.903674 0.000000
79.41410065 247.89100647 121.25000000 0.219118 -0.944000 -0.246680 0.000000
211.52400208 123.20300293 136.25000000 -0.307405 -0.049746 0.950278 0.000000
75.33209991 147.69500732 50.00000000 0.833576 0.503205 0.227895 0.000000
110.58599854 165.50799561 181.25000000 -0.303575 -0.166211 -0.938198 0.000000
69.76570129 123.20300293 153.75000000 0.527435 0.681480 -0.507343 0.000000
47.50000000 148.43800354 136.25000000 0.886229 0.443828 -0.132720 0.000000
136.56300354 116.89499664 165.00000000 -0.091805 0.633891 -0.767955 0.000000
116.52400208 149.17999268 78.75000000 -0.314104 0.934009 0.170197 0.000000
126.91400146 166.25000000 78.75000000 -0.562348 0.266210 0.782877 0.000000
115.41000366 224.88299561 92.50000000 -0.719209 -0.279072 0.636284 0.000000
147.69500732 138.04699707 103.75000000 -0.748548 0.001379 0.663079 0.000000
97.96880341 221.54299927 65.00000000 -0.856971 -0.221397 0.465385 0.000000
76.07430267 212.26600647 165.00000000 0.094763 -0.402398 -0.910547 0.000000
105.39099884 101.30899811 137.50000000 0.180563 0.973526 -0.140157 0.000000
69.02349854 246.03500366 117.50000000 0.513276 -0.857295 -0.039906 0.000000
62.34379959 133.22300720 155.00000000 0.745504 0.376830 -0.549748 0.000000
176.27000427 151.40600586 132.50000000 0.553597 -0.647826 0.523309 0.000000
136.93400574 116.52400208 90.00000000 -0.680192 -0.405467 0.610684 0.000000
160.31300354 149.17999268 176.25000000 -0.555559 -0.112278 -0.823861 0.000000
73.47660065 246.77699280 112.50000000 0.378419 -0.886967 0.264744 0.000000
63.45709991 237.50000000 102.50000000 0.518928 -0.762939 0.385536 0.000000
72.73439789 115.78099823 146.25000000 0.596176 0.746419 -0.295691 0.000000
118.00800323 172.92999268 71.25000000 -0.629504 -0.101249 0.770372 0.000000
57.14849854 228.59399414 98.75000000 0.752939 -0.551288 0.359394 0.000000
193.71099854 95.37120056 160.00000000 0.045782 0.528570 -0.847654 0.000000
117.26599884 103.16400146 103.75000000 0.079786 0.963762 0.254555 0.000000
60.48830032 155.85899353 70.00000000 0.724525 0.240461 0.645943 0.000000
122.46099854 136.56300354 88.75000000 0.276423 -0.653509 0.704639 0.000000
62.34379959 155.85899353 166.25000000 0.625935 0.175140 -0.759955 0.000000
74.96099854 169.21899414 173.75000000 0.593928 -0.380048 -0.709094 0.000000
74.21880341 207.81300354 48.75000000 0.628329 -0.454073 0.631680 0.000000
72.73439789 120.97699738 153.75000000 0.530743 0.681427 -0.503954 0.000000
135.82000732 205.58599854 158.75000000 -0.403829 -0.555471 -0.726893 0.000000
143.98399353 132.10899353 173.75000000 0.055280 0.416621 -0.907398 0.000000
60.85940170 195.19500732 166.25000000 0.456637 -0.149313 -0.877034 0.000000
76.44539642 191.48399353 36.25000000 0.890875 0.222351 0.396108 0.000000
100.19499969 106.13300323 153.75000000 0.009512 0.838437 -0.544916 0.000000
109.10199738 210.03900146 76.25000000 -0.767999 -0.399490 0.500585 0.000000
59.37500000 128.77000427 115.00000000 0.866571 0.483030 0.125444 0.000000
127.65599823 247.89100647 128.75000000 -0.511000 -0.836592 -0.197466 0.000000
155.48800659 175.15600586 142.50000000 -0.278733 -0.960349 -0.006086 0.000000
86.09380341 115.03900146 156.25000000 0.579955 0.708833 -0.401507 0.000000
86.83599854 158.82800293 178.75000000 0.347102 -0.006311 -0.937806 0.000000
106.13300323 181.83599854 178.75000000 -0.255616 -0.334491 -0.907070 0.000000
65.68360138 133.59399414 92.50000000 0.740147 0.641255 0.202420 0.000000
179.60899353 138.04699707 171.25000000 -0.664215 0.617604 -0.421169 0.000000
110.58599854 250.11700439 96.25000000 -0.409091 -0.700589 0.584653 0.000000
169.96099854 139.53100586 123.75000000 0.410570 -0.545777 0.730451 0.000000
112.06999969 205.58599854 78.75000000 -0.626446 -0.254050 0.736902 0.000000
157.34399414 123.20300293 116.25000000 0.000978 0.000978 0.999999 0.000000
145.83999634 197.42199707 115.00000000 -0.979355 -0.074028 0.188104 0.000000
227.85200500 135.07800293 156.25000000 -0.066490 0.254671 -0.964739 0.000000
149.17999268 147.32400513 112.50000000 -0.684553 -0.658660 0.312337 0.000000
94.62899780 161.05499268 182.50000000 0.456452 0.200720 -0.866812 0.000000
133.22300720 223.39900208 147.50000000 -0.398289 -0.616440 -0.679241 0.000000
239.35600281 148.43800354 157.50000000 -0.268586 0.133631 -0.953942 0.000000
63.08599854 184.06300354 58.75000000 0.886579 0.148003 0.438260 0.000000
59.00389862 135.82000732 152.50000000 0.807880 0.297640 -0.508665 0.000000
126.17199707 234.16000366 105.00000000 -0.665145 -0.275947 0.693856 0.000000
135.82000732 186.28900146 86.25000000 -0.667006 -0.104542 0.737682 0.000000
218.20300293 155.11700439 146.25000000 0.057360 -0.954728 0.291899 0.000000
59.37500000 221.91400146 83.75000000 0.733473 -0.501676 0.458627 0.000000
86.09380341 231.56300354 66.25000000 0.165689 -0.755481 0.633874 0.000000
151.40600586 155.11700439 176.25000000 -0.000978 -0.000978 -0.999999 0.000000
155.85899353 163.28100586 141.25000000 0.022688 0.455088 0.890157 0.000000
241.21099854 121.71900177 143.75000000 -0.544778 0.344325 0.764629 0.000000
203.73100281 123.20300293 132.50000000 -0.286681 0.227368 0.930654 0.000000
106.87500000 99.82430267 125.00000000 0.216690 0.975705 0.032324 0.000000
60.48830032 135.07800293 102.50000000 0.841875 0.451170 0.296129 0.000000
143.61300659 156.60200500 132.50000000 -0.633404 -0.488914 0.599802 0.000000
138.78900146 158.08599854 131.25000000 -0.094428 -0.049992 0.994276 0.000000
166.25000000 93.51570129 148.75000000 0.202905 0.923715 -0.324932 0.000000
79.78520203 249.37500000 117.50000000 0.599161 -0.764987 -0.236223 0.000000
142.50000000 226.36700439 131.25000000 -0.903317 -0.375536 -0.207342 0.000000
229.33599854 154.00399780 147.50000000 -0.313266 -0.586369 0.747018 0.000000
69.02349854 186.28900146 46.25000000 0.891576 0.030836 0.451821 0.000000
43.41799927 204.10200500 105.00000000 0.958392 0.001215 0.285453 0.000000
73.47660065 218.94500732 61.25000000 0.598970 -0.598970 0.531480 0.000000
106.87500000 187.03100586 58.75000000 -0.805463 -0.240552 0.541631 0.000000
198.90600586 129.14100647 131.25000000 0.000978 0.000978 0.999999 0.000000
86.09380341 237.50000000 143.75000000 0.202279 -0.761249 -0.616103 0.000000
82.38289642 247.14900208 128.75000000 0.401370 -0.873927 -0.274143 0.000000
97.96880341 204.10200500 53.75000000 -0.931976 -0.156020 0.327227 0.000000
188.14500427 132.85200500 125.00000000 -0.485044 0.179481 0.855873 0.000000
48.61330032 192.22700500 157.50000000 0.620705 -0.165420 -0.766396 0.000000
62.34379959 181.09399414 61.25000000 0.791786 0.264974 0.550330 0.000000
128.39900208 136.19099426 90.00000000 -0.313583 -0.164389 0.935223 0.000000
162.53900146 164.39500427 132.50000000 0.229320 0.600599 0.765959 0.000000
48.24219894 197.42199707 88.75000000 0.398140 0.398140 0.826419 0.000000
176.27000427 169.96099854 135.00000000 0.395581 -0.620681 0.676957 0.000000
178.12500000 161.79699707 131.25000000 0.549162 -0.183054 0.815422 0.000000
69.02349854 238.24200439 93.75000000 0.456273 -0.822554 0.339442 0.000000
132.85200500 218.20300293 151.25000000 -0.429563 -0.413475 -0.802816 0.000000
112.81300354 133.59399414 83.75000000 -0.377636 -0.434999 0.817415 0.000000
79.41410065 197.42199707 36.25000000 0.556835 -0.594070 0.580530 0.000000
208.55499268 148.43800354 163.75000000 -0.454898 -0.191146 -0.869788 0.000000
152.14900208 135.07800293 173.75000000 -0.150186 0.225932 -0.962496 0.000000
118.00800323 141.01600647 88.75000000 -0.463653 -0.304419 0.832078 0.000000
140.27400208 182.94900513 167.50000000 -0.536522 -0.275341 -0.797703 0.000000
131.36700439 242.69500732 133.75000000 -0.580530 -0.594070 -0.556835 0.000000
196.67999268 116.52400208 166.25000000 -0.820252 0.548329 0.162855 0.000000
208.92599487 135.07800293 135.00000000 -0.037039 -0.328246 0.943866 0.000000
120.97699738 203.36000061 166.25000000 0.001379 -0.745961 -0.665988 0.000000
112.06999969 135.82000732 178.75000000 -0.102100 0.259773 -0.960257 0.000000
97.22660065 213.37899780 57.50000000 -0.894222 -0.312007 0.320965 0.000000
204.84399414 123.20300293 133.75000000 -0.278078 0.200604 0.939378 0.000000
39.70709991 170.70300293 137.50000000 0.667564 0.667564 0.329721 0.000000
84.60939789 230.44900513 65.00000000 0.278419 -0.739798 0.612521 0.000000
83.86720276 224.14100647 156.25000000 -0.001362 -0.581753 -0.813364 0.000000
235.27400208 120.23400116 141.25000000 -0.614827 0.311448 0.724560 0.000000
93.88680267 232.30499268 67.50000000 -0.227315 -0.501924 0.834506 0.000000
62.34379959 135.82000732 96.25000000 0.802243 0.547760 0.237414 0.000000
149.17999268 91.28910065 136.25000000 0.177447 0.939504 -0.292993 0.000000
63.82820129 144.72700500 76.25000000 0.766301 0.546897 0.337173 0.000000
190.37100220 143.24200439 127.50000000 -0.359478 -0.278931 0.890490 0.000000
149.55099487 178.12500000 145.00000000 -0.568721 -0.821795 -0.034763 0.000000
92.77349854 198.90600586 36.25000000 -0.631732 -0.387616 0.671318 0.000000
54.17969894 154.37500000 153.75000000 0.804501 0.247419 -0.539965 0.000000
187.77400208 157.34399414 166.25000000 0.591528 -0.393803 -0.703572 0.000000
96.48439789 239.72700500 143.75000000 -0.032510 -0.708145 -0.705318 0.000000
243.43800354 143.98399353 151.25000000 -0.671079 -0.347785 0.654751 0.000000
123.20300293 142.50000000 91.25000000 -0.343933 -0.607996 0.715577 0.000000
168.47700500 172.92999268 141.25000000 0.101928 -0.993514 0.050404 0.000000
83.12509918 199.64900208 36.25000000 0.535312 -0.558953 0.633255 0.000000
118.37899780 151.40600586 75.00000000 -0.773964 0.525132 0.353858 0.000000
187.77400208 153.63299561 131.25000000 -0.186371 -0.432909 0.881961 0.000000
95.00009918 202.98800659 170.00000000 -0.132404 -0.328962 -0.935015 0.000000
64.94139862 134.33599854 90.00000000 0.742846 0.648661 0.165583 0.000000
192.96899414 120.97699738 131.25000000 -0.049660 0.614361 0.787461 0.000000
114.29699707 102.42199707 148.75000000 -0.085172 0.798304 -0.596202 0.000000
231.93400574 118.00800323 152.50000000 -0.392694 0.106096 -0.913529 0.000000
166.99200439 138.04699707 171.25000000 -0.180518 0.496799 -0.848884 0.000000
143.98399353 154.00399780 130.00000000 -0.367583 -0.579964 0.726997 0.000000
56.03519821 187.77400208 70.00000000 0.864637 -0.125582 0.486448 0.000000
94.25789642 110.58599854 98.75000000 0.471434 0.803835 0.362765 0.000000
50.83990097 197.42199707 82.50000000 0.883975 -0.261752 0.387394 0.000000
83.86720276 200.39100647 36.25000000 0.535312 -0.558953 0.633255 0.000000
79.41410065 112.06999969 116.25000000 0.445866 0.872476 0.199973 0.000000
57.51959991 211.52400208 157.50000000 0.514872 -0.478214 -0.711490 0.000000
84.60939789 130.99600220 172.50000000 0.210690 0.564402 -0.798160 0.000000
57.89070129 236.01600647 126.25000000 0.622032 -0.581574 -0.524260 0.000000
140.27400208 155.85899353 178.75000000 0.005637 -0.163482 -0.986530 0.000000
47.12889862 155.11700439 115.00000000 0.877304 0.250444 0.409409 0.000000
76.44539642 223.39900208 156.25000000 0.281432 -0.850448 -0.444448 0.000000
146.21099854 179.98100281 150.00000000 -0.607141 -0.786490 -0.113196 0.000000
102.42199707 145.46899414 181.25000000 -0.000978 -0.000978 -0.999999 0.000000
91.28910065 231.56300354 151.25000000 0.107418 -0.760752 -0.640091 0.000000
92.03130341 200.39100647 36.25000000 -0.559075 -0.488561 0.669883 0.000000
92.77349854 200.39100647 36.25000000 -0.628975 -0.551407 0.548034 0.000000
114.66799927 148.43800354 72.50000000 -0.539051 0.818447 0.198918 0.000000
82.38289642 201.13299561 36.25000000 0.535312 -0.558953 0.633255 0.000000
179.60899353 106.13300323 161.25000000 0.000978 0.000978 -0.999999 0.000000
83.12509918 201.13299561 36.25000000 0.535312 -0.558953 0.633255 0.000000
151.40600586 173.67199707 126.25000000 -0.239253 -0.120273 0.963479 0.000000
100.93800354 210.03900146 166.25000000 -0.886229 -0.443828 -0.132720 0.000000
127.65599823 221.17199707 103.75000000 -0.752913 -0.513425 0.411724 0.000000
238.98500061 107.98799896 145.00000000 0.789664 0.514162 0.334766 0.000000
88.32039642 176.64100647 178.75000000 0.187343 -0.238559 -0.952886 0.000000
136.19099426 183.32000732 170.00000000 -0.536517 -0.114864 -0.836036 0.000000
88.32039642 205.58599854 168.75000000 -0.595217 -0.691381 -0.409523 0.000000
84.98049927 132.85200500 60.00000000 -0.015025 0.840061 0.542283 0.000000
184.80499268 98.71099854 161.25000000 0.406811 0.652558 -0.639275 0.000000
229.33599854 130.25399780 155.00000000 -0.194060 0.271134 -0.942776 0.000000
77.18750000 196.67999268 171.25000000 -0.000978 -0.000978 -0.999999 0.000000
137.30499268 166.25000000 91.25000000 -0.525142 0.324024 0.786915 0.000000
178.86700439 97.96880341 128.75000000 -0.656645 -0.340543 0.672939 0.000000
236.75799561 119.49199677 151.25000000 -0.187728 0.092023 -0.977901 0.000000
65.31250000 146.21099854 71.25000000 0.808818 0.443649 0.385991 0.000000
135.07800293 100.19499969 108.75000000 -0.377938 0.567725 -0.731335 0.000000
48.98440170 158.82800293 146.25000000 0.802746 0.339930 -0.489946 0.000000
125.05899811 225.62500000 150.00000000 -0.223271 -0.657322 -0.719776 0.000000
219.68800354 106.87500000 141.25000000 -0.084656 0.361469 0.928533 0.000000
178.12500000 120.23400116 123.75000000 -0.324235 0.382628 0.865140 0.000000
74.21880341 215.97700500 56.25000000 0.622315 -0.598704 0.504260 0.000000
66.05470276 142.50000000 166.25000000 0.585308 0.274413 -0.762963 0.000000
126.17199707 249.37500000 113.75000000 -0.670806 -0.664309 0.329718 0.000000
79.41410065 245.29299927 95.00000000 0.486878 -0.770212 0.411974 0.000000
207.81300354 115.78099823 136.25000000 -0.121703 0.126523 0.984470 0.000000
236.75799561 145.46899414 146.25000000 -0.431146 -0.424687 0.796087 0.000000
236.75799561 129.88299561 141.25000000 -0.826721 0.043364 0.560939 0.000000
188.51600647 136.56300354 168.75000000 -0.000978 -0.000978 -0.999999 0.000000
133.59399414 158.82800293 178.75000000 -0.322442 -0.241470 -0.915272 0.000000
52.69530106 140.27400208 141.25000000 0.881838 0.366302 -0.296961 0.000000
51.21099854 152.89100647 146.25000000 0.872112 0.245517 -0.423253 0.000000
105.39099884 203.36000061 68.75000000 -0.931666 -0.203145 0.301215 0.000000
194.45300293 125.43000031 168.75000000 0.712600 -0.393329 -0.580942 0.000000
86.83599854 233.41799927 67.50000000 0.126421 -0.757036 0.641026 0.000000
56.40629959 224.88299561 143.75000000 0.537868 -0.685321 -0.490951 0.000000
86.83599854 138.78900146 176.25000000 0.263010 0.581141 -0.770130 0.000000
46.75780106 188.51600647 156.25000000 0.696056 -0.101539 -0.710772 0.000000
83.86720276 248.26199341 97.50000000 0.389239 -0.868538 0.306812 0.000000
69.02349854 231.19200134 82.50000000 0.454657 -0.759949 0.464505 0.000000
64.57039642 172.18800354 58.75000000 0.960277 -0.239742 -0.142797 0.000000
127.65599823 192.22700500 81.25000000 -0.556453 -0.559835 0.613958 0.000000
180.35200500 156.23100281 167.50000000 -0.069825 -0.899515 -0.431274 0.000000
224.88299561 114.29699707 138.75000000 -0.503765 0.009404 0.863789 0.000000
74.21880341 237.87100220 87.50000000 0.574134 -0.759648 0.305458 0.000000
96.48439789 255.31300354 111.25000000 0.051821 -0.989209 0.137038 0.000000
91.66020203 238.24200439 145.00000000 0.058796 -0.727066 -0.684045 0.000000
105.76200104 115.78099823 165.00000000 0.015335 0.690096 -0.723555 0.000000
73.84770203 239.72700500 92.50000000 0.499201 -0.783536 0.369958 0.000000
175.15600586 146.95300293 171.25000000 -0.359638 -0.056646 -0.931371 0.000000
80.89849854 143.24200439 176.25000000 0.484294 0.209710 -0.849400 0.000000
144.72700500 189.62899780 145.00000000 -0.913864 -0.001289 0.406019 0.000000
196.67999268 129.14100647 131.25000000 -0.400259 0.077338 0.913133 0.000000
90.17579651 203.36000061 37.50000000 -0.394717 -0.592901 0.701902 0.000000
45.64459991 152.14900208 127.50000000 0.892680 0.445654 -0.067191 0.000000
84.60939789 188.51600647 173.75000000 -0.155090 -0.350700 -0.923556 0.000000
139.90199280 202.61700439 157.50000000 -0.572623 -0.495377 -0.653226 0.000000
143.98399353 109.84400177 161.25000000 0.000978 0.000978 -0.999999 0.000000
80.15630341 247.52000427 125.00000000 0.357010 -0.904910 -0.231692 0.000000
205.58599854 158.08599854 161.25000000 -0.418574 -0.885613 -0.201209 0.000000
100.93800354 227.85200500 153.75000000 -0.201407 -0.601147 -0.773342 0.000000
48.98440170 161.05499268 96.25000000 0.895616 0.370345 0.246405 0.000000
88.69149780 204.10200500 37.50000000 -0.047847 -0.474372 0.879023 0.000000
83.12509918 234.53100586 146.25000000 0.146520 -0.687287 -0.711455 0.000000
57.14849854 183.32000732 163.75000000 0.518269 -0.129932 -0.845290 0.000000
111.32800293 250.11700439 133.75000000 -0.046943 -0.738287 -0.672851 0.000000
146.21099854 202.61700439 148.75000000 -0.856992 -0.376580 -0.351785 0.000000
100.93800354 167.73399353 181.25000000 -0.000978 -0.000978 -0.999999 0.000000
136.56300354 224.88299561 143.75000000 -0.585083 -0.397197 -0.707044 0.000000
218.94500732 147.69500732 141.25000000 -0.453645 -0.386320 0.803096 0.000000
211.52400208 122.46099854 161.25000000 -0.412462 0.264399 -0.871761 0.000000
161.79699707 118.00800323 166.25000000 0.135750 0.338690 -0.931054 0.000000
92.03130341 136.93400574 40.00000000 0.418714 0.891036 0.175309 0.000000
198.90600586 130.62500000 168.75000000 -0.278165 -0.589710 -0.758199 0.000000
105.39099884 113.18399811 162.50000000 0.067771 0.728175 -0.682033 0.000000
160.31300354 103.90599823 121.25000000 0.268283 0.218240 0.938294 0.000000
149.92199707 146.21099854 136.25000000 -0.000978 -0.000978 0.999999 0.000000
66.79689789 143.24200439 166.25000000 0.449835 0.427099 -0.784369 0.000000
103.90599823 169.21899414 181.25000000 -0.000978 -0.000978 -0.999999 0.000000
50.46879959 172.18800354 156.25000000 0.719285 0.216878 -0.659995 0.000000
145.09800720 190.74200439 122.50000000 -0.977964 0.061652 0.199461 0.000000
189.25799561 98.71099854 136.25000000 -0.560008 -0.001356 0.828486 0.000000
63.45709991 136.56300354 90.00000000 0.768942 0.630738 0.104388 0.000000
114.29699707 133.59399414 178.75000000 -0.000978 -0.000978 -0.999999 0.000000
159.57000732 93.88680267 147.50000000 0.234399 0.834952 -0.497907 0.000000
98.33989716 152.14900208 42.50000000 -0.831860 -0.241408 0.499731 0.000000
112.06999969 129.14100647 81.25000000 -0.394043 -0.491338 0.776735 0.000000
67.53910065 134.70700073 82.50000000 0.665691 0.697466 0.265323 0.000000
169.96099854 155.85899353 171.25000000 -0.204876 -0.589980 -0.780992 0.000000
107.61699677 109.47299957 92.50000000 0.172064 0.866204 0.469132 0.000000
57.14849854 134.33599854 146.25000000 0.865712 0.367505 -0.339827 0.000000
134.70700073 239.72700500 117.50000000 -0.286367 -0.859102 -0.424191 0.000000
124.31600189 211.52400208 160.00000000 -0.377623 -0.474037 -0.795418 0.000000
176.64100647 94.62899780 155.00000000 0.212466 0.745957 -0.631194 0.000000
124.68800354 172.18800354 78.75000000 -0.979593 0.099060 0.174884 0.000000
63.08599854 196.67999268 58.75000000 0.895384 -0.230830 0.380795 0.000000
94.25789642 159.57000732 181.25000000 0.456452 0.200720 -0.866812 0.000000
179.60899353 101.68000031 131.25000000 -0.800030 -0.164225 0.577046 0.000000
162.53900146 132.85200500 171.25000000 -0.024577 0.073731 -0.996975 0.000000
60.11719894 209.29699707 71.25000000 0.824034 -0.211720 0.525493 0.000000
191.11300659 170.70300293 137.50000000 -0.708833 -0.579955 0.401507 0.000000
107.61699677 242.69500732 88.75000000 -0.685344 -0.254828 0.682178 0.000000
50.46879959 214.49200439 96.25000000 0.823112 -0.459742 0.333352 0.000000
93.14459991 220.42999268 55.00000000 -0.796087 -0.431146 0.424687 0.000000
166.62100220 172.92999268 145.00000000 0.101928 -0.993514 0.050404 0.000000
157.34399414 120.97699738 166.25000000 -0.000978 -0.000978 -0.999999 0.000000
126.91400146 163.65199280 180.00000000 -0.344629 -0.329447 -0.879031 0.000000
138.78900146 206.32800293 156.25000000 -0.505282 -0.552285 -0.663077 0.000000
64.57039642 211.52400208 66.25000000 0.825289 -0.322256 0.463734 0.000000
83.12509918 229.70700073 65.00000000 0.476732 -0.740667 0.473433 0.000000
134.33599854 169.96099854 86.25000000 -0.432718 0.416632 0.799483 0.000000
106.13300323 192.96899414 61.25000000 -0.828616 -0.553842 0.081574 0.000000
195.93800354 89.80470276 136.25000000 -0.376293 -0.210666 0.902232 0.000000
84.98049927 141.01600647 40.00000000 0.597920 0.747799 0.288596 0.000000
94.25789642 135.07800293 46.25000000 0.299554 0.937313 0.178076 0.000000
126.91400146 154.74600220 90.00000000 -0.433792 0.880819 -0.189692 0.000000
166.25000000 139.53100586 173.75000000 -0.144028 0.367760 -0.918700 0.000000
68.65239716 186.28900146 170.00000000 0.400228 0.109405 -0.909861 0.000000
68.28130341 122.08999634 107.50000000 0.512673 0.798373 0.315857 0.000000
186.28900146 174.41400146 158.75000000 -0.305197 -0.673370 -0.673370 0.000000
227.85200500 131.36700439 156.25000000 0.028490 0.151567 -0.988036 0.000000
141.01600647 164.76600647 101.25000000 -0.480863 0.875906 -0.039504 0.000000
203.36000061 134.33599854 168.75000000 -0.000978 -0.000978 -0.999999 0.000000
146.58200073 215.97700500 135.00000000 -0.804741 -0.336238 -0.489219 0.000000
166.99200439 135.82000732 171.25000000 -0.119738 0.275003 -0.953958 0.000000
190.74200439 138.04699707 168.75000000 -0.000978 -0.000978 -0.999999 0.000000
143.24200439 186.28900146 93.75000000 -0.792409 -0.180992 0.582520 0.000000
222.28500366 123.20300293 137.50000000 -0.474302 -0.228817 0.850106 0.000000
83.12509918 246.03500366 92.50000000 0.448235 -0.791288 0.415871 0.000000
154.37500000 100.93800354 118.75000000 -0.542523 -0.222849 0.809942 0.000000
141.75799561 152.89100647 178.75000000 -0.056089 0.030690 -0.997954 0.000000
61.60160065 155.85899353 68.75000000 0.724525 0.240461 0.645943 0.000000
64.57039642 226.36700439 81.25000000 0.598970 -0.598970 0.531480 0.000000
121.71900177 208.55499268 163.75000000 -0.505898 -0.509237 -0.696236 0.000000
103.16400146 249.00399780 90.00000000 -0.472807 -0.728289 0.496033 0.000000
155.85899353 168.10600281 132.50000000 0.296129 0.451170 0.841875 0.000000
186.28900146 105.39099884 163.75000000 0.106960 0.140610 -0.984271 0.000000
76.44539642 118.37899780 102.50000000 0.482183 0.579627 0.656911 0.000000
97.22660065 144.72700500 38.75000000 -0.903494 -0.080889 0.420899 0.000000
123.94499969 202.61700439 86.25000000 -0.682729 -0.518337 0.514983 0.000000
215.97700500 122.46099854 158.75000000 -0.544348 0.108870 -0.831764 0.000000
191.48399353 105.39099884 163.75000000 -0.000978 -0.000978 -0.999999 0.000000
59.00389862 131.36700439 110.00000000 0.843873 0.453678 0.286452 0.000000
75.70320129 225.62500000 66.25000000 0.598755 -0.652425 0.464580 0.000000
100.19499969 113.18399811 87.50000000 0.046521 0.979335 0.196821 0.000000
169.21899414 125.43000031 168.75000000 -0.000978 -0.000978 -0.999999 0.000000
131.36700439 168.47700500 178.75000000 0.062580 -0.995790 -0.066972 0.000000
166.99200439 170.70300293 153.75000000 0.516705 -0.434164 -0.737914 0.000000
123.94499969 152.89100647 88.75000000 -0.387195 0.910965 -0.142206 0.000000
126.17199707 150.66400146 96.25000000 -0.706151 -0.332784 0.624984 0.000000
202.61700439 149.92199707 136.25000000 -0.188326 -0.941628 -0.279052 0.000000
108.35900116 202.61700439 168.75000000 -0.104134 -0.489288 -0.865883 0.000000
46.75780106 169.21899414 98.75000000 0.894688 0.446689 -0.001310 0.000000
69.39459991 192.96899414 47.50000000 0.795311 -0.141753 0.589395 0.000000
77.92970276 110.21499634 140.00000000 0.465506 0.878660 -0.106118 0.000000
84.60939789 136.56300354 53.75000000 0.485539 0.807109 0.335897 0.000000
209.29699707 118.75000000 161.25000000 -0.423215 0.163219 -0.891206 0.000000
145.83999634 187.77400208 152.50000000 -0.928670 -0.368062 -0.045844 0.000000
120.23400116 163.28100586 73.75000000 -0.859132 0.059875 0.508239 0.000000
100.93800354 101.30899811 132.50000000 0.270784 0.960970 -0.056676 0.000000
181.09399414 96.48439789 131.25000000 -0.515556 -0.360404 0.777374 0.000000
230.07800293 104.64900208 151.25000000 -0.509338 0.157969 -0.845944 0.000000
102.42199707 239.72700500 81.25000000 -0.503429 -0.483491 0.716098 0.000000
125.43000031 104.27700043 95.00000000 0.295091 0.863867 0.408234 0.000000
106.87500000 234.53100586 86.25000000 -0.939149 0.128743 0.318471 0.000000
83.86720276 225.99600220 60.00000000 -0.001379 -0.745961 0.665988 0.000000
78.67189789 148.06599426 40.00000000 0.779162 0.553824 0.293574 0.000000
74.21880341 111.69899750 132.50000000 0.503765 0.863789 -0.009404 0.000000
89.80470276 105.01999664 127.50000000 0.315627 0.944239 0.093764 0.000000
178.86700439 99.45320129 131.25000000 -0.656645 -0.340543 0.672939 0.000000
106.87500000 167.73399353 53.75000000 -0.710961 -0.032509 0.702480 0.000000
92.77349854 238.98500061 73.75000000 0.101683 -0.676415 0.729467 0.000000
112.81300354 233.04699707 93.75000000 -0.647675 -0.395893 0.650988 0.000000
233.78900146 157.34399414 158.75000000 -0.294575 -0.907173 -0.300437 0.000000
230.07800293 106.13300323 151.25000000 -0.596626 0.094357 -0.796953 0.000000
129.88299561 200.76199341 90.00000000 -0.466786 -0.583900 0.664208 0.000000
126.91400146 247.52000427 130.00000000 -0.454246 -0.874898 -0.167969 0.000000
79.41410065 132.10899353 171.25000000 0.560744 0.399592 -0.725185 0.000000
220.42999268 122.46099854 156.25000000 -0.454147 -0.108939 -0.884242 0.000000
150.66400146 109.10199738 118.75000000 -0.288532 -0.204899 0.935289 0.000000
133.22300720 158.08599854 95.00000000 -0.731524 0.680189 -0.047057 0.000000
88.32039642 248.63299561 131.25000000 0.472526 -0.699606 -0.535975 0.000000
99.45320129 102.05100250 127.50000000 0.393844 0.918970 0.019497 0.000000
120.97699738 215.23500061 93.75000000 -0.672983 -0.488374 0.555504 0.000000
121.71900177 126.91400146 173.75000000 -0.158322 0.613685 -0.773515 0.000000
101.30899811 143.98399353 47.50000000 -0.872490 0.056691 0.485331 0.000000
68.28130341 124.31600189 102.50000000 0.258715 0.709482 0.655517 0.000000
157.34399414 142.50000000 138.75000000 0.582724 -0.161115 0.796539 0.000000
128.39900208 198.90600586 88.75000000 -0.567959 -0.510658 0.645485 0.000000
118.00800323 213.00799561 161.25000000 -0.311215 -0.607917 -0.730467 0.000000
60.11719894 155.11700439 161.25000000 0.771125 0.070626 -0.632755 0.000000
112.81300354 128.39900208 176.25000000 0.142111 0.617807 -0.773381 0.000000
107.61699677 195.19500732 66.25000000 -0.721882 -0.335797 0.605084 0.000000
95.00009918 226.36700439 156.25000000 -0.009648 -0.613339 -0.789761 0.000000
148.43800354 159.57000732 176.25000000 -0.000978 -0.000978 -0.999999 0.000000
236.75799561 117.26599884 143.75000000 -0.582766 0.214866 0.783720 0.000000
213.00799561 129.51199341 162.50000000 -0.821485 0.060798 -0.566980 0.000000
47.87110138 155.85899353 107.50000000 0.908420 0.350287 0.228195 0.000000
155.11700439 172.92999268 153.75000000 -0.598970 -0.598970 -0.531480 0.000000
110.58599854 235.27400208 91.25000000 -0.829342 -0.308848 0.465623 0.000000
132.85200500 231.56300354 111.25000000 -0.732970 -0.233860 0.638799 0.000000
130.62500000 178.12500000 173.75000000 0.000978 0.000978 -0.999999 0.000000
154.37500000 116.52400208 166.25000000 -0.430908 0.252497 -0.866351 0.000000
143.24200439 155.85899353 131.25000000 -0.252710 -0.473257 0.843899 0.000000
95.74220276 152.14900208 38.75000000 -0.808741 -0.203332 0.551901 0.000000
138.04699707 109.84400177 108.75000000 -0.393803 0.591528 0.703572 0.000000
132.85200500 161.05499268 113.75000000 -0.821218 0.124872 0.556783 0.000000
56.03519821 232.30499268 110.00000000 0.781739 -0.591296 0.198123 0.000000
75.70320129 152.52000427 40.00000000 0.824127 0.458549 0.332487 0.000000
94.25789642 121.71900177 73.75000000 0.128732 0.794585 0.593349 0.000000
173.67199707 103.90599823 161.25000000 -0.000978 -0.000978 -0.999999 0.000000
163.28100586 157.34399414 141.25000000 -0.088162 0.167870 0.981859 0.000000
168.47700500 155.85899353 171.25000000 -0.081308 -0.540624 -0.837326 0.000000
165.50799561 172.55900574 140.00000000 -0.000985 -0.999976 0.006896 0.000000
91.28910065 107.24600220 147.50000000 0.268638 0.883955 -0.382697 0.000000
37.10940170 190.00000000 136.25000000 0.999999 0.000978 0.000978 0.000000
85.35160065 230.07800293 63.75000000 0.278419 -0.739798 0.612521 0.000000
42.67580032 215.97700500 132.50000000 0.864160 -0.432839 -0.256666 0.000000
126.17199707 101.68000031 103.75000000 0.232049 0.932414 0.277052 0.000000
159.57000732 115.78099823 116.25000000 0.000978 0.000978 0.999999 0.000000
79.78520203 250.11700439 115.00000000 0.597165 -0.768675 -0.229199 0.000000
79.78520203 236.01600647 77.50000000 0.586321 -0.732495 0.345946 0.000000
128.39900208 105.39099884 91.25000000 0.257310 0.857194 0.446106 0.000000
54.17969894 229.33599854 108.75000000 0.775879 -0.560092 0.290360 0.000000
144.72700500 128.39900208 171.25000000 -0.334977 0.448209 -0.828794 0.000000
177.38299561 155.85899353 168.75000000 -0.139043 -0.778940 -0.611490 0.000000
68.65239716 245.66400146 117.50000000 0.513276 -0.857295 -0.039906 0.000000
52.32429886 138.78900146 117.50000000 0.866487 0.404972 0.291886 0.000000
115.78099823 254.57000732 116.25000000 -0.367925 -0.923232 -0.110788 0.000000
109.10199738 106.50399780 155.00000000 0.079116 0.798355 -0.596968 0.000000
148.43800354 131.36700439 103.75000000 -0.606585 0.296090 0.737825 0.000000
96.48439789 228.59399414 66.25000000 -0.598970 -0.598970 0.531480 0.000000
80.89849854 112.81300354 151.25000000 0.382266 0.810916 -0.443045 0.000000
175.89900208 178.12500000 151.25000000 0.302902 -0.754851 0.581764 0.000000
213.00799561 130.62500000 163.75000000 -0.865026 0.178920 -0.468741 0.000000
128.39900208 105.39099884 156.25000000 -0.422581 0.422581 -0.801779 0.000000
120.97699738 214.49200439 158.75000000 -0.278015 -0.532470 -0.799490 0.000000
157.34399414 143.98399353 138.75000000 0.760752 0.107418 0.640091 0.000000
201.87500000 141.75799561 133.75000000 -0.246433 0.146278 0.958057 0.000000
178.12500000 165.87899780 162.50000000 0.273064 0.467448 -0.840790 0.000000
117.26599884 193.71099854 73.75000000 -0.533557 -0.408787 0.740413 0.000000
66.05470276 209.29699707 163.75000000 0.440154 -0.330507 -0.834883 0.000000
48.98440170 180.72300720 157.50000000 0.757157 0.162356 -0.632735 0.000000
209.29699707 146.95300293 163.75000000 -0.392010 -0.499365 -0.772634 0.000000
104.64900208 254.19900513 102.50000000 -0.106098 -0.974853 0.195969 0.000000
89.43370056 105.39099884 135.00000000 0.315627 0.944239 -0.093764 0.000000
190.74200439 163.28100586 161.25000000 -0.365118 -0.422019 -0.829813 0.000000
116.52400208 149.92199707 181.25000000 -0.000978 -0.000978 -0.999999 0.000000
104.64900208 156.60200500 51.25000000 -0.620043 0.304385 0.723116 0.000000
99.45320129 201.13299561 56.25000000 -0.746462 -0.230042 0.624399 0.000000
193.71099854 89.80470276 136.25000000 -0.376293 -0.210666 0.902232 0.000000
122.08999634 220.42999268 155.00000000 -0.185108 -0.469435 -0.863346 0.000000
76.81649780 146.21099854 47.50000000 0.755350 0.615182 0.225826 0.000000
145.46899414 95.00009918 146.25000000 0.187550 0.923651 -0.334206 0.000000
73.10549927 158.08599854 40.00000000 0.851389 0.157883 0.500210 0.000000
201.50399780 159.57000732 142.50000000 -0.691826 -0.691826 -0.206770 0.000000
59.74610138 134.33599854 152.50000000 0.799185 0.403613 -0.445421 0.000000
128.77000427 110.58599854 160.00000000 -0.097844 0.787135 -0.608971 0.000000
61.23049927 161.05499268 65.00000000 0.940078 0.066867 0.334337 0.000000
206.32800293 149.17999268 136.25000000 0.000978 0.000978 0.999999 0.000000
80.15630341 146.21099854 41.25000000 0.636066 0.649352 0.416847 0.000000
97.96880341 133.59399414 176.25000000 0.527979 0.602200 -0.598826 0.000000
74.21880341 158.82800293 38.75000000 0.870761 0.174740 0.459609 0.000000
98.71099854 206.32800293 56.25000000 -0.918118 -0.141141 0.370322 0.000000
104.64900208 250.86000061 93.75000000 -0.425751 -0.768309 0.477950 0.000000
92.03130341 241.95300293 141.25000000 0.073532 -0.780019 -0.621420 0.000000
40.07820129 174.41400146 118.75000000 0.970006 0.144415 0.195535 0.000000
169.21899414 156.60200500 171.25000000 0.055566 -0.773650 -0.631173 0.000000
108.35900116 126.17199707 173.75000000 0.031939 0.562403 -0.826246 0.000000
131.36700439 225.62500000 106.25000000 -0.525924 -0.364101 0.768658 0.000000
80.89849854 207.07000732 43.75000000 0.571092 -0.467257 0.674926 0.000000
56.77740097 161.05499268 75.00000000 0.913331 0.303476 0.271531 0.000000
172.18800354 109.84400177 163.75000000 -0.118291 0.393839 -0.911536 0.000000
59.00389862 144.72700500 87.50000000 0.598970 0.598970 0.531480 0.000000
56.03519821 157.34399414 157.50000000 0.844519 0.105025 -0.525127 0.000000
153.63299561 168.10600281 162.50000000 -0.550557 -0.777163 -0.304801 0.000000
48.61330032 222.65600586 110.00000000 0.794313 -0.546776 0.264771 0.000000
97.22660065 160.31300354 38.75000000 -0.691826 0.691826 0.206770 0.000000
118.00800323 162.91000366 70.00000000 -0.796033 -0.017997 0.604985 0.000000
240.46899414 147.32400513 150.00000000 -0.593852 -0.331716 0.733011 0.000000
143.98399353 206.32800293 148.75000000 -0.810294 -0.433116 -0.394759 0.000000
206.32800293 158.82800293 156.25000000 -0.406402 -0.892919 -0.193733 0.000000
203.36000061 85.35160065 146.25000000 0.001215 0.958392 -0.285453 0.000000
70.50789642 143.98399353 168.75000000 0.561447 0.224269 -0.796543 0.000000
66.05470276 192.96899414 168.75000000 0.475818 -0.134502 -0.869199 0.000000
98.33989716 161.05499268 40.00000000 -0.926750 0.008973 0.375571 0.000000
78.30079651 244.17999268 95.00000000 0.547520 -0.782399 0.296772 0.000000
63.08599854 224.88299561 81.25000000 0.541628 -0.541628 0.642867 0.000000
93.51570129 112.06999969 156.25000000 -0.331192 0.361717 -0.871477 0.000000
77.92970276 110.21499634 132.50000000 0.400127 0.916251 -0.019550 0.000000
147.32400513 178.86700439 152.50000000 -0.506050 -0.854951 0.113897 0.000000
164.76600647 162.16799927 162.50000000 0.004121 -0.787121 -0.616784 0.000000
140.64500427 151.40600586 105.00000000 -0.391976 -0.912764 0.114961 0.000000
180.35200500 167.73399353 163.75000000 -0.059596 0.282763 -0.957337 0.000000
211.52400208 132.10899353 166.25000000 -0.531263 0.057472 -0.845255 0.000000
115.78099823 198.16400146 171.25000000 -0.261570 -0.328789 -0.907457 0.000000
59.37500000 231.56300354 136.25000000 0.384518 -0.860147 -0.335102 0.000000
37.48049927 188.51600647 127.50000000 0.998025 0.028515 0.055974 0.000000
112.81300354 105.01999664 152.50000000 -0.100628 0.791896 -0.602308 0.000000
56.77740097 135.82000732 110.00000000 0.833482 0.423831 0.354506 0.000000
116.52400208 238.98500061 143.75000000 -0.106443 -0.581792 -0.806343 0.000000
60.85940170 162.53900146 66.25000000 0.940078 0.066867 0.334337 0.000000
229.33599854 117.26599884 141.25000000 -0.438671 -0.123509 0.890120 0.000000
109.84400177 129.88299561 176.25000000 0.061223 0.590871 -0.804439 0.000000
80.15630341 195.93800354 171.25000000 0.112348 -0.567577 -0.815619 0.000000
159.19900513 135.07800293 135.00000000 0.814634 -0.503849 0.287241 0.000000
141.38699341 222.65600586 117.50000000 -0.793706 -0.371899 0.481375 0.000000
112.81300354 251.97300720 100.00000000 -0.476675 -0.677380 0.560302 0.000000
126.17199707 224.88299561 151.25000000 -0.233789 -0.635466 -0.735885 0.000000
94.25789642 194.45300293 173.75000000 -0.065829 -0.508428 -0.858585 0.000000
71.99220276 164.76600647 38.75000000 0.856646 0.267225 0.441303 0.000000
97.22660065 178.12500000 178.75000000 -0.104888 -0.707624 -0.698761 0.000000
230.07800293 137.30499268 156.25000000 -0.322729 0.122880 -0.938481 0.000000
83.86720276 230.07800293 151.25000000 0.178916 -0.756952 -0.628500 0.000000
97.22660065 152.14900208 41.25000000 -0.847822 -0.193574 0.493687 0.000000
113.18399811 106.13300323 97.50000000 0.377168 0.855224 0.355438 0.000000
63.82820129 188.51600647 168.75000000 0.424104 -0.166457 -0.890184 0.000000
71.62110138 165.50799561 40.00000000 0.869233 0.197620 0.453190 0.000000
193.71099854 169.96099854 156.25000000 -0.702592 -0.651378 -0.286478 0.000000
112.81300354 230.82000732 91.25000000 -0.753113 -0.324145 0.572495 0.000000
68.28130341 213.37899780 162.50000000 0.352746 -0.358907 -0.864150 0.000000
76.44539642 244.55099487 100.00000000 0.484725 -0.831621 0.271012 0.000000
199.64900208 125.43000031 131.25000000 0.124006 0.336588 0.933451 0.000000
239.72700500 114.29699707 148.75000000 -0.232935 0.870124 0.434311 0.000000
129.88299561 244.55099487 112.50000000 -0.676522 -0.538868 0.501936 0.000000
73.47660065 231.93400574 145.00000000 0.335367 -0.743639 -0.578386 0.000000
71.99220276 192.22700500 43.75000000 0.851432 -0.173853 0.494811 0.000000
112.06999969 226.36700439 153.75000000 -0.175565 -0.473584 -0.863073 0.000000
