103.04900360 114.23200226 352.50000000 0.172767 0.945457 -0.276155 0.000000
219.27799988 119.02500153 381.00000000 -0.875659 -0.463075 0.137047 0.000000
146.98399353 109.83899689 321.00000000 -0.342985 0.937666 0.056077 0.000000
154.17399597 158.96699524 343.50000000 -0.790112 -0.282295 0.544089 0.000000
110.63800049 222.07400513 312.00000000 -0.576876 -0.721506 0.382940 0.000000
111.03700256 174.94299316 436.50000000 0.030543 0.255337 -0.966370 0.000000
133.40400696 244.44099426 433.50000000 0.000978 0.000978 -0.999999 0.000000
220.47700500 200.50599670 442.50000000 0.000978 0.000978 -0.999999 0.000000
168.55299377 110.63800049 372.00000000 -0.500992 -0.836002 0.223848 0.000000
78.28520203 304.35400391 406.50000000 0.360533 -0.585662 -0.725959 0.000000
162.16200256 184.52900696 445.50000000 -0.000978 -0.000978 -0.999999 0.000000
92.66410065 202.90199280 439.50000000 -0.000978 -0.000978 -0.999999 0.000000
153.77400208 194.11500549 381.00000000 -0.625129 -0.015247 0.780372 0.000000
98.25589752 268.40600586 373.50000000 -0.817009 -0.273378 0.507702 0.000000
75.88870239 136.60000610 352.50000000 0.822365 0.549725 -0.146692 0.000000
108.64099884 167.75399780 325.50000000 -0.670601 -0.355796 0.650926 0.000000
116.62899780 170.14999390 433.50000000 0.054155 0.373804 -0.925925 0.000000
235.65400696 189.32200623 442.50000000 -0.019185 -0.354281 -0.934942 0.000000
168.55299377 160.56399536 445.50000000 0.000978 0.000978 -0.999999 0.000000
135.40100098 107.04299927 324.00000000 -0.110933 0.991535 0.067475 0.000000
112.63500214 197.31100464 442.50000000 -0.000978 -0.000978 -0.999999 0.000000
59.91210175 197.31100464 418.50000000 0.658797 0.258757 -0.706421 0.000000
46.73139954 214.08599854 333.00000000 0.983099 -0.110039 0.146316 0.000000
129.80999756 194.91400146 327.00000000 -0.993276 0.111840 -0.029898 0.000000
162.16200256 188.52299500 445.50000000 -0.000978 -0.000978 -0.999999 0.000000
119.82399750 212.08900452 312.00000000 -0.870740 -0.332075 0.362681 0.000000
57.11619949 170.94900513 357.00000000 0.889752 0.423898 -0.169270 0.000000
77.48629761 184.52900696 244.50000000 -0.643953 0.085764 0.760243 0.000000
44.73440170 220.87600708 405.00000000 0.912489 0.208364 -0.352063 0.000000
101.45099640 242.84399414 349.50000000 -0.614946 0.614946 0.493642 0.000000
68.69920349 253.22900391 271.50000000 -0.420737 -0.824010 0.379457 0.000000
182.53199768 107.04299927 378.00000000 -0.124970 -0.992022 -0.016589 0.000000
134.20300293 203.30200195 351.00000000 -0.274707 0.960852 -0.036047 0.000000
248.43600464 134.20300293 442.50000000 0.805621 0.196456 0.558909 0.000000
162.96099854 136.60000610 322.50000000 -0.210104 -0.868727 0.448519 0.000000
125.81500244 196.51199341 363.00000000 -0.001380 -0.683251 -0.730182 0.000000
166.95500183 109.43900299 403.50000000 -0.999999 0.000978 0.000978 0.000000
123.01999664 119.42500305 402.00000000 0.234180 0.951611 -0.198986 0.000000
91.86519623 235.65400696 304.50000000 -0.678771 -0.700616 0.220015 0.000000
46.33200073 189.32200623 298.50000000 0.969301 0.230067 -0.086747 0.000000
171.34899902 182.13299561 384.00000000 0.190672 0.572017 0.797773 0.000000
59.91210175 252.02999878 276.00000000 0.719790 -0.647020 0.251531 0.000000
144.18800354 108.64099884 324.00000000 -0.313571 0.945960 0.082657 0.000000
56.31740189 169.35200500 255.00000000 0.845940 0.450034 0.286104 0.000000
136.60000610 233.25799561 433.50000000 -0.999999 0.000978 0.000978 0.000000
78.28520203 248.43600464 430.50000000 -0.000978 -0.000978 -0.999999 0.000000
227.66600037 194.91400146 442.50000000 -0.000978 -0.000978 -0.999999 0.000000
148.58200073 196.51199341 379.50000000 -0.474232 -0.070926 0.877538 0.000000
242.84399414 134.20300293 430.50000000 -0.587924 -0.180783 0.788456 0.000000
119.82399750 148.58200073 424.50000000 -0.000978 -0.000978 -0.999999 0.000000
119.82399750 216.88200378 318.00000000 -0.684356 -0.651845 0.326735 0.000000
144.58799744 188.52299500 445.50000000 0.000978 0.000978 -0.999999 0.000000
221.27499390 206.89599609 439.50000000 0.389637 -0.389637 -0.834486 0.000000
149.38099670 199.70700073 376.50000000 -0.337230 0.374187 0.863863 0.000000
50.72560120 266.80899048 357.00000000 0.781002 0.001373 0.624527 0.000000
234.85499573 103.84799957 418.50000000 0.542740 0.156131 0.825262 0.000000
208.09500122 146.18600464 387.00000000 -0.866627 -0.348184 0.357388 0.000000
111.83599854 129.80999756 408.00000000 0.347031 0.708726 -0.614229 0.000000
190.91999817 130.20899963 439.50000000 0.756781 0.253309 -0.602592 0.000000
171.74800110 211.68899536 376.50000000 -0.509158 -0.407654 0.758008 0.000000
99.05470276 189.32200623 271.50000000 -0.770352 0.006915 0.637581 0.000000
66.30269623 231.66000366 430.50000000 0.376927 -0.194962 -0.905492 0.000000
162.96099854 198.90800476 439.50000000 -0.001195 -0.966452 0.256844 0.000000
135.00199890 194.11500549 442.50000000 -0.000978 -0.000978 -0.999999 0.000000
63.90620041 162.16200256 385.50000000 0.819011 0.562067 -0.115333 0.000000
196.51199341 192.51800537 442.50000000 -0.000978 -0.000978 -0.999999 0.000000
197.71000671 220.47700500 399.00000000 -0.892705 -0.415245 0.175069 0.000000
129.41000366 231.26100159 357.00000000 -0.406583 -0.735800 0.541562 0.000000
55.11909866 188.52299500 244.50000000 0.718793 0.055954 0.692968 0.000000
112.63500214 186.12699890 442.50000000 -0.016949 0.405475 -0.913949 0.000000
95.06050110 116.22899628 336.00000000 0.477631 0.876349 -0.062300 0.000000
234.85499573 140.99299622 426.00000000 -0.511971 -0.366616 0.776839 0.000000
46.73139954 221.27499390 339.00000000 0.999999 0.000978 0.000978 0.000000
121.42199707 224.47099304 439.50000000 -0.000978 -0.000978 -0.999999 0.000000
121.42199707 291.97198486 417.00000000 -0.999999 -0.000978 -0.000978 0.000000
47.92969894 257.22299194 355.50000000 0.926630 -0.288949 0.240554 0.000000
135.80099487 142.99000549 427.50000000 0.432039 0.662238 -0.612195 0.000000
47.13090134 217.68099976 333.00000000 0.985226 -0.077063 0.152941 0.000000
235.65400696 131.00799561 418.50000000 -0.774232 0.181723 0.606252 0.000000
119.82399750 180.93499756 339.00000000 -0.862767 0.195203 0.466401 0.000000
50.32619858 188.92300415 381.00000000 0.925856 0.377770 0.008964 0.000000
104.64600372 143.38999939 417.00000000 0.363515 0.518615 -0.773883 0.000000
194.91400146 154.97300720 445.50000000 -0.000978 -0.000978 -0.999999 0.000000
74.29100037 135.80099487 340.50000000 0.774524 0.626303 -0.088642 0.000000
50.32619858 201.30499268 406.50000000 0.869233 0.197620 -0.453190 0.000000
81.48049927 266.80899048 427.50000000 0.328704 -0.238926 -0.913711 0.000000
103.84799957 156.57000732 424.50000000 0.278782 0.353323 -0.892997 0.000000
221.27499390 206.09800720 433.50000000 0.188651 -0.948682 0.253796 0.000000
57.11619949 158.16799927 318.00000000 0.975231 0.195544 -0.103377 0.000000
63.50680161 266.01000977 420.00000000 0.287158 -0.295904 -0.911033 0.000000
248.43600464 192.51800537 436.50000000 -0.001380 -0.683251 0.730182 0.000000
78.28520203 190.12100220 244.50000000 -0.722288 0.182489 0.667081 0.000000
120.62300110 214.88499451 442.50000000 -0.000978 -0.000978 -0.999999 0.000000
54.32030106 220.07699585 252.00000000 0.763777 -0.305831 0.568429 0.000000
118.22699738 234.05700684 352.50000000 -0.385680 -0.847872 0.363820 0.000000
134.20300293 266.80899048 424.50000000 -0.304054 0.609717 -0.731982 0.000000
100.65200043 188.52299500 274.50000000 -0.770352 0.006915 0.637581 0.000000
85.47460175 231.66000366 271.50000000 -0.939071 -0.313930 -0.139977 0.000000
52.32320023 271.60198975 360.00000000 0.868135 -0.415063 0.272147 0.000000
101.45099640 182.13299561 439.50000000 0.147142 0.368556 -0.917887 0.000000
59.11330032 177.33999634 400.50000000 0.784370 0.528771 -0.324291 0.000000
220.87600708 127.01399994 393.00000000 -0.865392 -0.217473 0.451444 0.000000
62.30860138 232.45899963 253.50000000 0.416203 -0.814866 0.403446 0.000000
137.39799500 148.98100281 312.00000000 -0.666998 -0.617098 0.417497 0.000000
119.02500153 129.80999756 414.00000000 0.517441 0.681549 -0.517441 0.000000
143.78900146 199.70700073 376.50000000 -0.018054 0.246742 0.968913 0.000000
118.62599945 224.47099304 333.00000000 -0.492361 -0.749245 0.442960 0.000000
193.31599426 166.95500183 445.50000000 -0.000978 -0.000978 -0.999999 0.000000
120.22399902 131.80700684 276.00000000 -0.528033 -0.260122 0.808404 0.000000
69.49800110 266.80899048 421.50000000 0.864905 0.107220 -0.490351 0.000000
93.46289825 117.02799988 306.00000000 0.414927 0.901588 -0.122368 0.000000
116.62899780 111.43699646 303.00000000 0.235216 0.939471 0.249134 0.000000
123.81800079 185.32800293 346.50000000 -0.864984 -0.237003 0.442304 0.000000
80.68160248 273.99798584 352.50000000 -0.846906 -0.385241 0.366525 0.000000
113.43399811 127.81199646 406.50000000 0.340132 0.720949 -0.603774 0.000000
129.41000366 106.24400330 352.50000000 0.097280 0.995252 0.003207 0.000000
45.93259811 271.60198975 384.00000000 0.819930 -0.532878 0.209181 0.000000
53.92089844 192.51800537 246.00000000 0.835891 0.149425 0.528165 0.000000
40.74020004 241.24600220 367.50000000 0.946857 -0.121529 0.297813 0.000000
103.04900360 277.19299316 385.50000000 -0.668663 -0.467561 0.578167 0.000000
80.68160248 223.67199707 436.50000000 -0.656641 0.753081 -0.041129 0.000000
62.30860138 147.38400269 318.00000000 0.662002 0.662002 -0.351433 0.000000
126.21499634 107.04299927 358.50000000 0.122207 0.983703 -0.131886 0.000000
101.45099640 120.62300110 370.50000000 0.507811 0.821505 -0.259341 0.000000
111.83599854 176.54100037 436.50000000 0.063114 0.393458 -0.917174 0.000000
150.17999268 201.30499268 442.50000000 0.031510 -0.511013 -0.858995 0.000000
127.01399994 244.84100342 375.00000000 -0.406811 -0.652558 0.639275 0.000000
131.80700684 109.83899689 381.00000000 0.277825 0.904034 -0.324864 0.000000
85.47460175 305.15200806 409.50000000 0.237011 -0.800879 -0.549926 0.000000
116.62899780 197.31100464 442.50000000 -0.000978 -0.000978 -0.999999 0.000000
43.13669968 266.80899048 382.50000000 0.866765 -0.381990 0.320626 0.000000
78.28520203 282.78500366 355.50000000 -0.881890 -0.352453 0.313124 0.000000
234.85499573 134.20300293 442.50000000 -0.781002 0.001373 -0.624527 0.000000
53.52149963 227.26699829 258.00000000 0.843390 -0.506034 0.180620 0.000000
186.12699890 186.92599487 442.50000000 -0.352897 -0.365225 -0.861438 0.000000
79.88279724 193.31599426 244.50000000 -0.727868 0.364752 0.580659 0.000000
155.77099609 173.34599304 442.50000000 -0.058195 0.426313 -0.902702 0.000000
87.07230377 186.12699890 433.50000000 0.392462 0.339720 -0.854730 0.000000
86.27339935 241.24600220 433.50000000 0.404859 -0.174334 -0.897606 0.000000
186.92599487 135.80099487 439.50000000 0.384909 0.768194 -0.511588 0.000000
194.51499939 152.57600403 372.00000000 -0.715958 -0.353902 0.601796 0.000000
75.88870239 252.42999268 430.50000000 0.395602 -0.280408 -0.874569 0.000000
111.83599854 185.32800293 442.50000000 0.155005 0.515207 -0.842932 0.000000
73.09279633 274.79699707 330.00000000 -0.549650 -0.613916 0.566562 0.000000
242.04499817 112.63500214 427.50000000 -0.726703 0.652010 -0.216299 0.000000
115.03099823 252.42999268 436.50000000 -0.000978 -0.000978 -0.999999 0.000000
194.91400146 108.64099884 337.50000000 0.043563 -0.983105 -0.177783 0.000000
166.95500183 109.04000092 396.00000000 -0.242814 -0.970072 0.001184 0.000000
131.00799561 248.43600464 382.50000000 -0.533864 -0.550706 0.641648 0.000000
114.23200226 223.67199707 439.50000000 -0.000978 -0.000978 -0.999999 0.000000
158.96699524 214.08599854 424.50000000 -0.564332 -0.722279 -0.399804 0.000000
192.51800537 177.33999634 379.50000000 -0.357521 -0.582808 0.729735 0.000000
191.31900024 149.38099670 366.00000000 -0.739204 -0.429693 0.518595 0.000000
191.71899414 119.02500153 433.50000000 -0.000978 -0.000978 -0.999999 0.000000
70.29689789 255.62500000 277.50000000 -0.223170 -0.941195 0.253665 0.000000
174.94299316 121.82099915 432.00000000 0.023809 0.645634 -0.763276 0.000000
155.77099609 221.27499390 427.50000000 -0.554365 -0.156896 -0.817352 0.000000
106.24400330 228.46499634 439.50000000 -0.000978 -0.000978 -0.999999 0.000000
155.77099609 162.96099854 346.50000000 -0.863278 -0.233522 0.447458 0.000000
55.51860046 276.39498901 357.00000000 0.865239 -0.446915 0.227219 0.000000
220.87600708 158.16799927 408.00000000 -0.812893 -0.219742 0.539368 0.000000
247.63699341 187.72500610 442.50000000 -0.102726 -0.189363 -0.976519 0.000000
136.60000610 185.32800293 361.50000000 -0.140535 -0.948945 0.282408 0.000000
51.52439880 240.44700623 291.00000000 0.925729 -0.378186 -0.001273 0.000000
150.17999268 182.13299561 361.50000000 -0.493524 -0.737810 0.460512 0.000000
79.08399963 156.17100525 408.00000000 0.696892 0.560507 -0.447408 0.000000
57.11619949 286.77899170 369.00000000 0.826712 -0.526365 0.198714 0.000000
151.77699280 167.75399780 346.50000000 -0.573235 -0.542798 0.613818 0.000000
75.08979797 155.77099609 403.50000000 0.654127 0.576775 -0.489334 0.000000
111.03700256 147.78300476 421.50000000 -0.000978 -0.000978 -0.999999 0.000000
232.05999756 117.42800140 435.00000000 0.156815 0.485100 -0.860283 0.000000
55.11909866 167.35400391 261.00000000 0.857934 0.366361 0.360178 0.000000
238.05099487 195.71299744 442.50000000 -0.000978 -0.000978 -0.999999 0.000000
177.73899841 139.79499817 441.00000000 0.266833 0.266833 -0.926067 0.000000
139.79499817 160.56399536 328.50000000 -0.658593 -0.477605 0.581506 0.000000
232.45899963 190.12100220 427.50000000 -0.615717 -0.067456 0.785075 0.000000
49.52730179 187.72500610 328.50000000 0.989414 0.099058 -0.106050 0.000000
182.13299561 129.41000366 436.50000000 0.049388 0.594062 -0.802901 0.000000
202.90199280 168.55299377 385.50000000 -0.714326 -0.061803 0.697079 0.000000
45.93259811 194.11500549 273.00000000 0.952402 0.238437 0.189942 0.000000
250.83200073 129.41000366 439.50000000 -0.628332 0.581165 0.517152 0.000000
170.14999390 174.14500427 388.50000000 0.973262 -0.065212 -0.220245 0.000000
79.08399963 299.56100464 370.50000000 -0.663658 -0.459713 0.590104 0.000000
139.79499817 253.62800598 396.00000000 -0.705719 -0.522199 0.478821 0.000000
105.44499969 294.76800537 397.50000000 -0.617693 -0.431219 0.657651 0.000000
86.27339935 140.59399414 394.50000000 0.628640 0.697218 -0.344527 0.000000
151.77699280 238.85000610 403.50000000 -0.874641 -0.292558 0.386540 0.000000
139.79499817 266.80899048 409.50000000 -0.754906 -0.529902 0.386421 0.000000
46.73139954 218.08000183 336.00000000 0.993072 -0.064397 0.098290 0.000000
134.20300293 270.80300903 406.50000000 -0.727089 -0.472028 0.498528 0.000000
243.64300537 145.38699341 445.50000000 0.000978 0.000978 -0.999999 0.000000
178.13900757 109.43900299 412.50000000 0.001195 0.966452 -0.256844 0.000000
96.25879669 147.78300476 303.00000000 0.001133 -0.984462 -0.175594 0.000000
77.88569641 270.00399780 426.00000000 0.095540 -0.422315 -0.901400 0.000000
225.27000427 137.39799500 442.50000000 0.170938 0.202255 -0.964299 0.000000
161.36300659 208.09500122 432.00000000 -0.215680 -0.752551 -0.622213 0.000000
210.09199524 197.31100464 415.50000000 -0.247148 -0.735147 0.631250 0.000000
95.06050110 119.42500305 291.00000000 0.281358 0.938322 0.200970 0.000000
243.64300537 186.92599487 442.50000000 -0.000978 -0.000978 -0.999999 0.000000
156.57000732 115.43099976 417.00000000 0.230378 0.899501 -0.371246 0.000000
149.38099670 204.50000000 439.50000000 -0.132973 -0.763477 -0.631998 0.000000
74.29100037 132.60499573 325.50000000 0.765109 0.635878 -0.101329 0.000000
166.15600586 124.61699677 430.50000000 0.001315 0.450890 -0.892578 0.000000
123.81800079 192.51800537 310.50000000 0.000978 0.000978 0.999999 0.000000
56.71680069 207.69500732 418.50000000 0.754803 0.240093 -0.610433 0.000000
190.12100220 210.49099731 384.00000000 -0.227938 -0.269889 0.935523 0.000000
46.73139954 189.32200623 303.00000000 0.969301 0.230067 -0.086747 0.000000
162.96099854 191.71899414 391.50000000 -0.766337 0.459148 0.449345 0.000000
139.39599609 146.98399353 312.00000000 -0.666998 -0.617098 0.417497 0.000000
75.88870239 258.82000732 427.50000000 0.518331 -0.077679 -0.851645 0.000000
78.28520203 222.07400513 433.50000000 0.216343 0.367347 -0.904573 0.000000
172.54699707 182.53199768 399.00000000 -0.264842 -0.950472 0.162669 0.000000
132.60499573 149.38099670 430.50000000 0.301484 0.343482 -0.889453 0.000000
72.29389954 163.75999451 408.00000000 0.700155 0.621816 -0.350894 0.000000
55.11909866 200.50599670 244.50000000 0.684771 -0.110924 0.720267 0.000000
54.71969986 200.50599670 246.00000000 0.716223 -0.046989 0.696288 0.000000
152.17700195 138.19700623 372.00000000 -0.612149 -0.271890 0.742529 0.000000
153.37500000 115.43099976 414.00000000 0.379658 0.833358 -0.401713 0.000000
190.12100220 131.80700684 337.50000000 -0.483080 -0.797644 0.361106 0.000000
61.50979996 231.66000366 253.50000000 0.416203 -0.814866 0.403446 0.000000
163.75999451 203.70100403 436.50000000 -0.246348 -0.604102 -0.757874 0.000000
142.99000549 140.59399414 310.50000000 -0.781854 -0.615253 0.100837 0.000000
187.72500610 175.74200439 445.50000000 -0.000978 -0.000978 -0.999999 0.000000
205.29899597 104.64600372 364.50000000 0.117542 -0.986642 -0.112793 0.000000
226.86700439 185.32800293 445.50000000 -0.000978 -0.000978 -0.999999 0.000000
194.91400146 150.97900391 370.50000000 -0.715958 -0.353902 0.601796 0.000000
104.64600372 174.54400635 297.00000000 -0.438223 0.891947 -0.111317 0.000000
65.90329742 291.57199097 411.00000000 0.614946 -0.614946 -0.493642 0.000000
218.08000183 123.81800079 436.50000000 0.123650 0.698695 -0.704654 0.000000
54.32030106 228.46499634 421.50000000 0.782241 0.091771 -0.616179 0.000000
93.46289825 256.42401123 358.50000000 -0.811287 -0.499375 0.304036 0.000000
246.03900146 161.36300659 445.50000000 -0.528339 -0.285461 -0.799606 0.000000
41.93849945 268.40600586 399.00000000 0.922730 -0.304715 -0.236047 0.000000
73.49220276 222.07400513 433.50000000 -0.000978 -0.000978 -0.999999 0.000000
113.43399811 215.68400574 304.50000000 -0.729036 -0.609944 0.310605 0.000000
56.31740189 261.21701050 333.00000000 0.903588 -0.333520 0.268873 0.000000
55.91799927 202.10400391 244.50000000 0.684771 -0.110924 0.720267 0.000000
98.25589752 265.21099854 430.50000000 -0.011660 -0.395143 -0.918546 0.000000
200.50599670 198.10899353 388.50000000 -0.438044 -0.264048 0.859300 0.000000
124.61699677 154.57299805 309.00000000 -0.321532 -0.612366 0.722236 0.000000
185.72799683 230.06199646 423.00000000 -0.384909 -0.768194 -0.511588 0.000000
167.75399780 182.93200684 397.50000000 -0.412575 -0.860426 0.299079 0.000000
207.69500732 198.90800476 442.50000000 0.037393 -0.535962 -0.843413 0.000000
103.04900360 268.40600586 430.50000000 -0.000978 -0.000978 -0.999999 0.000000
59.51269913 262.81399536 324.00000000 0.814824 -0.419371 0.400237 0.000000
50.72560120 258.82000732 348.00000000 0.915931 -0.273477 0.293735 0.000000
115.83000183 285.98001099 400.50000000 -0.606223 -0.555563 0.569072 0.000000
182.93200684 151.77699280 358.50000000 -0.626542 -0.485444 0.609745 0.000000
135.80099487 115.83000183 403.50000000 0.251683 0.919004 -0.303458 0.000000
52.32320023 242.04499817 315.00000000 0.960852 -0.274707 -0.036047 0.000000
44.33499908 218.87899780 402.00000000 0.910151 0.230804 -0.344028 0.000000
79.88279724 202.90199280 244.50000000 -0.432452 -0.744869 0.508090 0.000000
90.26760101 285.18200684 421.50000000 0.139349 -0.645798 -0.750684 0.000000
184.13000488 111.03700256 420.00000000 0.221282 0.898318 -0.379550 0.000000
90.26760101 212.88800049 264.00000000 -0.894121 -0.287130 0.343664 0.000000
198.90800476 217.28100586 397.50000000 -0.898582 -0.384272 0.211861 0.000000
164.55900574 198.90800476 439.50000000 0.086532 -0.905156 0.416179 0.000000
95.85939789 180.53500366 436.50000000 0.238699 0.469796 -0.849891 0.000000
161.36300659 156.57000732 442.50000000 0.055206 0.413375 -0.908886 0.000000
80.68160248 273.19900513 424.50000000 0.334360 -0.412118 -0.847563 0.000000
138.99600220 255.22599792 396.00000000 -0.757393 -0.455093 0.468237 0.000000
136.60000610 123.81800079 418.50000000 0.514693 0.514693 -0.685698 0.000000
80.28220367 203.70100403 246.00000000 -0.633454 -0.636797 0.439574 0.000000
107.84200287 174.14500427 436.50000000 0.065566 0.296974 -0.952632 0.000000
190.12100220 152.57600403 367.50000000 -0.698712 -0.419891 0.579217 0.000000
93.46289825 148.18299866 297.00000000 -0.835035 -0.366409 0.410441 0.000000
231.66000366 137.39799500 415.50000000 -0.720733 -0.541793 0.432440 0.000000
167.75399780 215.68400574 379.50000000 -0.152120 -0.902766 0.402335 0.000000
111.03700256 159.76600647 328.50000000 -0.521428 -0.568677 0.636176 0.000000
87.07230377 294.76800537 379.50000000 -0.697866 -0.254777 0.669382 0.000000
114.63200378 218.87899780 312.00000000 -0.606254 -0.734902 0.303931 0.000000
64.70510101 266.40899658 312.00000000 0.774919 -0.587816 0.232320 0.000000
94.26170349 253.62800598 354.00000000 -0.814634 -0.503849 0.287241 0.000000
60.71089935 267.60699463 328.50000000 0.792592 -0.528924 0.303377 0.000000
54.71969986 166.95500183 327.00000000 0.949175 0.314746 -0.001234 0.000000
171.74800110 153.37500000 442.50000000 0.537833 0.257224 -0.802852 0.000000
103.84799957 220.47700500 439.50000000 -0.000978 -0.000978 -0.999999 0.000000
223.27200317 145.38699341 408.00000000 -0.783953 -0.157994 0.600379 0.000000
111.83599854 227.26699829 327.00000000 -0.644145 -0.717307 0.265610 0.000000
216.48199463 107.04299927 421.50000000 0.123332 0.851714 -0.509287 0.000000
250.83200073 153.77400208 444.00000000 -0.427258 0.333355 -0.840431 0.000000
57.91500092 172.54699707 387.00000000 0.708486 0.705724 0.001381 0.000000
50.72560120 182.13299561 333.00000000 0.962170 0.240218 -0.128549 0.000000
46.73139954 202.90199280 327.00000000 0.883337 0.001320 -0.468736 0.000000
165.35699463 145.38699341 439.50000000 -0.360030 0.360030 -0.860672 0.000000
217.28100586 126.21499634 439.50000000 0.452159 0.452159 -0.768833 0.000000
73.89160156 277.19299316 336.00000000 -0.785547 -0.536976 0.307526 0.000000
72.69339752 291.97198486 414.00000000 0.289419 -0.602822 -0.743534 0.000000
98.25589752 141.39300537 409.50000000 0.640356 0.640356 -0.424132 0.000000
250.83200073 157.36900330 436.50000000 -0.378831 -0.188695 0.906025 0.000000
174.14500427 108.24099731 348.00000000 -0.242925 -0.967962 0.063534 0.000000
102.25000000 281.98599243 388.50000000 -0.662002 -0.662002 0.351433 0.000000
158.96699524 112.23500061 372.00000000 -0.001289 -0.913864 -0.406019 0.000000
154.97300720 186.12699890 445.50000000 -0.000978 -0.000978 -0.999999 0.000000
191.71899414 230.86099243 400.50000000 -0.566176 -0.782610 0.258779 0.000000
118.22699738 196.51199341 442.50000000 -0.000978 -0.000978 -0.999999 0.000000
68.69920349 197.31100464 427.50000000 0.721918 0.107771 -0.683534 0.000000
224.47099304 187.72500610 421.50000000 -0.547575 -0.121197 0.827933 0.000000
142.19099426 172.54699707 343.50000000 -0.113458 -0.785365 0.608547 0.000000
45.13380051 218.87899780 288.00000000 0.966452 -0.001195 0.256844 0.000000
112.63500214 270.80300903 430.50000000 0.158729 -0.633405 -0.757365 0.000000
45.53319931 205.69799805 393.00000000 0.898241 0.264885 -0.350713 0.000000
88.66989899 150.97900391 412.50000000 0.746388 -0.041073 -0.664243 0.000000
187.72500610 110.63800049 420.00000000 0.076419 0.926407 -0.368686 0.000000
128.61099243 175.74200439 439.50000000 -0.427921 0.427921 -0.796095 0.000000
111.03700256 111.43699646 309.00000000 0.140719 0.972353 0.186357 0.000000
66.30269623 254.02699280 424.50000000 0.508561 -0.276970 -0.815263 0.000000
192.51800537 128.61099243 334.50000000 -0.568377 -0.728898 0.381648 0.000000
127.81199646 171.34899902 345.00000000 -0.300166 -0.601937 0.739981 0.000000
237.25199890 142.19099426 427.50000000 -0.507146 0.847215 -0.158206 0.000000
226.86700439 125.01699829 405.00000000 -0.829664 -0.332181 0.448680 0.000000
55.51860046 208.49400330 246.00000000 0.589348 -0.242305 0.770686 0.000000
69.49800110 139.39599609 330.00000000 0.764524 0.602588 -0.228890 0.000000
203.70100403 120.62300110 337.50000000 -0.420566 -0.842695 0.336140 0.000000
171.74800110 182.93200684 403.50000000 0.098331 -0.964150 0.246465 0.000000
67.10160065 222.07400513 430.50000000 0.551350 0.078357 -0.830586 0.000000
186.92599487 180.53500366 445.50000000 -0.000978 -0.000978 -0.999999 0.000000
140.59399414 154.97300720 322.50000000 -0.614946 -0.614946 0.493642 0.000000
121.42199707 119.82399750 400.50000000 0.396761 0.896709 -0.196200 0.000000
196.51199341 135.00199890 442.50000000 0.000978 0.000978 -0.999999 0.000000
43.13669968 234.05700684 355.50000000 0.948288 -0.160521 0.273830 0.000000
223.67199707 202.90199280 442.50000000 0.334627 -0.438314 -0.834210 0.000000
88.66989899 200.50599670 439.50000000 0.000978 0.000978 -0.999999 0.000000
206.09800720 135.40100098 375.00000000 -0.817009 -0.273378 0.507702 0.000000
154.97300720 201.70399475 441.00000000 -0.307509 0.154438 -0.938929 0.000000
127.81199646 222.07400513 439.50000000 -0.000978 -0.000978 -0.999999 0.000000
92.66410065 206.09800720 439.50000000 -0.000978 -0.000978 -0.999999 0.000000
84.67579651 187.72500610 433.50000000 0.000978 0.000978 -0.999999 0.000000
194.11500549 119.82399750 433.50000000 0.034867 0.573207 -0.818668 0.000000
154.97300720 214.88499451 427.50000000 -0.001195 -0.966452 0.256844 0.000000
174.94299316 156.57000732 445.50000000 0.402446 0.174537 -0.898651 0.000000
170.94900513 192.51800537 397.50000000 0.694716 -0.694716 -0.186387 0.000000
191.71899414 129.80999756 336.00000000 -0.562099 -0.744577 0.360069 0.000000
103.04900360 112.23500061 333.00000000 0.372047 0.928213 0.001270 0.000000
45.93259811 188.52299500 288.00000000 0.991348 0.125187 -0.039473 0.000000
122.22100067 170.14999390 343.50000000 -0.259673 -0.001197 0.965696 0.000000
103.04900360 112.23500061 318.00000000 0.191944 0.959718 0.205181 0.000000
92.26460266 250.03300476 342.00000000 -0.001320 -0.883337 -0.468736 0.000000
119.02500153 112.23500061 375.00000000 0.478043 0.859886 -0.179081 0.000000
127.01399994 111.83599854 382.50000000 0.269322 0.902155 -0.337020 0.000000
248.43600464 183.72999573 442.50000000 -0.083504 -0.097231 -0.991753 0.000000
49.52730179 275.59600830 406.50000000 0.142599 -0.989064 -0.037646 0.000000
136.99899292 159.76600647 324.00000000 -0.526239 -0.699981 0.482803 0.000000
85.47460175 274.79699707 427.50000000 0.396014 0.415099 -0.819064 0.000000
187.72500610 110.23799896 418.50000000 0.095723 0.950678 -0.295038 0.000000
148.58200073 253.22900391 421.50000000 -0.767244 -0.599166 -0.228772 0.000000
74.69039917 150.97900391 393.00000000 0.630256 0.704786 -0.325660 0.000000
91.06639862 261.21701050 358.50000000 -0.693260 -0.499481 0.519527 0.000000
99.05470276 245.24000549 436.50000000 -0.000978 -0.000978 -0.999999 0.000000
123.81800079 230.06199646 349.50000000 -0.420338 -0.780627 0.462534 0.000000
238.05099487 202.10400391 436.50000000 -0.504806 -0.329637 0.797816 0.000000
172.54699707 199.70700073 382.50000000 -0.087543 0.446052 0.890715 0.000000
49.92679977 236.45300293 285.00000000 0.941197 -0.333638 0.053226 0.000000
196.51199341 159.76600647 445.50000000 -0.000978 -0.000978 -0.999999 0.000000
108.24099731 226.86700439 318.00000000 -0.694716 -0.694716 0.186387 0.000000
128.61099243 145.78599548 297.00000000 -0.424179 -0.593851 0.683677 0.000000
216.48199463 128.61099243 388.50000000 -0.512807 -0.255629 0.819562 0.000000
142.19099426 222.87300110 436.50000000 -0.169357 -0.043215 -0.984607 0.000000
59.91210175 211.68899536 244.50000000 0.589851 -0.231894 0.773499 0.000000
95.85939789 118.22699738 295.50000000 0.274244 0.941251 0.197070 0.000000
60.71089935 238.85000610 259.50000000 0.404190 -0.442838 0.800328 0.000000
71.89450073 256.42401123 283.50000000 -0.894688 -0.446689 0.001310 0.000000
57.11619949 289.17599487 387.00000000 0.883536 -0.441045 0.157619 0.000000
137.79800415 253.22900391 393.00000000 -0.677797 -0.463580 0.570688 0.000000
241.24600220 162.16200256 448.50000000 -0.664317 -0.038244 -0.746472 0.000000
134.20300293 150.97900391 430.50000000 0.245686 0.471535 -0.846932 0.000000
184.13000488 107.04299927 354.00000000 -0.158013 -0.983059 -0.092878 0.000000
152.57600403 176.94000244 444.00000000 0.324854 0.447263 -0.833322 0.000000
77.48629761 219.67799377 433.50000000 -0.000978 -0.000978 -0.999999 0.000000
139.79499817 266.01000977 421.50000000 -0.633405 -0.158729 -0.757365 0.000000
141.39300537 215.68400574 439.50000000 -0.484885 -0.017461 -0.874404 0.000000
68.69920349 137.79800415 312.00000000 0.913554 0.343841 -0.217239 0.000000
74.29100037 212.48800659 244.50000000 -0.394422 -0.744655 0.538443 0.000000
70.69629669 267.60699463 423.00000000 0.864905 0.107220 -0.490351 0.000000
145.78599548 258.02099609 420.00000000 -0.684192 -0.466723 -0.560402 0.000000
196.51199341 123.81800079 436.50000000 0.092361 0.507273 -0.856822 0.000000
76.68750000 204.50000000 433.50000000 0.244165 0.058252 -0.967983 0.000000
226.06799316 166.15600586 448.50000000 -0.000978 -0.000978 -0.999999 0.000000
148.58200073 225.27000427 379.50000000 -0.640762 -0.482673 0.597035 0.000000
221.27499390 149.38099670 406.50000000 -0.783953 -0.157994 0.600379 0.000000
153.37500000 147.78300476 376.50000000 -0.801998 -0.055359 0.594756 0.000000
144.58799744 153.37500000 325.50000000 -0.443543 -0.888502 0.117617 0.000000
67.50099945 153.37500000 372.00000000 0.807132 0.402764 -0.431647 0.000000
52.72269821 265.21099854 415.50000000 0.432204 -0.406497 -0.804960 0.000000
209.29299927 198.10899353 442.50000000 -0.078234 -0.275742 -0.958043 0.000000
126.21499634 277.19299316 403.50000000 -0.619365 -0.511355 0.595738 0.000000
83.07810211 266.01000977 427.50000000 0.408938 -0.244164 -0.879291 0.000000
113.43399811 166.15600586 433.50000000 0.377718 0.147437 -0.914107 0.000000
98.25589752 230.86099243 439.50000000 0.482871 -0.427218 -0.764409 0.000000
48.72850037 215.68400574 259.50000000 0.874641 -0.292558 0.386540 0.000000
153.37500000 162.16200256 343.50000000 -0.790112 -0.282295 0.544089 0.000000
141.39300537 216.08299255 351.00000000 -0.847981 -0.418545 0.325189 0.000000
93.46289825 262.01599121 361.50000000 -0.654459 -0.405930 0.637890 0.000000
80.68160248 262.01599121 328.50000000 -0.873458 -0.466325 0.140042 0.000000
111.03700256 293.56900024 402.00000000 -0.625337 -0.457686 0.632043 0.000000
161.36300659 110.23799896 376.50000000 0.092411 -0.954049 -0.285043 0.000000
51.12500000 231.66000366 418.50000000 0.840382 0.213502 -0.498172 0.000000
156.17100525 217.28100586 375.00000000 -0.331862 -0.730096 0.597351 0.000000
190.52099609 127.81199646 438.00000000 0.091690 0.624368 -0.775730 0.000000
242.04499817 149.38099670 433.50000000 -0.605075 0.116304 0.787628 0.000000
169.35200500 168.55299377 388.50000000 0.999999 0.000978 0.000978 0.000000
129.41000366 281.98599243 421.50000000 -0.694716 -0.694716 -0.186387 0.000000
109.43900299 117.42800140 286.50000000 0.000978 0.000978 0.999999 0.000000
159.76600647 109.04000092 384.00000000 0.049782 -0.987531 -0.149345 0.000000
79.08399963 281.98599243 355.50000000 -0.881890 -0.352453 0.313124 0.000000
47.13090134 211.28999329 405.00000000 0.853258 0.287494 -0.435085 0.000000
37.94430161 238.85000610 384.00000000 0.994578 0.103037 0.014100 0.000000
128.61099243 184.52900696 442.50000000 0.055053 0.303431 -0.951262 0.000000
101.05200195 156.57000732 318.00000000 -0.637865 -0.308436 0.705688 0.000000
118.62599945 107.84200287 336.00000000 0.315742 0.947226 -0.055416 0.000000
206.89599609 201.30499268 421.50000000 0.132020 -0.799535 0.585930 0.000000
74.29100037 146.58500671 378.00000000 0.723596 0.648254 -0.237013 0.000000
119.82399750 107.44200134 336.00000000 0.315742 0.947226 -0.055416 0.000000
69.49800110 249.23399353 427.50000000 0.569435 -0.228084 -0.789761 0.000000
87.87110138 272.39999390 427.50000000 -0.470451 -0.473753 -0.744469 0.000000
235.65400696 162.16200256 448.50000000 0.000978 0.000978 -0.999999 0.000000
97.45700073 181.33399963 271.50000000 -0.884140 0.223627 0.410229 0.000000
115.03099823 109.83899689 354.00000000 0.240218 0.962170 0.128549 0.000000
106.24400330 245.24000549 436.50000000 0.000978 0.000978 -0.999999 0.000000
59.91210175 215.68400574 244.50000000 0.600218 -0.001367 0.799835 0.000000
230.06199646 161.36300659 448.50000000 -0.000978 -0.000978 -0.999999 0.000000
182.13299561 231.66000366 406.50000000 0.842018 -0.260148 0.472577 0.000000
113.83300018 227.66600037 333.00000000 -0.326347 -0.770050 0.548198 0.000000
112.23500061 298.76199341 414.00000000 -0.230889 -0.695809 -0.680103 0.000000
176.14199829 223.67199707 420.00000000 0.966452 0.001195 0.256844 0.000000
100.25299835 182.93200684 438.00000000 0.346805 0.101208 -0.932461 0.000000
80.28220367 177.33999634 426.00000000 0.376154 0.105323 -0.920552 0.000000
145.38699341 196.51199341 376.50000000 -0.153567 0.042722 0.987214 0.000000
98.25589752 202.90199280 271.50000000 -0.848828 -0.001345 0.528668 0.000000
74.29100037 244.04200745 264.00000000 -0.641678 -0.631678 0.435008 0.000000
105.84500122 200.50599670 282.00000000 -0.789767 -0.217920 0.573393 0.000000
112.63500214 218.08000183 442.50000000 0.313723 -0.596877 -0.738455 0.000000
117.42800140 182.93200684 439.50000000 -0.019925 0.442336 -0.896628 0.000000
54.71969986 261.21701050 339.00000000 0.902349 -0.368811 0.223036 0.000000
94.26170349 154.17399597 307.50000000 -0.966452 -0.001195 0.256844 0.000000
128.61099243 110.23799896 379.50000000 0.269322 0.902155 -0.337020 0.000000
175.74200439 149.77999878 444.00000000 0.444782 0.135866 -0.885274 0.000000
69.49800110 265.60998535 297.00000000 0.693230 -0.696305 -0.185989 0.000000
59.91210175 274.79699707 343.50000000 0.515637 -0.774263 0.366926 0.000000
50.32619858 280.38900757 391.50000000 0.662002 -0.662002 0.351433 0.000000
191.71899414 220.87600708 390.00000000 -0.209710 -0.484294 0.849400 0.000000
94.26170349 136.99899292 285.00000000 -0.272584 -0.903212 0.331521 0.000000
73.49220276 250.83200073 274.50000000 -0.738223 -0.667777 0.095397 0.000000
141.39300537 174.54400635 345.00000000 -0.206108 -0.658616 0.723702 0.000000
158.16799927 177.33999634 367.50000000 -0.482496 -0.865015 -0.137649 0.000000
154.17399597 213.28700256 370.50000000 -0.609717 -0.304054 0.731982 0.000000
52.72269821 177.73899841 255.00000000 0.939427 0.251906 0.232421 0.000000
126.21499634 202.10400391 346.50000000 -0.267672 0.745998 -0.609786 0.000000
99.05470276 247.63699341 352.50000000 -0.710724 -0.592543 0.379162 0.000000
167.75399780 170.14999390 445.50000000 -0.000978 -0.000978 -0.999999 0.000000
111.83599854 203.70100403 442.50000000 -0.000978 -0.000978 -0.999999 0.000000
125.41600037 183.72999573 349.50000000 -0.864984 -0.237003 0.442304 0.000000
155.37199402 117.42800140 420.00000000 0.694716 0.694716 -0.186387 0.000000
225.27000427 201.30499268 427.50000000 -0.436744 -0.868986 0.232630 0.000000
79.88279724 168.55299377 421.50000000 0.756764 0.431733 -0.490830 0.000000
196.51199341 160.56399536 376.50000000 -0.730041 -0.203048 0.652542 0.000000
133.40400696 239.64799500 433.50000000 -0.781002 -0.001373 -0.624527 0.000000
83.47750092 235.65400696 276.00000000 -0.815712 -0.510015 0.272944 0.000000
150.97900391 160.56399536 439.50000000 0.653509 -0.276423 -0.704639 0.000000
75.88870239 286.77899170 418.50000000 0.167870 -0.088162 -0.981859 0.000000
190.91999817 200.50599670 382.50000000 -0.408766 -0.060708 0.910618 0.000000
205.29899597 192.51800537 442.50000000 0.000978 0.000978 -0.999999 0.000000
154.97300720 178.93800354 361.50000000 -0.612734 -0.763988 0.202187 0.000000
220.47700500 206.09800720 439.50000000 0.389637 -0.389637 -0.834486 0.000000
196.51199341 194.11500549 385.50000000 0.000978 0.000978 0.999999 0.000000
55.11909866 278.79098511 412.50000000 0.603396 -0.321919 -0.729576 0.000000
202.90199280 144.58799744 442.50000000 0.919957 0.305695 -0.245417 0.000000
194.91400146 162.96099854 376.50000000 -0.695829 -0.265912 0.667168 0.000000
204.50000000 189.32200623 394.50000000 -0.609674 0.439299 0.659784 0.000000
109.43900299 195.71299744 442.50000000 -0.000978 -0.000978 -0.999999 0.000000
119.82399750 117.82700348 390.00000000 0.338781 0.876577 -0.341819 0.000000
98.25589752 281.58700562 384.00000000 -0.427921 -0.427921 0.796095 0.000000
133.40400696 203.70100403 337.50000000 -0.254097 0.833129 0.491254 0.000000
179.73599243 157.36900330 358.50000000 -0.727357 -0.569736 0.382560 0.000000
45.53319931 257.22299194 409.50000000 -0.001367 0.600218 -0.799835 0.000000
91.46579742 158.16799927 300.00000000 -0.962089 -0.144901 0.231058 0.000000
50.72560120 186.12699890 342.00000000 0.993777 0.103495 -0.041176 0.000000
106.64399719 290.77301025 396.00000000 -0.594852 -0.431559 0.678165 0.000000
140.59399414 259.61898804 403.50000000 -0.727089 -0.498528 0.472028 0.000000
139.79499817 214.08599854 439.50000000 -0.443932 0.050231 -0.894652 0.000000
162.96099854 199.70700073 385.50000000 0.405898 0.912266 0.054924 0.000000
157.76899719 221.27499390 396.00000000 -0.768209 -0.639942 0.018125 0.000000
131.80700684 152.57600403 310.50000000 -0.589507 -0.685820 0.426770 0.000000
146.18600464 196.51199341 445.50000000 0.028325 -0.272170 -0.961832 0.000000
126.21499634 281.18798828 406.50000000 -0.768194 -0.384909 0.511588 0.000000
73.49220276 146.18600464 256.50000000 0.332075 0.362681 0.870740 0.000000
70.29689789 271.20199585 315.00000000 0.386977 -0.853214 0.349678 0.000000
47.53030014 239.64799500 345.00000000 0.953870 -0.158756 0.254810 0.000000
193.71600342 164.55900574 375.00000000 -0.665283 -0.223848 0.712244 0.000000
206.89599609 121.02200317 435.00000000 0.020971 0.669667 -0.742366 0.000000
209.69200134 166.95500183 393.00000000 -0.839925 -0.123732 0.528410 0.000000
210.09199524 103.04900360 403.50000000 -0.384909 -0.768194 0.511588 0.000000
71.49510193 151.77699280 384.00000000 0.822565 0.544893 -0.162722 0.000000
127.01399994 233.25799561 436.50000000 -0.000978 -0.000978 -0.999999 0.000000
230.46200562 198.10899353 429.00000000 -0.462962 -0.235276 0.854583 0.000000
79.08399963 246.83799744 430.50000000 -0.000978 -0.000978 -0.999999 0.000000
204.89900208 141.39300537 378.00000000 -0.753319 -0.441488 0.487442 0.000000
37.14550018 249.23399353 390.00000000 0.989792 -0.058629 -0.129903 0.000000
190.12100220 186.12699890 442.50000000 -0.132987 -0.132987 -0.982155 0.000000
67.10160065 218.87899780 244.50000000 0.000978 0.000978 0.999999 0.000000
238.85000610 202.10400391 436.50000000 -0.504806 -0.329637 0.797816 0.000000
107.44200134 178.93800354 315.00000000 -0.477938 0.855493 -0.199266 0.000000
51.52439880 239.64799500 312.00000000 0.960852 -0.274707 -0.036047 0.000000
222.87300110 158.16799927 409.50000000 -0.843207 -0.120458 0.523920 0.000000
42.33789825 252.82899475 369.00000000 0.947926 -0.135418 0.288266 0.000000
201.30499268 118.22699738 433.50000000 0.049920 0.688902 -0.723133 0.000000
79.08399963 260.01901245 429.00000000 0.578988 -0.327394 -0.746717 0.000000
71.09570313 277.99200439 331.50000000 -0.619454 -0.646169 0.445806 0.000000
70.29689789 288.37701416 349.50000000 0.020925 -0.777010 0.629141 0.000000
117.42800140 271.60198975 430.50000000 -0.061825 -0.662825 -0.746217 0.000000
62.70800018 298.76199341 390.00000000 0.794699 -0.604199 -0.058287 0.000000
160.56399536 217.68099976 378.00000000 -0.144232 -0.980037 0.136835 0.000000
156.97000122 161.36300659 378.00000000 -0.469413 0.831220 0.297867 0.000000
170.14999390 217.28100586 406.50000000 0.431044 -0.886761 -0.166903 0.000000
46.73139954 197.31100464 261.00000000 0.956205 0.169370 0.238718 0.000000
91.06639862 206.89599609 259.50000000 -0.800910 -0.064244 0.595329 0.000000
75.08979797 294.76800537 412.50000000 0.296327 -0.613477 -0.732008 0.000000
41.93849945 234.85499573 360.00000000 0.966452 0.001195 0.256844 0.000000
145.38699341 126.21499634 298.50000000 -0.895954 -0.143865 0.420201 0.000000
212.48800659 168.55299377 448.50000000 0.485019 0.243274 -0.839985 0.000000
67.90039825 219.67799377 244.50000000 0.000978 0.000978 0.999999 0.000000
116.62899780 226.06799316 439.50000000 -0.000978 -0.000978 -0.999999 0.000000
214.88499451 115.03099823 355.50000000 -0.707712 -0.650200 0.276375 0.000000
99.85350037 147.78300476 310.50000000 -0.671291 -0.580892 0.460361 0.000000
89.46880341 142.99000549 403.50000000 0.614946 0.614946 -0.493642 0.000000
158.96699524 179.73599243 391.50000000 -0.829637 0.553566 0.072575 0.000000
95.85939789 135.80099487 277.50000000 0.230898 -0.951949 0.201192 0.000000
55.11909866 176.94000244 363.00000000 0.928213 -0.001270 -0.372047 0.000000
62.30860138 230.86099243 250.50000000 0.563093 -0.469522 0.680055 0.000000
111.43699646 204.50000000 291.00000000 -0.872381 -0.190418 0.450214 0.000000
110.23799896 119.02500153 280.50000000 -0.001373 0.781002 0.624527 0.000000
197.71000671 162.16200256 378.00000000 -0.748302 -0.320241 0.580939 0.000000
170.94900513 135.40100098 324.00000000 -0.625063 0.467540 0.625063 0.000000
116.22899628 178.13900757 333.00000000 -0.596423 0.119285 0.793758 0.000000
140.59399414 227.66600037 364.50000000 -0.614946 0.614946 0.493642 0.000000
186.92599487 109.04000092 333.00000000 0.001195 -0.966452 -0.256844 0.000000
75.08979797 134.60299683 339.00000000 0.774524 0.626303 -0.088642 0.000000
136.19999695 171.74800110 441.00000000 0.225145 0.421960 -0.878214 0.000000
78.68460083 213.28700256 435.00000000 0.241894 -0.152010 -0.958322 0.000000
111.83599854 253.22900391 373.50000000 -0.442235 -0.625804 0.642493 0.000000
198.10899353 210.09199524 388.50000000 -0.726277 -0.265401 0.634102 0.000000
125.01699829 182.93200684 348.00000000 -0.860884 -0.205115 0.465626 0.000000
85.87400055 272.39999390 360.00000000 -0.745022 -0.416094 0.521351 0.000000
70.29689789 220.47700500 244.50000000 0.000978 0.000978 0.999999 0.000000
56.71680069 263.61300659 334.50000000 0.903846 -0.353042 0.241709 0.000000
129.41000366 168.55299377 334.50000000 -0.001195 -0.966452 0.256844 0.000000
121.42199707 190.12100220 442.50000000 -0.000978 -0.000978 -0.999999 0.000000
102.25000000 113.03399658 342.00000000 0.395264 0.915987 -0.068800 0.000000
123.01999664 224.47099304 439.50000000 -0.000978 -0.000978 -0.999999 0.000000
144.58799744 252.42999268 400.50000000 -0.831749 -0.264859 0.487897 0.000000
222.47399902 196.51199341 423.00000000 -0.460335 0.224885 0.858789 0.000000
51.12500000 173.74499512 270.00000000 0.936608 0.338034 0.092191 0.000000
146.98399353 178.13900757 445.50000000 0.159798 0.424688 -0.891125 0.000000
222.07400513 128.61099243 394.50000000 -0.915904 -0.144469 0.374497 0.000000
220.47700500 147.38400269 405.00000000 -0.783953 -0.157994 0.600379 0.000000
148.98100281 206.89599609 369.00000000 -0.694716 0.694716 0.186387 0.000000
72.69339752 309.14599609 376.50000000 -0.683251 0.001380 0.730182 0.000000
120.62300110 126.61399841 411.00000000 0.516863 0.719620 -0.463681 0.000000
135.80099487 154.17399597 316.50000000 -0.545805 -0.626916 0.555944 0.000000
79.08399963 135.80099487 361.50000000 0.720100 0.644133 -0.257970 0.000000
50.32619858 240.44700623 331.50000000 0.973367 -0.108987 0.201689 0.000000
107.04299927 293.96899414 418.50000000 -0.179226 -0.644909 -0.742947 0.000000
210.09199524 178.13900757 394.50000000 -0.721084 0.562676 0.404269 0.000000
146.98399353 115.03099823 409.50000000 0.255488 0.885992 -0.386968 0.000000
218.87899780 164.55900574 406.50000000 -0.781002 0.001373 0.624527 0.000000
43.13669968 210.49099731 384.00000000 0.959478 0.281332 0.015971 0.000000
192.51800537 183.72999573 442.50000000 -0.011447 -0.354861 -0.934849 0.000000
50.32619858 235.65400696 310.50000000 0.943274 -0.297233 -0.147938 0.000000
199.30799866 206.09800720 423.00000000 -0.605980 -0.710516 0.357708 0.000000
63.10739899 222.07400513 244.50000000 -0.484131 -0.841502 0.239775 0.000000
182.13299561 180.53500366 445.50000000 -0.000978 -0.000978 -0.999999 0.000000
92.66410065 251.63099670 433.50000000 0.085394 -0.164774 -0.982628 0.000000
119.82399750 162.56199646 327.00000000 0.573920 -0.767876 0.284575 0.000000
141.79200745 170.14999390 339.00000000 -0.619479 -0.669303 0.410218 0.000000
76.28810120 187.72500610 429.00000000 0.606074 0.318391 -0.728905 0.000000
110.23799896 124.21800232 396.00000000 0.493524 0.737810 -0.460512 0.000000
81.87989807 250.83200073 303.00000000 -0.910458 -0.302512 0.282052 0.000000
58.31449890 202.90199280 418.50000000 0.717169 0.296815 -0.630531 0.000000
71.89450073 286.77899170 346.50000000 -0.241125 -0.798045 0.552253 0.000000
111.83599854 240.44700623 358.50000000 -0.483297 -0.805494 0.342933 0.000000
98.25589752 192.51800537 271.50000000 -0.872988 -0.238907 0.425225 0.000000
86.27339935 247.23699951 312.00000000 -0.888502 -0.443543 -0.117617 0.000000
87.87110138 292.37100220 379.50000000 -0.689254 -0.379994 0.616874 0.000000
62.30860138 222.47399902 246.00000000 0.883337 0.001320 0.468736 0.000000
180.53500366 197.31100464 442.50000000 -0.966452 0.001195 -0.256844 0.000000
127.01399994 169.35200500 436.50000000 0.001320 0.883337 -0.468736 0.000000
158.96699524 216.88200378 417.00000000 -0.664001 -0.744661 -0.067696 0.000000
176.54100037 158.96699524 445.50000000 -0.000978 -0.000978 -0.999999 0.000000
48.32910156 195.71299744 354.00000000 0.980569 0.176187 0.086271 0.000000
145.38699341 250.03300476 427.50000000 -0.660818 0.104495 -0.743236 0.000000
196.51199341 154.17399597 445.50000000 -0.000978 -0.000978 -0.999999 0.000000
162.16200256 167.75399780 445.50000000 -0.000978 -0.000978 -0.999999 0.000000
123.81800079 192.51800537 340.50000000 -0.855398 0.464792 -0.228611 0.000000
83.87699890 210.89100647 253.50000000 -0.807132 -0.402764 -0.431647 0.000000
195.71299744 222.87300110 394.50000000 -0.693098 0.462622 0.552808 0.000000
49.52730179 233.25799561 331.50000000 0.945180 -0.315934 0.082589 0.000000
117.42800140 284.38299561 400.50000000 -0.536071 -0.354682 0.766047 0.000000
115.83000183 184.92900085 297.00000000 -0.674325 0.674325 0.300952 0.000000
138.99600220 257.22299194 427.50000000 -0.418918 -0.577876 -0.700405 0.000000
104.64600372 279.58999634 388.50000000 -0.603284 -0.417147 0.679733 0.000000
115.03099823 160.56399536 331.50000000 -0.500430 -0.343746 0.794612 0.000000
60.71089935 148.98100281 294.00000000 0.856842 0.513552 0.045680 0.000000
142.99000549 108.64099884 316.50000000 -0.001195 0.966452 -0.256844 0.000000
183.72999573 107.44200134 405.00000000 0.089635 0.994837 -0.047584 0.000000
68.69920349 223.67199707 244.50000000 -0.100293 -0.280038 0.954736 0.000000
68.69920349 181.33399963 418.50000000 0.627352 0.265235 -0.732175 0.000000
49.52730179 234.85499573 280.50000000 0.420566 0.842695 -0.336140 0.000000
210.09199524 132.20599365 378.00000000 -0.427921 -0.427921 0.796095 0.000000
67.90039825 178.53799438 417.00000000 0.702355 0.398276 -0.589978 0.000000
196.51199341 121.42199707 328.50000000 -0.639295 -0.213098 0.738844 0.000000
156.57000732 147.78300476 436.50000000 0.210777 0.210777 -0.954540 0.000000
77.88569641 294.76800537 366.00000000 -0.706067 -0.433608 0.559869 0.000000
244.04200745 115.83000183 429.00000000 -0.688317 0.632729 -0.354786 0.000000
89.46880341 179.73599243 259.50000000 0.001320 0.883337 0.468736 0.000000
132.60499573 250.03300476 385.50000000 -0.592768 -0.548859 0.589390 0.000000
58.31449890 244.04200745 267.00000000 0.758570 -0.396414 0.517133 0.000000
79.88279724 256.42401123 430.50000000 0.537121 -0.072277 -0.840403 0.000000
133.40400696 232.85800171 363.00000000 -0.458181 -0.771244 0.441875 0.000000
242.04499817 175.74200439 445.50000000 0.617035 -0.613672 -0.492619 0.000000
178.93800354 109.04000092 336.00000000 -0.083213 -0.988004 -0.130093 0.000000
78.68460083 282.78500366 357.00000000 -0.881890 -0.352453 0.313124 0.000000
162.16200256 130.20899963 433.50000000 -0.000978 -0.000978 -0.999999 0.000000
158.16799927 187.72500610 388.50000000 -0.673552 -0.505584 0.539178 0.000000
109.43900299 202.10400391 286.50000000 -0.886589 -0.006626 0.462511 0.000000
154.17399597 186.92599487 382.50000000 -0.426411 -0.354031 0.832367 0.000000
70.29689789 223.67199707 433.50000000 0.455546 -0.197354 -0.868061 0.000000
119.02500153 246.83799744 436.50000000 -0.230430 -0.198089 -0.952713 0.000000
205.29899597 164.55900574 388.50000000 -0.750441 -0.035331 0.659992 0.000000
101.45099640 159.76600647 319.50000000 -0.647924 -0.294219 0.702588 0.000000
