247.76199341 192.08000183 280.70001221 0.116641 0.955405 0.271288 0.000000
149.34800720 269.34399414 248.14999390 0.547164 0.533695 -0.644811 0.000000
218.41000366 123.88099670 264.60000610 0.038884 -0.981523 0.187350 0.000000
161.43400574 233.08599854 294.35000610 0.199740 0.153349 0.967775 0.000000
157.97999573 210.64100647 302.75000000 0.033460 0.160377 0.986489 0.000000
148.05299377 134.67199707 247.10000610 -0.242987 -0.896843 -0.369635 0.000000
199.41799927 210.20899963 293.29998779 0.104769 0.668456 0.736335 0.000000
144.60000610 258.12100220 240.10000610 0.452511 0.727664 -0.515498 0.000000
275.38699341 183.87899780 278.95001221 0.460876 0.409129 -0.787532 0.000000
108.34200287 193.37500000 215.60000610 -0.853136 -0.271104 -0.445714 0.000000
154.52699280 163.16000366 189.35000610 0.544750 -0.698013 -0.464786 0.000000
208.48199463 173.52000427 272.29998779 -0.246742 0.018054 -0.968913 0.000000
154.52699280 272.79699707 271.25000000 0.069045 0.849674 0.522768 0.000000
239.99200439 168.77099609 254.80000305 -0.235774 0.434005 -0.869512 0.000000
131.64999390 243.44500732 220.50000000 0.336250 0.618896 -0.709862 0.000000
125.60700226 145.89500427 243.60000610 -0.254721 -0.379847 -0.889288 0.000000
102.29900360 186.46899414 245.69999695 -0.898437 -0.335989 0.282704 0.000000
208.91400146 154.09599304 227.50000000 -0.646472 -0.757379 0.091936 0.000000
149.77900696 138.12500000 295.39999390 -0.434633 -0.882437 0.180000 0.000000
227.90600586 128.19700623 232.39999390 -0.098084 -0.993244 -0.062007 0.000000
223.58999634 140.28300476 298.89999390 0.114528 -0.240637 0.963835 0.000000
107.47899628 179.56199646 231.69999695 -0.824422 -0.198894 -0.529877 0.000000
126.03900146 167.90800476 299.60000610 -0.251563 -0.251563 0.934576 0.000000
101.43599701 192.51199341 282.79998779 -0.806209 -0.243882 0.539026 0.000000
207.61900330 155.39100647 233.80000305 -0.878837 -0.320267 -0.353660 0.000000
126.90200043 230.92799377 296.10000610 -0.222861 0.634296 0.740272 0.000000
221.86300659 123.88099670 257.60000610 0.185899 -0.981592 -0.043810 0.000000
269.77499390 151.07400513 264.60000610 0.579601 0.576222 -0.576222 0.000000
180.42599487 197.25999451 253.39999390 0.044104 0.738383 0.672938 0.000000
107.47899628 170.92999268 266.70001221 -0.977044 -0.204610 0.059325 0.000000
116.97499847 158.84399414 242.89999390 -0.729631 -0.662609 -0.169079 0.000000
136.39799500 214.95700073 300.64999390 0.025048 0.223046 0.974486 0.000000
197.69099426 208.48199463 248.50000000 0.388885 0.862311 -0.324327 0.000000
177.83599854 129.92399597 285.60000610 -0.074037 -0.873073 0.481936 0.000000
180.85699463 200.28100586 301.70001221 0.420117 0.485505 0.766673 0.000000
152.80099487 128.19700623 264.60000610 -0.328598 -0.937114 -0.117646 0.000000
158.84399414 229.20100403 229.60000610 0.380802 0.779429 -0.497474 0.000000
116.11100006 160.57000732 240.80000305 -0.751113 -0.627218 -0.205975 0.000000
265.89099121 148.05299377 291.89999390 0.284542 -0.180072 0.941600 0.000000
273.66000366 183.01600647 295.04998779 0.361237 0.064837 0.930217 0.000000
160.57000732 133.37699890 227.50000000 -0.110184 -0.960545 -0.255368 0.000000
183.01600647 126.47100067 282.10000610 -0.322101 -0.549655 0.770799 0.000000
209.77699280 164.02299500 304.14999390 0.146004 -0.243340 0.958889 0.000000
176.10899353 174.38299561 311.85000610 0.115918 0.120698 0.985898 0.000000
125.60700226 149.34800720 286.29998779 -0.585785 -0.541893 0.602667 0.000000
106.61499786 186.46899414 230.30000305 -0.861176 -0.340465 -0.377438 0.000000
179.56199646 121.29100037 272.29998779 -0.032206 -0.976927 0.211131 0.000000
128.19700623 176.97300720 191.80000305 -0.771110 -0.557179 -0.308125 0.000000
105.31999969 173.95100403 278.60000610 -0.862743 -0.476352 -0.169599 0.000000
94.09770203 225.31599426 271.25000000 -0.904679 -0.027816 0.425186 0.000000
149.34800720 131.64999390 282.10000610 -0.070192 -0.990740 -0.116219 0.000000
143.30499268 253.80499268 283.85000610 -0.032462 0.667598 0.743814 0.000000
148.48399353 180.42599487 183.05000305 0.980131 0.165604 0.109176 0.000000
246.89799500 193.80700684 278.60000610 0.061331 0.980098 0.188804 0.000000
242.14999390 158.84399414 299.60000610 0.259673 0.001197 0.965696 0.000000
163.16000366 250.35200500 245.35000610 0.382707 0.479595 -0.789636 0.000000
98.84570313 240.85499573 274.39999390 -0.968544 0.065896 0.239960 0.000000
241.71899414 137.26199341 296.45001221 -0.713393 -0.307580 0.629654 0.000000
151.50599670 138.98800659 223.30000305 -0.838906 -0.503343 -0.207081 0.000000
115.68000031 263.30099487 252.35000610 -0.258429 0.638937 -0.724551 0.000000
118.26999664 263.73199463 250.60000610 -0.461414 0.534707 -0.707945 0.000000
143.30499268 275.81799316 264.60000610 -0.472249 0.880162 0.047909 0.000000
204.59800720 138.12500000 295.75000000 -0.092943 -0.521909 0.847923 0.000000
178.69900513 134.67199707 288.75000000 -0.272187 -0.542800 0.794533 0.000000
284.88299561 131.21899414 269.85000610 0.361175 -0.897778 0.252085 0.000000
129.49200439 146.32600403 287.00000000 -0.655908 -0.629340 0.416792 0.000000
99.27729797 187.33200073 260.75000000 -0.362902 -0.868209 0.338402 0.000000
271.07000732 189.05900574 295.04998779 0.025677 -0.025677 0.999340 0.000000
214.52499390 173.52000427 303.79998779 0.215358 0.039703 0.975728 0.000000
152.80099487 211.50399780 302.75000000 -0.001197 0.259673 0.965696 0.000000
214.95700073 208.05099487 287.35000610 0.456267 0.596657 0.660167 0.000000
130.35499573 252.50999451 282.10000610 -0.249553 0.846644 0.470018 0.000000
144.60000610 155.39100647 200.89999390 -0.557619 -0.651960 -0.513818 0.000000
292.65200806 150.21099854 281.04998779 0.399456 -0.252839 0.881197 0.000000
170.06599426 151.93800354 210.35000610 -0.528118 -0.412952 0.741998 0.000000
261.14300537 171.79299927 266.00000000 0.353319 0.081330 -0.931961 0.000000
188.19500732 217.97900391 253.39999390 0.569452 0.821932 0.012350 0.000000
110.50000000 243.87699890 282.79998779 -0.532898 0.532898 0.657297 0.000000
158.84399414 238.26600647 292.25000000 0.067079 0.340657 0.937792 0.000000
132.94500732 262.86898804 275.10000610 -0.165104 0.607401 0.777049 0.000000
190.35400391 218.41000366 287.00000000 0.500409 0.584653 0.638569 0.000000
147.62100220 145.46299744 217.00000000 -0.366632 -0.805309 -0.465895 0.000000
239.99200439 126.03900146 264.25000000 -0.438526 -0.788052 -0.432053 0.000000
124.31199646 162.72900391 220.50000000 -0.668903 -0.575022 -0.471082 0.000000
279.27099609 129.49200439 256.20001221 0.668926 -0.494569 -0.554923 0.000000
176.97300720 258.12100220 265.64999390 0.767738 0.503675 -0.396094 0.000000
185.60499573 126.47100067 226.80000305 -0.247003 -0.803149 -0.542164 0.000000
195.10200500 131.64999390 219.80000305 0.854716 -0.518300 -0.028718 0.000000
137.26199341 228.77000427 298.54998779 -0.170357 0.393683 0.903323 0.000000
227.04299927 129.92399597 282.10000610 0.033062 -0.966132 0.255921 0.000000
301.28500366 150.21099854 274.75000000 -0.030455 -0.247293 -0.968462 0.000000
201.14500427 152.36900330 258.29998779 0.417341 -0.872349 0.254624 0.000000
149.77900696 171.79299927 309.39999390 -0.000978 0.999999 -0.000978 0.000000
229.20100403 194.23800659 263.89999390 0.525758 -0.489038 -0.696003 0.000000
173.08799744 262.43798828 274.39999390 0.101741 0.715135 0.691543 0.000000
130.78700256 143.30499268 256.89999390 -0.555584 -0.817737 -0.150440 0.000000
119.13300323 153.23199463 267.39999390 -0.645230 -0.760707 -0.070730 0.000000
142.44099426 189.92199707 183.05000305 0.532898 0.532898 -0.657297 0.000000
148.05299377 137.26199341 239.39999390 -0.144749 -0.912061 -0.383656 0.000000
216.68400574 195.96499634 298.54998779 0.858863 0.497996 -0.119808 0.000000
95.39260101 204.59800720 250.60000610 -0.867150 -0.443343 -0.226932 0.000000
243.44500732 166.18200684 299.60000610 0.075860 -0.022437 0.996866 0.000000
104.02500153 196.82800293 226.80000305 -0.896558 -0.119635 -0.426463 0.000000
132.94500732 153.23199463 297.50000000 -0.426586 -0.566015 0.705444 0.000000
130.78700256 179.56199646 305.20001221 -0.214736 -0.287719 0.933331 0.000000
218.84199524 167.47700500 268.79998779 0.484279 -0.264574 0.833951 0.000000
151.07400513 239.99200439 234.85000610 0.413777 0.505364 -0.757229 0.000000
129.49200439 145.46299744 247.10000610 -0.131853 -0.969059 -0.208661 0.000000
202.87100220 123.88099670 245.69999695 0.021739 -0.998948 -0.040372 0.000000
211.50399780 150.64300537 259.70001221 -0.296961 0.881838 -0.366302 0.000000
195.10200500 161.86500549 217.69999695 -0.012469 -0.771670 0.635901 0.000000
146.75799561 217.97900391 200.19999695 0.539354 0.576551 -0.613748 0.000000
266.75399780 144.60000610 290.50000000 0.376626 -0.277593 0.883796 0.000000
191.64799500 211.50399780 294.35000610 -0.179522 0.722689 0.667452 0.000000
159.70700073 132.94500732 237.64999390 -0.274563 -0.894928 -0.351738 0.000000
201.14500427 171.36099243 236.60000610 -0.411143 -0.569655 0.711656 0.000000
111.79499817 262.43798828 261.10000610 -0.624817 0.761638 0.171787 0.000000
231.35899353 125.60700226 270.20001221 0.042654 -0.987960 0.148713 0.000000
202.87100220 123.88099670 247.10000610 -0.000978 -0.999999 -0.000978 0.000000
229.63299561 157.11700439 243.94999695 0.356793 0.419665 -0.834614 0.000000
224.88499451 146.75799561 238.69999695 0.142648 0.650174 -0.746274 0.000000
276.68200684 144.16799927 285.60000610 0.365795 -0.356535 0.859696 0.000000
154.52699280 142.87300110 215.60000610 -0.464233 -0.735174 -0.493971 0.000000
189.92199707 224.45300293 285.25000000 0.591274 0.232453 0.772244 0.000000
273.22900391 161.43400574 291.20001221 0.379630 -0.114579 0.918015 0.000000
274.52301025 189.92199707 281.04998779 0.434027 0.526444 -0.731080 0.000000
294.37899780 143.73599243 266.00000000 0.001377 0.654300 -0.756234 0.000000
112.65799713 164.02299500 242.19999695 -0.736255 -0.632645 -0.240185 0.000000
175.24600220 186.03700256 308.70001221 0.332576 0.452367 0.827501 0.000000
130.35499573 233.51800537 203.69999695 -0.139572 0.754889 -0.640830 0.000000
151.07400513 273.66000366 257.25000000 0.382171 0.823015 -0.420229 0.000000
179.56199646 141.14599609 293.29998779 -0.036656 -0.878393 0.476532 0.000000
120.85900116 235.67599487 291.54998779 -0.294783 0.376415 0.878302 0.000000
222.72700500 200.71299744 291.89999390 0.319585 0.676482 0.663504 0.000000
169.63499451 170.06599426 211.39999390 -0.862632 -0.045547 0.503777 0.000000
183.01600647 181.28900146 250.25000000 -0.292993 -0.911049 0.290078 0.000000
239.12899780 192.08000183 292.60000610 0.111107 0.955521 0.273193 0.000000
150.21099854 269.34399414 248.14999390 0.583141 0.532433 -0.613565 0.000000
148.05299377 150.21099854 205.10000610 -0.365892 -0.788198 -0.494840 0.000000
123.01799774 151.93800354 242.89999390 -0.866703 -0.460760 -0.191119 0.000000
169.20300293 186.03700256 248.50000000 -0.975694 -0.206891 0.072228 0.000000
171.79299927 121.72299957 262.85000610 -0.233860 -0.732970 -0.638799 0.000000
188.62699890 217.54699707 236.60000610 0.700268 0.706165 0.104672 0.000000
116.54299927 221.86300659 295.75000000 -0.432658 0.129088 0.892269 0.000000
198.55499268 214.52499390 261.79998779 -0.094895 0.909063 -0.405709 0.000000
98.41410065 192.94299316 248.50000000 -0.995522 0.042712 -0.084329 0.000000
128.19700623 176.10899353 196.69999695 -0.714707 -0.691032 -0.108020 0.000000
106.18399811 253.37300110 268.79998779 -0.666539 0.716257 0.206643 0.000000
115.24800110 163.16000366 237.30000305 -0.743771 -0.613730 -0.264840 0.000000
157.97999573 219.70500183 216.30000305 0.500156 0.789635 -0.355416 0.000000
264.59600830 164.02299500 266.70001221 0.615795 0.239737 -0.750549 0.000000
104.02500153 233.94900513 284.20001221 -0.722689 0.179522 0.667452 0.000000
255.96299744 176.97300720 298.20001221 0.301004 -0.121739 0.945820 0.000000
271.50201416 145.89500427 289.10000610 0.327824 -0.295190 0.897438 0.000000
183.87899780 195.53300476 254.10000610 0.028786 0.519514 0.853977 0.000000
150.21099854 142.00999451 221.19999695 -0.405333 -0.740101 -0.536615 0.000000
104.45700073 179.13099670 252.69999695 -0.768396 -0.639159 0.032309 0.000000
165.75000000 181.28900146 203.35000610 0.726204 0.035390 -0.686567 0.000000
101.86699677 192.51199341 283.85000610 -0.753476 -0.185684 0.630710 0.000000
230.49600220 195.53300476 266.00000000 0.754228 0.020990 -0.656277 0.000000
104.88899994 209.77699280 219.80000305 -0.919991 -0.088330 0.381857 0.000000
91.93949890 225.31599426 256.89999390 -0.167127 -0.440342 -0.882138 0.000000
120.85900116 162.29699707 292.95001221 -0.535752 -0.572934 0.620255 0.000000
190.78500366 227.04299927 283.14999390 0.635917 0.384854 0.668952 0.000000
168.77099609 176.10899353 207.19999695 0.768514 -0.135796 -0.625257 0.000000
189.49000549 183.87899780 256.20001221 -0.290701 -0.426054 0.856721 0.000000
117.40599823 267.18600464 256.89999390 -0.488616 0.870042 -0.065427 0.000000
182.15199280 217.11500549 294.70001221 0.418177 0.513292 0.749439 0.000000
198.55499268 177.40400696 252.00000000 -0.624931 -0.752088 -0.209344 0.000000
221.86300659 161.86500549 245.00000000 -0.012286 0.831357 0.555603 0.000000
183.87899780 174.81399536 228.19999695 -0.562036 -0.551909 0.616045 0.000000
121.72299957 205.46099854 183.05000305 -0.626041 0.626041 -0.464915 0.000000
209.34599304 205.46099854 252.69999695 0.241081 -0.068702 -0.968070 0.000000
294.37899780 136.39799500 272.64999390 0.468414 -0.609442 0.639663 0.000000
124.31199646 146.75799561 271.25000000 -0.625926 -0.713265 0.315389 0.000000
166.18200684 164.88699341 208.60000610 -0.405708 -0.620981 0.670659 0.000000
124.31199646 164.45500183 217.00000000 -0.667564 -0.667564 -0.329721 0.000000
295.24200439 135.96699524 269.50000000 0.353765 -0.906978 0.228564 0.000000
121.72299957 156.25399780 228.55000305 -0.426762 -0.848868 -0.311924 0.000000
228.77000427 156.25399780 300.64999390 0.130206 0.039628 0.990695 0.000000
229.63299561 203.30299377 277.20001221 0.735780 0.676693 -0.026730 0.000000
175.24600220 151.07400513 304.14999390 0.541931 -0.592578 0.595955 0.000000
195.10200500 224.45300293 278.25000000 0.769174 0.098161 0.631455 0.000000
111.79499817 214.95700073 294.00000000 -0.462838 0.085297 0.882329 0.000000
176.10899353 253.80499268 258.64999390 0.636378 0.636378 -0.435944 0.000000
194.23800659 126.03900146 226.44999695 -0.230085 -0.867706 -0.440620 0.000000
95.39260101 244.30900574 259.70001221 -0.962859 0.203606 0.177334 0.000000
126.03900146 170.92999268 204.75000000 -0.668407 -0.581297 -0.464032 0.000000
118.26999664 154.09599304 268.10000610 -0.806442 -0.589702 -0.043629 0.000000
230.49600220 128.19700623 278.60000610 -0.093488 -0.961769 0.257411 0.000000
242.58200073 126.90200043 272.64999390 0.151118 -0.940741 0.303596 0.000000
159.70700073 222.72700500 222.25000000 0.216269 0.547575 -0.808325 0.000000
214.09399414 156.68600464 247.10000610 -0.070288 0.796124 -0.601038 0.000000
260.71099854 152.80099487 257.25000000 0.622509 0.315297 -0.716290 0.000000
227.90600586 195.10200500 292.25000000 0.276265 0.816308 0.507266 0.000000
154.52699280 177.83599854 309.75000000 -0.159458 0.258617 0.952728 0.000000
276.68200684 137.26199341 253.39999390 -0.627677 0.594021 -0.503151 0.000000
253.80499268 163.59199524 260.39999390 0.592308 0.622683 -0.511309 0.000000
192.51199341 166.61300659 227.14999390 -0.394841 -0.748723 0.532461 0.000000
202.00799561 186.46899414 305.54998779 0.073087 0.124131 0.989570 0.000000
95.82420349 226.17999268 276.85000610 -0.850835 0.148419 0.504035 0.000000
180.42599487 187.33200073 220.85000610 0.669310 -0.209645 -0.712792 0.000000
133.80900574 140.28300476 276.50000000 -0.599020 -0.800090 0.032115 0.000000
262.43798828 168.33999634 266.35000610 0.500163 0.119635 -0.857627 0.000000
180.42599487 129.92399597 225.39999390 -0.208222 -0.831369 -0.515236 0.000000
129.49200439 240.42399597 291.89999390 -0.274196 0.407507 0.871065 0.000000
130.35499573 257.25799561 227.85000610 0.527335 0.691395 -0.493853 0.000000
299.55899048 153.66400146 274.04998779 0.451119 0.193759 -0.871177 0.000000
168.77099609 204.59800720 242.89999390 0.760819 -0.647476 -0.043921 0.000000
135.96699524 164.88699341 199.50000000 -0.739250 -0.552388 -0.385197 0.000000
216.25199890 156.25399780 256.89999390 -0.622565 0.165109 0.764952 0.000000
127.76599884 271.93399048 264.25000000 -0.208779 0.768614 0.604685 0.000000
154.52699280 271.93399048 271.95001221 0.093871 0.570445 0.815954 0.000000
171.79299927 215.82000732 249.55000305 -0.452981 0.001313 0.891519 0.000000
281.42999268 159.27499390 288.39999390 0.270088 -0.206375 0.940459 0.000000
218.41000366 126.03900146 239.75000000 0.104206 -0.948411 -0.299429 0.000000
167.04499817 207.18800354 207.19999695 0.526963 0.457144 -0.716470 0.000000
95.82420349 230.49600220 248.14999390 -0.766804 0.371243 -0.523632 0.000000
112.22699738 219.27299500 293.64999390 -0.458895 0.103075 0.882491 0.000000
131.21899414 210.64100647 183.05000305 0.000978 0.000978 -0.999999 0.000000
132.51400757 266.75399780 272.29998779 -0.229436 0.604025 0.763225 0.000000
231.79100037 137.26199341 228.19999695 0.161054 0.883620 -0.439634 0.000000
101.86699677 203.73399353 232.05000305 -0.904427 -0.155248 -0.397378 0.000000
176.10899353 217.97900391 222.60000610 0.547201 0.516894 -0.658325 0.000000
182.15199280 120.42800140 268.79998779 -0.078281 -0.981518 0.174626 0.000000
147.18899536 212.36700439 196.00000000 0.802236 0.308552 -0.511089 0.000000
110.50000000 212.36700439 209.64999390 -0.867700 -0.086065 -0.489580 0.000000
251.21499634 128.19700623 276.50000000 0.034083 -0.981344 0.189217 0.000000
237.40199280 125.60700226 255.50000000 0.157181 -0.965170 -0.209142 0.000000
92.80269623 211.50399780 257.60000610 -0.999999 -0.000978 -0.000978 0.000000
243.01400757 191.64799500 269.50000000 0.382940 0.576876 -0.721506 0.000000
121.72299957 265.45901489 246.39999390 -0.526150 0.802576 -0.281137 0.000000
135.10400391 178.69900513 305.89999390 -0.203786 -0.278646 0.938524 0.000000
211.07200623 165.75000000 263.20001221 -0.645193 0.764008 0.004145 0.000000
153.66400146 203.73399353 198.44999695 0.423810 0.279990 -0.861389 0.000000
290.06201172 161.43400574 275.45001221 0.219959 0.253160 -0.942087 0.000000
130.35499573 149.34800720 291.54998779 -0.570454 -0.567068 0.594152 0.000000
144.60000610 155.39100647 200.19999695 -0.557619 -0.651960 -0.513818 0.000000
91.93949890 226.17999268 256.89999390 -0.167127 -0.440342 -0.882138 0.000000
171.79299927 157.11700439 311.14999390 0.372228 -0.394216 0.840262 0.000000
104.02500153 236.53900146 235.89999390 -0.532898 0.532898 -0.657297 0.000000
214.95700073 195.10200500 254.44999695 0.122816 0.060834 -0.990563 0.000000
208.05099487 155.82200623 221.89999390 -0.738170 -0.589567 -0.327896 0.000000
255.10000610 155.39100647 254.10000610 0.600509 0.299454 -0.741429 0.000000
132.94500732 212.36700439 183.05000305 -0.000978 -0.000978 -0.999999 0.000000
170.49800110 200.28100586 208.60000610 0.688639 -0.080074 -0.720669 0.000000
179.56199646 184.31100464 254.10000610 0.122997 -0.374520 0.919025 0.000000
107.91000366 258.55300903 263.89999390 -0.674165 0.670932 0.308790 0.000000
119.99600220 150.64300537 268.79998779 -0.645230 -0.760707 -0.070730 0.000000
125.17600250 249.05700684 284.89999390 -0.223927 0.674913 0.703100 0.000000
138.55700684 146.75799561 224.00000000 -0.549406 -0.739647 -0.388684 0.000000
176.97300720 127.76599884 237.64999390 -0.503269 -0.847690 -0.167756 0.000000
193.37500000 184.74200439 257.95001221 -0.307557 -0.136842 0.941638 0.000000
131.21899414 224.45300293 299.25000000 -0.115168 0.115168 0.986647 0.000000
285.31399536 176.97300720 280.70001221 0.553531 0.479950 -0.680626 0.000000
282.29299927 182.15199280 281.75000000 0.552765 0.472606 -0.686364 0.000000
223.58999634 177.83599854 257.95001221 0.240747 0.545176 -0.803009 0.000000
208.91400146 147.62100220 241.14999390 0.840159 0.506500 -0.193883 0.000000
182.58399963 253.80499268 268.10000610 0.732388 0.677495 -0.067894 0.000000
146.75799561 152.36900330 202.30000305 -0.399176 -0.764137 -0.506709 0.000000
232.22300720 190.78500366 296.45001221 -0.054905 0.564539 0.823579 0.000000
186.89999390 174.38299561 230.30000305 -0.542624 -0.566290 0.620383 0.000000
147.62100220 156.25399780 305.54998779 -0.393707 -0.347023 0.851217 0.000000
248.19299316 170.92999268 260.39999390 0.445815 0.452347 -0.772419 0.000000
285.74600220 144.16799927 281.75000000 0.300938 -0.315763 0.899850 0.000000
182.58399963 233.08599854 286.29998779 0.552742 0.348503 0.756982 0.000000
206.32400513 128.19700623 285.60000610 0.131505 -0.952418 0.274966 0.000000
130.35499573 214.95700073 183.05000305 -0.173938 -0.036188 -0.984091 0.000000
274.52301025 167.47700500 271.95001221 0.265117 0.178104 -0.947624 0.000000
127.33399963 234.81199646 208.60000610 -0.341098 0.817050 -0.464846 0.000000
167.90800476 237.40199280 240.10000610 0.707106 0.707106 0.001384 0.000000
219.27299500 147.62100220 300.64999390 -0.087208 -0.115114 0.989517 0.000000
141.57800293 262.00601196 277.89999390 -0.192665 0.485395 0.852802 0.000000
127.76599884 246.03500366 218.05000305 -0.273111 0.819334 -0.504085 0.000000
230.92799377 195.96499634 289.10000610 0.412409 0.803956 0.428456 0.000000
271.07000732 149.34800720 264.25000000 0.563411 0.607402 -0.560028 0.000000
134.67199707 261.57400513 276.85000610 -0.147664 0.580215 0.800965 0.000000
143.30499268 275.38699341 269.14999390 -0.265126 0.868099 0.419657 0.000000
114.38500214 174.38299561 222.60000610 -0.841289 -0.415161 -0.346229 0.000000
216.68400574 170.06599426 303.45001221 0.278793 0.078371 0.957148 0.000000
133.80900574 217.11500549 300.29998779 -0.066473 0.141109 0.987760 0.000000
145.03100586 160.13900757 184.10000610 -0.159325 -0.708615 -0.687372 0.000000
222.72700500 184.74200439 263.54998779 0.040354 0.555211 -0.830730 0.000000
145.89500427 160.57000732 183.75000000 -0.139349 -0.750684 -0.645798 0.000000
171.79299927 160.57000732 212.44999695 -0.346815 -0.227824 0.909844 0.000000
94.52929688 206.32400513 247.80000305 -0.906683 -0.320781 -0.273909 0.000000
176.10899353 158.41200256 308.70001221 0.513292 -0.418177 0.749439 0.000000
148.48399353 151.07400513 203.35000610 -0.383825 -0.782227 -0.490714 0.000000
185.60499573 125.60700226 230.30000305 -0.320704 -0.850564 -0.416761 0.000000
104.45700073 178.26800537 273.00000000 -0.692683 -0.704808 -0.153087 0.000000
241.71899414 164.88699341 252.35000610 0.509911 0.637810 -0.577226 0.000000
106.18399811 173.95100403 237.30000305 -0.900243 -0.411011 -0.143641 0.000000
215.82000732 205.46099854 255.85000610 0.489555 0.135100 -0.861443 0.000000
119.99600220 154.09599304 259.00000000 -0.653979 -0.746340 -0.123645 0.000000
117.83799744 155.39100647 282.10000610 -0.763887 -0.624724 0.161853 0.000000
115.68000031 256.39498901 274.75000000 -0.310219 0.599543 0.737775 0.000000
186.03700256 176.10899353 231.00000000 -0.585785 -0.602667 0.541893 0.000000
149.34800720 161.86500549 184.10000610 0.501621 -0.782271 -0.369361 0.000000
180.42599487 231.79100037 248.50000000 0.832296 0.538717 -0.130643 0.000000
133.80900574 260.27899170 277.20001221 -0.180556 0.581118 0.793537 0.000000
199.41799927 152.80099487 255.85000610 -0.966936 -0.121667 0.224124 0.000000
139.41999817 222.72700500 198.80000305 0.548087 0.729136 -0.409831 0.000000
145.89500427 137.69299316 232.39999390 -0.225495 -0.972215 0.062843 0.000000
154.09599304 217.54699707 210.00000000 0.529544 0.782318 -0.327966 0.000000
211.93600464 159.70700073 302.39999390 0.118640 -0.186078 0.975346 0.000000
165.75000000 230.49600220 233.44999695 0.356380 0.782100 -0.511187 0.000000
167.47700500 231.35899353 235.55000305 0.328184 0.745285 -0.580384 0.000000
144.60000610 170.92999268 306.60000610 -0.376069 -0.093678 0.921844 0.000000
111.79499817 195.96499634 208.60000610 -0.862456 -0.074325 -0.500645 0.000000
257.68899536 194.23800659 289.79998779 -0.195259 0.963189 -0.184775 0.000000
110.50000000 174.81399536 231.69999695 -0.857862 -0.446454 -0.254463 0.000000
105.31999969 177.40400696 235.19999695 -0.972197 0.085892 -0.217842 0.000000
157.97999573 220.13699341 299.95001221 0.000978 0.000978 0.999999 0.000000
244.30900574 192.94299316 280.70001221 0.257572 0.926404 0.274648 0.000000
238.69700623 177.83599854 260.39999390 0.266474 0.509574 -0.818123 0.000000
194.23800659 222.72700500 279.64999390 0.804594 0.253673 0.536915 0.000000
104.02500153 189.92199707 231.69999695 -0.852418 -0.288250 -0.436228 0.000000
105.31999969 206.75599670 289.79998779 -0.660961 0.067680 0.747362 0.000000
154.52699280 149.77900696 305.20001221 -0.254208 -0.485306 0.836574 0.000000
167.90800476 208.05099487 248.50000000 -0.540067 -0.066275 0.839008 0.000000
207.18800354 167.04499817 237.30000305 -0.804875 -0.115820 0.582032 0.000000
95.39260101 201.14500427 253.39999390 -0.849423 -0.428580 -0.307896 0.000000
218.41000366 124.74400330 270.20001221 0.166500 -0.937079 0.306856 0.000000
205.46099854 151.50599670 245.00000000 0.004122 0.605914 -0.795520 0.000000
150.64300537 153.66400146 195.30000305 -0.408443 -0.893923 -0.184599 0.000000
143.30499268 156.68600464 200.19999695 -0.570215 -0.709050 -0.414852 0.000000
245.17199707 172.22500610 259.70001221 0.432111 0.504403 -0.747568 0.000000
249.91999817 190.78500366 295.39999390 0.266474 0.509574 0.818123 0.000000
153.23199463 144.16799927 301.70001221 -0.282338 -0.494481 0.822055 0.000000
111.36299896 213.66200256 208.60000610 -0.818085 0.144019 -0.556773 0.000000
212.36700439 170.92999268 256.54998779 -0.973901 -0.203260 -0.101006 0.000000
210.64100647 203.30299377 254.10000610 0.321426 0.023949 -0.946632 0.000000
117.83799744 234.81199646 210.00000000 -0.627265 0.496094 -0.600358 0.000000
94.96089935 206.32400513 246.75000000 -0.897516 -0.298183 -0.324886 0.000000
259.84799194 145.46299744 247.80000305 0.430470 0.862460 -0.266192 0.000000
107.04699707 198.55499268 218.05000305 -0.979409 0.001154 -0.201881 0.000000
147.18899536 152.80099487 303.79998779 -0.368542 -0.393634 0.842157 0.000000
203.73399353 208.91400146 250.25000000 0.341962 0.891491 -0.297164 0.000000
232.22300720 130.78700256 284.89999390 0.045614 -0.934441 0.353185 0.000000
274.52301025 133.80900574 247.44999695 0.389569 0.783986 -0.483324 0.000000
118.70099640 241.71899414 287.70001221 -0.326013 0.458308 0.826843 0.000000
197.69099426 123.88099670 245.69999695 -0.000978 -0.999999 -0.000978 0.000000
95.39260101 221.00000000 278.60000610 -0.929976 0.107253 0.351626 0.000000
148.48399353 154.09599304 305.20001221 -0.368542 -0.393634 0.842157 0.000000
265.02700806 165.31799316 294.00000000 0.386576 -0.221951 0.895152 0.000000
122.58599854 155.82200623 233.10000610 -0.573871 -0.818426 -0.029180 0.000000
162.72900391 160.57000732 193.19999695 -0.989017 -0.068408 0.131019 0.000000
135.10400391 171.79299927 184.10000610 -0.717294 -0.538384 -0.442303 0.000000
164.02299500 121.72299957 267.04998779 -0.530568 -0.755855 0.383641 0.000000
235.24400330 126.90200043 236.60000610 -0.152243 -0.987860 -0.030906 0.000000
235.67599487 124.74400330 250.60000610 0.252440 -0.967485 -0.015702 0.000000
272.79699707 148.48399353 289.45001221 0.298004 -0.254815 0.919926 0.000000
171.79299927 133.37699890 221.89999390 -0.236119 -0.755268 -0.611407 0.000000
113.08999634 253.37300110 275.79998779 -0.346260 0.593356 0.726658 0.000000
109.20500183 167.47700500 259.00000000 -0.862063 -0.468998 -0.192066 0.000000
106.61499786 256.39498901 263.20001221 -0.782471 0.569212 0.252461 0.000000
298.26400757 170.06599426 284.89999390 0.781465 -0.583391 0.221286 0.000000
189.92199707 234.38099670 278.60000610 0.697150 0.258851 0.668565 0.000000
104.45700073 243.44500732 240.44999695 -0.901426 0.113202 -0.417871 0.000000
235.67599487 135.96699524 294.70001221 0.098035 -0.621864 0.776965 0.000000
176.54100037 185.60499573 214.89999390 0.599406 -0.142004 -0.787748 0.000000
97.55079651 242.14999390 268.79998779 -0.745482 0.445973 0.495343 0.000000
210.64100647 131.64999390 290.50000000 0.067163 -0.795959 0.601613 0.000000
122.15399933 267.61700439 265.29998779 -0.517100 0.781288 0.349566 0.000000
212.79899597 124.31199646 272.29998779 0.196095 -0.914633 0.353544 0.000000
134.67199707 179.13099670 305.89999390 -0.219550 -0.301705 0.927778 0.000000
249.48800659 191.64799500 273.35000610 0.246290 0.770245 -0.588272 0.000000
111.36299896 262.86898804 252.69999695 -0.449818 0.893001 -0.014596 0.000000
151.50599670 176.10899353 184.10000610 0.792734 0.289562 -0.536401 0.000000
170.92999268 129.92399597 284.20001221 -0.083321 -0.862868 0.498514 0.000000
192.51199341 171.79299927 306.25000000 0.000978 0.000978 0.999999 0.000000
189.92199707 197.69099426 302.75000000 -0.366299 0.508301 0.779394 0.000000
103.16200256 196.82800293 286.29998779 -0.731810 -0.130199 0.668956 0.000000
132.08200073 165.31799316 203.00000000 -0.613187 -0.521969 -0.592916 0.000000
125.17600250 148.91600037 258.29998779 -0.685612 -0.715617 -0.133522 0.000000
130.35499573 143.73599243 252.69999695 -0.478764 -0.877052 -0.039556 0.000000
208.91400146 158.84399414 263.54998779 0.284494 -0.803186 0.523407 0.000000
109.63700104 201.57600403 211.39999390 -0.815047 -0.075918 -0.574400 0.000000
135.53500366 252.07800293 231.35000610 0.794745 0.446540 -0.411075 0.000000
267.61700439 135.10400391 285.60000610 0.369641 -0.552018 0.747423 0.000000
255.10000610 149.34800720 247.80000305 0.366824 0.748321 -0.552681 0.000000
274.95498657 162.29699707 271.60000610 0.185243 0.195753 -0.962998 0.000000
197.69099426 152.36900330 212.10000610 -0.259107 -0.305428 0.916284 0.000000
127.76599884 175.24600220 302.04998779 -0.307135 -0.364628 0.879042 0.000000
164.45500183 240.85499573 240.10000610 0.489445 0.489445 -0.721725 0.000000
114.38500214 162.29699707 242.89999390 -0.741146 -0.639026 -0.205788 0.000000
105.75199890 253.80499268 267.39999390 -0.645327 0.709380 0.283432 0.000000
132.51400757 141.57800293 279.29998779 -0.583358 -0.811689 0.029238 0.000000
213.22999573 164.02299500 256.54998779 -0.951608 -0.176323 0.251698 0.000000
203.73399353 165.75000000 306.25000000 0.351640 -0.351640 0.867582 0.000000
179.99400330 190.78500366 218.39999390 -0.532898 -0.532898 -0.657297 0.000000
217.54699707 206.32400513 287.35000610 0.241114 0.654002 0.717039 0.000000
229.63299561 155.39100647 241.85000610 0.410053 0.538503 -0.736119 0.000000
135.96699524 150.21099854 296.79998779 -0.557562 -0.638417 0.530611 0.000000
127.76599884 149.77900696 236.60000610 -0.705724 -0.708486 -0.001381 0.000000
107.91000366 167.04499817 280.00000000 -0.877087 -0.317697 0.360259 0.000000
215.38900757 148.48399353 300.29998779 -0.151777 -0.443766 0.883196 0.000000
125.17600250 268.04901123 248.50000000 -0.444831 0.851181 -0.278596 0.000000
201.14500427 159.70700073 216.64999390 -0.305809 -0.581197 0.754116 0.000000
186.46899414 218.84199524 232.39999390 0.653618 0.733590 -0.186089 0.000000
147.18899536 208.91400146 193.89999390 0.796399 0.204087 -0.569295 0.000000
147.62100220 184.74200439 183.75000000 0.331644 0.258594 -0.907272 0.000000
227.04299927 126.90200043 238.35000610 0.023739 -0.953295 -0.301106 0.000000
199.41799927 178.26800537 242.19999695 -0.708486 -0.705724 0.001381 0.000000
246.89799500 164.02299500 299.25000000 0.062293 -0.153969 0.986110 0.000000
269.77499390 170.06599426 271.60000610 0.303105 0.311976 -0.900443 0.000000
147.62100220 185.60499573 183.75000000 0.470067 0.414765 -0.779107 0.000000
122.15399933 154.52699280 231.69999695 -0.452594 -0.883907 -0.117760 0.000000
212.79899597 175.24600220 269.50000000 -0.582396 -0.626286 -0.518248 0.000000
99.70899963 190.78500366 278.60000610 -0.760614 -0.426925 0.489083 0.000000
174.38299561 239.99200439 287.35000610 0.433688 0.398481 0.808163 0.000000
107.91000366 221.86300659 291.54998779 -0.630540 0.001374 0.776155 0.000000
163.16000366 204.59800720 203.35000610 0.573220 0.411331 -0.708679 0.000000
153.66400146 258.12100220 243.25000000 0.425680 0.393794 -0.814692 0.000000
217.54699707 202.87100220 256.54998779 0.708307 0.023844 -0.705502 0.000000
172.65600586 120.42800140 269.50000000 -0.294575 -0.907173 0.300437 0.000000
151.93800354 131.64999390 254.10000610 -0.366302 -0.881838 -0.296961 0.000000
137.69299316 142.44099426 235.19999695 -0.345874 -0.931826 0.109866 0.000000
211.50399780 154.09599304 217.69999695 -0.766996 -0.402225 0.499932 0.000000
121.72299957 151.50599670 277.20001221 -0.893112 -0.371760 -0.253271 0.000000
97.11910248 234.81199646 249.19999695 -0.715672 0.303959 -0.628826 0.000000
145.03100586 188.19500732 183.75000000 0.492930 0.420873 -0.761503 0.000000
107.91000366 180.42599487 288.75000000 -0.820314 0.004095 0.571899 0.000000
267.61700439 148.91600037 291.20001221 0.278614 -0.182540 0.942896 0.000000
176.10899353 240.85499573 285.95001221 0.433688 0.398481 0.808163 0.000000
189.92199707 202.00799561 226.44999695 0.530895 -0.108494 -0.840464 0.000000
191.64799500 236.97099304 275.79998779 0.970847 0.086214 0.223657 0.000000
94.52929688 217.54699707 262.50000000 -0.974016 -0.201305 -0.103778 0.000000
142.87300110 132.08200073 277.20001221 -0.258588 -0.949057 0.180064 0.000000
131.21899414 252.94099426 281.75000000 -0.249553 0.846644 0.470018 0.000000
125.60700226 189.92199707 184.10000610 -0.866920 -0.323753 -0.378990 0.000000
153.23199463 200.28100586 196.69999695 0.465802 0.265953 -0.843977 0.000000
141.57800293 133.37699890 269.50000000 -0.782241 -0.616179 0.091771 0.000000
183.01600647 243.44500732 282.45001221 0.641100 0.279782 0.714642 0.000000
182.58399963 140.71499634 293.29998779 -0.295347 -0.525939 0.797595 0.000000
246.89799500 126.47100067 268.79998779 -0.079566 -0.990534 0.111853 0.000000
285.74600220 131.64999390 264.60000610 0.325154 -0.940955 0.094228 0.000000
157.11700439 128.19700623 248.50000000 -0.619634 -0.774171 -0.129276 0.000000
251.21499634 140.71499634 239.75000000 -0.006690 0.491076 -0.871091 0.000000
150.21099854 190.35400391 191.10000610 0.656696 0.502179 -0.562642 0.000000
140.28300476 213.22999573 189.00000000 0.745037 0.219312 -0.629938 0.000000
166.61300659 212.79899597 301.70001221 0.386830 -0.581068 0.716047 0.000000
180.42599487 189.05900574 219.44999695 0.672273 -0.373120 -0.639399 0.000000
198.12300110 199.41799927 235.89999390 0.947295 -0.314042 -0.063325 0.000000
139.85200500 149.34800720 215.25000000 -0.446689 -0.894688 -0.001310 0.000000
181.28900146 138.12500000 214.55000305 -0.216932 -0.561560 -0.798493 0.000000
138.12500000 136.39799500 276.14999390 -0.478694 -0.748474 0.458954 0.000000
142.87300110 132.08200073 270.20001221 -0.502800 -0.858054 -0.104571 0.000000
178.26800537 125.17600250 241.50000000 -0.290210 -0.873667 -0.390491 0.000000
132.08200073 164.02299500 300.64999390 -0.360410 -0.303106 0.882174 0.000000
281.42999268 169.20300293 290.14999390 0.242823 -0.218130 0.945228 0.000000
179.56199646 169.20300293 220.14999390 -0.529747 -0.281379 0.800122 0.000000
119.99600220 267.18600464 263.20001221 -0.495063 0.796267 0.347666 0.000000
145.46299744 212.36700439 193.19999695 0.655540 0.290105 -0.697213 0.000000
157.11700439 153.66400146 187.94999695 -0.433898 -0.144633 -0.889277 0.000000
103.16200256 185.60499573 280.70001221 -0.853879 -0.255094 0.453671 0.000000
123.88099670 195.10200500 184.10000610 -0.773836 -0.171795 -0.609643 0.000000
117.83799744 155.39100647 273.70001221 -0.794869 -0.594308 0.122401 0.000000
162.29699707 151.93800354 199.14999390 -0.769114 0.613768 0.178191 0.000000
204.59800720 158.41200256 302.39999390 -0.003840 -0.385249 0.922805 0.000000
272.79699707 157.97999573 269.14999390 0.435935 0.406980 -0.802700 0.000000
263.30099487 176.10899353 296.45001221 0.199215 -0.001152 0.979955 0.000000
107.47899628 232.22300720 225.39999390 -0.827205 0.445903 -0.341911 0.000000
226.61099243 130.35499573 286.29998779 0.110667 -0.968019 0.225150 0.000000
183.44700623 226.17999268 255.50000000 0.736332 0.289102 0.611747 0.000000
199.41799927 209.77699280 250.94999695 0.295098 0.905847 -0.303906 0.000000
114.38500214 225.31599426 208.60000610 -0.699010 0.337284 -0.630575 0.000000
277.54501343 130.35499573 270.20001221 0.303236 -0.929454 0.210150 0.000000
214.09399414 171.79299927 248.85000610 -0.555949 -0.802353 -0.217143 0.000000
251.21499634 128.19700623 277.20001221 0.034270 -0.948126 0.316042 0.000000
103.59400177 207.18800354 288.04998779 -0.711169 -0.018163 0.702786 0.000000
241.71899414 147.62100220 241.85000610 0.184381 0.370192 -0.910473 0.000000
137.26199341 247.76199341 288.04998779 0.338228 0.253305 0.906333 0.000000
284.01998901 181.28900146 283.14999390 0.375625 0.482026 -0.791554 0.000000
271.07000732 171.79299927 272.64999390 0.644981 0.120100 -0.754702 0.000000
301.71701050 147.62100220 275.10000610 0.655540 -0.290105 0.697213 0.000000
119.99600220 255.96299744 233.80000305 -0.534956 0.672468 -0.511478 0.000000
204.59800720 154.09599304 247.10000610 -0.821825 0.565450 -0.069791 0.000000
140.71499634 166.61300659 305.54998779 -0.884258 -0.293748 -0.363043 0.000000
109.63700104 243.87699890 232.39999390 -0.410945 0.566081 -0.714616 0.000000
207.18800354 189.05900574 304.85000610 0.214967 0.070018 0.974108 0.000000
221.86300659 182.15199280 262.14999390 -0.045266 0.484213 -0.873778 0.000000
162.29699707 138.55700684 217.00000000 0.475500 -0.860641 -0.182201 0.000000
232.22300720 136.83000183 226.80000305 0.168762 0.749546 -0.640079 0.000000
283.15600586 156.25399780 287.35000610 0.293972 -0.231485 0.927359 0.000000
199.85000610 153.66400146 253.39999390 -0.656191 0.659480 0.366743 0.000000
163.16000366 196.82800293 203.35000610 0.522390 -0.051542 -0.851147 0.000000
198.55499268 203.30299377 297.50000000 0.213778 0.795130 0.567510 0.000000
290.06201172 173.08799744 280.00000000 0.161393 0.604847 -0.779815 0.000000
183.01600647 202.00799561 221.55000305 0.630540 -0.001374 -0.776155 0.000000
290.06201172 152.80099487 282.45001221 0.376603 -0.330488 0.865418 0.000000
196.82800293 216.68400574 265.64999390 -0.115912 0.871485 -0.476527 0.000000
241.71899414 164.02299500 250.94999695 -0.241093 0.937895 -0.249455 0.000000
166.18200684 213.22999573 213.50000000 0.494753 0.665820 -0.558484 0.000000
165.75000000 232.65400696 236.60000610 0.328184 0.745285 -0.580384 0.000000
144.60000610 157.97999573 189.69999695 0.421312 -0.887816 0.185144 0.000000
115.24800110 158.84399414 261.79998779 -0.801813 -0.555575 -0.220075 0.000000
132.94500732 231.79100037 203.00000000 0.107989 0.681956 -0.723377 0.000000
120.85900116 207.18800354 299.95001221 -0.206069 0.136952 0.968906 0.000000
137.69299316 217.54699707 187.60000610 0.668950 0.169142 -0.723807 0.000000
112.65799713 237.40199280 219.80000305 -0.739782 0.509115 -0.439915 0.000000
139.85200500 224.02099609 201.60000610 0.569258 0.717760 -0.400956 0.000000
101.86699677 213.22999573 286.64999390 -0.687475 -0.001383 0.726206 0.000000
299.98999023 174.38299561 280.70001221 0.156756 0.813637 -0.559842 0.000000
198.55499268 123.88099670 249.19999695 -0.000978 -0.999999 -0.000978 0.000000
236.53900146 151.93800354 299.95001221 0.060691 -0.030878 0.997679 0.000000
114.81600189 166.61300659 291.54998779 -0.600618 -0.450045 0.660847 0.000000
131.21899414 161.86500549 206.50000000 -0.582834 -0.589592 -0.559183 0.000000
116.54299927 219.70500183 296.10000610 -0.431569 0.144812 0.890380 0.000000
216.25199890 191.64799500 258.29998779 0.067279 -0.797328 -0.599785 0.000000
203.73399353 157.11700439 302.04998779 -0.375114 0.001272 0.926978 0.000000
116.97499847 198.55499268 200.19999695 -0.849738 -0.101739 -0.517294 0.000000
233.08599854 125.60700226 247.80000305 0.077942 -0.939265 -0.334225 0.000000
93.66600037 222.72700500 249.19999695 -0.875526 0.250794 -0.412984 0.000000
170.92999268 120.42800140 264.60000610 -0.632558 -0.774362 -0.015293 0.000000
107.47899628 171.79299927 235.89999390 -0.631678 -0.435008 -0.641678 0.000000
197.69099426 202.43899536 235.89999390 0.966405 0.254188 0.038067 0.000000
134.24000549 147.62100220 227.50000000 -0.686267 -0.657202 -0.311646 0.000000
133.80900574 161.00199890 300.29998779 -0.388249 -0.296897 0.872419 0.000000
153.66400146 136.83000183 296.10000610 -0.120294 -0.850754 0.511612 0.000000
93.66600037 209.77699280 248.50000000 -0.903616 -0.086648 -0.419487 0.000000
119.13300323 174.38299561 211.75000000 -0.729461 -0.545037 -0.413306 0.000000
196.39599609 216.68400574 280.70001221 0.903588 0.333520 0.268873 0.000000
296.10501099 157.97999573 281.75000000 0.465171 -0.311680 0.828536 0.000000
176.54100037 223.58999634 294.70001221 0.517619 0.316942 0.794744 0.000000
147.62100220 235.24400330 228.19999695 0.553531 0.680626 -0.479950 0.000000
179.99400330 232.22300720 246.39999390 0.816228 0.495399 -0.297239 0.000000
284.88299561 145.03100586 282.45001221 0.351640 -0.351640 0.867582 0.000000
299.12701416 145.89500427 269.50000000 0.250675 0.484433 -0.838145 0.000000
249.05700684 132.94500732 290.50000000 -0.000978 -0.999999 -0.000978 0.000000
210.64100647 153.23199463 226.80000305 -0.659288 -0.750421 0.046990 0.000000
141.57800293 158.41200256 200.19999695 -0.589200 -0.701428 -0.401052 0.000000
132.51400757 168.33999634 197.39999390 -0.707106 -0.707106 0.001384 0.000000
113.08999634 216.68400574 206.85000610 -0.746627 0.264728 -0.610301 0.000000
154.52699280 132.51400757 289.10000610 -0.091726 -0.784768 0.612964 0.000000
184.31100464 182.15199280 240.80000305 -0.792643 -0.540510 -0.282074 0.000000
300.42199707 145.89500427 274.75000000 0.830111 -0.513298 0.217809 0.000000
102.73000336 196.82800293 232.05000305 -0.936337 -0.221874 -0.272110 0.000000
179.56199646 168.77099609 219.80000305 -0.529747 -0.281379 0.800122 0.000000
201.57600403 122.58599854 259.70001221 0.503343 -0.838906 -0.207081 0.000000
208.91400146 156.25399780 244.64999390 -0.575160 0.768465 -0.280450 0.000000
208.91400146 156.25399780 245.35000610 -0.599655 0.743572 -0.295830 0.000000
123.88099670 237.40199280 291.89999390 -0.213964 0.313152 0.925287 0.000000
142.87300110 160.57000732 305.20001221 -0.362304 -0.435081 0.824281 0.000000
124.31199646 211.93600464 184.10000610 -0.419223 0.846239 0.328833 0.000000
246.03500366 192.08000183 283.50000000 0.157182 0.978982 0.129953 0.000000
176.97300720 160.57000732 213.85000610 -0.115875 -0.299677 0.946978 0.000000
113.08999634 160.13900757 270.89999390 -0.662302 -0.747761 0.047002 0.000000
214.09399414 189.05900574 304.14999390 0.072063 0.001044 0.997400 0.000000
132.08200073 231.35899353 296.45001221 -0.205372 0.524841 0.826054 0.000000
172.22500610 185.60499573 309.39999390 0.087937 0.311062 0.946312 0.000000
200.28100586 171.36099243 235.89999390 -0.362319 -0.657420 0.660699 0.000000
125.60700226 213.22999573 184.10000610 -0.329629 0.350896 -0.876480 0.000000
123.44899750 148.48399353 275.45001221 -0.678598 -0.691252 0.248345 0.000000
217.11500549 183.01600647 264.60000610 -0.487026 0.691209 -0.533888 0.000000
148.48399353 215.82000732 301.35000610 0.018805 0.314667 0.949016 0.000000
250.35200500 136.83000183 234.50000000 -0.131153 0.901146 -0.413201 0.000000
108.77300262 250.78300476 242.89999390 -0.603769 0.623951 -0.496133 0.000000
126.03900146 213.66200256 184.10000610 -0.329629 0.350896 -0.876480 0.000000
163.16000366 129.92399597 282.10000610 -0.093184 -0.993590 0.063994 0.000000
184.74200439 133.80900574 215.94999695 -0.379254 -0.756880 0.532258 0.000000
202.00799561 125.60700226 280.00000000 -0.579595 -0.579595 0.572835 0.000000
160.57000732 195.10200500 305.54998779 -0.030729 0.144541 0.989022 0.000000
218.84199524 211.50399780 280.00000000 0.397565 0.912062 -0.100423 0.000000
166.61300659 263.73199463 276.50000000 0.178280 0.458224 0.870774 0.000000
246.89799500 173.08799744 299.60000610 0.116148 -0.001085 0.993231 0.000000
164.45500183 271.07000732 260.39999390 0.870129 0.377719 -0.316550 0.000000
151.07400513 256.39498901 282.45001221 -0.038192 0.649267 0.759601 0.000000
193.37500000 128.62899780 222.94999695 0.209079 -0.760427 -0.614847 0.000000
156.25399780 245.17199707 290.14999390 0.104943 0.429568 0.896916 0.000000
110.50000000 243.01400757 283.50000000 -0.532898 0.532898 0.657297 0.000000
208.05099487 129.49200439 288.04998779 0.257332 -0.860310 0.440053 0.000000
181.28900146 129.06100464 283.50000000 -0.158991 -0.743473 0.649592 0.000000
160.57000732 229.20100403 230.30000305 0.076756 0.763218 -0.641566 0.000000
179.56199646 148.48399353 210.35000610 0.256407 -0.204303 0.944730 0.000000
297.39999390 137.26199341 271.60000610 0.589673 -0.572776 0.569397 0.000000
213.22999573 205.02900696 291.20001221 0.434583 0.604420 0.667693 0.000000
188.19500732 170.06599426 227.14999390 -0.488853 -0.596368 0.636685 0.000000
154.52699280 271.07000732 272.64999390 0.093871 0.570445 0.815954 0.000000
95.82420349 217.54699707 242.55000305 -0.870160 0.034044 -0.491593 0.000000
261.57400513 158.84399414 262.85000610 0.477670 0.371521 -0.796117 0.000000
120.42800140 199.41799927 189.69999695 -0.967056 -0.156645 -0.200661 0.000000
173.08799744 191.64799500 211.39999390 0.732691 -0.136349 -0.666763 0.000000
95.39260101 196.82800293 261.79998779 -0.976425 -0.095050 0.193804 0.000000
168.33999634 185.60499573 309.75000000 0.029522 0.201932 0.978955 0.000000
226.17999268 179.56199646 300.64999390 0.235835 0.588807 0.773103 0.000000
201.14500427 161.86500549 218.39999390 -0.159010 -0.830717 0.533502 0.000000
182.15199280 181.72099304 244.30000305 -0.451705 -0.852880 -0.261836 0.000000
214.95700073 162.72900391 259.00000000 -0.900001 -0.418310 -0.122535 0.000000
245.17199707 126.47100067 234.50000000 0.001048 -0.997066 -0.076536 0.000000
268.48001099 142.44099426 288.75000000 0.359625 -0.381421 0.851580 0.000000
216.68400574 211.93600464 277.89999390 0.164418 0.985342 0.045477 0.000000
122.15399933 157.11700439 289.10000610 -0.649143 -0.541234 0.534489 0.000000
226.17999268 172.65600586 255.85000610 0.269259 0.499608 -0.823342 0.000000
170.06599426 127.76599884 279.64999390 -0.259159 -0.865379 0.428901 0.000000
147.62100220 274.52301025 270.54998779 0.046596 0.792130 0.608571 0.000000
149.34800720 131.21899414 282.45001221 -0.070192 -0.990740 -0.116219 0.000000
291.78900146 138.98800659 276.14999390 0.480765 -0.467548 0.741798 0.000000
151.07400513 187.33200073 306.25000000 0.019714 0.186703 0.982219 0.000000
183.87899780 191.64799500 240.44999695 -0.034716 0.216673 -0.975627 0.000000
131.21899414 249.05700684 286.29998779 0.034575 0.537986 0.842245 0.000000
136.39799500 160.57000732 203.35000610 -0.532898 -0.532898 -0.657297 0.000000
114.81600189 237.83399963 217.00000000 -0.710048 0.470594 -0.523806 0.000000
194.23800659 150.64300537 300.29998779 -0.363568 -0.242869 0.899351 0.000000
154.52699280 139.85200500 299.25000000 -0.222027 -0.603977 0.765451 0.000000
258.98400879 143.73599243 242.89999390 0.213168 0.689297 -0.692409 0.000000
119.13300323 236.10699463 290.50000000 -0.286739 0.421674 0.860216 0.000000
238.26600647 190.35400391 296.79998779 0.092889 0.844573 0.527322 0.000000
258.12100220 161.43400574 262.14999390 0.592039 0.527943 -0.608906 0.000000
118.26999664 157.54899597 242.19999695 -0.707203 -0.701346 -0.089315 0.000000
198.12300110 175.24600220 260.39999390 -0.843950 -0.396140 0.361693 0.000000
106.18399811 256.82598877 250.60000610 -0.913313 0.367882 -0.174708 0.000000
108.34200287 166.61300659 269.50000000 -0.929954 -0.367656 -0.003817 0.000000
194.23800659 170.06599426 306.25000000 0.000978 0.000978 0.999999 0.000000
195.96499634 133.37699890 214.19999695 0.110525 -0.982581 -0.149391 0.000000
158.41200256 168.33999634 191.10000610 0.842610 0.139214 -0.520220 0.000000
140.71499634 182.15199280 306.95001221 -0.070490 -0.042294 0.996616 0.000000
126.47100067 146.75799561 263.20001221 -0.841768 -0.461814 -0.279560 0.000000
150.64300537 163.16000366 184.80000305 0.815920 -0.575528 0.055149 0.000000
179.56199646 257.25799561 269.85000610 0.655707 0.724237 -0.213377 0.000000
174.38299561 226.17999268 232.05000305 0.242364 0.822802 -0.514058 0.000000
201.14500427 123.88099670 247.10000610 -0.000978 -0.999999 -0.000978 0.000000
210.64100647 175.24600220 270.54998779 -0.523038 -0.105184 -0.845794 0.000000
190.35400391 215.82000732 233.80000305 0.711146 0.702730 0.021040 0.000000
140.28300476 134.67199707 266.70001221 -0.678052 -0.711877 -0.182966 0.000000
104.45700073 208.05099487 289.45001221 -0.658898 0.052883 0.750371 0.000000
