209.33599854 173.39900208 136.25000000 0.812640 0.064043 -0.579237 0.000000
107.36299896 158.12500000 82.50000000 -0.852207 -0.425330 -0.304691 0.000000
103.76999664 159.92199707 95.00000000 -0.910375 -0.363862 -0.197032 0.000000
143.75000000 169.35600281 112.50000000 0.484069 -0.328532 0.811014 0.000000
283.90600586 132.52000427 150.00000000 0.630351 -0.630351 -0.453117 0.000000
172.50000000 175.64500427 80.00000000 0.337994 0.941107 0.008795 0.000000
126.68000031 133.41799927 85.00000000 -0.494685 -0.494685 -0.714545 0.000000
114.10199738 282.10998535 91.25000000 -0.449781 0.838865 -0.306598 0.000000
93.43750000 168.90600586 103.75000000 -0.831745 -0.361422 -0.421396 0.000000
127.57800293 268.63299561 138.75000000 -0.323903 0.581735 0.746104 0.000000
221.91400146 166.21099854 118.75000000 -0.671878 0.203270 -0.712222 0.000000
83.10549927 257.85198975 110.00000000 -0.873667 0.484151 0.048004 0.000000
182.38299561 238.98399353 151.25000000 0.000978 0.000978 0.999999 0.000000
247.96899414 174.29699707 126.25000000 0.524450 0.554804 -0.645867 0.000000
168.45700073 217.42199707 82.50000000 0.348429 0.642876 -0.682135 0.000000
101.52300262 205.74200439 163.75000000 -0.592154 0.037797 0.804938 0.000000
124.88300323 290.64498901 100.00000000 0.354369 0.703840 -0.615656 0.000000
135.66400146 283.90600586 121.25000000 0.004120 0.797846 0.602847 0.000000
190.46899414 177.89100647 178.75000000 0.331563 -0.590344 0.735908 0.000000
208.43800354 132.07000732 171.25000000 0.456788 -0.493067 0.740425 0.000000
80.41020203 202.14900208 142.50000000 -0.889837 -0.135689 0.435635 0.000000
84.90239716 183.28100586 145.00000000 -0.918594 -0.123310 0.375473 0.000000
146.44500732 195.85899353 43.75000000 0.749456 0.449674 -0.485911 0.000000
154.53100586 260.09799194 145.00000000 0.237011 0.549926 0.800879 0.000000
210.23399353 121.28900146 161.25000000 -0.219537 -0.849381 0.479953 0.000000
145.54699707 237.63699341 77.50000000 0.732652 0.285718 -0.617726 0.000000
165.31300354 230.00000000 88.75000000 0.511236 0.531351 -0.675503 0.000000
221.01600647 161.71899414 118.75000000 -0.587434 0.004108 -0.809262 0.000000
107.81300354 229.10200500 36.25000000 -0.483945 0.497250 -0.720097 0.000000
183.28100586 185.07800293 98.75000000 -0.004083 -0.823359 0.567506 0.000000
172.50000000 153.63299561 91.25000000 0.839736 -0.129977 -0.527208 0.000000
99.27739716 171.60200500 90.00000000 -0.825487 -0.275162 -0.492805 0.000000
238.08599854 117.69499969 153.75000000 0.187982 -0.942655 0.275799 0.000000
201.25000000 184.62899780 117.50000000 0.259549 -0.465344 -0.846220 0.000000
123.53500366 231.79699707 40.00000000 0.732843 -0.049999 -0.678558 0.000000
164.41400146 193.16400146 176.25000000 0.000978 0.000978 0.999999 0.000000
198.55499268 188.67199707 113.75000000 0.501073 -0.265274 -0.823745 0.000000
144.64900208 175.19500732 26.25000000 0.779126 0.377415 -0.500520 0.000000
102.42199707 164.86300659 65.00000000 -0.850455 -0.521519 -0.068880 0.000000
89.84380341 246.17199707 68.75000000 -0.808661 0.382713 -0.446765 0.000000
225.05900574 189.57000732 172.50000000 0.001003 -0.025067 0.999685 0.000000
191.36700439 155.42999268 173.75000000 -0.000978 -0.000978 0.999999 0.000000
217.42199707 135.66400146 106.25000000 0.288598 0.531462 -0.796404 0.000000
226.40600586 189.12100220 120.00000000 0.565841 -0.462354 -0.682681 0.000000
195.85899353 158.12500000 173.75000000 0.001191 -0.248977 0.968509 0.000000
198.55499268 145.54699707 173.75000000 -0.403736 -0.196766 0.893466 0.000000
133.86700439 261.44500732 146.25000000 -0.272436 0.670733 0.689852 0.000000
168.00799561 175.19500732 176.25000000 0.000978 0.000978 0.999999 0.000000
197.65600586 186.87500000 173.75000000 0.136217 0.761919 0.633186 0.000000
130.27400208 228.20300293 166.25000000 0.680398 0.001380 0.732842 0.000000
168.90600586 176.54299927 100.00000000 0.306503 -0.951772 0.013650 0.000000
199.45300293 143.75000000 173.75000000 0.000978 0.000978 0.999999 0.000000
108.71099854 146.89500427 112.50000000 -0.498821 -0.833415 -0.237899 0.000000
198.10600281 122.18800354 155.00000000 -0.432500 -0.863483 0.259500 0.000000
76.81639862 202.14900208 122.50000000 -0.913839 -0.153480 -0.375955 0.000000
238.98399353 195.85899353 168.75000000 0.304249 0.703476 0.642304 0.000000
198.55499268 141.95300293 173.75000000 -0.695361 -0.032441 0.717928 0.000000
150.93800354 185.07800293 176.25000000 0.000978 0.000978 0.999999 0.000000
168.45700073 208.43800354 75.00000000 0.309336 0.207636 -0.928008 0.000000
105.11699677 172.05099487 40.00000000 -0.873458 -0.466325 -0.140042 0.000000
151.83599854 239.88299561 158.75000000 0.161125 0.594807 0.787555 0.000000
189.57000732 233.59399414 123.75000000 0.918903 0.352553 -0.176984 0.000000
234.49200439 191.81700134 172.50000000 0.063610 0.248202 0.966617 0.000000
178.33999634 127.57800293 152.50000000 -0.253899 -0.922356 0.291195 0.000000
101.07399750 165.31300354 92.50000000 -0.562344 -0.562344 -0.606250 0.000000
214.72700500 158.12500000 136.25000000 -0.255884 0.579271 0.773931 0.000000
82.20709991 196.75799561 112.50000000 -0.924202 -0.175838 -0.339015 0.000000
209.33599854 179.68800354 176.25000000 0.000978 0.000978 0.999999 0.000000
189.12100220 216.52400208 102.50000000 0.815237 0.545010 0.195839 0.000000
132.07000732 281.21099854 81.25000000 -0.335697 0.841585 -0.423134 0.000000
106.01599884 230.89900208 158.75000000 -0.336470 0.194500 0.921389 0.000000
138.35899353 133.86700439 143.75000000 -0.285604 -0.914801 0.285604 0.000000
103.31999969 183.28100586 28.75000000 -0.876422 -0.161868 -0.453523 0.000000
257.85198975 142.85200500 171.25000000 0.198856 -0.074418 0.977199 0.000000
109.60900116 246.17199707 46.25000000 -0.532261 0.508754 -0.676660 0.000000
284.80499268 147.34399414 163.75000000 -0.000978 -0.000978 0.999999 0.000000
166.66000366 214.72700500 152.50000000 -0.248957 -0.948213 -0.197261 0.000000
223.71099854 149.14100647 173.75000000 -0.465764 0.297528 0.833391 0.000000
110.95700073 145.54699707 85.00000000 -0.890594 -0.416967 0.181606 0.000000
115.89800262 266.83599854 138.75000000 0.102285 0.959404 0.262833 0.000000
150.03900146 268.63299561 138.75000000 0.118780 0.564570 0.816794 0.000000
186.87500000 179.23800659 117.50000000 -0.086008 -0.680776 -0.727425 0.000000
151.38699341 135.66400146 155.00000000 -0.357714 -0.830463 0.427050 0.000000
142.40199280 256.95300293 85.00000000 0.791128 0.194339 -0.579956 0.000000
157.22700500 196.30900574 57.50000000 0.562344 0.562344 -0.606250 0.000000
158.12500000 236.28900146 161.25000000 0.283138 0.462614 0.840132 0.000000
163.96499634 237.18800354 95.00000000 0.530298 0.644775 -0.550500 0.000000
221.01600647 167.10899353 118.75000000 -0.671878 0.203270 -0.712222 0.000000
83.55470276 231.79699707 141.25000000 -0.664261 0.220378 0.714276 0.000000
140.15600586 207.53900146 48.75000000 0.314179 0.942538 -0.113639 0.000000
172.50000000 184.17999268 68.75000000 0.448721 -0.672247 -0.588841 0.000000
123.98400116 172.50000000 171.25000000 -0.438546 -0.681997 0.585284 0.000000
280.31298828 169.80499268 163.75000000 0.856326 -0.486583 0.173040 0.000000
79.96099854 192.26600647 133.75000000 -0.907875 -0.306536 0.286003 0.000000
192.71499634 202.14900208 100.00000000 0.971456 0.184615 -0.148965 0.000000
164.86300659 120.39099884 102.50000000 -0.306190 -0.940343 0.148332 0.000000
170.25399780 208.43800354 110.00000000 -0.827552 0.175723 -0.533178 0.000000
258.75000000 115.89800262 126.25000000 0.378812 -0.917197 0.123496 0.000000
139.25799561 234.49200439 163.75000000 0.031866 0.561115 0.827125 0.000000
286.60198975 147.34399414 153.75000000 0.460442 -0.025506 -0.887323 0.000000
106.91400146 266.83599854 133.75000000 -0.355082 0.792106 0.496472 0.000000
204.84399414 193.16400146 116.25000000 0.397931 0.226333 -0.889058 0.000000
143.75000000 285.70300293 96.25000000 0.425330 0.852207 -0.304691 0.000000
247.07000732 119.94100189 157.50000000 0.137312 -0.961183 0.239315 0.000000
274.02398682 182.38299561 158.75000000 0.425892 0.326049 -0.843983 0.000000
176.09399414 249.76600647 113.75000000 0.360100 0.521579 -0.773488 0.000000
253.36000061 164.86300659 125.00000000 0.449988 0.529691 -0.718984 0.000000
84.90239716 197.65600586 90.00000000 -0.948187 -0.317711 0.001236 0.000000
156.32800293 141.95300293 166.25000000 -0.296254 -0.594110 0.747842 0.000000
225.50799561 160.82000732 173.75000000 0.129363 0.051516 0.990258 0.000000
165.31300354 169.80499268 98.75000000 0.000978 0.000978 0.999999 0.000000
265.03900146 159.02400208 166.25000000 0.000978 0.000978 0.999999 0.000000
153.63299561 221.01600647 73.75000000 0.627910 0.340865 -0.699671 0.000000
107.36299896 223.71099854 32.50000000 -0.555949 0.078605 -0.827492 0.000000
106.01599884 274.02398682 81.25000000 -0.435605 0.815363 -0.381354 0.000000
179.68800354 160.82000732 173.75000000 0.092305 -0.498449 0.861991 0.000000
171.60200500 185.52699280 87.50000000 0.434129 -0.900850 -0.001304 0.000000
112.30500031 222.81300354 28.75000000 -0.430514 0.395304 -0.811414 0.000000
263.69198608 166.21099854 140.00000000 0.780056 0.187763 -0.596873 0.000000
97.03130341 190.46899414 38.75000000 -0.878847 -0.176939 -0.443080 0.000000
176.09399414 266.38699341 132.50000000 0.641026 0.757036 -0.126421 0.000000
151.83599854 188.67199707 176.25000000 0.000978 0.000978 0.999999 0.000000
254.25799561 154.53100586 121.25000000 0.573444 0.157210 -0.804019 0.000000
80.41020203 250.66400146 117.50000000 -0.893521 0.344580 0.287896 0.000000
164.41400146 205.74200439 71.25000000 0.519414 0.529500 -0.670700 0.000000
187.77400208 237.63699341 122.50000000 0.915263 0.345193 -0.207689 0.000000
212.92999268 156.32800293 121.25000000 -0.592950 0.559164 -0.579436 0.000000
136.56300354 128.02699280 107.50000000 -0.446689 -0.894688 -0.001310 0.000000
229.10200500 194.96099854 136.25000000 0.921946 0.270992 -0.276727 0.000000
180.13699341 207.53900146 152.50000000 0.701375 0.578676 0.416182 0.000000
100.17600250 154.53100586 112.50000000 -0.705724 -0.708486 0.001381 0.000000
86.69930267 213.82800293 65.00000000 -0.982594 -0.022042 -0.184454 0.000000
238.08599854 127.57800293 171.25000000 -0.037488 -0.553990 0.831679 0.000000
149.58999634 133.86700439 17.50000000 0.723555 0.015335 -0.690096 0.000000
255.15600586 125.78099823 166.25000000 -0.334939 -0.926338 0.172375 0.000000
186.87500000 185.07800293 111.25000000 0.001250 -0.940919 -0.338631 0.000000
140.60600281 134.76600647 17.50000000 -0.825487 0.275162 -0.492805 0.000000
105.11699677 157.22700500 93.75000000 -0.886041 -0.356522 -0.296350 0.000000
83.10549927 207.53900146 82.50000000 -0.940919 0.001250 -0.338631 0.000000
250.66400146 197.20700073 147.50000000 0.156120 0.738161 -0.656312 0.000000
107.81300354 255.60600281 57.50000000 -0.532214 0.572763 -0.623450 0.000000
176.09399414 203.04699707 78.75000000 -0.052172 -0.571072 -0.819241 0.000000
138.35899353 186.87500000 28.75000000 0.736062 0.325161 -0.593703 0.000000
133.86700439 241.67999268 158.75000000 -0.015328 0.734343 0.678605 0.000000
131.17199707 159.92199707 163.75000000 0.009526 -0.543001 0.839678 0.000000
163.51600647 246.17199707 153.75000000 0.222739 0.477297 0.850044 0.000000
174.29699707 159.02400208 91.25000000 0.820937 -0.275723 -0.500039 0.000000
163.51600647 187.77400208 56.25000000 0.815966 0.456496 -0.354699 0.000000
141.05499268 146.89500427 160.00000000 -0.511334 -0.518040 0.685691 0.000000
203.94500732 135.66400146 121.25000000 0.839545 -0.518586 0.161965 0.000000
140.15600586 203.94500732 173.75000000 -0.000978 -0.000978 0.999999 0.000000
157.22700500 120.83999634 77.50000000 -0.193352 -0.980821 -0.024608 0.000000
164.86300659 180.58599854 77.50000000 0.593288 0.197763 0.780320 0.000000
193.16400146 197.20700073 145.00000000 0.615952 0.770319 0.164960 0.000000
162.61700439 176.54299927 100.00000000 -0.098910 -0.992515 0.071625 0.000000
88.04689789 168.90600586 131.25000000 -0.918844 -0.357093 -0.167961 0.000000
250.66400146 159.92199707 168.75000000 0.092990 -0.061620 0.993758 0.000000
134.76600647 238.08599854 63.75000000 0.825534 0.208284 -0.524511 0.000000
132.96899414 176.99200439 101.25000000 0.000978 0.000978 0.999999 0.000000
156.77699280 136.56300354 40.00000000 0.946949 0.288786 0.141035 0.000000
185.97700500 115.44899750 112.50000000 -0.288286 -0.949882 0.120894 0.000000
210.23399353 160.82000732 176.25000000 0.000978 0.000978 0.999999 0.000000
274.92199707 132.07000732 131.25000000 0.490944 0.820331 -0.293311 0.000000
196.75799561 135.66400146 171.25000000 -0.204667 -0.520006 0.829280 0.000000
107.81300354 196.75799561 21.25000000 -0.611600 -0.116425 -0.782554 0.000000
145.54699707 265.03900146 141.25000000 0.159644 0.713077 0.682668 0.000000
137.46099854 214.72700500 171.25000000 -0.000978 -0.000978 0.999999 0.000000
170.25399780 145.54699707 170.00000000 -0.149130 -0.453182 0.878855 0.000000
218.32000732 133.86700439 128.75000000 0.016882 0.145182 -0.989261 0.000000
92.98829651 245.27400208 142.50000000 -0.866555 0.229780 0.443039 0.000000
145.99600220 169.80499268 25.00000000 0.623718 0.492586 -0.606906 0.000000
154.53100586 229.55099487 165.00000000 0.164788 0.356336 0.919712 0.000000
90.74220276 216.52400208 51.25000000 -0.858436 0.001339 -0.512919 0.000000
201.25000000 194.06300354 171.25000000 -0.001363 0.811146 0.584843 0.000000
142.85200500 225.05900574 167.50000000 0.003865 0.395470 0.918471 0.000000
174.29699707 214.72700500 83.75000000 0.445568 0.659173 -0.605772 0.000000
165.31300354 170.25399780 60.00000000 0.208939 -0.626816 -0.750631 0.000000
101.97299957 158.12500000 147.50000000 -0.468315 -0.498102 0.729777 0.000000
294.68798828 166.21099854 158.75000000 0.405898 0.054924 -0.912266 0.000000
82.65630341 200.35200500 146.25000000 -0.849492 -0.120116 0.513747 0.000000
245.27400208 119.49199677 93.75000000 0.015370 0.708419 -0.705625 0.000000
238.08599854 191.36700439 136.25000000 0.035168 0.620355 -0.783532 0.000000
75.46880341 230.89900208 111.25000000 -0.976753 0.123183 -0.175442 0.000000
158.12500000 126.23100281 130.00000000 -0.001250 -0.940919 0.338631 0.000000
121.28900146 245.27400208 43.75000000 -0.091861 -0.278170 -0.956129 0.000000
117.69499969 226.40600586 166.25000000 0.229771 0.370268 0.900059 0.000000
190.46899414 130.27400208 166.25000000 -0.314751 -0.711821 0.627887 0.000000
172.05099487 163.51600647 82.50000000 0.855225 -0.431451 -0.287122 0.000000
123.08599854 133.41799927 95.00000000 -0.308457 -0.925371 -0.220326 0.000000
105.11699677 221.01600647 33.75000000 -0.579243 0.131848 -0.804421 0.000000
191.36700439 145.99600220 102.50000000 0.476675 0.560302 -0.677380 0.000000
168.00799561 152.73399353 83.75000000 0.882872 -0.126940 -0.452133 0.000000
255.60600281 140.15600586 112.50000000 0.337284 0.630575 -0.699010 0.000000
182.38299561 138.35899353 168.75000000 -0.148259 -0.385472 0.910731 0.000000
186.87500000 120.39099884 73.75000000 0.653890 0.556395 -0.512690 0.000000
161.71899414 191.36700439 58.75000000 0.708288 0.439570 -0.552365 0.000000
191.36700439 142.85200500 101.25000000 0.535975 0.472526 -0.699606 0.000000
136.56300354 289.74600220 112.50000000 -0.001250 0.940919 0.338631 0.000000
152.73399353 225.50799561 166.25000000 0.246867 0.263795 0.932453 0.000000
96.13289642 169.35600281 152.50000000 -0.526981 -0.490176 0.694276 0.000000
288.39898682 150.93800354 161.25000000 0.274958 0.197583 0.940935 0.000000
152.73399353 211.13299561 171.25000000 0.000978 0.000978 0.999999 0.000000
154.53100586 271.32800293 101.25000000 0.671483 -0.149386 -0.725806 0.000000
131.17199707 265.48800659 142.50000000 -0.237277 0.451885 0.859942 0.000000
166.66000366 209.33599854 165.00000000 0.674949 0.668475 -0.312386 0.000000
169.35600281 128.47700500 142.50000000 -0.563019 -0.799272 0.210173 0.000000
249.76600647 125.33200073 100.00000000 0.243670 0.544766 -0.802405 0.000000
79.06250000 200.35200500 138.75000000 -0.906038 -0.185228 0.380507 0.000000
201.69900513 191.36700439 115.00000000 0.373569 -0.040634 -0.926712 0.000000
193.16400146 181.48399353 116.25000000 0.241278 -0.505609 -0.828338 0.000000
284.35598755 129.37500000 155.00000000 0.562344 -0.562344 0.606250 0.000000
127.12899780 144.64900208 17.50000000 -0.754399 -0.639959 0.146061 0.000000
212.03100586 150.48800659 115.00000000 -0.201626 0.826210 -0.526046 0.000000
172.94900513 177.89100647 102.50000000 0.509801 -0.841696 -0.177907 0.000000
185.97700500 181.48399353 178.75000000 -0.591111 0.733626 0.335233 0.000000
219.21899414 176.99200439 176.25000000 -0.000978 -0.000978 0.999999 0.000000
160.82000732 134.31599426 157.50000000 -0.276805 -0.861002 0.426678 0.000000
139.25799561 264.14099121 143.75000000 0.082256 0.593107 0.800911 0.000000
164.41400146 181.93400574 77.50000000 0.259340 0.085595 0.961986 0.000000
255.15600586 134.76600647 108.75000000 0.430713 0.318759 -0.844322 0.000000
150.48800659 279.41400146 97.50000000 0.758191 0.529919 -0.379911 0.000000
237.18800354 194.96099854 171.25000000 0.111643 0.540817 0.833699 0.000000
158.12500000 183.28100586 48.75000000 0.608534 0.384250 -0.694290 0.000000
234.49200439 198.55499268 168.75000000 0.183034 0.558177 0.809282 0.000000
130.27400208 229.10200500 166.25000000 0.680398 0.001380 0.732842 0.000000
172.50000000 234.49200439 158.75000000 0.367921 0.286829 0.884513 0.000000
211.13299561 147.34399414 111.25000000 -0.239174 0.764418 -0.598716 0.000000
184.17999268 219.21899414 153.75000000 0.362517 -0.461530 0.809674 0.000000
195.41000366 143.75000000 115.00000000 -0.142659 0.989628 -0.016850 0.000000
100.62500000 253.80900574 142.50000000 -0.493636 0.618309 0.611570 0.000000
269.53100586 194.06300354 166.25000000 0.734085 0.437152 0.519633 0.000000
149.14100647 186.87500000 176.25000000 0.000978 0.000978 0.999999 0.000000
113.20300293 150.93800354 148.75000000 -0.376999 -0.752366 0.540202 0.000000
132.07000732 164.86300659 115.00000000 -0.943169 0.254725 -0.213418 0.000000
143.30099487 193.16400146 37.50000000 0.675481 0.330416 -0.659204 0.000000
98.82820129 182.83200073 42.50000000 -0.873692 -0.444977 -0.196618 0.000000
86.25000000 185.52699280 107.50000000 -0.889822 -0.084679 -0.448382 0.000000
206.64100647 165.31300354 133.75000000 -0.223552 0.556567 -0.800161 0.000000
243.02699280 110.50800323 117.50000000 0.314179 -0.942538 0.113639 0.000000
188.22300720 218.32000732 110.00000000 0.950390 0.298545 -0.087347 0.000000
274.92199707 167.10899353 166.25000000 0.218926 0.143792 0.965088 0.000000
203.94500732 171.60200500 138.75000000 -0.114776 -0.032315 -0.992866 0.000000
168.90600586 205.29299927 107.50000000 -0.610843 0.664105 -0.431086 0.000000
144.64900208 132.96899414 143.75000000 -0.105674 -0.956288 0.272666 0.000000
274.02398682 179.68800354 156.25000000 0.386881 0.451093 -0.804262 0.000000
267.73498535 127.57800293 163.75000000 0.568783 -0.429490 0.701444 0.000000
99.27739716 225.50799561 42.50000000 -0.750920 0.327821 -0.573283 0.000000
221.91400146 184.62899780 120.00000000 0.052670 -0.767272 -0.639156 0.000000
89.84380341 173.84800720 150.00000000 -0.605499 -0.394317 0.691292 0.000000
106.01599884 280.31298828 106.25000000 -0.686627 0.683470 0.247817 0.000000
195.85899353 122.18800354 151.25000000 -0.232793 -0.943570 0.235548 0.000000
220.11700439 133.86700439 106.25000000 -0.000978 -0.000978 -0.999999 0.000000
194.06300354 168.90600586 133.75000000 0.332120 0.037187 -0.942504 0.000000
88.04689789 168.45700073 142.50000000 -0.765835 -0.521939 0.375601 0.000000
231.79699707 124.88300323 168.75000000 0.001380 -0.680398 0.732842 0.000000
250.66400146 150.03900146 116.25000000 0.295403 0.443877 -0.845996 0.000000
158.12500000 203.04699707 63.75000000 0.620847 0.499706 -0.604022 0.000000
136.56300354 192.26600647 28.75000000 0.818607 0.228841 -0.526796 0.000000
77.26570129 233.59399414 98.75000000 -0.938992 0.305686 -0.157641 0.000000
134.76600647 159.92199707 163.75000000 -0.277527 -0.575669 0.769145 0.000000
151.83599854 168.90600586 98.75000000 -0.018164 -0.708386 0.705591 0.000000
230.00000000 134.31599426 175.00000000 0.029373 -0.191511 0.981051 0.000000
185.52699280 213.82800293 142.50000000 0.823222 -0.496423 0.275445 0.000000
85.35160065 180.58599854 113.75000000 -0.825563 -0.443563 -0.348852 0.000000
81.75789642 194.96099854 113.75000000 -0.849033 -0.142239 -0.508833 0.000000
184.17999268 230.89900208 108.75000000 0.773535 0.431551 -0.464121 0.000000
122.18800354 225.05900574 32.50000000 0.835365 0.398018 -0.379139 0.000000
230.00000000 196.30900574 142.50000000 0.864935 0.396492 -0.307703 0.000000
238.98399353 109.16000366 112.50000000 0.314746 -0.949175 0.001234 0.000000
163.51600647 119.49199677 81.25000000 -0.222780 -0.974811 -0.010609 0.000000
209.33599854 180.58599854 121.25000000 0.213053 -0.491081 -0.844659 0.000000
232.69500732 161.71899414 173.75000000 0.000978 0.000978 0.999999 0.000000
264.14099121 117.24600220 120.00000000 0.296592 -0.951942 0.076414 0.000000
242.57800293 200.80099487 162.50000000 -0.016940 0.988164 -0.152460 0.000000
244.37500000 139.70700073 107.50000000 0.354972 0.466398 -0.810227 0.000000
256.95300293 144.64900208 171.25000000 0.172982 0.431728 0.885261 0.000000
145.54699707 153.63299561 16.25000000 0.823703 0.052097 -0.564624 0.000000
254.25799561 116.34799957 132.50000000 0.205790 -0.963414 0.171710 0.000000
207.53900146 192.26600647 116.25000000 -0.017103 0.427571 -0.903820 0.000000
212.03100586 169.80499268 131.25000000 -0.806012 0.402205 -0.434253 0.000000
93.88680267 190.46899414 157.50000000 -0.634859 0.046869 0.771205 0.000000
169.80499268 232.69500732 158.75000000 0.112451 0.562254 0.819284 0.000000
75.01959991 217.42199707 110.00000000 -0.999999 0.000978 0.000978 0.000000
204.39500427 151.83599854 127.50000000 -0.085734 0.762886 0.640824 0.000000
269.53100586 187.32400513 155.00000000 0.654786 0.341272 -0.674380 0.000000
216.52400208 196.30900574 117.50000000 -0.299740 0.748548 -0.591465 0.000000
119.49199677 271.77700806 132.50000000 -0.206195 0.637189 0.742612 0.000000
97.92970276 166.21099854 151.25000000 -0.432440 -0.541793 0.720733 0.000000
180.13699341 159.92199707 102.50000000 -0.000978 -0.000978 -0.999999 0.000000
216.52400208 138.35899353 176.25000000 -0.088056 -0.575972 0.812713 0.000000
155.42999268 124.88300323 113.75000000 0.051368 -0.960961 0.271875 0.000000
284.80499268 162.61700439 156.25000000 0.123208 0.505878 -0.853760 0.000000
184.17999268 156.32800293 133.75000000 0.905192 0.343651 -0.250061 0.000000
274.02398682 143.75000000 143.75000000 0.912244 0.298262 -0.280803 0.000000
149.14100647 235.39100647 163.75000000 -0.116644 0.772214 0.624563 0.000000
104.21900177 176.09399414 161.25000000 -0.419363 -0.425790 0.801771 0.000000
193.16400146 142.85200500 116.25000000 -0.504878 0.763036 -0.403576 0.000000
176.99200439 186.87500000 76.25000000 0.579987 -0.812549 -0.058140 0.000000
222.81300354 131.17199707 141.25000000 -0.187827 -0.368486 0.910461 0.000000
155.42999268 150.93800354 168.75000000 -0.595866 0.289147 0.749225 0.000000
156.32800293 170.70300293 38.75000000 0.796412 0.319519 -0.513455 0.000000
165.76199341 183.28100586 57.50000000 0.824493 0.275870 -0.494072 0.000000
96.13289642 229.10200500 156.25000000 -0.291205 0.323725 0.900223 0.000000
168.00799561 236.28900146 98.75000000 -0.001380 0.680398 -0.732842 0.000000
79.51180267 251.56300354 112.50000000 -0.846281 0.510712 0.151595 0.000000
132.07000732 179.23800659 172.50000000 -0.190523 -0.296214 0.935926 0.000000
142.85200500 159.02400208 16.25000000 0.734356 0.179373 -0.654635 0.000000
258.75000000 150.03900146 123.75000000 0.749701 0.320840 -0.578801 0.000000
77.26570129 224.60899353 133.75000000 -0.944284 0.161683 0.286682 0.000000
269.53100586 182.38299561 153.75000000 0.796996 0.154596 -0.583864 0.000000
201.25000000 163.51600647 176.25000000 0.000000 0.000000 0.000000 0.000000
221.91400146 189.57000732 116.25000000 0.327839 -0.476713 -0.815638 0.000000
219.21899414 158.12500000 176.25000000 0.112239 0.141204 0.983598 0.000000
222.81300354 162.61700439 173.75000000 0.230072 0.139083 0.963184 0.000000
282.10998535 159.92199707 153.75000000 0.164087 0.437081 -0.884328 0.000000
246.17199707 197.20700073 147.50000000 0.000978 0.999999 0.000978 0.000000
221.91400146 207.08999634 150.00000000 0.508325 0.823517 0.251845 0.000000
177.89100647 202.14900208 163.75000000 0.294377 0.690097 0.661142 0.000000
123.98400116 255.60600281 150.00000000 -0.647070 0.325968 0.689235 0.000000
173.84800720 196.75799561 72.50000000 0.346535 0.346535 -0.871681 0.000000
153.63299561 203.94500732 58.75000000 -0.140084 0.827233 0.544116 0.000000
171.60200500 186.87500000 66.25000000 0.844519 0.105025 -0.525127 0.000000
99.72660065 270.87899780 120.00000000 -0.473417 0.786874 0.395861 0.000000
217.42199707 125.78099823 171.25000000 -0.046596 -0.608571 0.792130 0.000000
75.01959991 225.50799561 117.50000000 -0.999999 -0.000978 -0.000978 0.000000
232.69500732 151.83599854 173.75000000 0.000978 0.000978 0.999999 0.000000
106.01599884 181.48399353 26.25000000 -0.804274 -0.219907 -0.552073 0.000000
85.80079651 179.68800354 112.50000000 -0.898474 -0.304442 -0.316322 0.000000
108.26200104 165.31300354 42.50000000 -0.834389 -0.514515 -0.197658 0.000000
270.42999268 146.44500732 166.25000000 0.205100 -0.015236 0.978622 0.000000
124.43399811 248.86700439 155.00000000 -0.915078 0.335769 0.223365 0.000000
187.77400208 218.32000732 143.75000000 0.800384 -0.463549 0.380142 0.000000
122.63700104 148.24200439 32.50000000 -0.685677 -0.685677 -0.244322 0.000000
76.36720276 238.98399353 118.75000000 -0.973862 0.194772 0.116863 0.000000
143.30099487 163.51600647 17.50000000 0.779487 0.094704 -0.619218 0.000000
170.70300293 211.13299561 108.75000000 -0.849797 -0.521756 0.074941 0.000000
132.07000732 181.48399353 173.75000000 -0.087069 -0.235969 0.967852 0.000000
251.56300354 190.91799927 140.00000000 0.563728 0.724793 -0.396089 0.000000
143.75000000 250.66400146 153.75000000 0.001380 0.680398 0.732842 0.000000
123.08599854 241.23100281 45.00000000 0.798981 0.177383 -0.574599 0.000000
174.29699707 119.49199677 116.25000000 -0.238609 -0.955770 0.171959 0.000000
194.51199341 127.57800293 92.50000000 0.802700 0.472648 -0.363698 0.000000
185.97700500 117.24600220 125.00000000 -0.418560 -0.898131 0.134791 0.000000
246.17199707 181.48399353 131.25000000 0.486764 0.530255 -0.694183 0.000000
161.71899414 169.80499268 98.75000000 0.000978 0.000978 0.999999 0.000000
130.27400208 268.63299561 68.75000000 0.694534 0.101747 -0.712229 0.000000
156.32800293 271.32800293 136.25000000 -0.101019 0.613432 0.783260 0.000000
121.28900146 135.21499634 125.00000000 -0.580384 -0.745285 0.328184 0.000000
108.71099854 268.63299561 131.25000000 -0.364132 0.818899 0.443636 0.000000
112.30500031 145.09800720 72.50000000 -0.684953 -0.684953 -0.248355 0.000000
134.31599426 238.08599854 62.50000000 0.825534 0.208284 -0.524511 0.000000
171.60200500 177.89100647 96.25000000 0.952849 -0.089695 0.289885 0.000000
212.92999268 119.94100189 160.00000000 -0.112805 -0.872456 0.475495 0.000000
159.02400208 259.64898682 106.25000000 0.709082 0.123903 -0.694154 0.000000
106.91400146 145.09800720 122.50000000 -0.596324 -0.795587 -0.106957 0.000000
152.73399353 269.08200073 137.50000000 0.117147 0.510528 0.851844 0.000000
211.13299561 196.75799561 123.75000000 -0.423893 0.884454 -0.195079 0.000000
118.59400177 230.89900208 163.75000000 -0.156988 0.566653 0.808863 0.000000
236.28900146 150.48800659 112.50000000 0.377654 0.661307 -0.648113 0.000000
168.90600586 178.33999634 75.00000000 0.927020 0.277679 0.252047 0.000000
216.07400513 149.14100647 112.50000000 -0.181198 0.778086 -0.601456 0.000000
119.49199677 288.84799194 102.50000000 -0.351978 0.899827 -0.257725 0.000000
138.35899353 253.36000061 151.25000000 0.139132 0.298526 0.944206 0.000000
141.05499268 253.36000061 151.25000000 -0.063670 0.561711 0.824880 0.000000
179.68800354 199.00399780 165.00000000 0.311448 0.614827 0.724560 0.000000
176.99200439 162.16799927 97.50000000 0.759377 0.487116 -0.431352 0.000000
272.22698975 121.73799896 150.00000000 0.128229 -0.900423 0.415688 0.000000
120.39099884 191.36700439 173.75000000 -0.211283 -0.421088 0.882068 0.000000
88.94539642 216.52400208 153.75000000 -0.734902 0.303931 0.606254 0.000000
171.60200500 177.44099426 97.50000000 0.894597 -0.446636 -0.014579 0.000000
75.01959991 232.69500732 115.00000000 -0.976475 0.118172 -0.180368 0.000000
270.42999268 131.62100220 127.50000000 0.999999 0.000978 0.000978 0.000000
154.08200073 235.39100647 85.00000000 0.635314 0.381189 -0.671618 0.000000
220.11700439 189.57000732 173.75000000 0.117476 0.036921 0.992389 0.000000
159.92199707 238.98399353 158.75000000 0.115157 0.546629 0.829419 0.000000
207.53900146 152.73399353 121.25000000 -0.638409 0.651675 -0.409577 0.000000
259.19900513 159.02400208 130.00000000 0.664261 -0.220378 -0.714276 0.000000
205.74200439 183.73100281 120.00000000 0.341667 -0.239894 -0.908688 0.000000
145.54699707 172.50000000 26.25000000 0.659600 0.410381 -0.629694 0.000000
79.51180267 231.79699707 92.50000000 -0.925412 0.184519 -0.331007 0.000000
247.96899414 119.94100189 95.00000000 0.175917 0.705197 -0.686841 0.000000
105.56600189 205.74200439 25.00000000 -0.522369 0.449404 -0.724684 0.000000
162.61700439 245.27400208 101.25000000 0.570395 0.563625 -0.597476 0.000000
190.46899414 123.98400116 153.75000000 -0.339685 -0.875870 0.342732 0.000000
270.42999268 168.00799561 151.25000000 0.524300 0.419112 -0.741252 0.000000
93.88680267 241.67999268 147.50000000 -0.774790 0.519222 0.360706 0.000000
90.74220276 167.10899353 146.25000000 -0.665955 -0.555242 0.498208 0.000000
145.54699707 165.76199341 100.00000000 -0.925411 -0.056928 0.374666 0.000000
269.53100586 174.29699707 151.25000000 0.695697 0.123646 -0.707614 0.000000
293.78900146 163.51600647 161.25000000 0.853695 -0.147896 0.499331 0.000000
240.78100586 128.47700500 171.25000000 -0.037488 -0.553990 0.831679 0.000000
75.46880341 236.73800659 115.00000000 -0.985757 0.167522 0.014815 0.000000
258.75000000 147.79299927 122.50000000 0.637927 0.431392 -0.637927 0.000000
221.01600647 133.86700439 106.25000000 -0.000978 -0.000978 -0.999999 0.000000
97.92970276 176.99200439 56.25000000 -0.882881 -0.336551 -0.327496 0.000000
96.58209991 176.09399414 92.50000000 -0.857515 -0.510592 -0.062950 0.000000
97.92970276 154.98100281 120.00000000 -0.882899 -0.442174 0.158023 0.000000
137.46099854 137.46099854 151.25000000 -0.299740 -0.748548 0.591465 0.000000
134.76600647 137.91000366 150.00000000 -0.340456 -0.682542 0.646704 0.000000
148.24200439 210.23399353 58.75000000 0.674087 0.473367 -0.567036 0.000000
95.23439789 160.37100220 112.50000000 -0.771566 -0.609614 -0.181815 0.000000
124.43399811 137.46099854 65.00000000 -0.631102 -0.760636 -0.152127 0.000000
86.25000000 242.57800293 73.75000000 -0.848558 0.308707 -0.429708 0.000000
260.99600220 144.64900208 170.00000000 0.490495 0.186358 0.851285 0.000000
106.91400146 274.02398682 121.25000000 -0.385441 0.807667 0.446216 0.000000
284.80499268 139.25799561 161.25000000 0.314973 -0.501741 0.805635 0.000000
116.79699707 185.07800293 171.25000000 -0.265672 -0.119094 0.956679 0.000000
168.90600586 176.09399414 101.25000000 0.308087 -0.943095 -0.125118 0.000000
134.76600647 176.99200439 16.25000000 0.876398 0.273026 -0.396717 0.000000
97.03130341 231.79699707 153.75000000 -0.466123 0.446496 0.763787 0.000000
90.29299927 249.76600647 135.00000000 -0.667554 0.453401 0.590593 0.000000
230.89900208 117.69499969 156.25000000 0.001250 -0.940919 0.338631 0.000000
193.16400146 196.30900574 97.50000000 0.966491 0.159568 -0.201082 0.000000
145.54699707 195.85899353 173.75000000 0.001358 0.566240 0.824239 0.000000
109.16000366 281.21099854 95.00000000 -0.464141 0.818979 -0.337413 0.000000
158.12500000 128.47700500 51.25000000 0.599482 -0.548821 -0.582595 0.000000
163.96499634 124.88300323 125.00000000 -0.163478 -0.977125 0.136024 0.000000
181.48399353 119.94100189 67.50000000 0.615975 0.568722 -0.545096 0.000000
110.50800323 194.96099854 171.25000000 -0.824493 -0.275870 0.494072 0.000000
108.71099854 234.49200439 38.75000000 -0.317920 0.417174 -0.851406 0.000000
116.79699707 225.50799561 166.25000000 0.000978 0.000978 0.999999 0.000000
143.75000000 264.14099121 143.75000000 0.149813 0.700638 0.697612 0.000000
240.78100586 194.96099854 143.75000000 0.123149 0.850454 -0.511431 0.000000
111.40599823 179.68800354 16.25000000 -0.909938 0.175702 -0.375689 0.000000
167.10899353 133.86700439 158.75000000 -0.199459 -0.879098 0.432900 0.000000
212.92999268 121.28900146 161.25000000 -0.139877 -0.875310 0.462890 0.000000
106.91400146 203.04699707 168.75000000 -0.382763 0.163635 0.909239 0.000000
229.10200500 123.53500366 167.50000000 0.037368 -0.840096 0.541149 0.000000
175.19500732 224.60899353 161.25000000 0.456167 -0.017289 0.889726 0.000000
247.07000732 201.25000000 163.75000000 -0.063606 0.994269 0.085924 0.000000
123.98400116 254.25799561 151.25000000 -0.595375 0.339056 0.728402 0.000000
107.81300354 280.76199341 110.00000000 -0.686627 0.683470 0.247817 0.000000
199.45300293 172.50000000 176.25000000 0.000978 0.000978 0.999999 0.000000
270.42999268 122.63700104 152.50000000 0.162131 -0.896743 0.411784 0.000000
133.41799927 265.03900146 72.50000000 0.874567 -0.070911 -0.479691 0.000000
144.19900513 214.72700500 60.00000000 0.667557 0.539763 -0.512859 0.000000
156.32800293 164.41400146 106.25000000 -0.202534 -0.752933 0.626156 0.000000
92.98829651 173.39900208 152.50000000 -0.593182 -0.456165 0.663361 0.000000
129.37500000 175.19500732 171.25000000 -0.081467 -0.068075 0.994348 0.000000
169.80499268 249.76600647 111.25000000 -0.000978 -0.000978 -0.999999 0.000000
166.21099854 131.62100220 72.50000000 0.680647 0.607780 -0.409051 0.000000
88.04689789 256.50399780 82.50000000 -0.728049 0.505820 -0.462701 0.000000
133.86700439 256.05499268 151.25000000 0.060759 0.241796 0.968423 0.000000
208.43800354 195.85899353 168.75000000 0.288354 0.527862 0.798883 0.000000
119.49199677 180.58599854 171.25000000 0.000978 0.000978 0.999999 0.000000
136.56300354 277.61700439 128.75000000 0.000978 0.000978 0.999999 0.000000
224.60899353 133.86700439 128.75000000 0.160910 0.055203 -0.985424 0.000000
162.16799927 165.31300354 110.00000000 -0.438140 -0.824083 0.359054 0.000000
104.21900177 263.24200439 68.75000000 -0.542271 0.630115 -0.555785 0.000000
139.25799561 243.47700500 158.75000000 -0.201209 0.418574 0.885613 0.000000
163.51600647 166.66000366 115.00000000 -0.759066 -0.493475 0.424618 0.000000
86.69930267 216.52400208 65.00000000 -0.982370 -0.041177 -0.182356 0.000000
146.44500732 129.37500000 33.75000000 -0.459124 -0.876246 -0.146282 0.000000
181.93400574 188.67199707 102.50000000 -0.104851 -0.722145 0.683749 0.000000
189.57000732 126.23100281 157.50000000 -0.504097 -0.792152 0.344066 0.000000
177.89100647 124.88300323 143.75000000 -0.314179 -0.942538 0.113639 0.000000
110.95700073 283.90600586 102.50000000 -0.532800 0.835160 -0.136502 0.000000
149.14100647 152.73399353 166.25000000 -0.509847 -0.550231 0.661287 0.000000
204.84399414 197.65600586 141.25000000 -0.435714 0.822312 -0.366000 0.000000
241.67999268 165.31300354 173.75000000 0.458359 -0.245169 0.854283 0.000000
157.22700500 251.56300354 101.25000000 0.684909 0.384539 -0.618894 0.000000
147.79299927 244.37500000 85.00000000 0.752366 0.376999 -0.540202 0.000000
96.13289642 171.60200500 98.75000000 -0.718079 -0.379580 -0.583337 0.000000
226.40600586 132.07000732 123.75000000 0.167823 -0.048117 -0.984642 0.000000
156.77699280 137.46099854 37.50000000 0.946949 0.288786 0.141035 0.000000
158.12500000 180.58599854 46.25000000 0.674265 0.377522 -0.634699 0.000000
121.28900146 169.80499268 166.25000000 -0.373274 -0.539535 0.754698 0.000000
161.71899414 257.85198975 108.75000000 0.652132 0.351400 -0.671745 0.000000
236.28900146 115.00000000 148.75000000 0.147896 -0.930223 0.335875 0.000000
187.32400513 115.89800262 120.00000000 -0.260814 -0.950011 0.171624 0.000000
273.57400513 119.49199677 120.00000000 0.241315 -0.966523 0.087177 0.000000
223.71099854 163.51600647 173.75000000 0.157313 0.154796 0.975341 0.000000
94.33599854 199.45300293 43.75000000 -0.940919 0.001250 -0.338631 0.000000
147.34399414 254.25799561 91.25000000 0.715885 0.513244 -0.473381 0.000000
146.44500732 182.38299561 36.25000000 0.701483 0.233828 -0.673235 0.000000
227.30499268 203.04699707 148.75000000 0.950298 0.285754 0.123605 0.000000
207.53900146 172.50000000 176.25000000 0.000978 0.000978 0.999999 0.000000
132.07000732 213.82800293 41.25000000 0.722449 0.463364 -0.513188 0.000000
163.96499634 159.92199707 70.00000000 0.765333 -0.637049 -0.091840 0.000000
191.36700439 141.95300293 123.75000000 0.906509 -0.052532 -0.418907 0.000000
185.07800293 160.82000732 173.75000000 -0.102951 -0.455523 0.884251 0.000000
115.00000000 210.23399353 168.75000000 0.946031 -0.280959 -0.161517 0.000000
177.89100647 135.66400146 86.25000000 0.445483 0.662386 -0.602320 0.000000
152.73399353 184.17999268 43.75000000 0.452869 0.606611 -0.653401 0.000000
107.81300354 205.74200439 168.75000000 -0.802743 0.311914 0.508246 0.000000
99.27739716 170.70300293 62.50000000 -0.855657 -0.511703 -0.077531 0.000000
110.95700073 191.36700439 17.50000000 -0.772240 0.212018 -0.598911 0.000000
231.79699707 139.25799561 176.25000000 0.167905 -0.085765 0.982065 0.000000
250.66400146 177.89100647 168.75000000 0.000978 0.000978 0.999999 0.000000
113.20300293 146.89500427 65.00000000 -0.740412 -0.588781 -0.324233 0.000000
157.22700500 163.51600647 173.75000000 -0.478730 -0.302934 0.824044 0.000000
88.04689789 220.11700439 58.75000000 -0.940919 0.001250 0.338631 0.000000
176.09399414 188.22300720 107.50000000 0.436406 -0.436406 -0.786829 0.000000
91.64070129 254.25799561 73.75000000 -0.739124 0.484482 -0.467946 0.000000
122.18800354 134.31599426 92.50000000 -0.707106 -0.707106 -0.001384 0.000000
180.13699341 223.71099854 97.50000000 0.654720 0.086032 -0.750960 0.000000
229.10200500 201.69900513 135.00000000 0.526202 -0.117417 -0.842214 0.000000
145.54699707 207.98800659 55.00000000 0.781490 0.265738 -0.564497 0.000000
149.14100647 255.15600586 151.25000000 -0.142958 0.711779 0.687702 0.000000
231.79699707 137.46099854 176.25000000 0.018302 -0.089356 0.995832 0.000000
166.21099854 223.71099854 163.75000000 0.241315 0.966523 0.087177 0.000000
127.57800293 193.16400146 16.25000000 0.718343 0.539172 -0.439633 0.000000
99.27739716 230.00000000 45.00000000 -0.785589 0.299952 -0.541183 0.000000
294.68798828 163.06599426 157.50000000 0.780402 -0.012475 0.625153 0.000000
166.66000366 136.56300354 80.00000000 0.719485 0.520089 -0.460271 0.000000
262.34399414 115.89800262 116.25000000 0.255901 -0.941993 0.217170 0.000000
189.57000732 180.58599854 116.25000000 0.220162 -0.839651 -0.496503 0.000000
193.16400146 168.90600586 176.25000000 0.000978 0.000978 0.999999 0.000000
172.50000000 135.21499634 162.50000000 -0.283107 -0.679776 0.676577 0.000000
115.89800262 243.92599487 42.50000000 -0.103370 0.392807 -0.913793 0.000000
167.10899353 265.03900146 138.75000000 0.100628 0.602308 0.791896 0.000000
127.57800293 203.94500732 21.25000000 0.620071 0.528835 -0.579522 0.000000
135.66400146 278.51599121 128.75000000 0.000978 0.000978 0.999999 0.000000
227.75399780 198.55499268 142.50000000 0.954534 0.038986 0.295541 0.000000
225.50799561 112.30500031 141.25000000 0.103962 -0.963896 0.245145 0.000000
209.33599854 109.16000366 115.00000000 -0.001044 -0.997400 -0.072063 0.000000
257.40200806 146.44500732 120.00000000 0.711092 0.372789 -0.596135 0.000000
124.88300323 163.96499634 165.00000000 -0.474177 -0.474177 0.741831 0.000000
189.12100220 212.92999268 127.50000000 0.894688 -0.446689 -0.001310 0.000000
113.20300293 195.85899353 16.25000000 -0.697724 0.076880 -0.712229 0.000000
257.85198975 154.53100586 166.25000000 0.510618 -0.092452 0.854823 0.000000
79.06250000 243.47700500 96.25000000 -0.902893 0.232674 -0.361450 0.000000
212.48100281 159.02400208 122.50000000 -0.540824 0.387237 -0.746697 0.000000
158.12500000 247.96899414 98.75000000 0.661766 0.477477 -0.577998 0.000000
148.69099426 125.78099823 110.00000000 -0.315696 -0.947087 0.057985 0.000000
112.30500031 196.75799561 16.25000000 0.077545 0.260604 -0.962327 0.000000
192.71499634 202.14900208 115.00000000 0.889804 0.438516 0.126304 0.000000
135.66400146 175.19500732 113.75000000 -0.965173 0.008435 0.261476 0.000000
288.39898682 148.24200439 153.75000000 -0.041100 0.179664 -0.982869 0.000000
171.15199280 152.73399353 90.00000000 0.843168 -0.130055 -0.521683 0.000000
146.44500732 258.75000000 93.75000000 0.793466 0.217240 -0.568523 0.000000
143.75000000 200.35200500 43.75000000 0.849033 0.508833 -0.142239 0.000000
261.44500732 146.44500732 168.75000000 0.369948 0.462835 0.805557 0.000000
166.66000366 202.14900208 70.00000000 0.552915 0.499136 -0.667195 0.000000
206.64100647 183.73100281 120.00000000 0.326524 -0.245256 -0.912815 0.000000
80.85939789 231.79699707 88.75000000 -0.940919 0.001250 -0.338631 0.000000
143.75000000 130.27400208 36.25000000 -0.442174 -0.882899 -0.158023 0.000000
101.97299957 195.85899353 27.50000000 -0.877299 -0.017465 -0.479626 0.000000
176.09399414 191.36700439 98.75000000 -0.643626 -0.414116 0.643626 0.000000
109.16000366 147.34399414 110.00000000 -0.457281 -0.851858 -0.255405 0.000000
128.02699280 212.03100586 32.50000000 0.795164 0.477098 -0.374289 0.000000
152.73399353 160.82000732 101.25000000 -0.343426 -0.939035 0.016474 0.000000
221.91400146 135.66400146 128.75000000 0.066867 0.148984 -0.986576 0.000000
149.14100647 158.12500000 168.75000000 -0.315709 -0.376716 0.870869 0.000000
99.27739716 169.80499268 67.50000000 -0.816980 -0.567388 -0.103029 0.000000
113.20300293 245.27400208 43.75000000 -0.278584 0.484020 -0.829527 0.000000
134.31599426 130.27400208 77.50000000 -0.447656 -0.893984 -0.019925 0.000000
235.39100647 110.95700073 132.50000000 0.221255 -0.962264 0.158413 0.000000
104.66799927 228.20300293 37.50000000 -0.437456 0.523297 -0.731295 0.000000
274.02398682 164.41400146 151.25000000 0.615861 0.394614 -0.681905 0.000000
230.00000000 201.25000000 141.25000000 0.744661 -0.067696 0.664001 0.000000
186.87500000 224.60899353 153.75000000 0.664983 -0.162822 0.728894 0.000000
76.81639862 226.40600586 130.00000000 -0.947372 0.183494 0.262328 0.000000
165.31300354 268.63299561 136.25000000 0.322291 0.642962 0.694787 0.000000
255.15600586 142.40199280 115.00000000 0.541931 0.595955 -0.592578 0.000000
244.37500000 197.20700073 147.50000000 -0.071855 0.977952 -0.196078 0.000000
88.49610138 229.10200500 60.00000000 -0.920534 0.111123 -0.374524 0.000000
96.13289642 179.23800659 60.00000000 -0.881461 -0.381213 -0.278753 0.000000
146.44500732 185.97700500 176.25000000 0.000978 0.000978 0.999999 0.000000
188.67199707 149.14100647 103.75000000 0.594357 0.680930 -0.427871 0.000000
94.33599854 259.64898682 76.25000000 -0.708308 0.610159 -0.354972 0.000000
284.80499268 127.57800293 141.25000000 0.531944 0.797126 -0.285703 0.000000
123.08599854 136.56300354 73.75000000 -0.511302 -0.837087 -0.194566 0.000000
149.14100647 265.03900146 96.25000000 0.726777 -0.098372 -0.679793 0.000000
173.39900208 151.83599854 173.75000000 -0.032366 -0.221764 0.974563 0.000000
276.71899414 155.42999268 163.75000000 0.000978 0.000978 0.999999 0.000000
115.00000000 279.41400146 118.75000000 -0.301444 0.767167 0.566204 0.000000
270.42999268 177.89100647 166.25000000 -0.000978 -0.000978 0.999999 0.000000
195.85899353 161.71899414 136.25000000 0.490296 -0.681060 -0.543844 0.000000
159.92199707 205.29299927 67.50000000 0.680666 0.437690 -0.587470 0.000000
146.89500427 253.36000061 90.00000000 0.724152 0.268971 -0.635026 0.000000
120.39099884 181.48399353 171.25000000 0.000978 0.000978 0.999999 0.000000
123.98400116 201.25000000 16.25000000 0.519728 0.466593 -0.715663 0.000000
197.65600586 142.85200500 138.75000000 0.511725 0.853825 -0.095503 0.000000
135.66400146 154.08200073 162.50000000 -0.857386 -0.037158 0.513331 0.000000
112.30500031 201.69900513 17.50000000 -0.605554 0.100683 -0.789409 0.000000
146.44500732 209.78500366 57.50000000 0.640168 0.492308 -0.589761 0.000000
185.97700500 238.98399353 146.25000000 -0.000978 -0.000978 0.999999 0.000000
247.96899414 163.06599426 170.00000000 0.421606 0.001297 0.906778 0.000000
125.78099823 158.12500000 161.25000000 -0.185228 -0.380507 0.906038 0.000000
190.46899414 124.88300323 88.75000000 0.896318 0.141074 -0.420372 0.000000
87.14849854 251.11300659 130.00000000 -0.675920 0.388365 0.626342 0.000000
187.32400513 237.18800354 120.00000000 0.915263 0.345193 -0.207689 0.000000
269.98098755 141.95300293 135.00000000 0.642962 0.322291 -0.694787 0.000000
176.99200439 130.72300720 80.00000000 0.409215 0.744475 -0.527542 0.000000
223.71099854 108.26200104 125.00000000 -0.192432 -0.959508 0.205704 0.000000
163.96499634 193.16400146 62.50000000 0.660634 0.344182 -0.667159 0.000000
265.03900146 142.40199280 127.50000000 0.786002 0.468360 -0.403535 0.000000
109.60900116 242.57800293 43.75000000 -0.475427 0.426414 -0.769506 0.000000
160.37100220 193.16400146 57.50000000 0.632522 0.442265 -0.635860 0.000000
275.82000732 170.70300293 156.25000000 0.263601 0.399167 -0.878168 0.000000
168.90600586 143.75000000 168.75000000 -0.139023 -0.440002 0.887170 0.000000
84.45320129 241.67999268 76.25000000 -0.726930 0.528225 -0.438807 0.000000
101.52300262 178.33999634 37.50000000 -0.942538 -0.314179 -0.113639 0.000000
163.51600647 261.44500732 141.25000000 0.129276 0.619634 0.774171 0.000000
186.87500000 173.39900208 123.75000000 -0.000978 -0.000978 -0.999999 0.000000
81.30860138 210.23399353 87.50000000 -0.940919 0.001250 -0.338631 0.000000
84.45320129 210.23399353 76.25000000 -0.978226 0.195645 0.069266 0.000000
172.50000000 206.19200134 105.00000000 -0.322291 -0.642962 -0.694787 0.000000
173.39900208 123.98400116 136.25000000 -0.153834 -0.929935 0.334000 0.000000
160.82000732 168.90600586 46.25000000 0.766300 -0.001376 -0.642481 0.000000
126.68000031 209.78500366 27.50000000 0.346535 -0.346535 -0.871681 0.000000
203.94500732 145.54699707 146.25000000 0.121579 -0.470583 -0.873940 0.000000
175.19500732 161.71899414 121.25000000 0.899948 0.344315 -0.267472 0.000000
253.80900574 143.75000000 115.00000000 0.541931 0.595955 -0.592578 0.000000
219.21899414 203.04699707 128.75000000 -0.298470 0.898379 -0.322228 0.000000
133.41799927 241.67999268 62.50000000 0.838255 0.165269 -0.519629 0.000000
146.44500732 127.12899780 115.00000000 -0.262578 -0.957560 0.118879 0.000000
188.67199707 136.56300354 168.75000000 -0.436406 -0.436406 0.786829 0.000000
167.10899353 139.25799561 83.75000000 0.732727 0.339557 -0.589756 0.000000
124.88300323 262.34399414 143.75000000 0.680398 -0.001380 0.732842 0.000000
202.14900208 128.02699280 167.50000000 -0.265966 -0.683229 0.680044 0.000000
243.47700500 115.89800262 91.25000000 -0.015277 0.640246 -0.768018 0.000000
144.64900208 138.35899353 156.25000000 -0.343823 -0.537526 0.769969 0.000000
103.31999969 190.46899414 166.25000000 -0.133665 -0.398181 0.907516 0.000000
113.65200043 209.33599854 170.00000000 0.946031 -0.280959 -0.161517 0.000000
98.37899780 205.74200439 35.00000000 -0.825308 0.345588 -0.446582 0.000000
281.66000366 126.68000031 127.50000000 0.873564 0.264030 -0.408870 0.000000
255.15600586 196.75799561 148.75000000 0.337636 0.654068 -0.676903 0.000000
169.80499268 168.90600586 98.75000000 0.234218 0.125520 0.964047 0.000000
174.29699707 137.46099854 86.25000000 0.344127 0.676838 -0.650743 0.000000
256.95300293 131.17199707 108.75000000 0.502923 0.258425 -0.824794 0.000000
81.75789642 252.01199341 95.00000000 -0.916936 0.370974 -0.146990 0.000000
160.37100220 143.75000000 70.00000000 0.940919 -0.001250 -0.338631 0.000000
179.23800659 186.87500000 80.00000000 0.457770 -0.846180 -0.272812 0.000000
182.38299561 152.73399353 101.25000000 0.594110 0.296254 -0.747842 0.000000
202.14900208 163.51600647 138.75000000 -0.143033 -0.207463 -0.967730 0.000000
194.96099854 195.85899353 166.25000000 -0.223729 0.950508 0.215593 0.000000
145.54699707 159.02400208 168.75000000 -0.419042 -0.374766 0.827015 0.000000
89.84380341 203.49600220 55.00000000 -0.922179 -0.196901 -0.332891 0.000000
92.53910065 270.87899780 102.50000000 -0.780320 0.593288 0.197763 0.000000
