237.18800354 136.87500000 442.50000000 0.028707 -0.295806 0.954817 0.000000
142.50000000 134.53100586 380.00000000 -0.683659 -0.683659 -0.255381 0.000000
194.06199646 174.84399414 380.00000000 0.704755 0.686330 -0.179643 0.000000
193.12500000 176.25000000 382.50000000 0.936483 -0.001257 0.350710 0.000000
250.31199646 129.37500000 442.50000000 -0.251179 -0.630318 0.734581 0.000000
96.56250000 233.43800354 422.50000000 -0.638144 -0.761941 -0.110533 0.000000
244.68800354 194.06199646 437.50000000 0.000978 0.000978 0.999999 0.000000
258.75000000 115.31199646 382.50000000 -0.000978 -0.000978 -0.999999 0.000000
160.31199646 246.56199646 437.50000000 0.351738 0.274563 0.894928 0.000000
230.62500000 155.62500000 367.50000000 -0.000978 -0.000978 -0.999999 0.000000
218.43800354 135.00000000 442.50000000 0.423389 -0.848329 0.317930 0.000000
110.15599823 300.00000000 385.00000000 -0.779950 0.623105 -0.058461 0.000000
153.75000000 219.37500000 452.50000000 0.000978 0.000978 0.999999 0.000000
185.62500000 189.37500000 382.50000000 -0.155897 0.934005 -0.321452 0.000000
130.31199646 243.75000000 337.50000000 0.269124 0.392409 -0.879538 0.000000
130.31199646 209.06199646 452.50000000 -0.000978 -0.000978 0.999999 0.000000
102.65599823 283.12500000 405.00000000 -0.585412 0.511181 0.629275 0.000000
105.00000000 237.18800354 322.50000000 -0.871255 0.001330 -0.490829 0.000000
203.43800354 165.00000000 357.50000000 0.528759 0.779478 -0.335899 0.000000
181.87500000 195.93800354 447.50000000 0.000978 0.000978 0.999999 0.000000
113.90599823 303.75000000 390.00000000 -0.701101 0.701101 0.130055 0.000000
243.75000000 165.93800354 442.50000000 0.000978 0.000978 0.999999 0.000000
135.93800354 252.18800354 347.50000000 -0.134212 0.952774 -0.272411 0.000000
166.87500000 276.56201172 422.50000000 0.000978 0.000978 0.999999 0.000000
175.31199646 180.93800354 452.50000000 0.616374 0.129216 0.776780 0.000000
179.06199646 237.65600586 360.00000000 0.618388 0.402864 -0.674756 0.000000
110.62500000 192.18800354 442.50000000 -0.656470 0.189100 0.730266 0.000000
250.31199646 184.68800354 392.50000000 0.492030 0.670034 -0.555843 0.000000
174.37500000 243.75000000 362.50000000 0.446756 0.705841 -0.549725 0.000000
178.12500000 233.43800354 352.50000000 0.383887 0.703519 -0.598073 0.000000
121.87500000 237.18800354 442.50000000 -0.442058 0.612209 0.655580 0.000000
262.50000000 167.81199646 402.50000000 0.947263 0.203668 -0.247409 0.000000
195.93800354 180.00000000 387.50000000 0.531206 0.302867 -0.791260 0.000000
286.87500000 183.75000000 432.50000000 0.000978 0.000978 0.999999 0.000000
156.56199646 175.31199646 457.50000000 0.000978 0.000978 0.999999 0.000000
201.56199646 212.34399414 365.00000000 0.521646 0.781667 -0.341879 0.000000
250.31199646 179.06199646 387.50000000 0.210455 -0.186630 -0.959624 0.000000
269.06201172 174.37500000 437.50000000 0.000978 0.000978 0.999999 0.000000
193.59399414 218.43800354 365.00000000 0.753781 0.647156 -0.114030 0.000000
249.37500000 186.09399414 395.00000000 0.492030 0.670034 -0.555843 0.000000
169.68800354 192.18800354 452.50000000 0.761489 -0.004146 0.648164 0.000000
178.12500000 130.31199646 422.50000000 -0.223958 -0.696932 0.681270 0.000000
208.59399414 95.62500000 365.00000000 -0.474605 -0.846963 0.239591 0.000000
118.59400177 208.12500000 300.00000000 0.378468 0.369124 -0.848828 0.000000
188.43800354 149.06199646 437.50000000 0.000978 0.000978 0.999999 0.000000
143.43800354 302.81201172 387.50000000 0.579901 0.245403 -0.776848 0.000000
198.75000000 138.75000000 432.50000000 -0.701101 -0.701101 -0.130055 0.000000
142.50000000 150.46899414 335.00000000 -0.257596 -0.943599 -0.208005 0.000000
207.18800354 120.93800354 427.50000000 -0.001339 -0.512919 0.858436 0.000000
105.93800354 192.18800354 437.50000000 -0.871120 -0.303595 0.385978 0.000000
136.87500000 232.50000000 332.50000000 0.186603 0.397797 -0.898297 0.000000
146.25000000 239.06199646 342.50000000 -0.000978 -0.000978 -0.999999 0.000000
110.62500000 183.28100586 350.00000000 -0.863684 -0.482090 -0.147103 0.000000
201.56199646 152.81199646 347.50000000 0.824342 0.405024 -0.395494 0.000000
254.06199646 120.93800354 432.50000000 0.240291 -0.837191 0.491295 0.000000
199.68800354 125.62500000 342.50000000 0.751149 -0.132907 -0.646615 0.000000
261.09399414 203.43800354 420.00000000 0.274714 0.744746 -0.608182 0.000000
117.65599823 209.06199646 300.00000000 0.571297 0.728445 -0.378137 0.000000
115.31199646 227.81199646 442.50000000 -0.439974 0.099169 0.892518 0.000000
108.28099823 210.00000000 300.00000000 0.052942 -0.673934 -0.736892 0.000000
185.62500000 187.50000000 442.50000000 0.000978 0.000978 0.999999 0.000000
212.81199646 153.75000000 362.50000000 0.767845 -0.009685 0.640563 0.000000
264.37500000 114.37500000 382.50000000 0.217811 0.344747 -0.913076 0.000000
119.53099823 171.56199646 445.00000000 -0.797265 -0.423597 0.430040 0.000000
287.81201172 157.50000000 422.50000000 -0.000978 -0.000978 -0.999999 0.000000
225.00000000 125.15599823 435.00000000 -0.490830 -0.431733 0.756764 0.000000
180.93800354 169.68800354 442.50000000 0.568884 -0.238464 0.787087 0.000000
109.68800354 230.62500000 437.50000000 -0.307617 0.096378 0.946616 0.000000
225.93800354 173.90600586 380.00000000 -0.402520 0.770817 -0.493779 0.000000
229.68800354 184.68800354 392.50000000 -0.069831 0.896851 -0.436787 0.000000
106.87500000 185.15600586 370.00000000 -0.830587 -0.556887 0.001355 0.000000
281.25000000 170.62500000 437.50000000 0.126549 0.379646 0.916436 0.000000
268.59399414 148.12500000 405.00000000 0.548976 0.330030 -0.767923 0.000000
128.43800354 263.90600586 355.00000000 0.457701 0.534262 -0.710685 0.000000
109.68800354 181.87500000 357.50000000 -0.855534 -0.487818 -0.173479 0.000000
189.37500000 160.31199646 342.50000000 0.095777 0.521768 -0.847694 0.000000
113.43800354 210.93800354 297.50000000 0.399834 0.765397 -0.504281 0.000000
100.31199646 254.06199646 337.50000000 0.987833 -0.132729 0.081047 0.000000
156.56199646 296.25000000 387.50000000 0.485427 0.445934 -0.752000 0.000000
128.43800354 178.12500000 452.50000000 0.000978 0.000978 0.999999 0.000000
170.62500000 158.43800354 442.50000000 0.467698 -0.665505 0.581689 0.000000
111.56199646 211.40600586 300.00000000 -0.260762 0.744356 -0.614766 0.000000
251.25000000 210.00000000 427.50000000 -0.278170 0.956129 0.091861 0.000000
171.56199646 222.18800354 447.50000000 0.000978 0.000978 0.999999 0.000000
167.81199646 241.40600586 355.00000000 0.453296 0.453296 -0.767493 0.000000
98.43750000 256.87500000 342.50000000 0.000978 0.000978 -0.999999 0.000000
277.50000000 189.37500000 427.50000000 0.913514 0.394253 -0.100280 0.000000
271.87500000 158.43800354 412.50000000 0.419077 -0.278877 -0.864061 0.000000
210.93800354 177.18800354 442.50000000 0.000978 0.000978 0.999999 0.000000
122.81199646 276.56201172 357.50000000 0.656816 -0.656816 -0.370385 0.000000
135.00000000 287.81201172 372.50000000 -0.000978 -0.000978 -0.999999 0.000000
153.75000000 260.62500000 362.50000000 0.518624 0.518624 -0.679749 0.000000
98.43750000 231.56199646 422.50000000 0.000978 0.000978 0.999999 0.000000
152.81199646 214.68800354 452.50000000 0.196409 0.356977 0.913231 0.000000
183.75000000 234.37500000 427.50000000 0.453296 -0.453296 0.767493 0.000000
189.37500000 163.12500000 347.50000000 0.357449 0.716530 -0.599012 0.000000
165.46899414 241.87500000 440.00000000 0.418088 0.779239 0.466893 0.000000
152.81199646 170.62500000 322.50000000 -0.000978 -0.000978 -0.999999 0.000000
182.81199646 164.06199646 347.50000000 -0.099575 0.943968 -0.314656 0.000000
140.62500000 142.96899414 360.00000000 0.001330 -0.871255 -0.490829 0.000000
96.56250000 272.81201172 362.50000000 -0.609786 0.745998 -0.267672 0.000000
150.93800354 134.53100586 355.00000000 -0.000978 -0.000978 -0.999999 0.000000
189.37500000 108.75000000 397.50000000 -0.435570 -0.847889 0.302264 0.000000
99.37500000 199.68800354 367.50000000 -0.940410 -0.325885 -0.097100 0.000000
283.12500000 165.93800354 437.50000000 0.000978 0.000978 0.999999 0.000000
157.50000000 229.68800354 447.50000000 0.000978 0.000978 0.999999 0.000000
225.93800354 144.37500000 442.50000000 0.000978 0.000978 0.999999 0.000000
265.31201172 189.37500000 417.50000000 0.729337 0.385155 -0.565441 0.000000
271.87500000 204.37500000 427.50000000 0.683408 -0.041203 -0.728873 0.000000
292.50000000 143.43800354 432.50000000 0.000978 0.000978 0.999999 0.000000
227.81199646 115.31199646 357.50000000 -0.000978 -0.000978 -0.999999 0.000000
216.56199646 189.37500000 402.50000000 -0.561479 0.726136 -0.396822 0.000000
281.25000000 175.31199646 432.50000000 0.115875 0.299677 0.946978 0.000000
192.65600586 253.12500000 405.00000000 0.999999 -0.000978 -0.000978 0.000000
129.37500000 158.43800354 357.50000000 -0.424772 -0.614670 -0.664643 0.000000
259.68798828 120.93800354 382.50000000 0.356285 0.048288 -0.933129 0.000000
279.37500000 131.25000000 407.50000000 0.514923 0.429377 -0.741950 0.000000
274.68798828 192.18800354 432.50000000 0.000978 0.000978 0.999999 0.000000
256.87500000 189.37500000 437.50000000 0.000978 0.000978 0.999999 0.000000
219.37500000 145.78100586 365.00000000 -0.341174 0.644803 -0.683981 0.000000
127.50000000 190.31199646 457.50000000 -0.221772 -0.003520 0.975092 0.000000
127.03099823 163.12500000 345.00000000 -0.804594 -0.536915 -0.253673 0.000000
275.15600586 202.50000000 430.00000000 0.822690 0.319323 -0.470333 0.000000
215.62500000 196.87500000 437.50000000 0.406807 0.287964 0.866940 0.000000
263.43798828 146.25000000 397.50000000 0.710791 0.213082 -0.670352 0.000000
98.43750000 243.75000000 422.50000000 -0.843190 0.377011 0.383268 0.000000
152.81199646 208.12500000 457.50000000 0.000978 0.000978 0.999999 0.000000
119.06199646 167.81199646 302.50000000 -0.446689 -0.894688 0.001310 0.000000
94.68750000 226.87500000 417.50000000 -0.823990 0.034738 0.565538 0.000000
245.62500000 151.87500000 377.50000000 0.840607 0.240392 -0.485378 0.000000
261.56201172 175.78100586 440.00000000 0.477187 0.668063 0.570951 0.000000
199.68800354 101.25000000 392.50000000 -0.277906 -0.884792 0.374046 0.000000
120.00000000 164.06199646 442.50000000 -0.676454 0.032481 -0.735768 0.000000
91.40619659 224.06199646 370.00000000 -0.964730 -0.235708 -0.117210 0.000000
189.37500000 99.84380341 375.00000000 -0.319947 -0.947295 0.016311 0.000000
163.12500000 182.81199646 342.50000000 0.857634 -0.450827 -0.247424 0.000000
124.21900177 153.75000000 425.00000000 -0.656816 -0.656816 0.370385 0.000000
167.81199646 167.81199646 357.50000000 -0.000978 -0.000978 -0.999999 0.000000
228.75000000 189.37500000 397.50000000 0.040634 -0.163698 -0.985673 0.000000
140.62500000 239.06199646 342.50000000 -0.000978 -0.000978 -0.999999 0.000000
146.25000000 183.75000000 462.50000000 -0.418771 -0.390110 0.820027 0.000000
123.75000000 251.25000000 432.50000000 0.000978 0.000978 0.999999 0.000000
112.03099823 182.81199646 345.00000000 -0.858111 -0.492646 -0.144724 0.000000
271.87500000 118.12500000 392.50000000 0.691179 0.384355 -0.611999 0.000000
195.93800354 152.81199646 342.50000000 0.272020 0.061995 -0.960293 0.000000
141.56199646 252.18800354 352.50000000 0.229460 0.257273 -0.938700 0.000000
92.34380341 228.75000000 350.00000000 -0.701101 0.701101 0.130055 0.000000
170.62500000 223.12500000 342.50000000 0.257357 0.404847 -0.877420 0.000000
134.06199646 156.56199646 442.50000000 0.000978 0.000978 0.999999 0.000000
127.50000000 213.75000000 452.50000000 0.000978 0.000978 0.999999 0.000000
233.43800354 105.00000000 412.50000000 0.413221 -0.688701 0.595768 0.000000
255.00000000 185.62500000 402.50000000 0.873518 0.398155 -0.280071 0.000000
112.50000000 180.46899414 350.00000000 -0.847256 -0.501802 -0.174216 0.000000
231.09399414 202.50000000 405.00000000 0.487412 -0.048055 0.871849 0.000000
199.68800354 204.37500000 352.50000000 0.520541 -0.831357 -0.194637 0.000000
254.06199646 103.12500000 372.50000000 0.188668 0.940587 0.282314 0.000000
224.06199646 187.50000000 397.50000000 0.079343 -0.601565 -0.794874 0.000000
199.68800354 204.37500000 432.50000000 -0.304739 0.633664 0.711058 0.000000
185.62500000 274.68798828 397.50000000 0.676957 0.620681 -0.395581 0.000000
183.75000000 104.06199646 382.50000000 -0.548503 -0.822012 0.153105 0.000000
189.37500000 262.50000000 392.50000000 0.787147 0.517818 -0.335059 0.000000
175.31199646 162.18800354 442.50000000 -0.000978 -0.000978 0.999999 0.000000
112.50000000 236.25000000 322.50000000 -0.000978 -0.000978 -0.999999 0.000000
91.87500000 217.96899414 405.00000000 -0.967523 -0.177444 0.180034 0.000000
238.12500000 173.43800354 442.50000000 0.000978 0.000978 0.999999 0.000000
124.68800354 158.43800354 392.50000000 -0.750640 -0.551989 -0.363108 0.000000
201.56199646 150.00000000 347.50000000 0.887801 0.273976 -0.369792 0.000000
157.50000000 125.62500000 357.50000000 -0.699576 0.702572 0.130328 0.000000
239.06199646 196.87500000 402.50000000 -0.049931 0.697613 -0.714733 0.000000
184.68800354 202.50000000 367.50000000 0.601890 -0.793335 -0.091371 0.000000
172.50000000 204.37500000 452.50000000 0.000978 0.000978 0.999999 0.000000
119.06199646 161.25000000 397.50000000 -0.672718 -0.388424 -0.629744 0.000000
225.00000000 191.71899414 395.00000000 -0.403077 -0.180590 -0.897171 0.000000
175.31199646 179.06199646 362.50000000 -0.518624 0.518624 -0.679749 0.000000
264.37500000 190.31199646 437.50000000 0.313618 0.313618 0.896263 0.000000
242.81199646 174.37500000 382.50000000 0.405449 0.063309 -0.911923 0.000000
220.31199646 180.93800354 442.50000000 0.000978 0.000978 0.999999 0.000000
263.43798828 146.25000000 442.50000000 0.000978 0.000978 0.999999 0.000000
256.40600586 144.37500000 385.00000000 0.661019 0.101582 -0.743462 0.000000
256.87500000 107.81199646 377.50000000 -0.000978 -0.000978 -0.999999 0.000000
288.75000000 149.06199646 422.50000000 0.724590 0.289516 -0.625419 0.000000
122.81199646 160.78100586 440.00000000 -0.501325 -0.714513 0.488001 0.000000
201.56199646 143.43800354 437.50000000 0.000978 0.000978 0.999999 0.000000
131.71899414 157.50000000 330.00000000 -0.000978 -0.000978 -0.999999 0.000000
149.53100586 302.81201172 390.00000000 0.425588 0.707106 -0.564691 0.000000
182.81199646 278.43798828 397.50000000 0.676957 0.620681 -0.395581 0.000000
131.25000000 219.37500000 452.50000000 0.672247 0.448721 0.588841 0.000000
128.90600586 150.93800354 375.00000000 -0.789545 -0.612844 0.032255 0.000000
130.31199646 239.06199646 337.50000000 0.398582 0.049323 -0.915805 0.000000
131.25000000 297.18798828 412.50000000 -0.505514 0.841524 0.190505 0.000000
171.56199646 173.43800354 357.50000000 -0.000978 -0.000978 -0.999999 0.000000
215.62500000 161.25000000 442.50000000 0.000978 0.000978 0.999999 0.000000
232.50000000 183.75000000 392.50000000 -0.000978 -0.000978 -0.999999 0.000000
122.81199646 265.31201172 352.50000000 0.459335 0.442989 -0.769917 0.000000
124.21900177 295.31201172 370.00000000 0.562639 0.538984 -0.626844 0.000000
184.68800354 184.68800354 442.50000000 0.000978 0.000978 0.999999 0.000000
130.31199646 220.78100586 320.00000000 0.351778 0.785477 -0.509194 0.000000
206.25000000 209.53100586 360.00000000 0.498543 0.279747 -0.820486 0.000000
189.37500000 199.21899414 360.00000000 -0.346229 0.841289 -0.415161 0.000000
152.81199646 225.00000000 337.50000000 0.032556 0.376352 -0.925905 0.000000
106.87500000 285.00000000 407.50000000 -0.591528 0.393803 0.703572 0.000000
114.37500000 285.93798828 357.50000000 0.716497 0.390367 -0.578139 0.000000
154.68800354 170.15600586 340.00000000 0.247309 -0.493082 -0.834092 0.000000
227.81199646 168.75000000 377.50000000 -0.000978 -0.000978 -0.999999 0.000000
240.00000000 153.75000000 442.50000000 -0.000978 -0.000978 0.999999 0.000000
204.37500000 157.96899414 350.00000000 0.264324 0.615701 -0.742324 0.000000
208.12500000 171.56199646 392.50000000 -0.000978 -0.000978 -0.999999 0.000000
203.43800354 191.25000000 442.50000000 0.000978 0.000978 0.999999 0.000000
165.00000000 195.00000000 457.50000000 0.505631 0.255135 0.824163 0.000000
146.25000000 287.81201172 422.50000000 -0.000978 -0.000978 0.999999 0.000000
111.56199646 217.50000000 442.50000000 0.000978 0.000978 0.999999 0.000000
154.68800354 158.43800354 452.50000000 -0.482407 -0.745838 0.459357 0.000000
111.56199646 243.75000000 432.50000000 -0.707925 0.041142 0.705088 0.000000
143.43800354 248.43800354 352.50000000 0.120431 0.718125 -0.685415 0.000000
178.12500000 227.81199646 347.50000000 0.314347 0.786666 -0.531359 0.000000
136.40600586 140.62500000 395.00000000 -0.534263 -0.838315 -0.108590 0.000000
165.93800354 220.31199646 447.50000000 0.505085 0.101589 0.857070 0.000000
190.31199646 148.12500000 437.50000000 0.000978 0.000978 0.999999 0.000000
123.75000000 298.12500000 372.50000000 0.655654 0.595287 -0.464491 0.000000
172.96899414 246.56199646 365.00000000 0.538750 0.695538 -0.475368 0.000000
166.87500000 255.00000000 367.50000000 0.429892 0.708740 -0.559357 0.000000
222.18800354 189.84399414 440.00000000 0.825922 0.308741 0.471732 0.000000
265.78100586 187.50000000 415.00000000 0.817851 0.225561 -0.529378 0.000000
212.81199646 119.06199646 427.50000000 -0.353116 -0.419031 0.836494 0.000000
255.00000000 179.06199646 392.50000000 0.797773 0.190672 -0.572017 0.000000
208.12500000 127.50000000 432.50000000 -0.432935 -0.549047 0.714923 0.000000
274.21899414 133.12500000 440.00000000 0.551122 -0.406349 0.728797 0.000000
262.50000000 103.12500000 412.50000000 -0.014908 -0.857876 0.513641 0.000000
106.87500000 242.81199646 327.50000000 -0.000978 -0.000978 -0.999999 0.000000
215.62500000 94.68750000 372.50000000 -0.647695 -0.742182 0.172211 0.000000
105.00000000 193.59399414 340.00000000 -0.898348 -0.437794 0.036148 0.000000
109.21900177 180.00000000 305.00000000 -0.702572 -0.699576 0.130328 0.000000
121.87500000 167.81199646 352.50000000 -0.701101 -0.701101 -0.130055 0.000000
206.25000000 202.03100586 435.00000000 0.216549 0.674573 0.705732 0.000000
235.31199646 193.12500000 377.50000000 0.936934 0.091961 -0.337190 0.000000
240.93800354 100.31199646 407.50000000 -0.983039 0.001139 0.183394 0.000000
259.68798828 197.81199646 432.50000000 0.173584 0.394508 0.902348 0.000000
213.75000000 102.65599823 405.00000000 -0.237080 -0.955017 0.178145 0.000000
127.50000000 227.81199646 447.50000000 0.000978 0.000978 0.999999 0.000000
203.90600586 131.25000000 345.00000000 0.631386 -0.085636 -0.770726 0.000000
134.06199646 180.93800354 302.50000000 0.730182 0.001380 -0.683251 0.000000
150.00000000 256.87500000 437.50000000 -0.000978 -0.000978 0.999999 0.000000
194.06199646 140.62500000 337.50000000 -0.334627 0.834210 0.438314 0.000000
187.50000000 117.18800354 412.50000000 -0.440342 -0.882138 0.167127 0.000000
169.68800354 144.37500000 427.50000000 -0.836569 -0.501332 -0.220952 0.000000
292.50000000 127.50000000 422.50000000 0.913257 0.403657 -0.054983 0.000000
102.65599823 287.81201172 370.00000000 -0.756798 0.613240 -0.226259 0.000000
243.75000000 88.12500000 377.50000000 0.128202 -0.903047 0.409964 0.000000
157.50000000 207.18800354 457.50000000 0.000978 0.000978 0.999999 0.000000
169.68800354 277.50000000 422.50000000 0.000978 0.000978 0.999999 0.000000
292.50000000 127.03099823 420.00000000 0.494375 0.534595 -0.685421 0.000000
198.75000000 180.93800354 442.50000000 0.000978 0.000978 0.999999 0.000000
275.62500000 122.34400177 400.00000000 0.193286 0.495952 -0.846565 0.000000
120.00000000 187.50000000 452.50000000 0.000978 0.000978 0.999999 0.000000
161.71899414 285.00000000 385.00000000 0.933568 0.312114 -0.176171 0.000000
183.75000000 218.43800354 427.50000000 0.214649 0.384032 0.898023 0.000000
189.37500000 124.68800354 422.50000000 -0.516853 -0.570727 0.638070 0.000000
204.84399414 192.18800354 380.00000000 -0.547608 -0.684929 -0.480622 0.000000
133.12500000 168.75000000 452.50000000 -0.221613 -0.512003 0.829904 0.000000
91.87500000 215.62500000 402.50000000 -0.977694 -0.112763 0.177199 0.000000
219.37500000 225.93800354 382.50000000 0.000978 0.000978 -0.999999 0.000000
233.43800354 208.12500000 382.50000000 0.453296 0.453296 -0.767493 0.000000
213.75000000 125.62500000 432.50000000 -0.173479 -0.487818 0.855534 0.000000
219.37500000 198.75000000 432.50000000 -0.258570 0.849149 0.460530 0.000000
108.75000000 228.75000000 437.50000000 -0.399120 0.298193 0.867055 0.000000
94.68750000 255.00000000 347.50000000 -0.853842 0.268263 -0.446082 0.000000
113.43800354 178.59399414 330.00000000 -0.788962 -0.614253 0.015252 0.000000
188.43800354 262.50000000 392.50000000 0.787147 0.517818 -0.335059 0.000000
160.31199646 199.68800354 457.50000000 0.000978 0.000978 0.999999 0.000000
248.43800354 95.15619659 400.00000000 -0.067536 -0.930941 0.358869 0.000000
131.25000000 255.93800354 432.50000000 -0.000978 -0.000978 0.999999 0.000000
130.31199646 286.87500000 372.50000000 0.510581 0.451095 -0.731997 0.000000
100.31199646 202.96899414 340.00000000 0.000978 0.000978 -0.999999 0.000000
166.87500000 150.00000000 347.50000000 0.656816 0.656816 -0.370385 0.000000
138.75000000 292.50000000 377.50000000 0.518228 0.123388 -0.846295 0.000000
230.62500000 91.87500000 387.50000000 0.056870 -0.866923 0.495187 0.000000
233.43800354 146.71899414 365.00000000 0.644833 0.537080 -0.543815 0.000000
236.71899414 123.75000000 365.00000000 0.583358 0.029238 -0.811689 0.000000
229.68800354 195.93800354 407.50000000 -0.431569 -0.144812 -0.890380 0.000000
269.06201172 125.62500000 392.50000000 0.934923 0.248098 -0.253705 0.000000
179.06199646 242.81199646 432.50000000 0.516803 0.201568 0.832037 0.000000
177.18800354 208.12500000 337.50000000 -0.000978 -0.000978 -0.999999 0.000000
109.68800354 240.00000000 432.50000000 -0.365875 0.209691 0.906733 0.000000
276.09399414 138.75000000 410.00000000 0.085487 0.780970 -0.618690 0.000000
141.56199646 149.06199646 342.50000000 -0.800607 -0.583745 -0.135167 0.000000
93.75000000 218.90600586 355.00000000 -0.976644 -0.168387 0.133462 0.000000
139.68800354 234.37500000 337.50000000 -0.000978 -0.000978 -0.999999 0.000000
105.93800354 187.03100586 305.00000000 -0.876422 -0.453523 -0.161868 0.000000
134.06199646 187.50000000 302.50000000 0.983039 0.001139 -0.183394 0.000000
155.15600586 165.00000000 345.00000000 0.886133 -0.418819 -0.198388 0.000000
96.56250000 210.00000000 362.50000000 -0.946821 -0.316468 -0.058127 0.000000
193.12500000 98.90619659 365.00000000 0.227867 -0.971820 -0.060354 0.000000
225.93800354 188.43800354 387.50000000 -0.098659 0.899046 0.426595 0.000000
118.12500000 225.93800354 317.50000000 0.029546 0.733025 -0.679560 0.000000
247.50000000 195.93800354 437.50000000 0.000978 0.000978 0.999999 0.000000
280.31201172 165.00000000 422.50000000 -0.334093 0.334093 -0.881342 0.000000
206.71899414 140.62500000 370.00000000 -0.560861 0.441033 -0.700660 0.000000
107.81199646 285.46899414 360.00000000 -0.511099 0.632549 -0.581945 0.000000
239.06199646 178.12500000 442.50000000 0.000978 0.000978 0.999999 0.000000
261.56201172 172.50000000 402.50000000 0.738858 0.223376 -0.635761 0.000000
137.81199646 237.18800354 337.50000000 -0.000978 -0.000978 -0.999999 0.000000
180.93800354 267.18798828 387.50000000 -0.000978 -0.000978 -0.999999 0.000000
162.18800354 135.93800354 417.50000000 -0.041427 -0.907375 0.418275 0.000000
210.00000000 104.06199646 407.50000000 -0.175247 -0.910427 0.374714 0.000000
272.81201172 188.43800354 422.50000000 0.426413 0.019802 -0.904312 0.000000
119.53099823 171.56199646 345.00000000 -0.802121 -0.593369 -0.067201 0.000000
164.06199646 233.90600586 445.00000000 -0.465445 0.279886 0.839657 0.000000
198.75000000 100.78099823 360.00000000 0.263596 -0.962314 -0.066845 0.000000
267.18798828 143.43800354 442.50000000 0.000978 0.000978 0.999999 0.000000
126.56199646 255.93800354 432.50000000 0.000978 0.000978 0.999999 0.000000
137.81199646 288.75000000 422.50000000 -0.928212 0.151233 0.339928 0.000000
211.87500000 129.37500000 437.50000000 0.216141 -0.205401 0.954512 0.000000
116.25000000 188.43800354 447.50000000 -0.632348 -0.474681 0.612220 0.000000
118.12500000 246.56199646 337.50000000 0.453439 0.539808 -0.709225 0.000000
191.71899414 248.43800354 395.00000000 0.947138 -0.305145 -0.099073 0.000000
163.12500000 233.43800354 347.50000000 0.202899 0.683043 -0.701629 0.000000
93.75000000 240.00000000 412.50000000 -0.956089 0.274469 0.102763 0.000000
198.75000000 203.43800354 432.50000000 -0.304739 0.633664 0.711058 0.000000
235.31199646 190.78100586 380.00000000 0.935585 0.248274 -0.251079 0.000000
234.37500000 203.43800354 412.50000000 0.252156 0.947289 -0.197636 0.000000
230.62500000 87.65619659 365.00000000 -0.656816 -0.656816 0.370385 0.000000
188.43800354 202.96899414 345.00000000 0.258903 -0.681407 -0.684583 0.000000
231.56199646 122.81199646 362.50000000 -0.000978 -0.000978 -0.999999 0.000000
162.18800354 300.00000000 397.50000000 0.556634 0.721807 -0.411282 0.000000
96.09380341 218.43800354 340.00000000 -0.983039 -0.001139 -0.183394 0.000000
209.06199646 126.56199646 432.50000000 -0.222849 -0.809942 0.542523 0.000000
111.56199646 224.53100586 440.00000000 -0.615552 0.055442 0.786144 0.000000
90.93750000 256.87500000 402.50000000 -0.765755 0.184943 0.615967 0.000000
170.62500000 198.75000000 367.50000000 0.726826 -0.461924 0.508282 0.000000
199.21899414 105.00000000 400.00000000 -0.000978 -0.999999 -0.000978 0.000000
265.31201172 158.43800354 442.50000000 0.000978 0.000978 0.999999 0.000000
112.50000000 172.50000000 437.50000000 0.000978 0.000978 -0.999999 0.000000
165.46899414 230.62500000 345.00000000 0.149771 0.715574 -0.682292 0.000000
275.62500000 123.75000000 432.50000000 0.000978 0.000978 0.999999 0.000000
180.93800354 111.56199646 397.50000000 -0.237506 -0.945905 0.221031 0.000000
155.62500000 275.62500000 427.50000000 0.137560 0.281797 0.949562 0.000000
187.96899414 239.06199646 400.00000000 0.895573 -0.444469 0.019902 0.000000
115.31199646 240.00000000 327.50000000 -0.000978 -0.000978 -0.999999 0.000000
224.06199646 89.06250000 362.50000000 -0.195528 -0.980010 -0.036736 0.000000
119.06199646 228.75000000 442.50000000 -0.048117 0.167823 0.984642 0.000000
187.03100586 244.68800354 425.00000000 0.713035 -0.473695 0.516909 0.000000
237.18800354 122.34400177 365.00000000 0.543298 0.179093 -0.820215 0.000000
223.12500000 139.68800354 442.50000000 0.000978 0.000978 0.999999 0.000000
252.65600586 132.18800354 380.00000000 0.698261 -0.111188 -0.707156 0.000000
248.43800354 188.43800354 437.50000000 0.000978 0.000978 0.999999 0.000000
252.18800354 137.81199646 442.50000000 0.000978 0.000978 0.999999 0.000000
158.43800354 167.81199646 457.50000000 0.000978 0.000978 0.999999 0.000000
171.56199646 149.06199646 432.50000000 0.453296 -0.453296 0.767493 0.000000
203.43800354 120.93800354 367.50000000 0.881070 -0.079338 0.466285 0.000000
144.37500000 143.43800354 422.50000000 -0.312459 -0.942740 0.116669 0.000000
233.43800354 147.18800354 442.50000000 -0.000978 -0.000978 0.999999 0.000000
101.25000000 274.21899414 355.00000000 -0.342969 0.536192 -0.771279 0.000000
92.81250000 214.21899414 385.00000000 -0.993189 -0.100106 -0.059614 0.000000
294.37500000 154.68800354 427.50000000 -0.535062 0.246594 -0.808022 0.000000
118.12500000 254.06199646 342.50000000 0.678824 0.481044 -0.554792 0.000000
185.62500000 200.62500000 382.50000000 -0.000978 -0.000978 -0.999999 0.000000
209.06199646 132.18800354 392.50000000 0.678651 -0.073798 -0.730744 0.000000
165.93800354 268.12500000 427.50000000 0.000978 0.000978 0.999999 0.000000
183.75000000 157.03100586 340.00000000 0.319519 0.796412 -0.513455 0.000000
180.93800354 283.59399414 405.00000000 0.354768 0.927329 -0.119169 0.000000
234.37500000 144.37500000 367.50000000 0.519454 0.348983 -0.779986 0.000000
213.75000000 142.50000000 382.50000000 -0.717809 0.688330 -0.104650 0.000000
210.93800354 149.53100586 365.00000000 0.937580 -0.184192 0.294985 0.000000
199.21899414 178.12500000 390.00000000 0.753437 0.092168 -0.651028 0.000000
105.00000000 240.93800354 427.50000000 -0.775338 0.256349 0.577179 0.000000
215.62500000 139.21899414 390.00000000 -0.799835 -0.001367 -0.600218 0.000000
262.50000000 174.37500000 402.50000000 0.700056 0.326476 -0.635086 0.000000
135.93800354 166.87500000 452.50000000 -0.433168 -0.711989 0.552663 0.000000
100.31199646 202.03100586 325.00000000 -0.946821 -0.316468 -0.058127 0.000000
164.06199646 152.81199646 442.50000000 0.205586 -0.817774 0.537569 0.000000
126.56199646 224.06199646 447.50000000 -0.172630 0.083297 0.981458 0.000000
186.56199646 235.78100586 420.00000000 0.918456 -0.030135 -0.394373 0.000000
195.00000000 201.09399414 370.00000000 -0.001139 -0.983039 -0.183394 0.000000
222.18800354 190.31199646 397.50000000 -0.009155 -0.422438 -0.906345 0.000000
209.06199646 131.25000000 392.50000000 0.663079 -0.001379 -0.748548 0.000000
178.12500000 175.31199646 447.50000000 0.641624 -0.092078 0.761472 0.000000
174.37500000 108.28099823 365.00000000 -0.614253 -0.788962 -0.015252 0.000000
191.25000000 132.18800354 427.50000000 0.000978 0.000978 0.999999 0.000000
193.12500000 187.50000000 442.50000000 0.000978 0.000978 0.999999 0.000000
242.81199646 105.93800354 362.50000000 0.000978 0.000978 -0.999999 0.000000
133.12500000 197.81199646 457.50000000 0.000978 0.000978 0.999999 0.000000
208.12500000 133.12500000 347.50000000 0.559085 -0.301046 -0.772525 0.000000
221.25000000 235.31199646 397.50000000 -0.047385 0.995076 0.087055 0.000000
169.68800354 194.53100586 365.00000000 0.726826 -0.461924 0.508282 0.000000
139.68800354 180.00000000 457.50000000 -0.574397 -0.040529 0.817573 0.000000
118.12500000 214.68800354 447.50000000 0.000978 0.000978 0.999999 0.000000
265.31201172 153.75000000 442.50000000 0.000978 0.000978 0.999999 0.000000
208.59399414 217.50000000 405.00000000 -0.657901 0.752885 -0.018159 0.000000
200.62500000 186.56199646 392.50000000 -0.189462 -0.980672 0.048855 0.000000
167.81199646 159.37500000 447.50000000 -0.000978 -0.000978 0.999999 0.000000
223.12500000 117.18800354 357.50000000 0.155686 0.168344 -0.973356 0.000000
127.50000000 271.87500000 427.50000000 0.000978 0.000978 0.999999 0.000000
131.25000000 278.43798828 367.50000000 0.013042 0.228822 -0.973381 0.000000
123.75000000 159.37500000 367.50000000 0.000978 0.000978 -0.999999 0.000000
175.31199646 283.59399414 415.00000000 0.530485 0.412234 0.740708 0.000000
151.87500000 190.31199646 462.50000000 0.354587 0.131073 0.925790 0.000000
243.75000000 119.06199646 367.50000000 0.288501 0.282702 -0.914794 0.000000
160.31199646 262.50000000 372.50000000 0.399593 0.474011 -0.784626 0.000000
183.75000000 211.87500000 442.50000000 0.231251 0.828521 -0.509977 0.000000
245.62500000 132.18800354 372.50000000 0.522985 0.040017 -0.851402 0.000000
113.43800354 299.06201172 372.50000000 -0.020912 0.276772 -0.960708 0.000000
207.18800354 149.06199646 442.50000000 0.000978 0.000978 0.999999 0.000000
210.93800354 142.50000000 347.50000000 0.947744 0.079522 -0.308962 0.000000
244.68800354 192.18800354 437.50000000 0.000978 0.000978 0.999999 0.000000
215.62500000 187.50000000 402.50000000 -0.531753 0.636415 -0.558762 0.000000
257.34399414 210.00000000 430.00000000 -0.482892 0.614131 0.624226 0.000000
170.62500000 216.56199646 447.50000000 0.645433 0.233989 0.727094 0.000000
139.68800354 193.12500000 457.50000000 -0.980010 0.195528 0.036736 0.000000
265.31201172 183.75000000 437.50000000 0.000978 0.000978 0.999999 0.000000
175.31199646 240.00000000 357.50000000 0.464868 0.615908 -0.636047 0.000000
244.68800354 200.62500000 407.50000000 0.192732 0.698460 -0.689209 0.000000
101.25000000 182.81199646 417.50000000 -0.927460 -0.309153 -0.210337 0.000000
169.68800354 249.37500000 362.50000000 0.556696 -0.029009 -0.830209 0.000000
167.81199646 191.25000000 457.50000000 0.732429 0.236824 0.638327 0.000000
127.50000000 229.68800354 447.50000000 -0.335686 0.363277 0.869106 0.000000
277.50000000 120.00000000 432.50000000 0.000978 0.000978 0.999999 0.000000
131.25000000 200.62500000 302.50000000 0.678550 0.514358 -0.524410 0.000000
166.87500000 257.81201172 372.50000000 0.614738 0.434815 -0.658053 0.000000
229.68800354 139.68800354 442.50000000 -0.000978 -0.000978 0.999999 0.000000
120.00000000 292.50000000 412.50000000 0.000978 0.000978 0.999999 0.000000
231.56199646 110.15599823 420.00000000 0.909704 -0.302261 -0.284739 0.000000
152.81199646 306.09399414 395.00000000 0.521428 0.636176 -0.568677 0.000000
178.12500000 249.37500000 372.50000000 0.458334 0.350490 -0.816754 0.000000
144.37500000 154.68800354 447.50000000 -0.194756 -0.834884 0.514820 0.000000
134.06199646 270.00000000 362.50000000 0.031764 0.841068 -0.539996 0.000000
184.68800354 126.56199646 332.50000000 -0.000978 -0.000978 -0.999999 0.000000
166.87500000 197.81199646 337.50000000 0.001367 -0.799835 -0.600218 0.000000
159.37500000 186.56199646 322.50000000 0.494554 -0.850989 -0.176732 0.000000
126.56199646 284.06201172 422.50000000 0.000978 0.000978 0.999999 0.000000
280.31201172 180.00000000 432.50000000 0.000978 0.000978 0.999999 0.000000
265.31201172 194.06199646 417.50000000 0.467328 0.340595 -0.815843 0.000000
267.18798828 172.50000000 437.50000000 0.000978 0.000978 0.999999 0.000000
122.81199646 292.50000000 367.50000000 0.528066 0.350429 -0.773528 0.000000
119.06199646 255.93800354 427.50000000 -0.569887 0.750700 0.334183 0.000000
183.75000000 132.18800354 332.50000000 -0.000978 -0.000978 -0.999999 0.000000
184.68800354 198.75000000 382.50000000 -0.000978 -0.000978 -0.999999 0.000000
161.71899414 183.75000000 330.00000000 0.001354 -0.553762 -0.832674 0.000000
278.43798828 163.12500000 437.50000000 0.102444 0.442052 0.891120 0.000000
265.31201172 200.62500000 432.50000000 0.000978 0.000978 0.999999 0.000000
225.93800354 205.78100586 430.00000000 0.423389 0.848329 0.317930 0.000000
135.46899414 253.12500000 350.00000000 0.553336 0.577026 -0.600716 0.000000
244.68800354 209.06199646 427.50000000 -0.439367 0.535530 0.721224 0.000000
130.31199646 262.96899414 355.00000000 0.169256 0.687696 -0.705994 0.000000
185.62500000 108.28099823 395.00000000 -0.299022 -0.749953 0.590048 0.000000
291.56201172 133.12500000 422.50000000 0.000978 0.000978 -0.999999 0.000000
225.93800354 193.12500000 397.50000000 -0.032886 0.137216 -0.989995 0.000000
184.68800354 143.43800354 432.50000000 -0.767628 -0.545547 0.336340 0.000000
297.18798828 155.62500000 427.50000000 -0.770172 0.195233 -0.607222 0.000000
252.18800354 197.81199646 407.50000000 -0.241851 0.966139 -0.089903 0.000000
181.87500000 146.25000000 337.50000000 0.457693 0.756259 -0.467536 0.000000
249.37500000 118.12500000 372.50000000 -0.000978 -0.000978 -0.999999 0.000000
118.12500000 190.31199646 452.50000000 -0.810647 0.206097 0.548065 0.000000
182.81199646 272.81201172 412.50000000 0.423389 0.848329 0.317930 0.000000
212.81199646 215.62500000 377.50000000 -0.038357 0.963882 -0.263552 0.000000
129.84399414 150.00000000 380.00000000 -0.855542 -0.513885 0.063010 0.000000
98.43750000 194.06199646 392.50000000 -0.848329 -0.423389 -0.317930 0.000000
201.56199646 145.31199646 437.50000000 0.000978 0.000978 0.999999 0.000000
232.50000000 197.81199646 397.50000000 -0.422471 0.905295 -0.044259 0.000000
157.96899414 278.43798828 425.00000000 0.350767 0.595488 0.722743 0.000000
162.18800354 159.37500000 452.50000000 0.891500 0.445057 -0.084575 0.000000
195.93800354 138.75000000 342.50000000 0.686436 0.395321 -0.610349 0.000000
210.00000000 170.62500000 392.50000000 -0.000978 -0.000978 -0.999999 0.000000
154.68800354 215.62500000 332.50000000 0.503339 0.752549 -0.424641 0.000000
150.00000000 168.75000000 457.50000000 0.000978 0.000978 0.999999 0.000000
225.00000000 165.93800354 372.50000000 -0.000978 -0.000978 -0.999999 0.000000
128.43800354 204.37500000 302.50000000 0.557076 0.658056 -0.506585 0.000000
245.62500000 177.18800354 387.50000000 0.164046 0.582438 -0.796150 0.000000
109.68800354 215.62500000 442.50000000 0.000978 0.000978 0.999999 0.000000
194.06199646 160.31199646 347.50000000 -0.000978 -0.000978 -0.999999 0.000000
165.93800354 261.56201172 372.50000000 -0.000978 -0.000978 -0.999999 0.000000
101.71900177 254.06199646 420.00000000 -0.687746 0.258898 0.678216 0.000000
189.84399414 219.37500000 355.00000000 0.809831 0.576366 -0.109437 0.000000
269.06201172 100.31199646 402.50000000 0.087643 -0.948379 0.304789 0.000000
110.15599823 180.93800354 440.00000000 -0.808283 -0.009606 0.588716 0.000000
134.06199646 181.87500000 457.50000000 0.000978 0.000978 0.999999 0.000000
265.31201172 181.87500000 412.50000000 0.462269 -0.103198 -0.880714 0.000000
157.50000000 235.31199646 447.50000000 0.609408 0.229112 0.759032 0.000000
126.56199646 254.06199646 347.50000000 -0.797161 0.598948 0.076125 0.000000
279.37500000 184.68800354 427.50000000 0.721447 0.442819 -0.532378 0.000000
196.87500000 191.25000000 387.50000000 -0.000978 -0.000978 -0.999999 0.000000
228.75000000 179.06199646 442.50000000 0.999999 0.000978 0.000978 0.000000
289.68798828 144.37500000 437.50000000 0.730562 0.395653 0.556541 0.000000
221.25000000 112.96900177 355.00000000 0.808331 0.308463 -0.501450 0.000000
135.93800354 236.25000000 337.50000000 -0.000978 -0.000978 -0.999999 0.000000
171.56199646 282.18798828 387.50000000 0.592291 0.737539 -0.324388 0.000000
259.68798828 176.25000000 442.50000000 0.483408 0.680786 0.550316 0.000000
186.56199646 141.56199646 432.50000000 -0.539194 -0.569619 0.620326 0.000000
216.56199646 94.21880341 375.00000000 -0.636463 -0.733897 0.237299 0.000000
104.06199646 181.87500000 432.50000000 -0.828754 -0.188696 0.526840 0.000000
181.87500000 139.68800354 332.50000000 -0.000978 -0.000978 -0.999999 0.000000
240.93800354 132.18800354 367.50000000 0.433203 0.867916 -0.243016 0.000000
170.62500000 139.21899414 425.00000000 0.208075 -0.784520 0.584152 0.000000
103.12500000 195.46899414 330.00000000 -0.928114 -0.368341 0.054129 0.000000
224.06199646 202.50000000 372.50000000 0.038790 -0.100855 -0.994145 0.000000
154.68800354 228.75000000 337.50000000 0.238698 0.331284 -0.912839 0.000000
220.31199646 178.12500000 392.50000000 -0.472584 0.763656 -0.439879 0.000000
240.00000000 172.50000000 442.50000000 0.000978 0.000978 0.999999 0.000000
120.93800354 241.87500000 332.50000000 -0.000978 -0.000978 -0.999999 0.000000
122.81199646 234.37500000 327.50000000 0.556981 0.421454 -0.715646 0.000000
132.18800354 284.06201172 367.50000000 0.738067 -0.061865 -0.671885 0.000000
117.65599823 159.37500000 425.00000000 -0.708486 -0.705724 -0.001381 0.000000
216.56199646 139.68800354 362.50000000 0.308075 0.393907 -0.865983 0.000000
105.93800354 207.18800354 302.50000000 -0.809217 0.518087 -0.277043 0.000000
289.68798828 139.68800354 437.50000000 0.000978 0.000978 0.999999 0.000000
210.93800354 188.43800354 442.50000000 0.000978 0.000978 0.999999 0.000000
242.34399414 132.18800354 370.00000000 0.590104 0.459713 -0.663658 0.000000
123.75000000 207.18800354 302.50000000 0.452614 0.752163 -0.478948 0.000000
243.75000000 174.37500000 382.50000000 0.378812 0.123496 -0.917197 0.000000
192.18800354 98.90619659 370.00000000 -0.316468 -0.946821 -0.058127 0.000000
176.25000000 252.18800354 432.50000000 -0.000978 -0.000978 0.999999 0.000000
147.18800354 138.75000000 417.50000000 -0.296093 -0.796442 0.527267 0.000000
252.18800354 137.81199646 382.50000000 0.364653 0.915179 -0.171685 0.000000
264.37500000 120.00000000 432.50000000 0.244927 -0.500636 0.830286 0.000000
171.56199646 276.09399414 385.00000000 0.589756 0.339557 -0.732727 0.000000
175.31199646 175.78100586 450.00000000 0.825216 -0.072687 0.560121 0.000000
150.93800354 226.87500000 337.50000000 0.201467 0.347210 -0.915891 0.000000
99.37500000 205.78100586 350.00000000 0.000978 0.000978 -0.999999 0.000000
106.87500000 208.12500000 302.50000000 -0.809217 0.518087 -0.277043 0.000000
180.00000000 245.62500000 432.50000000 0.624523 0.254552 0.738360 0.000000
136.87500000 309.37500000 407.50000000 -0.266210 0.782877 0.562348 0.000000
121.87500000 160.78100586 395.00000000 -0.729461 -0.413306 -0.545037 0.000000
205.31199646 214.68800354 407.50000000 -0.158895 0.749076 0.643146 0.000000
241.87500000 201.56199646 407.50000000 0.023830 0.755567 -0.654638 0.000000
165.00000000 116.25000000 367.50000000 -0.639622 -0.767263 -0.046802 0.000000
190.31199646 158.43800354 442.50000000 -0.000978 -0.000978 0.999999 0.000000
126.56199646 159.37500000 442.50000000 -0.418744 -0.574325 0.703424 0.000000
125.62500000 207.65600586 305.00000000 0.446336 0.742795 -0.499040 0.000000
210.00000000 192.18800354 437.50000000 0.495720 0.154453 0.854638 0.000000
238.12500000 110.62500000 362.50000000 -0.000978 -0.000978 -0.999999 0.000000
237.18800354 122.81199646 432.50000000 0.178425 -0.520281 0.835148 0.000000
190.78100586 216.56199646 420.00000000 0.472095 0.801762 0.366474 0.000000
159.37500000 191.25000000 457.50000000 0.485410 0.122433 0.865672 0.000000
105.93800354 209.06199646 302.50000000 -0.540551 0.346921 -0.766453 0.000000
168.28100586 195.93800354 340.00000000 0.464658 -0.649180 -0.602211 0.000000
226.87500000 116.25000000 357.50000000 -0.000978 -0.000978 -0.999999 0.000000
248.43800354 187.03100586 395.00000000 0.496590 0.789080 -0.361595 0.000000
228.28100586 94.68750000 395.00000000 0.073351 -0.953565 0.292118 0.000000
123.75000000 271.87500000 427.50000000 -0.266923 0.122285 0.955928 0.000000
179.06199646 125.62500000 417.50000000 -0.518624 -0.518624 0.679749 0.000000
92.81250000 265.31201172 402.50000000 -0.871255 -0.001330 -0.490829 0.000000
201.56199646 120.93800354 422.50000000 0.348866 -0.469934 0.810835 0.000000
165.00000000 257.81201172 432.50000000 -0.000978 -0.000978 0.999999 0.000000
221.25000000 188.43800354 442.50000000 0.405107 0.450298 0.795688 0.000000
239.06199646 109.21900177 420.00000000 0.379129 -0.488835 0.785685 0.000000
194.06199646 184.68800354 442.50000000 0.000978 0.000978 0.999999 0.000000
119.06199646 180.00000000 447.50000000 -0.906550 -0.256295 0.335380 0.000000
225.93800354 207.65600586 425.00000000 -0.003214 0.995232 0.097488 0.000000
170.62500000 203.43800354 337.50000000 -0.000978 -0.000978 -0.999999 0.000000
207.18800354 216.09399414 385.00000000 -0.496328 0.865428 -0.068507 0.000000
120.00000000 273.75000000 422.50000000 -0.097117 0.223244 0.969913 0.000000
162.18800354 255.00000000 362.50000000 0.837527 -0.280208 -0.469077 0.000000
104.06199646 279.37500000 357.50000000 -0.746113 0.433174 -0.505644 0.000000
135.00000000 250.31199646 437.50000000 0.000978 0.000978 0.999999 0.000000
275.62500000 189.37500000 422.50000000 0.595397 0.204619 -0.776939 0.000000
99.37500000 225.93800354 422.50000000 -0.787124 0.032271 0.615949 0.000000
205.31199646 146.25000000 372.50000000 0.504844 -0.051176 -0.861692 0.000000
231.09399414 223.12500000 395.00000000 0.813364 0.581753 0.001362 0.000000
122.81199646 225.00000000 317.50000000 0.531456 0.605691 -0.592194 0.000000
108.75000000 186.56199646 352.50000000 -0.896224 -0.359971 -0.259238 0.000000
132.18800354 288.28100586 420.00000000 -0.075844 0.579564 0.811390 0.000000
230.62500000 154.68800354 367.50000000 0.012793 0.196547 -0.980411 0.000000
108.75000000 253.12500000 427.50000000 0.000978 0.000978 0.999999 0.000000
147.18800354 216.56199646 327.50000000 0.382583 0.166402 -0.908813 0.000000
235.31199646 199.68800354 382.50000000 0.876131 0.235132 -0.420842 0.000000
189.37500000 157.50000000 342.50000000 -0.000978 -0.000978 -0.999999 0.000000
183.75000000 270.00000000 392.50000000 0.590505 0.343241 -0.730404 0.000000
235.31199646 135.93800354 442.50000000 0.064897 -0.278677 0.958190 0.000000
138.75000000 240.00000000 342.50000000 0.000978 0.000978 -0.999999 0.000000
251.25000000 124.68800354 437.50000000 -0.340028 -0.765465 0.546300 0.000000
137.81199646 151.40600586 350.00000000 -0.714810 -0.638052 -0.286244 0.000000
118.12500000 240.00000000 437.50000000 0.000978 0.000978 0.999999 0.000000
134.06199646 308.43798828 387.50000000 0.466423 0.725362 -0.506260 0.000000
111.56199646 250.31199646 332.50000000 0.000978 0.000978 -0.999999 0.000000
291.09399414 151.87500000 435.00000000 0.641584 0.018092 0.766839 0.000000
182.81199646 276.56201172 397.50000000 0.676957 0.620681 -0.395581 0.000000
209.06199646 181.87500000 442.50000000 0.000978 0.000978 0.999999 0.000000
290.62500000 131.25000000 422.50000000 0.974108 0.214967 0.070018 0.000000
258.75000000 185.62500000 437.50000000 0.000978 0.000978 0.999999 0.000000
150.00000000 304.68798828 412.50000000 0.445057 0.891500 0.084575 0.000000
264.37500000 145.31199646 397.50000000 0.710791 0.213082 -0.670352 0.000000
100.31199646 240.00000000 327.50000000 -0.787147 0.335059 -0.517818 0.000000
242.81199646 154.68800354 372.50000000 -0.000978 -0.000978 -0.999999 0.000000
218.43800354 114.37500000 422.50000000 -0.731076 -0.489042 0.475780 0.000000
180.93800354 165.93800354 442.50000000 0.221526 -0.176425 0.959062 0.000000
216.56199646 215.62500000 372.50000000 0.179181 0.718256 -0.672312 0.000000
288.28100586 123.75000000 415.00000000 0.348380 0.685311 -0.639515 0.000000
169.68800354 264.37500000 377.50000000 0.478315 0.619292 -0.622649 0.000000
282.18798828 166.87500000 422.50000000 -0.000978 -0.000978 -0.999999 0.000000
217.50000000 122.81199646 432.50000000 -0.116624 -0.502490 0.856681 0.000000
259.68798828 157.50000000 392.50000000 -0.000978 -0.000978 -0.999999 0.000000
179.06199646 249.37500000 372.50000000 0.458334 0.350490 -0.816754 0.000000
148.12500000 253.12500000 352.50000000 0.000978 0.000978 -0.999999 0.000000
283.12500000 143.43800354 437.50000000 0.000978 0.000978 0.999999 0.000000
283.12500000 169.68800354 422.50000000 -0.000978 -0.000978 -0.999999 0.000000
240.93800354 90.00000000 382.50000000 -0.241851 -0.966139 0.089903 0.000000
187.50000000 248.43800354 382.50000000 0.730182 0.001380 -0.683251 0.000000
105.00000000 264.37500000 342.50000000 -0.083930 0.425156 -0.901220 0.000000
105.00000000 187.96899414 375.00000000 -0.848518 -0.516050 -0.117087 0.000000
252.18800354 164.06199646 442.50000000 0.000978 0.000978 0.999999 0.000000
108.28099823 297.18798828 380.00000000 -0.771186 0.633321 -0.064625 0.000000
103.12500000 212.34399414 305.00000000 -0.167335 0.502005 -0.848522 0.000000
255.00000000 92.81250000 392.50000000 -0.008548 -0.958627 0.284535 0.000000
114.37500000 304.21899414 390.00000000 -0.701101 0.701101 0.130055 0.000000
259.68798828 141.56199646 387.50000000 0.670157 0.133432 -0.730127 0.000000
168.75000000 260.62500000 372.50000000 -0.000978 -0.000978 -0.999999 0.000000
153.75000000 243.75000000 442.50000000 -0.000978 -0.000978 0.999999 0.000000
99.37500000 268.12500000 352.50000000 -0.690803 0.390741 -0.608369 0.000000
131.25000000 222.65600586 450.00000000 -0.474021 0.393130 0.787878 0.000000
212.81199646 139.68800354 442.50000000 0.001367 -0.799835 0.600218 0.000000
185.15600586 218.43800354 345.00000000 0.623687 0.145777 -0.767961 0.000000
116.25000000 286.40600586 360.00000000 0.548758 0.439338 -0.711230 0.000000
123.75000000 309.37500000 382.50000000 0.039152 0.892387 -0.449569 0.000000
114.37500000 212.81199646 302.50000000 0.460006 0.654045 -0.600517 0.000000
178.12500000 251.25000000 372.50000000 0.763798 0.298184 -0.572450 0.000000
264.37500000 104.06199646 412.50000000 -0.006695 -0.866322 0.499441 0.000000
180.00000000 251.25000000 427.50000000 0.000978 0.000978 0.999999 0.000000
174.37500000 290.62500000 407.50000000 0.831764 0.544348 0.108870 0.000000
163.12500000 180.93800354 347.50000000 0.999999 -0.000978 -0.000978 0.000000
93.75000000 262.50000000 357.50000000 -0.799835 -0.001367 -0.600218 0.000000
199.68800354 186.56199646 387.50000000 -0.315568 -0.800814 -0.509032 0.000000
187.50000000 159.37500000 442.50000000 0.000978 0.000978 0.999999 0.000000
165.00000000 205.31199646 332.50000000 -0.000978 -0.000978 -0.999999 0.000000
204.37500000 160.31199646 387.50000000 -0.000978 -0.000978 -0.999999 0.000000
293.43798828 151.87500000 427.50000000 0.673925 -0.076813 -0.734796 0.000000
165.00000000 191.25000000 337.50000000 0.937990 0.282092 -0.201494 0.000000
228.75000000 174.37500000 442.50000000 0.000978 0.000978 0.999999 0.000000
96.09380341 223.12500000 420.00000000 -0.673418 0.182544 0.716370 0.000000
220.31199646 186.09399414 400.00000000 -0.490073 -0.402153 -0.773371 0.000000
115.31199646 304.68798828 392.50000000 -0.686171 0.695507 0.213164 0.000000
