93.63279724 134.67199707 157.50000000 0.432644 0.848231 0.305487 0.000000
56.97660065 176.10899353 122.50000000 0.902783 0.421849 -0.083820 0.000000
48.21089935 231.09399414 150.00000000 0.999999 0.000978 0.000978 0.000000
94.82810211 192.04699707 146.25000000 -0.101137 0.129693 0.986383 0.000000
158.57800293 200.81199646 186.25000000 -0.701991 -0.498564 0.508569 0.000000
92.43750000 158.57800293 201.25000000 0.393901 0.575195 -0.716933 0.000000
241.45300293 182.48399353 188.75000000 -0.213025 0.300492 -0.929691 0.000000
83.67189789 219.14100647 206.25000000 0.374628 -0.024630 -0.926848 0.000000
149.41400146 219.14100647 200.00000000 -0.368427 -0.266998 -0.890490 0.000000
74.10939789 206.39100647 201.25000000 0.439849 0.075836 -0.894864 0.000000
97.21880341 179.29699707 211.25000000 0.542544 0.199085 -0.816095 0.000000
180.89100647 83.27339935 182.50000000 0.252088 0.511909 -0.821219 0.000000
179.29699707 194.83599854 180.00000000 0.557999 -0.769047 -0.311776 0.000000
48.60940170 238.26600647 141.25000000 0.953006 -0.001227 0.302950 0.000000
159.37500000 231.09399414 191.25000000 -0.550678 -0.159682 -0.819302 0.000000
132.28100586 283.68798828 201.25000000 -0.573889 -0.091071 -0.813853 0.000000
229.50000000 139.45300293 168.75000000 0.263886 -0.523088 -0.810397 0.000000
84.46880341 165.75000000 131.25000000 -0.944087 0.136024 0.300330 0.000000
229.50000000 117.14099884 176.25000000 0.330154 -0.354497 -0.874832 0.000000
166.54699707 144.63299561 197.50000000 0.544571 0.279389 -0.790812 0.000000
88.45310211 204.39799500 102.50000000 -0.523036 0.667670 0.529764 0.000000
168.14100647 194.83599854 162.50000000 -0.159507 -0.986152 0.045407 0.000000
84.46880341 255.00000000 88.75000000 -0.350476 -0.608035 0.712362 0.000000
125.90599823 236.67199707 126.25000000 -0.619634 -0.129276 0.774171 0.000000
99.60939789 173.32000732 210.00000000 0.148984 0.066867 -0.986576 0.000000
218.34399414 133.87500000 196.25000000 -0.478171 -0.156466 -0.864217 0.000000
130.68800354 140.25000000 158.75000000 -0.000978 -0.000978 -0.999999 0.000000
160.96899414 171.32800293 203.75000000 0.000978 0.000978 -0.999999 0.000000
87.65619659 197.62500000 133.75000000 -0.232268 0.954581 0.186620 0.000000
52.19530106 204.79699707 92.50000000 0.999999 0.000978 0.000978 0.000000
115.54699707 161.76600647 208.75000000 0.315529 0.263183 -0.911689 0.000000
161.76600647 268.54699707 183.75000000 0.001302 -0.902354 -0.430994 0.000000
112.35900116 266.95300293 208.75000000 -0.000978 -0.000978 -0.999999 0.000000
64.54689789 239.06199646 198.75000000 0.671230 -0.244802 -0.699659 0.000000
62.55469894 159.37500000 145.00000000 0.808791 0.585773 0.052226 0.000000
244.64100647 136.26600647 176.25000000 0.139422 -0.117599 -0.983225 0.000000
133.47700500 205.59399414 160.00000000 -0.265386 0.240111 0.933765 0.000000
200.81199646 90.84380341 178.75000000 -0.000978 -0.000978 -0.999999 0.000000
98.41410065 223.12500000 100.00000000 -0.684318 0.182997 0.705847 0.000000
65.34380341 275.71899414 181.25000000 0.808734 -0.460994 -0.365286 0.000000
174.51600647 138.65600586 201.25000000 0.000978 0.000978 -0.999999 0.000000
214.35899353 121.12500000 171.25000000 0.032908 -0.244984 -0.968968 0.000000
147.02299500 228.70300293 142.50000000 -0.748757 -0.232912 0.620577 0.000000
73.31250000 237.46899414 73.75000000 0.849323 0.199929 0.488548 0.000000
154.59399414 172.92199707 161.25000000 0.000978 0.000978 0.999999 0.000000
227.10899353 170.53100586 191.25000000 -0.105410 0.014127 -0.994329 0.000000
100.80500031 254.20300293 102.50000000 -0.783175 0.026525 0.621235 0.000000
109.17199707 249.42199707 208.75000000 -0.000978 -0.000978 -0.999999 0.000000
228.70300293 161.76600647 191.25000000 -0.000978 -0.000978 -0.999999 0.000000
188.85899353 192.84399414 151.25000000 -0.060408 -0.844312 0.532436 0.000000
90.44529724 206.39100647 102.50000000 -0.522257 0.676751 0.518898 0.000000
106.78099823 168.14100647 143.75000000 0.000978 0.000978 0.999999 0.000000
90.04689789 257.39099121 208.75000000 -0.000978 -0.000978 -0.999999 0.000000
195.23399353 179.29699707 163.75000000 0.445921 0.586210 -0.676396 0.000000
74.10939789 199.21899414 198.75000000 0.399654 0.190381 -0.896678 0.000000
125.10900116 130.68800354 156.25000000 -0.564798 0.381443 0.731782 0.000000
49.40620041 218.34399414 181.25000000 0.863193 0.141197 -0.484727 0.000000
81.67970276 142.64100647 160.00000000 0.600218 0.799835 0.001367 0.000000
103.59400177 184.07800293 141.25000000 -0.279999 -0.391998 0.876321 0.000000
108.37500000 215.95300293 208.75000000 -0.000978 -0.000978 -0.999999 0.000000
109.17199707 125.10900116 176.25000000 0.027905 0.969407 -0.243868 0.000000
79.68750000 150.60899353 186.25000000 0.662461 0.384921 -0.642636 0.000000
105.18800354 211.96899414 113.75000000 -0.628811 0.289605 0.721613 0.000000
159.37500000 151.40600586 198.75000000 -0.051217 0.361147 -0.931101 0.000000
94.03119659 168.14100647 136.25000000 -0.517005 0.136208 0.845076 0.000000
207.18800354 120.32800293 168.75000000 0.282788 -0.417303 -0.863649 0.000000
231.09399414 124.31199646 191.25000000 -0.330299 0.075008 -0.940891 0.000000
221.92999268 111.56199646 197.50000000 -0.334438 -0.045194 -0.941333 0.000000
229.50000000 109.17199707 178.75000000 0.162985 -0.702206 -0.693067 0.000000
123.91400146 270.93798828 130.00000000 -0.685050 0.089100 0.723027 0.000000
211.96899414 113.15599823 201.25000000 -0.313618 -0.313618 -0.896263 0.000000
60.56250000 162.16400146 145.00000000 0.858009 0.506296 0.086510 0.000000
78.09380341 188.06199646 201.25000000 0.662481 0.248233 -0.706752 0.000000
107.97699738 251.01600647 112.50000000 -0.722599 -0.153003 0.674122 0.000000
82.87500000 173.71899414 131.25000000 -0.637806 -0.162103 0.752945 0.000000
143.83599854 220.73399353 135.00000000 -0.719094 -0.083141 0.689922 0.000000
217.54699707 99.21089935 182.50000000 0.571557 -0.531093 -0.625510 0.000000
81.28119659 267.75000000 208.75000000 0.420638 -0.166232 -0.891869 0.000000
52.19530106 235.07800293 185.00000000 0.856228 0.513737 0.054297 0.000000
154.99200439 279.70300293 170.00000000 -0.917616 -0.216162 0.333548 0.000000
162.56199646 153.00000000 148.75000000 -0.428569 0.019780 -0.903292 0.000000
183.28100586 170.53100586 201.25000000 -0.378186 0.001273 -0.925729 0.000000
124.31199646 192.84399414 211.25000000 -0.000978 -0.000978 -0.999999 0.000000
90.04689789 233.48399353 91.25000000 -0.350181 0.448421 0.822370 0.000000
90.84380341 296.03900146 157.50000000 0.432182 -0.801705 0.412902 0.000000
136.26600647 154.59399414 151.25000000 0.333332 -0.665039 -0.668291 0.000000
215.15600586 137.85899353 163.75000000 0.311283 -0.708047 -0.633855 0.000000
53.39059830 183.28100586 133.75000000 0.944689 0.307790 0.113256 0.000000
100.40599823 162.56199646 208.75000000 0.091650 0.392592 -0.915135 0.000000
112.35900116 124.71099854 162.50000000 0.001320 0.883337 0.468736 0.000000
55.78120041 197.62500000 76.25000000 0.927255 0.245659 0.282578 0.000000
96.42189789 129.89100647 176.25000000 0.142677 0.967893 0.206947 0.000000
113.15599823 172.12500000 143.75000000 -0.014654 0.149923 0.988589 0.000000
56.57809830 197.22700500 77.50000000 0.523137 0.650978 0.550051 0.000000
228.70300293 144.23399353 191.25000000 -0.351796 -0.011430 -0.936007 0.000000
171.32800293 149.81199646 198.75000000 0.199204 0.435297 -0.877972 0.000000
129.89100647 208.38299561 157.50000000 0.130413 0.531911 0.836698 0.000000
121.12500000 274.92199707 206.25000000 -0.439233 0.243012 -0.864881 0.000000
192.84399414 179.69500732 162.50000000 0.386654 0.577513 -0.719012 0.000000
54.18750000 184.07800293 96.25000000 0.210055 0.808021 0.550435 0.000000
254.20300293 146.62500000 183.75000000 0.331862 0.581163 -0.743046 0.000000
55.78120041 198.42199707 76.25000000 0.927255 0.245659 0.282578 0.000000
123.51599884 255.79699707 128.75000000 -0.608436 -0.188508 0.770890 0.000000
129.89100647 200.01600647 141.25000000 -0.075251 0.904381 -0.420038 0.000000
245.43800354 167.34399414 191.25000000 -0.047455 0.151625 -0.987298 0.000000
141.84399414 137.85899353 188.75000000 -0.879049 -0.438791 -0.186376 0.000000
186.46899414 104.39099884 196.25000000 0.237990 0.385810 -0.891354 0.000000
212.76600647 96.42189789 181.25000000 0.381345 -0.474670 -0.793262 0.000000
239.85899353 178.50000000 183.75000000 0.291685 0.878077 -0.379342 0.000000
172.92199707 168.93800354 203.75000000 -0.000978 -0.000978 -0.999999 0.000000
125.10900116 161.76600647 211.25000000 -0.092295 0.409129 -0.907797 0.000000
117.14099884 221.53100586 118.75000000 -0.509585 -0.020383 0.860179 0.000000
55.78120041 199.21899414 76.25000000 0.982983 0.122418 0.136963 0.000000
140.25000000 270.93798828 201.25000000 -0.501419 -0.113502 -0.857728 0.000000
168.14100647 176.90600586 161.25000000 -0.093026 0.163098 0.982214 0.000000
211.17199707 164.95300293 158.75000000 0.204793 0.514258 -0.832825 0.000000
66.53910065 274.12500000 192.50000000 0.763128 -0.302371 -0.571146 0.000000
136.26600647 195.23399353 208.75000000 -0.324056 -0.171068 -0.930443 0.000000
248.22700500 121.12500000 180.00000000 0.529919 -0.379911 -0.758191 0.000000
145.82800293 255.00000000 198.75000000 -0.372816 0.308905 -0.874977 0.000000
122.71900177 168.93800354 211.25000000 -0.000978 -0.000978 -0.999999 0.000000
78.09380341 278.50799561 125.00000000 0.278584 -0.829527 0.484020 0.000000
73.71089935 176.10899353 197.50000000 -0.175245 -0.522739 -0.834286 0.000000
171.32800293 133.07800293 201.25000000 0.714677 0.386090 -0.583242 0.000000
221.13299561 115.54699707 197.50000000 -0.422091 -0.055290 -0.904866 0.000000
109.96900177 216.75000000 116.25000000 -0.668150 -0.725985 0.162852 0.000000
94.03119659 172.12500000 136.25000000 -0.526823 -0.054499 0.848226 0.000000
188.85899353 107.57800293 201.25000000 0.105178 0.969412 -0.221761 0.000000
94.03119659 183.28100586 208.75000000 0.329830 -0.153185 -0.931529 0.000000
140.64799500 302.01599121 185.00000000 -0.570043 -0.742193 -0.352420 0.000000
107.57800293 145.82800293 198.75000000 0.547436 0.743533 -0.384022 0.000000
145.03100586 196.42999268 162.50000000 -0.037799 0.070198 0.996817 0.000000
54.98440170 200.81199646 76.25000000 0.984164 0.094700 0.149842 0.000000
244.64100647 120.32800293 188.75000000 -0.555949 0.827492 -0.078605 0.000000
144.23399353 127.10199738 180.00000000 0.394938 0.545703 -0.739075 0.000000
223.92199707 126.70300293 193.75000000 -0.406364 -0.043967 -0.912653 0.000000
83.67189789 176.10899353 131.25000000 -0.587815 -0.249234 0.769646 0.000000
58.57030106 166.54699707 152.50000000 0.932485 0.359246 0.037611 0.000000
146.62500000 296.03900146 162.50000000 -0.689700 -0.689700 0.220516 0.000000
82.87500000 266.15600586 208.75000000 0.284220 0.078450 -0.955544 0.000000
89.25000000 223.12500000 91.25000000 -0.700511 0.230369 0.675437 0.000000
54.58589935 176.10899353 147.50000000 0.888918 0.450700 -0.081819 0.000000
114.75000000 255.00000000 118.75000000 -0.661775 -0.076749 0.745764 0.000000
74.10939789 285.67999268 197.50000000 0.861590 -0.493365 -0.119386 0.000000
186.07000732 168.14100647 152.50000000 0.586220 0.586220 -0.559189 0.000000
176.10899353 102.00000000 168.75000000 0.288981 -0.443517 -0.848400 0.000000
47.81250000 210.37500000 168.75000000 0.962058 0.115240 -0.247312 0.000000
197.62500000 92.43750000 178.75000000 0.098435 -0.040922 -0.994302 0.000000
64.94529724 277.31201172 180.00000000 0.808734 -0.460994 -0.365286 0.000000
199.21899414 128.29699707 158.75000000 0.089703 -0.418156 -0.903935 0.000000
49.00780106 204.00000000 167.50000000 0.917074 0.129420 -0.377128 0.000000
166.54699707 149.01600647 198.75000000 0.098675 0.208592 -0.973012 0.000000
213.56199646 174.91400146 167.50000000 0.314656 0.943968 -0.099575 0.000000
150.60899353 167.34399414 161.25000000 0.000978 0.000978 0.999999 0.000000
105.18800354 199.21899414 123.75000000 -0.398893 0.860931 0.315726 0.000000
126.70300293 208.78100586 158.75000000 0.172113 0.763086 0.622958 0.000000
193.64100647 125.10900116 201.25000000 -0.000978 -0.000978 -0.999999 0.000000
151.40600586 112.35900116 181.25000000 0.693048 -0.009722 -0.720826 0.000000
137.06199646 211.96899414 131.25000000 -0.321143 0.143489 0.936097 0.000000
73.31250000 148.21899414 176.25000000 0.635304 0.768443 -0.076700 0.000000
81.28119659 200.81199646 203.75000000 0.470089 0.175362 -0.865023 0.000000
87.65619659 199.21899414 206.25000000 0.415207 -0.063566 -0.907504 0.000000
160.96899414 196.03100586 188.75000000 -0.654068 -0.337636 -0.676903 0.000000
140.25000000 305.20300293 176.25000000 -0.999999 -0.000978 -0.000978 0.000000
221.53100586 170.53100586 163.75000000 0.279072 0.719209 -0.636284 0.000000
53.39059830 239.06199646 118.75000000 0.822212 -0.411901 0.392817 0.000000
129.89100647 286.07800293 203.75000000 -0.541471 -0.078165 -0.837078 0.000000
146.62500000 160.17199707 161.25000000 0.000978 0.000978 0.999999 0.000000
146.62500000 175.31199646 161.25000000 0.000978 0.000978 0.999999 0.000000
128.29699707 149.81199646 151.25000000 -0.120431 -0.718125 0.685415 0.000000
115.54699707 141.04699707 153.75000000 -0.314078 -0.185655 0.931068 0.000000
214.35899353 125.90599823 168.75000000 0.303002 -0.329869 -0.894079 0.000000
47.81250000 207.18800354 166.25000000 0.957502 0.163346 -0.237715 0.000000
174.51600647 170.53100586 203.75000000 -0.000978 -0.000978 -0.999999 0.000000
90.84380341 258.18798828 91.25000000 -0.696989 -0.390512 0.601421 0.000000
109.96900177 218.34399414 208.75000000 -0.000978 -0.000978 -0.999999 0.000000
219.93800354 96.42189789 196.25000000 -0.318994 0.546618 -0.774242 0.000000
66.14060211 204.79699707 76.25000000 -0.666577 0.358674 0.653474 0.000000
141.04699707 152.20300293 203.75000000 -0.419420 0.419420 -0.805093 0.000000
189.65600586 156.18800354 201.25000000 -0.141426 -0.138967 -0.980146 0.000000
64.54689789 205.59399414 76.25000000 -0.666577 0.358674 0.653474 0.000000
162.56199646 153.79699707 198.75000000 -0.066941 0.435798 -0.897552 0.000000
165.35200500 168.14100647 155.00000000 0.378313 0.881725 0.281851 0.000000
146.62500000 237.46899414 146.25000000 -0.792376 -0.309646 0.525604 0.000000
129.09399414 285.28100586 203.75000000 -0.546133 -0.090305 -0.832817 0.000000
66.14060211 206.39100647 76.25000000 -0.666577 0.358674 0.653474 0.000000
192.84399414 188.85899353 153.75000000 -0.657429 -0.374026 0.654134 0.000000
98.81250000 129.09399414 178.75000000 0.220055 0.966440 0.132548 0.000000
144.23399353 282.89099121 196.25000000 -0.632208 0.119927 -0.765461 0.000000
217.54699707 124.31199646 198.75000000 -0.000978 -0.000978 -0.999999 0.000000
139.45300293 300.82000732 190.00000000 -0.587510 -0.667853 -0.456952 0.000000
82.87500000 286.07800293 136.25000000 0.509768 -0.786362 0.348958 0.000000
81.28119659 281.29699707 206.25000000 0.472194 -0.056443 -0.879686 0.000000
105.98400116 163.35899353 208.75000000 0.075854 0.176992 -0.981285 0.000000
149.81199646 200.01600647 143.75000000 -0.106624 0.807711 -0.579857 0.000000
116.34400177 262.17199707 208.75000000 -0.000978 -0.000978 -0.999999 0.000000
224.71899414 153.00000000 161.25000000 0.437565 -0.123198 -0.890707 0.000000
102.79699707 155.39100647 203.75000000 0.422666 0.561897 -0.711073 0.000000
182.48399353 102.79699707 196.25000000 0.124806 0.349730 -0.928500 0.000000
227.10899353 152.20300293 163.75000000 0.634645 -0.149239 -0.758257 0.000000
71.71880341 288.07000732 172.50000000 0.763871 -0.632837 0.126567 0.000000
70.92189789 191.25000000 96.25000000 0.001227 0.953006 0.302950 0.000000
153.00000000 255.00000000 158.75000000 -0.619436 0.009657 0.784987 0.000000
133.07800293 202.40600586 208.75000000 -0.167022 -0.120008 -0.978622 0.000000
68.53119659 208.38299561 77.50000000 -0.726088 0.304281 0.616611 0.000000
145.82800293 298.42999268 167.50000000 -0.737809 -0.655998 0.159076 0.000000
120.32800293 126.70300293 156.25000000 -0.571420 0.353271 0.740729 0.000000
167.34399414 136.26600647 196.25000000 0.835238 0.139943 -0.531783 0.000000
105.18800354 169.73399353 143.75000000 -0.315667 0.227109 0.921290 0.000000
94.82810211 203.20300293 208.75000000 -0.000978 -0.000978 -0.999999 0.000000
247.82800293 168.14100647 191.25000000 -0.000978 -0.000978 -0.999999 0.000000
164.15600586 161.76600647 151.25000000 -0.015315 -0.644617 0.764352 0.000000
129.89100647 137.06199646 198.75000000 -0.307303 0.722404 -0.619433 0.000000
136.26600647 122.71900177 173.75000000 0.259495 0.426422 -0.866502 0.000000
132.28100586 257.39099121 136.25000000 -0.752288 -0.264489 0.603414 0.000000
130.68800354 172.92199707 211.25000000 -0.000978 -0.000978 -0.999999 0.000000
133.87500000 221.53100586 206.25000000 -0.000978 -0.000978 -0.999999 0.000000
50.60160065 199.21899414 105.00000000 0.977641 0.110000 0.179214 0.000000
195.23399353 166.54699707 153.75000000 0.353109 0.412746 -0.839616 0.000000
121.12500000 262.96899414 208.75000000 -0.280030 -0.114378 -0.953153 0.000000
122.71900177 286.07800293 206.25000000 -0.189327 -0.229609 -0.954691 0.000000
144.23399353 267.75000000 198.75000000 -0.560391 -0.037545 -0.827377 0.000000
105.98400116 300.02301025 202.50000000 0.092776 -0.350935 -0.931793 0.000000
82.47660065 234.28100586 207.50000000 0.378615 0.029925 -0.925070 0.000000
148.21899414 131.48399353 183.75000000 0.636528 0.261913 -0.725420 0.000000
148.21899414 186.46899414 161.25000000 0.000978 0.000978 0.999999 0.000000
112.35900116 196.82800293 211.25000000 -0.000978 -0.000978 -0.999999 0.000000
108.37500000 123.11699677 175.00000000 -0.158244 0.610370 -0.776149 0.000000
50.60160065 191.25000000 112.50000000 0.970628 0.229918 0.070840 0.000000
214.35899353 141.84399414 158.75000000 0.276874 -0.317893 -0.906799 0.000000
141.04699707 245.83599854 142.50000000 -0.722221 -0.206571 0.660095 0.000000
77.29689789 144.23399353 173.75000000 0.638031 0.702642 0.314977 0.000000
80.88279724 194.43800354 135.00000000 -0.479443 0.721653 0.499351 0.000000
74.10939789 145.42999268 142.50000000 0.705724 0.708486 0.001381 0.000000
221.53100586 160.17199707 158.75000000 0.116406 0.189003 -0.975053 0.000000
134.67199707 199.61700439 135.00000000 -0.366197 0.860639 0.353836 0.000000
80.08589935 155.39100647 190.00000000 0.847558 0.282519 -0.449252 0.000000
137.06199646 245.43800354 138.75000000 -0.704945 -0.258216 0.660589 0.000000
216.75000000 121.92199707 171.25000000 0.023682 -0.300391 -0.953522 0.000000
56.17969894 213.56199646 77.50000000 0.890213 -0.263933 0.371295 0.000000
136.66400146 235.07800293 205.00000000 -0.446332 0.039105 -0.894013 0.000000
92.43750000 217.54699707 208.75000000 -0.000978 -0.000978 -0.999999 0.000000
50.20309830 227.90600586 118.75000000 0.951916 -0.125775 0.279352 0.000000
107.97699738 134.67199707 147.50000000 0.134046 0.404959 0.904456 0.000000
145.03100586 203.60200500 150.00000000 0.297528 0.833391 -0.465764 0.000000
98.01560211 174.51600647 208.75000000 0.175867 0.308805 -0.934725 0.000000
100.40599823 286.07800293 208.75000000 -0.000978 -0.000978 -0.999999 0.000000
142.64100647 243.84399414 201.25000000 0.179128 -0.472248 -0.863073 0.000000
148.61700439 232.68800354 145.00000000 -0.798169 -0.298721 0.523156 0.000000
96.42189789 229.50000000 98.75000000 -0.511470 -0.294292 0.807336 0.000000
49.40620041 200.41400146 112.50000000 0.688214 0.691335 0.220041 0.000000
68.53119659 160.57000732 185.00000000 0.709225 0.453439 -0.539808 0.000000
77.29689789 268.54699707 206.25000000 0.467603 -0.355889 -0.809129 0.000000
121.12500000 266.95300293 128.75000000 -0.653205 0.067772 0.754142 0.000000
145.82800293 202.40600586 133.75000000 -0.245565 0.394393 0.885524 0.000000
155.39100647 201.21099854 147.50000000 -0.689941 0.437240 0.576891 0.000000
50.20309830 202.40600586 171.25000000 0.897306 0.264609 -0.353305 0.000000
143.03900146 248.62500000 145.00000000 -0.868762 -0.023040 0.494693 0.000000
132.28100586 184.07800293 158.75000000 -0.615919 -0.572045 0.541671 0.000000
92.43750000 210.37500000 208.75000000 0.171631 0.024190 -0.984864 0.000000
222.32800293 131.48399353 196.25000000 -0.375974 0.021964 -0.926370 0.000000
141.04699707 283.68798828 198.75000000 -0.606349 0.094515 -0.789562 0.000000
114.75000000 239.06199646 116.25000000 -0.774144 0.012464 0.632887 0.000000
83.67189789 203.60200500 205.00000000 0.352042 0.133914 -0.926355 0.000000
137.06199646 144.23399353 158.75000000 0.016083 0.086850 -0.996092 0.000000
102.00000000 154.59399414 203.75000000 0.408393 0.570427 -0.712621 0.000000
178.50000000 147.42199707 201.25000000 0.000978 0.000978 -0.999999 0.000000
109.17199707 234.28100586 111.25000000 -0.819585 -0.034787 0.571901 0.000000
86.06250000 249.42199707 208.75000000 -0.000978 -0.000978 -0.999999 0.000000
158.57800293 129.89100647 188.75000000 -0.000978 -0.000978 -0.999999 0.000000
216.75000000 174.11700439 170.00000000 0.391199 0.837385 -0.381772 0.000000
88.45310211 266.15600586 101.25000000 -0.436406 -0.436406 0.786829 0.000000
60.16410065 199.21899414 187.50000000 0.768115 0.211734 -0.604292 0.000000
52.59379959 223.92199707 183.75000000 0.737124 0.029598 -0.675109 0.000000
150.21099854 120.32800293 182.50000000 0.609970 0.243047 -0.754231 0.000000
59.76559830 272.13299561 160.00000000 0.830783 -0.547595 0.099694 0.000000
113.95300293 196.82800293 211.25000000 -0.000978 -0.000978 -0.999999 0.000000
102.79699707 127.50000000 178.75000000 0.332036 0.936961 0.108886 0.000000
186.46899414 163.35899353 201.25000000 -0.235029 -0.100364 -0.966793 0.000000
58.57030106 219.14100647 77.50000000 0.596145 -0.613033 0.518461 0.000000
135.46899414 200.81199646 141.25000000 -0.123691 0.845468 -0.519504 0.000000
127.10199738 213.56199646 125.00000000 -0.307405 -0.049746 0.950278 0.000000
122.71900177 239.06199646 123.75000000 -0.575013 0.046395 0.816828 0.000000
203.20300293 126.70300293 201.25000000 -0.331048 -0.200334 -0.922103 0.000000
79.68750000 286.47698975 147.50000000 0.664650 -0.728530 0.165782 0.000000
191.25000000 157.78100586 151.25000000 0.391632 0.689074 -0.609756 0.000000
57.77339935 232.68800354 92.50000000 0.810770 -0.361581 0.460339 0.000000
151.80499268 284.48400879 165.00000000 -0.890770 -0.132547 0.434696 0.000000
143.43800354 156.98399353 151.25000000 0.130546 -0.544185 -0.828746 0.000000
219.14100647 163.35899353 161.25000000 0.085577 0.389850 -0.916894 0.000000
219.93800354 177.30499268 177.50000000 -0.499865 0.781342 -0.373685 0.000000
153.79699707 282.89099121 188.75000000 -0.734885 -0.503685 -0.454142 0.000000
151.40600586 167.34399414 161.25000000 0.000978 0.000978 0.999999 0.000000
49.40620041 227.90600586 178.75000000 0.523800 0.783297 -0.334783 0.000000
71.71880341 220.73399353 76.25000000 -0.647068 0.290619 0.704871 0.000000
152.20300293 262.17199707 161.25000000 -0.837351 -0.158578 0.523159 0.000000
134.67199707 247.03100586 203.75000000 -0.654020 -0.058676 -0.754198 0.000000
241.45300293 149.81199646 173.75000000 0.696231 0.077036 -0.713673 0.000000
94.82810211 286.07800293 208.75000000 -0.000978 -0.000978 -0.999999 0.000000
171.32800293 191.25000000 153.75000000 0.286963 -0.100896 0.952613 0.000000
133.87500000 201.60899353 131.25000000 -0.391652 0.539136 0.745614 0.000000
68.13279724 151.40600586 142.50000000 0.776144 0.626940 0.067428 0.000000
176.10899353 167.34399414 153.75000000 -0.070662 0.656144 -0.751320 0.000000
137.46099854 227.10899353 132.50000000 -0.573356 -0.167041 0.802097 0.000000
73.71089935 221.53100586 77.50000000 -0.728319 0.292928 0.619471 0.000000
193.64100647 91.64060211 188.75000000 0.001371 0.618487 -0.785794 0.000000
125.90599823 158.57800293 208.75000000 0.006441 0.395465 -0.918458 0.000000
108.37500000 243.84399414 111.25000000 -0.702561 -0.029567 0.711009 0.000000
116.74199677 307.59399414 170.00000000 0.170075 -0.961120 0.217537 0.000000
101.20300293 193.64100647 146.25000000 -0.377220 0.334109 0.863757 0.000000
216.75000000 175.31199646 191.25000000 -0.210609 -0.498492 -0.840922 0.000000
90.04689789 141.04699707 183.75000000 0.519885 0.647753 -0.556899 0.000000
196.03100586 182.08599854 155.00000000 -0.790828 -0.035117 0.611030 0.000000
67.33589935 277.31201172 192.50000000 0.678272 -0.290230 -0.675065 0.000000
192.84399414 153.00000000 201.25000000 -0.086084 -0.135611 -0.987015 0.000000
92.43750000 186.46899414 141.25000000 -0.060290 -0.392556 0.917750 0.000000
113.95300293 154.59399414 208.75000000 -0.362201 0.101742 -0.926530 0.000000
136.26600647 204.00000000 131.25000000 -0.110417 0.119915 0.986625 0.000000
243.84399414 151.40600586 176.25000000 0.649613 0.073787 -0.756676 0.000000
148.61700439 285.28100586 192.50000000 -0.303077 -0.416924 -0.856924 0.000000
103.99199677 186.46899414 142.50000000 -0.264454 -0.347189 0.899736 0.000000
149.01600647 200.01600647 161.25000000 0.167330 0.390436 0.905296 0.000000
159.37500000 92.43750000 178.75000000 0.628303 0.424979 -0.651635 0.000000
131.48399353 231.09399414 206.25000000 -0.086667 -0.013910 -0.996140 0.000000
191.25000000 82.47660065 185.00000000 0.060002 0.294901 -0.953642 0.000000
140.25000000 204.00000000 131.25000000 -0.033712 0.462533 0.885961 0.000000
257.39099121 159.77299500 190.00000000 0.689700 -0.689700 -0.220516 0.000000
158.57800293 201.60899353 176.25000000 -0.986157 -0.079319 -0.145615 0.000000
150.60899353 208.78100586 136.25000000 -0.645701 -0.223572 0.730127 0.000000
96.82029724 251.81199646 97.50000000 -0.837737 0.031743 0.545150 0.000000
73.31250000 224.71899414 76.25000000 -0.562563 0.220401 0.796835 0.000000
115.94499969 281.29699707 207.50000000 -0.501580 -0.110664 -0.858004 0.000000
161.76600647 128.29699707 151.25000000 0.018966 -0.335074 -0.942001 0.000000
184.07800293 161.76600647 201.25000000 -0.000978 -0.000978 -0.999999 0.000000
178.50000000 195.23399353 176.25000000 0.516325 -0.821496 -0.241979 0.000000
223.12500000 165.75000000 161.25000000 0.008701 0.316961 -0.948398 0.000000
126.70300293 270.14099121 206.25000000 -0.000978 -0.000978 -0.999999 0.000000
67.73439789 278.50799561 192.50000000 0.678272 -0.290230 -0.675065 0.000000
157.78100586 164.95300293 203.75000000 -0.295196 -0.141532 -0.944896 0.000000
186.46899414 88.05470276 187.50000000 0.009266 0.459331 -0.888217 0.000000
147.02299500 296.43798828 165.00000000 -0.689700 -0.689700 0.220516 0.000000
196.82800293 94.82810211 191.25000000 0.146026 0.660879 -0.736149 0.000000
228.70300293 126.70300293 193.75000000 -0.292620 0.227593 -0.928749 0.000000
144.23399353 188.06199646 161.25000000 0.000978 0.000978 0.999999 0.000000
60.96089935 226.31199646 77.50000000 0.712621 -0.570427 0.408393 0.000000
135.46899414 141.04699707 201.25000000 -0.079811 0.761831 -0.642840 0.000000
74.10939789 226.31199646 76.25000000 -0.565470 0.206879 0.798401 0.000000
247.42999268 162.56199646 180.00000000 0.739714 -0.020975 -0.672594 0.000000
116.34400177 147.42199707 203.75000000 0.293612 0.494587 -0.818031 0.000000
85.26560211 262.96899414 208.75000000 -0.000978 -0.000978 -0.999999 0.000000
47.41410065 214.35899353 127.50000000 0.998248 -0.059086 0.003110 0.000000
164.15600586 125.10900116 191.25000000 0.676159 0.244300 -0.695073 0.000000
120.32800293 251.01600647 208.75000000 -0.497257 0.045456 -0.866412 0.000000
49.00780106 204.00000000 117.50000000 0.987116 0.054775 0.150340 0.000000
49.00780106 228.70300293 180.00000000 0.523800 0.783297 -0.334783 0.000000
140.25000000 263.76599121 146.25000000 -0.768711 -0.151937 0.621287 0.000000
155.39100647 117.14099884 158.75000000 -0.402436 -0.266783 -0.875712 0.000000
74.90619659 191.64799500 120.00000000 -0.728673 0.683041 0.049909 0.000000
139.45300293 234.28100586 203.75000000 -0.543262 -0.115061 -0.831642 0.000000
90.04689789 180.09399414 208.75000000 0.359971 -0.259238 -0.896224 0.000000
62.95309830 227.90600586 76.25000000 0.769470 -0.509184 0.385548 0.000000
164.95300293 107.57800293 188.75000000 0.441691 0.253479 -0.860615 0.000000
74.90619659 227.90600586 76.25000000 -0.574827 0.157590 0.802957 0.000000
182.48399353 94.82810211 176.25000000 -0.001256 -0.345472 -0.938428 0.000000
149.41400146 204.00000000 135.00000000 -0.338302 -0.037303 0.940298 0.000000
76.50000000 227.90600586 76.25000000 -0.624295 0.308115 0.717859 0.000000
160.96899414 137.85899353 191.25000000 0.089695 0.289885 -0.952849 0.000000
158.17999268 198.42199707 177.50000000 -0.941824 -0.150855 -0.300351 0.000000
124.31199646 277.31201172 206.25000000 -0.000978 -0.000978 -0.999999 0.000000
168.14100647 104.39099884 163.75000000 0.419526 -0.591980 -0.688156 0.000000
94.03119659 300.02301025 170.00000000 0.368812 -0.888433 0.273249 0.000000
178.50000000 105.98400116 168.75000000 0.214568 -0.515875 -0.829357 0.000000
68.53119659 211.96899414 198.75000000 0.560978 0.066749 -0.825135 0.000000
231.09399414 112.35900116 191.25000000 -0.522716 0.126675 -0.843043 0.000000
137.85899353 200.81199646 161.25000000 0.054008 0.080461 0.995293 0.000000
165.75000000 225.51600647 183.75000000 -0.660250 0.032379 0.750348 0.000000
155.78900146 114.75000000 185.00000000 0.401059 -0.199800 -0.893997 0.000000
145.03100586 147.42199707 196.25000000 0.670021 0.670021 0.319598 0.000000
157.38299561 102.00000000 182.50000000 0.771255 0.256038 -0.582761 0.000000
74.90619659 229.50000000 76.25000000 -0.493646 0.278746 0.823781 0.000000
184.87500000 109.17199707 168.75000000 0.453645 -0.386320 -0.803096 0.000000
252.21099854 141.84399414 180.00000000 0.621876 0.085526 -0.778432 0.000000
164.15600586 152.20300293 198.75000000 -0.006122 0.292617 -0.956210 0.000000
120.32800293 176.90600586 211.25000000 -0.000978 -0.000978 -0.999999 0.000000
78.09380341 147.42199707 183.75000000 0.778481 0.329049 -0.534504 0.000000
55.78120041 248.22700500 125.00000000 0.903482 -0.349971 0.247469 0.000000
199.21899414 100.00800323 197.50000000 0.046959 0.678772 -0.732846 0.000000
113.15599823 214.35899353 208.75000000 -0.000978 -0.000978 -0.999999 0.000000
184.07800293 122.71900177 201.25000000 -0.000978 -0.000978 -0.999999 0.000000
130.68800354 269.34399414 206.25000000 -0.022773 -0.233720 -0.972037 0.000000
183.28100586 101.20300293 193.75000000 0.227219 0.446915 -0.865239 0.000000
125.10900116 204.79699707 148.75000000 -0.188495 0.758579 -0.623721 0.000000
48.21089935 211.96899414 150.00000000 0.999999 -0.000978 -0.000978 0.000000
104.39099884 167.74200439 210.00000000 0.208172 0.318631 -0.924737 0.000000
115.14800262 268.54699707 120.00000000 -0.845860 -0.203549 0.493041 0.000000
124.31199646 278.90600586 206.25000000 -0.000978 -0.000978 -0.999999 0.000000
76.50000000 218.34399414 203.75000000 0.572944 0.266742 -0.774973 0.000000
192.04699707 87.65619659 178.75000000 0.000978 0.000978 -0.999999 0.000000
190.45300293 200.01600647 163.75000000 -0.631476 -0.772443 -0.067607 0.000000
52.59379959 244.64100647 178.75000000 0.953793 -0.295917 -0.052071 0.000000
119.93000031 279.70300293 127.50000000 -0.559838 -0.247950 0.790634 0.000000
106.78099823 192.84399414 211.25000000 -0.000978 -0.000978 -0.999999 0.000000
247.03100586 153.00000000 188.75000000 -0.091062 -0.038400 -0.995105 0.000000
65.34380341 231.89100647 76.25000000 0.549943 -0.272608 0.789460 0.000000
164.95300293 145.03100586 146.25000000 -0.225577 -0.081008 -0.970852 0.000000
123.51599884 308.78900146 170.00000000 0.001227 -0.953006 0.302950 0.000000
151.40600586 235.87500000 196.25000000 -0.455650 -0.181375 -0.871485 0.000000
172.52299500 194.43800354 165.00000000 -0.035141 -0.997787 -0.056438 0.000000
96.42189789 230.29699707 208.75000000 -0.000978 -0.000978 -0.999999 0.000000
182.48399353 99.60939789 193.75000000 0.277694 0.579191 -0.766436 0.000000
163.35899353 225.51600647 183.75000000 -0.660250 0.032379 0.750348 0.000000
194.43800354 142.64100647 156.25000000 -0.000978 -0.000978 -0.999999 0.000000
233.48399353 121.12500000 191.25000000 -0.000978 -0.000978 -0.999999 0.000000
105.18800354 243.84399414 208.75000000 -0.000978 -0.000978 -0.999999 0.000000
106.78099823 196.03100586 146.25000000 -0.186505 0.978847 0.084110 0.000000
105.18800354 209.57800293 208.75000000 0.187014 -0.163799 -0.968605 0.000000
125.10900116 307.99200439 190.00000000 -0.223235 -0.845865 -0.484436 0.000000
107.57800293 275.71899414 113.75000000 -0.551619 -0.425724 0.717270 0.000000
125.90599823 265.35900879 131.25000000 -0.594290 -0.235532 0.768989 0.000000
78.49220276 232.68800354 77.50000000 -0.634516 0.212540 0.743113 0.000000
191.25000000 181.68800354 151.25000000 -0.618487 0.001371 0.785794 0.000000
248.62500000 113.55500031 185.00000000 0.223365 -0.335769 -0.915078 0.000000
69.72660065 275.71899414 142.50000000 0.702174 -0.696134 0.149495 0.000000
105.98400116 195.23399353 146.25000000 -0.271456 0.957241 0.100010 0.000000
203.20300293 105.18800354 173.75000000 0.953006 -0.001227 -0.302950 0.000000
183.28100586 200.41400146 170.00000000 0.541203 -0.840180 -0.034604 0.000000
78.89060211 290.06201172 198.75000000 0.653226 -0.572623 -0.495377 0.000000
83.67189789 270.93798828 208.75000000 0.316298 -0.331289 -0.888934 0.000000
66.14060211 234.28100586 76.25000000 0.660652 -0.492547 0.566513 0.000000
99.60939789 184.87500000 211.25000000 0.826013 -0.497468 -0.265006 0.000000
163.35899353 220.73399353 183.75000000 -0.881309 0.340128 0.328035 0.000000
161.76600647 260.57800293 183.75000000 -0.568932 -0.323953 0.755890 0.000000
56.57809830 251.81199646 188.75000000 0.833391 -0.297528 -0.465764 0.000000
158.57800293 137.85899353 191.25000000 0.187031 0.495259 -0.848374 0.000000
102.79699707 219.14100647 208.75000000 -0.000978 -0.000978 -0.999999 0.000000
190.45300293 115.54699707 201.25000000 -0.000978 -0.000978 -0.999999 0.000000
66.93750000 235.07800293 76.25000000 0.660652 -0.492547 0.566513 0.000000
155.39100647 270.93798828 168.75000000 -0.936056 -0.021709 0.351181 0.000000
107.97699738 288.46899414 127.50000000 -0.052725 -0.631270 0.773769 0.000000
229.50000000 105.58599854 182.50000000 0.169541 -0.719404 -0.673582 0.000000
240.65600586 121.92199707 176.25000000 0.170345 -0.311606 -0.934818 0.000000
105.58599854 232.68800354 107.50000000 -0.739693 0.012537 0.672828 0.000000
105.98400116 154.59399414 146.25000000 -0.250312 0.341068 0.906100 0.000000
115.54699707 282.89099121 123.75000000 -0.510096 -0.584169 0.631307 0.000000
128.69500732 184.87500000 155.00000000 -0.544185 -0.544185 0.638533 0.000000
159.37500000 202.40600586 188.75000000 -0.688853 -0.004158 -0.724889 0.000000
126.70300293 166.54699707 146.25000000 -0.368133 0.269765 0.889778 0.000000
109.17199707 231.89100647 208.75000000 -0.000978 -0.000978 -0.999999 0.000000
77.29689789 146.22700500 180.00000000 0.688710 0.619675 -0.376407 0.000000
64.54689789 220.73399353 198.75000000 0.457116 0.325165 -0.827836 0.000000
180.89100647 175.31199646 198.75000000 0.112677 -0.298262 -0.947810 0.000000
113.95300293 212.76600647 118.75000000 -0.419798 0.175763 0.890436 0.000000
224.71899414 140.25000000 166.25000000 0.301819 -0.573296 -0.761733 0.000000
162.16400146 239.06199646 180.00000000 -0.932915 -0.331123 0.141517 0.000000
187.26600647 175.31199646 198.75000000 0.050192 -0.099268 -0.993794 0.000000
121.12500000 201.60899353 211.25000000 -0.038156 -0.390772 -0.919696 0.000000
102.79699707 201.60899353 211.25000000 0.229351 0.013072 -0.973256 0.000000
98.01560211 274.92199707 108.75000000 0.092191 -0.411419 0.906772 0.000000
188.06199646 185.67199707 191.25000000 0.304262 -0.252350 -0.918555 0.000000
170.53100586 175.31199646 203.75000000 0.263116 0.003604 -0.964758 0.000000
115.54699707 293.25000000 133.75000000 0.146261 -0.873225 0.464851 0.000000
159.37500000 242.25000000 171.25000000 -0.952781 -0.120254 0.278831 0.000000
136.66400146 251.01600647 202.50000000 -0.404050 -0.158479 -0.900904 0.000000
84.46880341 300.42199707 188.75000000 0.521017 -0.833327 -0.184683 0.000000
205.59399414 124.31199646 201.25000000 -0.288696 -0.202226 -0.935820 0.000000
147.42199707 294.84399414 186.25000000 -0.682454 -0.602751 -0.413458 0.000000
55.38280106 227.10899353 187.50000000 0.789843 -0.058349 -0.610527 0.000000
151.40600586 223.12500000 198.75000000 -0.535378 -0.121080 -0.835889 0.000000
135.46899414 291.65600586 198.75000000 -0.492235 -0.122698 -0.861772 0.000000
133.87500000 218.34399414 128.75000000 -0.409080 -0.140135 0.901674 0.000000
237.46899414 157.78100586 171.25000000 0.406134 -0.024973 -0.913472 0.000000
119.93000031 200.01600647 132.50000000 -0.318015 0.784650 0.532156 0.000000
117.14099884 167.34399414 211.25000000 -0.000978 -0.000978 -0.999999 0.000000
168.14100647 189.65600586 153.75000000 0.261745 -0.030721 0.964648 0.000000
200.81199646 115.54699707 168.75000000 0.333574 -0.348805 -0.875821 0.000000
55.78120041 255.00000000 176.25000000 0.901825 -0.308480 -0.302576 0.000000
132.67999268 282.09399414 140.00000000 -0.648328 0.070753 0.758067 0.000000
118.33599854 227.90600586 120.00000000 -0.725997 0.240949 0.644106 0.000000
74.90619659 146.22700500 175.00000000 0.644981 0.754702 -0.120100 0.000000
251.81199646 132.28100586 178.75000000 0.332875 0.109161 -0.936631 0.000000
127.50000000 232.68800354 206.25000000 -0.327870 -0.114687 -0.937736 0.000000
92.43750000 218.34399414 208.75000000 -0.000978 -0.000978 -0.999999 0.000000
94.82810211 172.12500000 208.75000000 0.148984 0.066867 -0.986576 0.000000
110.76599884 289.26599121 128.75000000 -0.052725 -0.631270 0.773769 0.000000
109.96900177 188.06199646 211.25000000 -0.000978 -0.000978 -0.999999 0.000000
113.15599823 240.65600586 208.75000000 -0.000978 -0.000978 -0.999999 0.000000
106.38300323 298.82800293 147.50000000 0.217109 -0.887637 0.406157 0.000000
74.90619659 219.14100647 203.75000000 0.717546 0.272063 -0.641178 0.000000
149.01600647 295.24200439 172.50000000 -0.823416 -0.565310 -0.049096 0.000000
65.74220276 257.39099121 107.50000000 0.546434 -0.712523 0.440137 0.000000
61.35940170 181.68800354 103.75000000 -0.141289 0.807575 0.572590 0.000000
85.26560211 149.81199646 188.75000000 0.553597 0.647826 -0.523309 0.000000
69.32810211 219.14100647 201.25000000 0.497560 0.251091 -0.830294 0.000000
70.52339935 240.65600586 77.50000000 0.802126 0.001366 0.597153 0.000000
102.00000000 297.63299561 147.50000000 -0.000978 -0.000978 0.999999 0.000000
121.12500000 307.59399414 166.25000000 0.148818 -0.966667 0.208345 0.000000
140.64799500 230.29699707 202.50000000 -0.662867 -0.114185 -0.739979 0.000000
223.92199707 102.79699707 196.25000000 -0.311283 0.344366 -0.885728 0.000000
120.32800293 143.03900146 202.50000000 0.165187 0.610739 -0.774410 0.000000
49.00780106 243.04699707 145.00000000 0.939726 -0.300438 0.163252 0.000000
131.48399353 260.57800293 203.75000000 -0.000978 -0.000978 -0.999999 0.000000
171.32800293 169.73399353 156.25000000 -0.132155 0.916740 -0.376990 0.000000
151.40600586 121.92199707 158.75000000 -0.105121 -0.528486 -0.842409 0.000000
106.78099823 186.46899414 143.75000000 -0.327344 -0.479155 0.814406 0.000000
189.65600586 85.26560211 186.25000000 -0.045335 0.340664 -0.939092 0.000000
102.00000000 263.76599121 208.75000000 -0.000978 -0.000978 -0.999999 0.000000
145.03100586 124.31199646 178.75000000 0.460199 0.355101 -0.813708 0.000000
96.82029724 207.98399353 107.50000000 -0.623700 0.556090 0.549329 0.000000
90.84380341 254.20300293 208.75000000 -0.000978 -0.000978 -0.999999 0.000000
204.00000000 94.82810211 193.75000000 0.080974 0.532720 -0.842409 0.000000
93.23439789 273.32800293 108.75000000 0.161965 -0.839545 0.518586 0.000000
136.66400146 136.26600647 195.00000000 -0.471927 0.541966 -0.695384 0.000000
50.20309830 213.16400146 180.00000000 0.858603 0.150658 -0.490003 0.000000
135.86700439 302.01599121 157.50000000 -0.348805 -0.875821 0.333574 0.000000
93.23439789 177.70300293 136.25000000 -0.434043 0.006557 0.900868 0.000000
51.00000000 250.61700439 147.50000000 0.918555 -0.304262 0.252350 0.000000
129.89100647 139.45300293 158.75000000 -0.000978 -0.000978 -0.999999 0.000000
149.01600647 205.59399414 136.25000000 -0.689163 0.044050 0.723266 0.000000
158.17999268 244.64100647 167.50000000 -0.908361 -0.066333 0.412892 0.000000
153.79699707 261.37500000 161.25000000 -0.828057 -0.165611 0.535626 0.000000
140.25000000 122.71900177 176.25000000 0.412902 0.432182 -0.801705 0.000000
113.15599823 252.60899353 116.25000000 -0.647802 -0.182242 0.739689 0.000000
85.26560211 188.06199646 141.25000000 -0.399048 -0.136776 0.906671 0.000000
247.03100586 151.40600586 178.75000000 0.559666 0.066593 -0.826038 0.000000
128.29699707 244.64100647 206.25000000 -0.000978 -0.000978 -0.999999 0.000000
98.81250000 278.90600586 208.75000000 -0.000978 -0.000978 -0.999999 0.000000
81.28119659 176.10899353 128.75000000 -0.636965 -0.155837 0.754977 0.000000
245.43800354 122.71900177 178.75000000 0.367851 -0.203400 -0.907366 0.000000
163.35899353 254.20300293 186.25000000 -0.872697 0.232021 -0.429612 0.000000
99.60939789 306.39801025 187.50000000 0.390036 -0.853107 0.346526 0.000000
108.37500000 306.39801025 175.00000000 0.277548 -0.956573 0.089074 0.000000
121.92199707 259.78100586 208.75000000 -0.000978 -0.000978 -0.999999 0.000000
100.40599823 271.73400879 208.75000000 -0.000978 -0.000978 -0.999999 0.000000
147.42199707 195.23399353 161.25000000 0.038083 0.158101 0.986688 0.000000
148.21899414 165.75000000 161.25000000 0.000978 0.000978 0.999999 0.000000
154.99200439 185.67199707 205.00000000 -0.483475 -0.185952 -0.855379 0.000000
164.15600586 143.43800354 146.25000000 -0.242216 -0.123051 -0.962388 0.000000
70.92189789 192.04699707 93.75000000 -0.385258 0.794695 0.469080 0.000000
165.75000000 131.48399353 151.25000000 0.090841 -0.309385 -0.946588 0.000000
84.46880341 211.17199707 91.25000000 -0.622506 0.507789 0.595514 0.000000
125.90599823 129.89100647 158.75000000 -0.564798 0.381443 0.731782 0.000000
89.25000000 165.35200500 135.00000000 -0.430583 0.351721 0.831198 0.000000
103.99199677 211.17199707 112.50000000 -0.628811 0.289605 0.721613 0.000000
173.71899414 101.20300293 168.75000000 0.283020 -0.695557 -0.660379 0.000000
125.10900116 228.70300293 208.75000000 -0.353197 0.006330 -0.935528 0.000000
86.06250000 295.24200439 167.50000000 0.525259 -0.834759 0.165166 0.000000
79.68750000 201.60899353 203.75000000 0.414293 0.207883 -0.886085 0.000000
138.25799561 302.01599121 160.00000000 -0.452281 -0.817280 0.357064 0.000000
204.00000000 85.26560211 186.25000000 -0.136454 0.682268 -0.718256 0.000000
70.12500000 190.45300293 196.25000000 0.669292 0.166180 -0.724177 0.000000
95.62500000 213.56199646 208.75000000 -0.000978 -0.000978 -0.999999 0.000000
203.20300293 142.64100647 201.25000000 -0.641449 0.341127 -0.687150 0.000000
52.19530106 227.10899353 110.00000000 0.945063 -0.235234 0.226980 0.000000
197.62500000 115.54699707 201.25000000 -0.000978 -0.000978 -0.999999 0.000000
54.58589935 260.57800293 162.50000000 0.930973 -0.361097 -0.053836 0.000000
51.39839935 241.45300293 175.00000000 0.971129 -0.177381 -0.159515 0.000000
129.09399414 207.58599854 150.00000000 -0.063412 0.841267 -0.536889 0.000000
201.60899353 181.68800354 191.25000000 -0.401661 -0.459733 -0.792031 0.000000
65.34380341 246.23399353 198.75000000 0.507298 -0.062888 -0.859473 0.000000
98.81250000 293.25000000 206.25000000 0.189939 -0.443190 -0.876074 0.000000
61.75780106 262.96899414 132.50000000 0.828631 -0.552899 0.087602 0.000000
62.95309830 189.65600586 188.75000000 0.637023 0.216494 -0.739819 0.000000
133.07800293 141.84399414 158.75000000 -0.000978 -0.000978 -0.999999 0.000000
110.76599884 227.90600586 113.75000000 -0.670031 0.233805 0.704552 0.000000
74.10939789 200.01600647 198.75000000 0.409059 0.190700 -0.892359 0.000000
78.09380341 292.45300293 171.25000000 0.001349 -0.842882 0.538096 0.000000
149.81199646 207.98399353 203.75000000 -0.533148 -0.339862 -0.774756 0.000000
137.85899353 149.41400146 160.00000000 0.255498 0.307464 -0.916617 0.000000
98.81250000 137.85899353 186.25000000 0.428192 0.547226 -0.719164 0.000000
195.23399353 178.50000000 163.75000000 0.445921 0.586210 -0.676396 0.000000
153.00000000 136.26600647 188.75000000 0.325189 0.389918 -0.861520 0.000000
55.78120041 196.82800293 78.75000000 0.828038 0.504225 0.245173 0.000000
55.38280106 196.82800293 80.00000000 0.828038 0.504225 0.245173 0.000000
244.64100647 119.93000031 187.50000000 -0.555949 0.827492 -0.078605 0.000000
153.00000000 174.51600647 161.25000000 0.000978 0.000978 0.999999 0.000000
79.28910065 294.84399414 175.00000000 0.673303 -0.721939 0.159586 0.000000
204.79699707 101.20300293 198.75000000 -0.004094 0.579942 -0.814648 0.000000
144.23399353 188.06199646 208.75000000 -0.000978 -0.000978 -0.999999 0.000000
148.21899414 255.00000000 153.75000000 -0.618487 0.001371 0.785794 0.000000
154.19500732 227.90600586 155.00000000 -0.735619 -0.293286 0.610612 0.000000
48.21089935 211.17199707 150.00000000 0.999999 -0.000978 -0.000978 0.000000
100.00800323 129.89100647 177.50000000 0.220055 0.966440 0.132548 0.000000
99.60939789 196.42999268 142.50000000 0.048155 0.868166 0.493933 0.000000
158.17999268 206.39100647 157.50000000 -0.976344 -0.212562 -0.039630 0.000000
207.98399353 101.20300293 178.75000000 -0.000978 -0.000978 -0.999999 0.000000
153.00000000 159.37500000 203.75000000 -0.000978 -0.000978 -0.999999 0.000000
243.04699707 126.70300293 176.25000000 0.367722 -0.184576 -0.911434 0.000000
95.22660065 260.57800293 97.50000000 -0.681782 -0.248352 0.688109 0.000000
200.01600647 97.21880341 178.75000000 0.132007 -0.244409 -0.960645 0.000000
56.97660065 256.59399414 177.50000000 0.901825 -0.308480 -0.302576 0.000000
153.79699707 285.28100586 171.25000000 -0.919608 -0.239586 0.311318 0.000000
125.10900116 192.84399414 156.25000000 -0.584543 -0.131707 0.800602 0.000000
187.26600647 110.76599884 168.75000000 0.744080 -0.356572 -0.564979 0.000000
101.20300293 223.12500000 103.75000000 -0.756927 0.291616 0.584826 0.000000
148.21899414 259.78100586 153.75000000 -0.827088 -0.063622 0.558461 0.000000
101.20300293 302.41400146 170.00000000 0.497468 -0.826013 0.265006 0.000000
121.12500000 147.42199707 206.25000000 0.224868 0.509394 -0.830634 0.000000
113.15599823 223.12500000 208.75000000 -0.000978 -0.000978 -0.999999 0.000000
221.53100586 142.64100647 163.75000000 0.481617 -0.474997 -0.736494 0.000000
145.03100586 189.65600586 208.75000000 -0.390060 -0.182796 -0.902463 0.000000
88.45310211 182.48399353 206.25000000 0.502944 -0.068647 -0.861589 0.000000
146.62500000 193.64100647 206.25000000 -0.405094 -0.216541 -0.888261 0.000000
130.68800354 279.70300293 203.75000000 -0.497548 -0.237292 -0.834349 0.000000
112.35900116 286.87500000 126.25000000 -0.114087 -0.718599 0.686003 0.000000
116.34400177 215.95300293 118.75000000 -0.430911 0.195601 0.880940 0.000000
116.74199677 261.37500000 122.50000000 -0.865259 -0.071290 0.496231 0.000000
54.18750000 181.28900146 105.00000000 0.940380 0.335943 0.053180 0.000000
58.57030106 165.75000000 160.00000000 0.906933 0.384197 -0.172817 0.000000
57.77339935 198.42199707 185.00000000 0.693588 0.269463 -0.668076 0.000000
61.35940170 239.06199646 91.25000000 0.706855 -0.464030 0.533884 0.000000
138.65600586 183.28100586 161.25000000 -0.195645 -0.069266 0.978226 0.000000
103.59400177 197.22700500 140.00000000 -0.071230 0.968481 0.238684 0.000000
149.81199646 225.51600647 143.75000000 -0.663904 -0.344186 0.663904 0.000000
50.20309830 192.44500732 122.50000000 0.960900 0.252869 -0.112818 0.000000
55.38280106 225.51600647 187.50000000 0.785002 -0.049684 -0.617497 0.000000
89.25000000 278.10900879 208.75000000 -0.000978 -0.000978 -0.999999 0.000000
93.23439789 131.88299561 172.50000000 0.084040 0.899641 0.428466 0.000000
73.31250000 206.39100647 201.25000000 0.241367 -0.208639 -0.947740 0.000000
83.67189789 140.64799500 147.50000000 0.503958 0.860518 -0.074400 0.000000
56.17969894 259.78100586 170.00000000 0.947710 -0.222910 -0.228380 0.000000
91.64060211 247.82800293 208.75000000 -0.000978 -0.000978 -0.999999 0.000000
74.90619659 221.53100586 203.75000000 0.545525 0.121390 -0.829257 0.000000
94.42970276 132.28100586 162.50000000 0.475973 0.817536 0.324168 0.000000
108.77300262 207.18800354 210.00000000 0.179039 -0.420669 -0.889372 0.000000
102.79699707 291.65600586 208.75000000 -0.196437 -0.716143 -0.669740 0.000000
60.96089935 161.76600647 142.50000000 0.862308 0.501732 0.068482 0.000000
178.50000000 183.28100586 151.25000000 -0.000978 -0.000978 0.999999 0.000000
111.56199646 175.31199646 143.75000000 -0.255932 0.182809 0.949252 0.000000
51.00000000 249.02299500 145.00000000 0.915643 -0.354580 0.189394 0.000000
