88.47460175 197.92799377 398.75000000 0.939829 0.001251 -0.341642 0.000000
73.42479706 163.26800537 442.50000000 -0.969361 -0.241421 0.045343 0.000000
125.87100220 308.29299927 453.75000000 0.481358 -0.001326 -0.876523 0.000000
99.87590027 134.08000183 515.00000000 -0.684953 -0.684953 0.248355 0.000000
80.26560211 305.55700684 498.75000000 -0.939829 -0.001251 0.341642 0.000000
182.42199707 238.51699829 490.00000000 -0.659401 -0.471480 0.585575 0.000000
212.52099609 231.22000122 522.50000000 -0.693926 0.415693 0.587933 0.000000
100.78800201 116.75000000 470.00000000 -0.692067 -0.720488 0.044054 0.000000
217.08200073 244.90100098 507.50000000 -0.670939 -0.733145 0.111083 0.000000
134.99200439 137.72799683 551.25000000 -0.216916 -0.663232 0.716290 0.000000
58.37500000 214.34599304 511.25000000 -0.749078 -0.026703 0.661943 0.000000
111.27700043 313.76599121 448.75000000 0.344629 0.329447 -0.879031 0.000000
160.98699951 239.88499451 465.00000000 0.374023 0.227347 -0.899122 0.000000
195.19099426 203.39999390 486.25000000 0.189351 0.700445 0.688130 0.000000
129.51899719 311.02899170 518.75000000 0.079429 0.607994 0.789959 0.000000
202.03199768 109.45300293 495.00000000 -0.343782 -0.130117 0.929991 0.000000
250.83000183 176.03700256 526.25000000 -0.642472 -0.126706 0.755762 0.000000
86.65039825 244.90100098 540.00000000 -0.533930 0.181987 0.825711 0.000000
69.77629852 247.18200684 407.50000000 0.088914 0.634058 -0.768157 0.000000
90.29879761 310.11700439 503.75000000 -0.290634 0.871902 0.394106 0.000000
147.30599976 254.47799683 462.50000000 0.432306 0.150804 -0.889027 0.000000
174.21299744 92.57910156 502.50000000 0.001135 -0.983996 0.178186 0.000000
167.82800293 104.89299774 521.25000000 -0.198342 -0.463791 0.863457 0.000000
53.35839844 228.93899536 447.50000000 -0.966208 0.121899 -0.227117 0.000000
98.50779724 223.46699524 421.25000000 0.679776 0.283107 -0.676577 0.000000
169.19599915 264.51199341 477.50000000 0.707327 0.127110 -0.695364 0.000000
207.04899597 115.83799744 531.25000000 -0.171581 -0.514742 0.840000 0.000000
167.82800293 157.33900452 500.00000000 0.465626 -0.860884 -0.205115 0.000000
108.54100037 297.80398560 447.50000000 0.375823 -0.068210 -0.924178 0.000000
78.44139862 238.97300720 408.75000000 0.554144 0.305019 -0.774524 0.000000
63.84759903 284.57800293 493.75000000 -0.830793 0.420914 0.364162 0.000000
54.27050018 247.18200684 495.00000000 -0.980924 0.164503 0.103576 0.000000
55.18259811 252.65400696 495.00000000 0.000978 0.000978 0.999999 0.000000
143.20100403 294.61099243 528.75000000 0.097121 0.569681 0.816108 0.000000
163.26800537 234.41200256 466.25000000 0.390174 0.094463 -0.915883 0.000000
100.78800201 120.39800262 487.50000000 -0.684953 -0.684953 0.248355 0.000000
125.87100220 118.11799622 525.00000000 -0.454252 -0.710496 0.537448 0.000000
115.38200378 140.46499634 445.00000000 0.872230 0.109562 -0.476667 0.000000
249.91799927 143.20100403 538.75000000 0.177836 -0.409167 0.894962 0.000000
156.88299561 236.23599243 558.75000000 0.000978 0.000978 0.999999 0.000000
182.42199707 252.65400696 486.25000000 0.554923 0.051980 -0.830276 0.000000
87.56250000 208.87300110 398.75000000 0.777079 0.224903 -0.587850 0.000000
133.16799927 238.51699829 560.00000000 -0.062803 0.298635 0.952299 0.000000
176.03700256 182.42199707 573.75000000 0.645917 -0.432280 0.629226 0.000000
177.86099243 107.62899780 486.25000000 -0.141716 0.071444 0.987326 0.000000
172.38900757 160.07499695 502.50000000 0.776260 -0.628671 0.046831 0.000000
174.66900635 181.50999451 502.50000000 0.299013 -0.112961 0.947540 0.000000
172.38900757 217.08200073 568.75000000 0.081993 0.576829 0.812739 0.000000
98.50779724 189.71899414 408.75000000 -0.000978 -0.000978 -0.999999 0.000000
192.45500183 219.36199951 565.00000000 0.216487 0.492016 0.843240 0.000000
59.74309921 267.24798584 460.00000000 -0.785828 0.471497 -0.400205 0.000000
85.73829651 291.87500000 438.75000000 0.191731 0.520844 -0.831841 0.000000
169.19599915 162.35499573 485.00000000 0.942238 -0.314973 -0.113926 0.000000
171.47700500 263.60000610 533.75000000 0.384253 0.504231 0.773370 0.000000
101.24400330 139.55299377 526.25000000 -0.432166 -0.432166 0.791495 0.000000
97.59570313 123.13500214 486.25000000 -0.684953 -0.684953 0.248355 0.000000
88.01850128 211.60899353 400.00000000 0.784345 0.198005 -0.587875 0.000000
119.48600006 297.80398560 527.50000000 -0.083141 0.719094 0.689922 0.000000
151.41000366 326.53500366 491.25000000 0.393407 0.873393 0.287081 0.000000
182.42199707 191.54299927 573.75000000 0.283741 0.143888 0.948044 0.000000
211.60899353 231.67599487 521.25000000 -0.703778 0.422267 0.571302 0.000000
203.39999390 202.48800659 483.75000000 -0.167162 0.498528 0.850604 0.000000
58.83100128 275.45700073 490.00000000 -0.888949 0.382680 0.251646 0.000000
62.93550110 270.89599609 431.25000000 -0.474670 0.381345 -0.793262 0.000000
254.47799683 161.44299316 528.75000000 -0.569215 -0.342178 0.747602 0.000000
182.42199707 252.65400696 536.25000000 0.387194 0.487638 0.782489 0.000000
197.01600647 173.30099487 568.75000000 0.406106 -0.027599 0.913409 0.000000
145.48100281 193.36700439 482.50000000 0.467414 0.671803 -0.574634 0.000000
233.50000000 156.88299561 513.75000000 -0.670996 0.286655 0.683808 0.000000
182.42199707 220.72999573 566.25000000 -0.061191 0.428336 0.901545 0.000000
186.07000732 232.58799744 488.75000000 -0.622499 -0.561767 0.544897 0.000000
137.27200317 184.24600220 455.00000000 0.802412 -0.360365 -0.475681 0.000000
134.99200439 103.06800079 511.25000000 -0.292381 -0.827109 0.480005 0.000000
158.70700073 178.31700134 480.00000000 0.643835 0.443159 -0.623768 0.000000
167.82800293 156.88299561 501.25000000 0.397563 -0.846576 0.353909 0.000000
85.73829651 216.16999817 398.75000000 0.716069 0.172528 -0.676372 0.000000
100.33200073 288.22601318 443.75000000 0.942238 -0.314973 0.113926 0.000000
98.96379852 189.71899414 552.50000000 -0.492311 -0.116260 0.862620 0.000000
112.18900299 118.11799622 510.00000000 -0.748096 -0.615801 0.247266 0.000000
109.45300293 266.33599854 446.25000000 0.000978 0.000978 -0.999999 0.000000
100.33200073 321.06201172 466.25000000 -0.370633 0.928520 0.021954 0.000000
63.84759903 174.66900635 495.00000000 -0.929839 -0.335737 -0.150598 0.000000
151.41000366 145.02499390 511.25000000 -0.545014 0.271722 0.793176 0.000000
184.24600220 109.45300293 526.25000000 -0.107730 -0.647854 0.754108 0.000000
156.88299561 111.27700043 526.25000000 0.009430 -0.858167 0.513284 0.000000
217.99400330 227.57099915 492.50000000 -0.488023 -0.110199 0.865847 0.000000
83.91400146 254.02200317 422.50000000 0.828171 0.328440 -0.454158 0.000000
158.70700073 317.41400146 473.75000000 0.531462 0.796404 -0.288598 0.000000
134.08000183 260.40701294 547.50000000 -0.114462 0.277604 0.953852 0.000000
209.78500366 236.69200134 502.50000000 0.679875 -0.721714 -0.129998 0.000000
91.21089935 228.02699280 413.75000000 0.831239 0.499358 -0.244301 0.000000
93.49120331 134.08000183 500.00000000 -0.642669 -0.746473 0.172498 0.000000
68.86419678 174.21299744 457.50000000 -0.880146 -0.310551 -0.359027 0.000000
110.36499786 323.34298706 460.00000000 -0.159720 0.863073 -0.479160 0.000000
210.69700623 102.15599823 498.75000000 -0.467915 -0.045018 0.882626 0.000000
56.55080032 268.16000366 491.25000000 -0.961753 0.182878 0.203928 0.000000
176.94900513 198.38400269 497.50000000 -0.317999 0.615013 0.721551 0.000000
111.27700043 317.86999512 510.00000000 -0.485083 0.646218 0.589149 0.000000
245.35699463 193.36700439 523.75000000 -0.402220 0.041151 0.914618 0.000000
114.92600250 241.25300598 440.00000000 0.411343 0.519505 -0.748940 0.000000
88.47460175 234.41200256 413.75000000 0.402935 0.671559 -0.621814 0.000000
192.45500183 99.41989899 491.25000000 -0.001219 -0.291258 0.956644 0.000000
123.59100342 123.13500214 457.50000000 0.723844 -0.307916 -0.617444 0.000000
101.69999695 132.25599670 515.00000000 -0.597823 -0.753226 0.274333 0.000000
114.01399994 311.02899170 448.75000000 0.373862 0.263640 -0.889225 0.000000
170.56399536 309.20498657 486.25000000 0.796517 0.565420 -0.214151 0.000000
126.78299713 172.38900757 441.25000000 0.924306 -0.137191 -0.356142 0.000000
192.45500183 257.21499634 521.25000000 0.577998 0.661766 0.477477 0.000000
142.28900146 259.95098877 546.25000000 0.306731 0.336656 0.890269 0.000000
93.03510284 236.23599243 421.25000000 0.704675 0.379440 -0.599549 0.000000
94.40329742 189.71899414 550.00000000 -0.561724 -0.096749 0.821648 0.000000
82.08979797 222.09899902 400.00000000 0.664612 0.399430 -0.631464 0.000000
221.64199829 115.83799744 511.25000000 -0.582736 0.151302 0.798453 0.000000
85.73829651 279.10501099 521.25000000 -0.454766 0.365409 0.812197 0.000000
112.64499664 161.44299316 425.00000000 0.727955 -0.272386 -0.629196 0.000000
235.32400513 208.87300110 521.25000000 0.000978 0.000978 -0.999999 0.000000
201.57600403 138.64100647 548.75000000 0.043891 -0.641376 0.765970 0.000000
168.28399658 219.81799316 462.50000000 0.223103 0.282036 -0.933103 0.000000
256.30300903 207.04899597 528.75000000 0.723596 0.648254 -0.237013 0.000000
236.23599243 207.04899597 541.25000000 0.493726 0.540588 0.681175 0.000000
112.18900299 160.53100586 423.75000000 0.727955 -0.272386 -0.629196 0.000000
80.72160339 224.37899780 400.00000000 0.636551 0.420489 -0.646523 0.000000
217.99400330 180.59800720 553.75000000 0.474921 -0.153436 0.866549 0.000000
217.08200073 176.03700256 553.75000000 0.526218 -0.040053 0.849406 0.000000
234.41200256 114.01399994 521.25000000 -0.481282 -0.141040 0.865145 0.000000
169.65199280 275.45700073 478.75000000 0.567808 0.131259 -0.812629 0.000000
109.45300293 272.72100830 538.75000000 -0.215512 0.524260 0.823837 0.000000
57.91889954 207.04899597 420.00000000 -0.999999 -0.000978 -0.000978 0.000000
122.22299957 156.88299561 446.25000000 0.882491 -0.441970 -0.160848 0.000000
63.84759903 189.71899414 448.75000000 -0.881411 -0.455705 0.124283 0.000000
190.63099670 220.72999573 563.75000000 0.355196 0.543337 0.760671 0.000000
64.75969696 275.00100708 432.50000000 -0.265953 0.502356 -0.822744 0.000000
55.18259811 255.39100647 495.00000000 -0.935100 0.117733 0.334254 0.000000
96.68360138 294.61099243 521.25000000 -0.453758 0.457034 0.764999 0.000000
90.75479889 269.07199097 532.50000000 -0.813131 0.348485 0.466237 0.000000
77.52929688 227.11500549 398.75000000 0.678985 0.551570 -0.484510 0.000000
124.95899963 308.29299927 521.25000000 0.064912 0.470957 0.879765 0.000000
154.14599609 250.83000183 551.25000000 -0.000978 -0.000978 0.999999 0.000000
122.22299957 160.53100586 558.75000000 -0.947252 -0.298922 0.115583 0.000000
162.35499573 224.37899780 461.25000000 0.107839 0.427155 -0.897725 0.000000
81.17769623 141.37699890 443.75000000 -0.894688 -0.446689 -0.001310 0.000000
164.17999268 119.48600006 483.75000000 -0.099258 0.371197 0.923234 0.000000
103.06800079 207.96099854 553.75000000 -0.596787 0.091478 0.797168 0.000000
148.67399597 224.37899780 563.75000000 0.032225 0.354470 0.934512 0.000000
154.14599609 256.30300903 546.25000000 0.239799 0.308724 0.920427 0.000000
217.99400330 134.99200439 503.75000000 -0.556034 0.255306 0.790978 0.000000
72.96869659 279.10501099 433.75000000 0.436933 0.219212 -0.872374 0.000000
85.28220367 143.20100403 502.50000000 -0.691840 -0.717947 0.076871 0.000000
250.83000183 190.63099670 541.25000000 0.192334 0.389007 0.900934 0.000000
178.77299500 288.22601318 488.75000000 0.934993 0.123490 -0.332472 0.000000
192.45500183 238.05999756 513.75000000 0.888934 0.407000 -0.210112 0.000000
171.47700500 122.67900085 542.50000000 0.097343 -0.800538 0.591323 0.000000
137.72799683 210.69700623 566.25000000 0.000978 0.000978 0.999999 0.000000
136.81599426 273.63299561 541.25000000 -0.001310 0.446689 0.894688 0.000000
81.17769623 272.72100830 521.25000000 -0.497816 0.548100 0.672135 0.000000
118.57399750 119.02999878 520.00000000 -0.464786 -0.698013 0.544750 0.000000
166.91600037 126.78299713 548.75000000 -0.235609 0.208371 0.949247 0.000000
180.59800720 154.14599609 483.75000000 0.000978 0.000978 0.999999 0.000000
212.52099609 100.33200073 498.75000000 -0.474596 -0.103419 0.874107 0.000000
61.11130142 184.70199585 507.50000000 -0.979423 -0.172839 0.104194 0.000000
207.96099854 199.75199890 486.25000000 -0.152453 0.531366 0.833312 0.000000
107.62899780 225.29100037 553.75000000 -0.069645 0.424697 0.902653 0.000000
126.78299713 321.06201172 508.75000000 0.009534 0.832222 0.554361 0.000000
105.80500031 180.59800720 413.75000000 0.631792 -0.026617 -0.774681 0.000000
214.34599304 238.05999756 501.25000000 0.498185 -0.844356 -0.197167 0.000000
173.30099487 173.30099487 498.75000000 0.667590 -0.210081 -0.714275 0.000000
115.38200378 139.55299377 542.50000000 -0.445048 -0.588396 0.675072 0.000000
70.23239899 233.50000000 526.25000000 -0.001364 -0.808912 0.587928 0.000000
135.90400696 293.69900513 458.75000000 0.405839 -0.137165 -0.903593 0.000000
178.77299500 123.13500214 541.25000000 0.196200 -0.733819 0.650396 0.000000
224.37899780 201.57600403 498.75000000 -0.684953 0.684953 -0.248355 0.000000
93.94719696 213.43400574 411.25000000 0.791738 0.351705 -0.499454 0.000000
185.15800476 187.89399719 506.25000000 -0.640274 0.319326 0.698628 0.000000
116.75000000 301.90798950 523.75000000 -0.135970 0.341986 0.929816 0.000000
191.54299927 200.20799255 505.00000000 -0.301855 0.438077 0.846742 0.000000
248.09399414 157.79499817 523.75000000 -0.175407 -0.526222 0.832060 0.000000
232.58799744 153.23399353 546.25000000 0.271530 -0.354622 0.894715 0.000000
68.40820313 265.42401123 423.75000000 -0.212958 0.744577 -0.632657 0.000000
102.15599823 256.30300903 543.75000000 -0.252047 0.277679 0.927020 0.000000
68.40820313 222.55499268 523.75000000 -0.545014 -0.271722 0.793176 0.000000
55.18259811 218.90600586 470.00000000 -0.994111 -0.094837 0.052439 0.000000
230.30799866 156.88299561 510.00000000 -0.742185 0.219388 0.633269 0.000000
139.55299377 199.75199890 451.25000000 0.623660 -0.282322 -0.728933 0.000000
211.15299988 158.70700073 492.50000000 -0.616049 0.410146 0.672506 0.000000
59.74309921 187.89399719 410.00000000 -0.932994 -0.115436 0.340876 0.000000
124.50299835 114.92600250 520.00000000 -0.398368 -0.676068 0.619867 0.000000
106.71700287 156.88299561 546.25000000 -0.312255 -0.300416 0.901248 0.000000
209.32899475 124.04699707 500.00000000 -0.693838 -0.156379 0.702947 0.000000
72.51270294 166.00399780 437.50000000 -0.504650 -0.793022 -0.341240 0.000000
90.29879761 272.72100830 433.75000000 0.359290 0.255791 -0.897486 0.000000
196.10299683 95.77140045 518.75000000 -0.001364 -0.808912 0.587928 0.000000
95.77140045 187.89399719 551.25000000 -0.506112 -0.154932 0.848438 0.000000
202.03199768 228.02699280 497.50000000 0.264454 -0.899736 0.347189 0.000000
176.03700256 293.69900513 486.25000000 0.886816 0.273672 -0.372373 0.000000
109.45300293 186.98199463 558.75000000 -0.769892 -0.185203 0.610710 0.000000
186.98199463 106.71700287 488.75000000 -0.178794 -0.417185 0.891061 0.000000
221.64199829 124.50299835 540.00000000 -0.019727 -0.416891 0.908743 0.000000
103.98000336 190.63099670 413.75000000 0.978058 0.195612 -0.071684 0.000000
141.37699890 205.22500610 568.75000000 -0.105035 0.265829 0.958281 0.000000
64.75969696 236.23599243 398.75000000 0.133967 0.828828 -0.543228 0.000000
59.28710175 255.39100647 506.25000000 -0.865768 0.178463 0.467544 0.000000
160.53100586 311.02899170 508.75000000 0.442803 0.603214 0.663369 0.000000
80.72160339 146.85000610 495.00000000 -0.707106 -0.707106 -0.001384 0.000000
208.41700745 218.90600586 527.50000000 0.489361 0.861101 0.137950 0.000000
243.53300476 118.57399750 526.25000000 -0.549159 0.176032 0.816968 0.000000
69.77629852 236.23599243 400.00000000 0.410381 0.659600 -0.629694 0.000000
182.42199707 106.26100159 522.50000000 -0.025757 -0.489390 0.871684 0.000000
228.93899536 109.45300293 531.25000000 -0.064059 -0.804296 0.590766 0.000000
79.35350037 242.62100220 411.25000000 0.667034 0.241268 -0.704880 0.000000
186.98199463 150.49800110 483.75000000 0.000978 0.000978 0.999999 0.000000
217.08200073 167.82800293 491.25000000 -0.560133 0.276122 0.781030 0.000000
82.08979797 260.86300659 528.75000000 -0.586257 0.404600 0.701856 0.000000
149.58599854 274.08898926 465.00000000 0.684953 -0.684953 -0.248355 0.000000
166.00399780 163.26800537 496.25000000 0.296477 -0.332233 -0.895390 0.000000
197.47200012 197.01600647 567.50000000 0.566290 -0.015083 0.824068 0.000000
134.08000183 206.13699341 568.75000000 0.297765 0.395493 0.868862 0.000000
131.80000305 125.87100220 465.00000000 0.622490 0.006901 -0.782598 0.000000
55.18259811 207.04899597 482.50000000 -0.983996 -0.001135 0.178186 0.000000
157.33900452 282.75399780 532.50000000 0.369585 0.658682 0.655397 0.000000
178.77299500 247.63800049 542.50000000 0.260165 0.597590 0.758419 0.000000
248.09399414 125.87100220 528.75000000 -0.402174 -0.043801 0.914515 0.000000
54.72650146 218.90600586 481.25000000 -0.958767 -0.192817 -0.208775 0.000000
225.74699402 166.91600037 550.00000000 0.173030 -0.147770 0.973768 0.000000
57.91889954 256.30300903 440.00000000 -0.986562 0.120196 0.110676 0.000000
240.79699707 116.75000000 523.75000000 -0.455107 0.003957 0.890428 0.000000
220.27400208 182.42199707 495.00000000 -0.515128 -0.074799 0.853843 0.000000
155.51499939 238.05999756 462.50000000 0.447601 0.193517 -0.873043 0.000000
172.38900757 251.74200439 543.75000000 0.166838 0.557631 0.813150 0.000000
67.49610138 269.07199097 426.25000000 -0.055359 0.594756 -0.801998 0.000000
102.15599823 237.14799500 548.75000000 -0.456130 0.379308 0.805029 0.000000
84.82610321 231.67599487 408.75000000 0.493509 0.716169 -0.493509 0.000000
137.72799683 166.91600037 571.25000000 -0.433234 -0.075644 0.898101 0.000000
88.47460175 271.80899048 433.75000000 0.285044 0.484420 -0.827096 0.000000
101.24400330 303.73199463 516.25000000 -0.321162 0.525683 0.787726 0.000000
152.32200623 176.94900513 576.25000000 0.000978 0.000978 0.999999 0.000000
72.05660248 297.80398560 477.50000000 -0.834162 0.518533 -0.187874 0.000000
112.64499664 321.06201172 455.00000000 -0.136208 0.845076 -0.517005 0.000000
241.70899963 178.77299500 518.75000000 -0.587038 -0.367921 0.721125 0.000000
108.54100037 223.46699524 428.75000000 0.433160 0.273977 -0.858667 0.000000
110.36499786 320.14999390 453.75000000 0.082422 0.782286 -0.617442 0.000000
221.64199829 204.76800537 507.50000000 -0.976790 0.163422 -0.138472 0.000000
259.03900146 201.57600403 528.75000000 -0.642247 -0.085924 0.761667 0.000000
69.77629852 197.92799377 525.00000000 -0.169493 -0.337586 0.925909 0.000000
211.60899353 177.86099243 558.75000000 0.790055 -0.214069 0.574445 0.000000
161.44299316 203.39999390 573.75000000 -0.207629 0.416731 0.885000 0.000000
161.44299316 285.03399658 470.00000000 0.585837 -0.154325 -0.795600 0.000000
155.05900574 249.91799927 463.75000000 0.542527 0.420500 -0.727217 0.000000
123.13500214 257.21499634 548.75000000 -0.092452 0.510618 0.854823 0.000000
266.33599854 174.21299744 536.25000000 -0.835889 -0.121080 0.535378 0.000000
209.78500366 199.75199890 558.75000000 0.487897 0.264859 0.831749 0.000000
83.00189972 255.39100647 421.25000000 0.828171 0.328440 -0.454158 0.000000
91.66699982 159.61900330 537.50000000 -0.652898 -0.435822 0.619502 0.000000
144.11300659 198.83999634 571.25000000 -0.313358 0.246932 0.916969 0.000000
236.23599243 160.53100586 546.25000000 0.745017 0.352219 0.566473 0.000000
79.80950165 226.20300293 537.50000000 -0.744729 -0.004145 0.667354 0.000000
68.86419678 257.21499634 517.50000000 -0.720669 0.279639 0.634380 0.000000
130.43200684 323.79901123 503.75000000 0.035733 0.911858 0.408947 0.000000
220.72999573 151.41000366 501.25000000 -0.674661 0.001380 0.738126 0.000000
97.59570313 226.65899658 422.50000000 0.564262 0.352867 -0.746387 0.000000
199.75199890 226.20300293 546.25000000 0.635398 0.678086 0.369417 0.000000
212.97700500 161.44299316 492.50000000 -0.616049 0.410146 0.672506 0.000000
190.63099670 255.39100647 526.25000000 0.506129 0.769771 0.388954 0.000000
97.13960266 295.52301025 520.00000000 -0.436977 0.420852 0.794943 0.000000
67.04000092 162.35499573 415.00000000 -0.960310 -0.244324 0.134574 0.000000
98.05169678 226.20300293 422.50000000 0.647190 0.282846 -0.707914 0.000000
125.87100220 106.26100159 507.50000000 -0.513637 -0.830658 0.214904 0.000000
197.92799377 228.02699280 546.25000000 0.635398 0.678086 0.369417 0.000000
112.18900299 277.28100586 448.75000000 -0.000978 -0.000978 -0.999999 0.000000
136.81599426 103.06800079 511.25000000 -0.207252 -0.869268 0.448799 0.000000
134.08000183 323.34298706 505.00000000 -0.030452 0.909581 0.414409 0.000000
102.15599823 166.00399780 413.75000000 0.579146 -0.339052 -0.741372 0.000000
191.54299927 169.65199280 571.25000000 0.000978 0.000978 0.999999 0.000000
88.47460175 206.13699341 543.75000000 -0.689850 0.559563 0.459343 0.000000
184.24600220 166.91600037 483.75000000 0.072257 -0.070034 0.994924 0.000000
124.04699707 198.83999634 436.25000000 0.520851 -0.390230 -0.759234 0.000000
214.34599304 134.08000183 543.75000000 -0.384376 -0.384376 0.839351 0.000000
153.23399353 303.73199463 463.75000000 0.467951 0.131026 -0.873988 0.000000
114.01399994 291.87500000 451.25000000 0.392970 -0.115253 -0.912300 0.000000
129.06300354 231.67599487 445.00000000 0.236009 0.236009 -0.942656 0.000000
111.27700043 310.11700439 516.25000000 -0.278303 0.742672 0.609086 0.000000
165.09199524 233.50000000 466.25000000 0.320071 0.149733 -0.935486 0.000000
128.60699463 167.82800293 566.25000000 -0.707395 0.086054 0.701561 0.000000
80.72160339 304.64401245 452.50000000 -0.526128 0.737239 -0.423871 0.000000
207.50500488 197.92799377 487.50000000 0.366378 0.239838 0.899024 0.000000
125.87100220 159.16299438 455.00000000 0.820310 -0.495311 -0.285936 0.000000
196.10299683 90.75479889 510.00000000 0.001251 -0.939829 0.341642 0.000000
166.91600037 280.01699829 476.25000000 0.551100 -0.296990 -0.779798 0.000000
211.15299988 175.12500000 557.50000000 0.640872 -0.029449 0.767083 0.000000
134.08000183 245.35699463 453.75000000 0.522492 0.306507 -0.795648 0.000000
62.02339935 183.78999329 427.50000000 -0.866553 -0.498097 0.031387 0.000000
81.17769623 226.20300293 538.75000000 -0.744729 -0.004145 0.667354 0.000000
84.37010193 139.55299377 487.50000000 -0.882055 -0.467777 -0.056243 0.000000
109.45300293 145.02499390 541.25000000 -0.590736 -0.489755 0.641226 0.000000
214.34599304 128.60699463 541.25000000 -0.105746 -0.449775 0.886860 0.000000
61.11130142 268.16000366 501.25000000 -0.817082 0.222283 0.531946 0.000000
222.55499268 114.01399994 511.25000000 -0.399773 -0.027525 0.916201 0.000000
132.25599670 158.70700073 566.25000000 -0.394280 -0.429398 0.812503 0.000000
175.58099365 278.19299316 482.50000000 0.802864 -0.040776 -0.594766 0.000000
117.66200256 171.47700500 556.25000000 -0.960040 -0.217891 0.175633 0.000000
190.63099670 123.13500214 488.75000000 0.000978 0.000978 0.999999 0.000000
96.68360138 285.48999023 526.25000000 -0.613570 0.401880 0.679723 0.000000
205.22500610 222.09899902 527.50000000 0.684953 0.684953 0.248355 0.000000
264.51199341 150.49800110 531.25000000 0.000978 0.000978 0.999999 0.000000
206.13699341 203.39999390 483.75000000 -0.167162 0.498528 0.850604 0.000000
180.59800720 110.36499786 526.25000000 0.046982 -0.690492 0.721813 0.000000
62.93550110 171.02000427 402.50000000 -0.187917 -0.908027 0.374400 0.000000
173.30099487 257.67098999 537.50000000 0.401441 0.522693 0.752088 0.000000
80.26560211 171.47700500 401.25000000 0.318759 -0.430713 -0.844322 0.000000
203.39999390 104.89299774 526.25000000 -0.157053 -0.340513 0.927030 0.000000
256.30300903 198.83999634 538.75000000 0.209787 0.329665 0.920494 0.000000
83.45800018 171.47700500 402.50000000 0.298641 -0.470633 -0.830252 0.000000
93.03510284 283.66598511 523.75000000 -0.620439 0.373580 0.689560 0.000000
145.02499390 196.10299683 483.75000000 0.597908 0.510327 -0.618119 0.000000
111.27700043 257.21499634 546.25000000 -0.073094 0.450975 0.889538 0.000000
157.79499817 239.88499451 463.75000000 0.428995 0.215240 -0.877288 0.000000
129.97599792 158.70700073 565.00000000 -0.576182 -0.569423 0.586320 0.000000
134.08000183 256.30300903 548.75000000 -0.054908 0.400425 0.914683 0.000000
156.88299561 195.19099426 573.75000000 -0.520179 0.563948 0.641386 0.000000
98.50779724 129.51899719 498.75000000 -0.552365 -0.708288 0.439570 0.000000
171.47700500 284.57800293 518.75000000 0.650620 0.380489 0.657208 0.000000
174.21299744 167.82800293 503.75000000 0.817441 -0.199413 -0.540394 0.000000
91.21089935 228.93899536 546.25000000 -0.389072 0.221698 0.894132 0.000000
74.33689880 157.79499817 487.50000000 -0.858678 -0.499098 -0.116504 0.000000
176.94900513 251.74200439 481.25000000 0.582376 0.217812 -0.783196 0.000000
121.31099701 304.64401245 451.25000000 0.462776 -0.118186 -0.878562 0.000000
233.50000000 137.72799683 518.75000000 -0.599574 -0.171524 0.781723 0.000000
147.76199341 299.17199707 523.75000000 0.289997 0.620050 0.728999 0.000000
76.61720276 154.60200500 465.00000000 -0.858807 -0.501566 0.104314 0.000000
163.26800537 217.99400330 566.25000000 0.104806 0.426209 0.898533 0.000000
114.92600250 238.97300720 553.75000000 -0.327735 0.586049 0.741037 0.000000
148.67399597 254.47799683 548.75000000 0.072877 0.581583 0.810216 0.000000
141.37699890 147.76199341 468.75000000 0.406432 -0.203949 -0.890628 0.000000
55.18259811 230.76400757 445.00000000 -0.961234 0.172732 -0.214926 0.000000
145.93699646 291.87500000 531.25000000 0.268750 0.554788 0.787390 0.000000
143.20100403 258.12701416 461.25000000 0.384749 0.188772 -0.903512 0.000000
69.32029724 181.96600342 520.00000000 -0.649558 -0.348503 0.675737 0.000000
120.39800262 316.95800781 512.50000000 -0.281898 0.740578 0.609982 0.000000
52.44630051 223.46699524 462.50000000 -0.992056 -0.124975 -0.014378 0.000000
207.04899597 209.78500366 556.25000000 0.685729 0.445474 0.575612 0.000000
152.77799988 154.14599609 502.50000000 -0.943317 0.156539 -0.292660 0.000000
179.68499756 208.41700745 482.50000000 0.189371 0.981707 -0.019750 0.000000
206.13699341 183.33399963 491.25000000 0.388637 -0.512221 0.765892 0.000000
156.88299561 151.41000366 566.25000000 0.243023 -0.594231 0.766700 0.000000
184.24600220 234.41200256 488.75000000 -0.670564 -0.509225 0.539476 0.000000
231.67599487 203.85600281 517.50000000 -0.544127 -0.431663 0.719439 0.000000
72.51270294 296.43499756 462.50000000 -0.878517 0.471977 -0.073790 0.000000
185.15800476 184.70199585 497.50000000 0.411590 -0.483171 0.772748 0.000000
111.73300171 109.45300293 465.00000000 -0.668182 -0.720408 -0.185862 0.000000
186.98199463 123.59100342 540.00000000 0.432166 -0.432166 0.791495 0.000000
86.65039825 178.31700134 402.50000000 0.794313 -0.264771 -0.546776 0.000000
173.30099487 183.33399963 501.25000000 -0.529816 -0.045890 0.846870 0.000000
138.64100647 300.08401489 526.25000000 0.001326 0.481358 0.876523 0.000000
63.39160156 210.69700623 517.50000000 -0.788643 -0.046724 0.613074 0.000000
245.35699463 187.89399719 523.75000000 -0.415968 -0.046813 0.908174 0.000000
215.25799561 174.21299744 491.25000000 -0.156132 -0.411101 0.898120 0.000000
182.42199707 135.90400696 483.75000000 -0.265856 0.148291 0.952539 0.000000
157.79499817 202.94400024 572.50000000 -0.171359 0.289254 0.941790 0.000000
180.59800720 166.00399780 571.25000000 -0.041162 -0.407641 0.912214 0.000000
109.45300293 303.73199463 446.25000000 0.253027 -0.132413 -0.958355 0.000000
73.42479706 290.96301270 507.50000000 -0.879983 0.294334 0.372823 0.000000
186.07000732 91.66699982 510.00000000 -0.170286 -0.851431 0.496051 0.000000
136.81599426 317.41400146 458.75000000 0.455620 0.423191 -0.783147 0.000000
126.78299713 193.36700439 566.25000000 -0.614937 0.076327 0.784873 0.000000
83.00189972 243.53300476 538.75000000 -0.557691 0.248383 0.792014 0.000000
169.65199280 174.66900635 495.00000000 0.535129 -0.475114 -0.698501 0.000000
193.36700439 112.18900299 491.25000000 -0.105002 0.309691 0.945022 0.000000
66.58399963 278.19299316 506.25000000 -0.735007 0.070757 0.674358 0.000000
243.53300476 153.23399353 543.75000000 0.211493 -0.022449 0.977122 0.000000
148.67399597 175.12500000 471.25000000 -0.000978 -0.000978 -0.999999 0.000000
114.01399994 185.15800476 563.75000000 -0.565801 -0.078782 0.820769 0.000000
94.85929871 219.81799316 548.75000000 -0.327304 0.436927 0.837835 0.000000
106.71700287 236.23599243 433.75000000 0.343561 0.533891 -0.772610 0.000000
83.45800018 183.33399963 540.00000000 -0.781203 -0.061411 0.621249 0.000000
176.94900513 207.04899597 466.25000000 0.000978 0.000978 0.999999 0.000000
175.58099365 148.67399597 482.50000000 -0.331865 -0.278766 0.901197 0.000000
74.79290009 158.25100708 445.00000000 -0.956196 -0.292411 0.013572 0.000000
112.64499664 191.54299927 562.50000000 -0.302190 0.113155 0.946508 0.000000
92.12300110 228.93899536 546.25000000 -0.389072 0.221698 0.894132 0.000000
250.83000183 187.89399719 526.25000000 -0.439187 -0.114386 0.891084 0.000000
114.01399994 213.43400574 561.25000000 -0.595375 0.339056 0.728402 0.000000
155.05900574 213.43400574 456.25000000 0.354199 -0.081533 -0.931609 0.000000
142.28900146 170.56399536 573.75000000 -0.319423 0.179937 0.930372 0.000000
155.97099304 193.36700439 576.25000000 -0.228380 0.222910 0.947710 0.000000
138.64100647 188.80700684 453.75000000 0.690097 -0.294377 -0.661142 0.000000
145.93699646 133.16799927 508.75000000 -0.942238 0.314973 0.113926 0.000000
182.42199707 114.01399994 528.75000000 -0.001375 -0.639507 0.768784 0.000000
127.69499969 178.77299500 441.25000000 0.872645 -0.158795 -0.461817 0.000000
120.85399628 121.31099701 455.00000000 0.723844 -0.307916 -0.617444 0.000000
85.73829651 145.93699646 516.25000000 -0.679627 -0.620097 0.391902 0.000000
109.90899658 140.46499634 437.50000000 0.682943 -0.695446 -0.223480 0.000000
195.19099426 189.71899414 498.75000000 0.522360 -0.145672 0.840190 0.000000
256.30300903 129.51899719 536.25000000 0.642249 -0.413230 0.645568 0.000000
148.21800232 298.26000977 525.00000000 0.289997 0.620050 0.728999 0.000000
203.39999390 175.12500000 566.25000000 0.289185 0.026064 0.956918 0.000000
195.19099426 166.00399780 483.75000000 -0.126359 -0.376301 0.917840 0.000000
116.75000000 109.45300293 496.25000000 -0.622767 -0.731074 0.278732 0.000000
203.39999390 117.66200256 531.25000000 -0.114661 -0.529761 0.840361 0.000000
90.29879761 188.80700684 401.25000000 0.609231 -0.154940 -0.777709 0.000000
200.66400146 121.31099701 533.75000000 0.365088 -0.587742 0.721990 0.000000
247.18200684 209.32899475 527.50000000 0.241851 0.966139 -0.089903 0.000000
196.10299683 196.55900574 490.00000000 -0.956218 -0.230719 0.180041 0.000000
202.48800659 153.23399353 558.75000000 0.398079 -0.452875 0.797770 0.000000
129.51899719 189.71899414 568.75000000 -0.001358 0.566240 0.824239 0.000000
232.13200378 133.16799927 542.50000000 0.394799 -0.133473 0.909021 0.000000
212.52099609 176.03700256 491.25000000 -0.174870 -0.137128 0.974995 0.000000
62.47949982 176.94900513 500.00000000 -0.925037 -0.370284 -0.084829 0.000000
191.99899292 129.51899719 490.00000000 -0.430470 0.144443 0.890972 0.000000
58.83100128 247.18200684 507.50000000 -0.857689 0.205067 0.471505 0.000000
167.82800293 254.93400574 542.50000000 0.229413 0.619573 0.750666 0.000000
83.91400146 279.10501099 521.25000000 -0.454766 0.365409 0.812197 0.000000
186.07000732 199.75199890 571.25000000 0.031375 -0.863502 0.503368 0.000000
71.14450073 272.72100830 428.75000000 -0.009700 0.655427 -0.755196 0.000000
243.53300476 147.76199341 543.75000000 0.000978 0.000978 0.999999 0.000000
85.73829651 264.05599976 530.00000000 -0.603945 0.430914 0.670495 0.000000
179.68499756 290.05099487 498.75000000 0.932768 0.265902 0.243392 0.000000
204.31199646 126.32700348 540.00000000 0.091840 -0.637049 0.765333 0.000000
206.59300232 141.37699890 495.00000000 -0.399800 0.340686 0.850937 0.000000
57.91889954 227.11500549 412.50000000 0.000000 0.000000 0.000000 0.000000
90.29879761 308.29299927 508.75000000 -0.730594 0.455586 0.508600 0.000000
181.50999451 276.82501221 512.50000000 0.759850 0.397083 0.514737 0.000000
57.00680161 193.36700439 402.50000000 -0.944315 -0.321719 0.069033 0.000000
95.77140045 186.52600098 550.00000000 -0.542532 -0.172829 0.822064 0.000000
242.62100220 189.71899414 543.75000000 0.381989 0.265145 0.885315 0.000000
173.30099487 166.91600037 501.25000000 0.274465 -0.750417 -0.601285 0.000000
70.23239899 274.54501343 431.25000000 -0.181153 0.516512 -0.836899 0.000000
100.33200073 171.47700500 548.75000000 -0.313814 -0.785332 0.533643 0.000000
74.79290009 265.88000488 425.00000000 0.182828 0.662176 -0.726703 0.000000
178.77299500 124.04699707 486.25000000 -0.343585 0.166884 0.924175 0.000000
155.05900574 96.22750092 497.50000000 -0.275654 -0.959071 0.064785 0.000000
202.94400024 219.81799316 552.50000000 0.671554 0.577771 0.463892 0.000000
178.77299500 197.92799377 573.75000000 0.000978 0.000978 0.999999 0.000000
131.34399414 101.69999695 495.00000000 -0.284223 -0.933874 0.217017 0.000000
115.83799744 323.34298706 457.50000000 -0.114451 0.844616 -0.522996 0.000000
215.25799561 91.66699982 512.50000000 -0.001251 -0.939829 0.341642 0.000000
241.70899963 155.97099304 521.25000000 -0.272035 -0.091538 0.957924 0.000000
189.71899414 167.82800293 483.75000000 -0.005984 -0.250127 0.968195 0.000000
64.75969696 271.80899048 431.25000000 -0.361800 0.377328 -0.852481 0.000000
99.41989899 119.02999878 460.00000000 -0.684953 -0.684953 -0.248355 0.000000
216.16999817 127.69499969 506.25000000 -0.735528 0.575702 0.357163 0.000000
204.76800537 145.93699646 492.50000000 -0.519629 0.165269 0.838255 0.000000
169.19599915 93.94719696 510.00000000 -0.218357 -0.920524 0.323968 0.000000
162.35499573 166.91600037 576.25000000 -0.313504 -0.233339 0.920472 0.000000
139.55299377 325.16699219 500.00000000 -0.001251 0.939829 0.341642 0.000000
210.69700623 169.65199280 558.75000000 0.587100 0.023595 0.809171 0.000000
182.42199707 114.92600250 488.75000000 -0.192866 -0.319567 0.927728 0.000000
82.08979797 288.22601318 516.25000000 -0.464052 0.399376 0.790667 0.000000
103.98000336 322.43099976 470.00000000 -0.323644 0.945348 -0.039656 0.000000
58.37500000 195.64700317 475.00000000 -0.966682 -0.210373 -0.145841 0.000000
224.83500671 228.93899536 520.00000000 -0.976984 -0.089937 -0.193426 0.000000
148.67399597 270.89599609 541.25000000 -0.176029 0.540122 0.822972 0.000000
205.22500610 94.85929871 518.75000000 -0.138321 -0.581545 0.801669 0.000000
213.43400574 206.13699341 486.25000000 -0.294985 0.184192 0.937580 0.000000
68.40820313 231.67599487 523.75000000 -0.838138 0.105308 0.535196 0.000000
199.75199890 97.59570313 521.25000000 0.009617 -0.594904 0.803739 0.000000
91.21089935 316.04598999 470.00000000 -0.000978 -0.000978 -0.999999 0.000000
227.11500549 211.15299988 542.50000000 0.317966 0.778139 0.541661 0.000000
191.54299927 103.98000336 523.75000000 -0.222511 -0.203631 0.953427 0.000000
110.36499786 284.57800293 448.75000000 0.499271 -0.107293 -0.859777 0.000000
114.47000122 114.01399994 502.50000000 -0.737734 -0.644937 0.199513 0.000000
86.65039825 160.53100586 408.75000000 0.105184 -0.523038 -0.845794 0.000000
64.75969696 213.43400574 518.75000000 -0.736769 -0.058884 0.673576 0.000000
105.80500031 307.38101196 446.25000000 0.079970 0.044914 -0.995785 0.000000
125.41500092 248.09399414 552.50000000 -0.477556 -0.119031 0.870501 0.000000
197.01600647 103.52400208 492.50000000 -0.380172 -0.405412 0.831331 0.000000
254.47799683 205.22500610 533.75000000 0.518415 0.757180 0.397397 0.000000
99.41989899 280.01699829 441.25000000 0.561904 0.283326 -0.777168 0.000000
238.51699829 212.52099609 527.50000000 0.431561 0.434793 -0.790386 0.000000
60.19919968 264.51199341 431.25000000 -0.893362 0.311707 -0.323639 0.000000
103.98000336 218.90600586 426.25000000 0.618287 0.282783 -0.733318 0.000000
147.76199341 174.21299744 471.25000000 -0.000978 -0.000978 -0.999999 0.000000
153.23399353 128.60699463 548.75000000 0.432166 -0.432166 0.791495 0.000000
231.67599487 201.57600403 546.25000000 0.407785 0.306224 0.860197 0.000000
124.04699707 285.48999023 536.25000000 -0.043971 0.639705 0.767362 0.000000
115.38200378 146.85000610 437.50000000 0.513511 -0.513511 -0.687469 0.000000
147.76199341 326.53500366 496.25000000 -0.239108 0.955095 -0.174989 0.000000
162.35499573 235.32400513 463.75000000 0.390174 0.094463 -0.915883 0.000000
228.02699280 213.88999939 525.00000000 0.165311 0.986241 -0.001125 0.000000
240.79699707 179.68499756 546.25000000 0.231417 0.081309 0.969451 0.000000
197.47200012 243.53300476 512.50000000 0.894688 -0.446689 -0.001310 0.000000
145.48100281 131.34399414 510.00000000 -0.903047 0.334407 0.269588 0.000000
228.02699280 128.60699463 516.25000000 -0.535323 0.175442 0.826226 0.000000
170.56399536 161.44299316 498.75000000 0.772933 -0.246147 -0.584795 0.000000
175.12500000 238.97300720 551.25000000 0.128234 0.573368 0.809200 0.000000
202.94400024 221.64199829 550.00000000 0.740203 0.630659 0.233172 0.000000
152.32200623 305.55700684 463.75000000 0.467951 0.131026 -0.873988 0.000000
102.15599823 248.09399414 546.25000000 -0.604993 0.225511 0.763628 0.000000
92.12300110 126.32700348 465.00000000 -0.846909 -0.531527 -0.014953 0.000000
196.10299683 132.25599670 546.25000000 0.174882 -0.600682 0.780126 0.000000
216.16999817 92.12300110 513.75000000 -0.001251 -0.939829 0.341642 0.000000
148.67399597 290.05099487 531.25000000 0.298866 0.586544 0.752758 0.000000
90.75479889 208.87300110 402.50000000 0.740906 0.052820 -0.669528 0.000000
157.33900452 214.34599304 567.50000000 0.101567 0.170094 0.980180 0.000000
88.47460175 209.78500366 401.25000000 0.783056 0.107248 -0.612635 0.000000
206.13699341 97.59570313 493.75000000 -0.430159 -0.376191 0.820636 0.000000
144.56900024 217.99400330 452.50000000 0.356410 0.059183 -0.932453 0.000000
189.71899414 249.46200562 495.00000000 0.808912 0.001364 -0.587928 0.000000
52.44630051 246.26899719 477.50000000 -0.999999 0.000978 0.000978 0.000000
164.17999268 199.75199890 471.25000000 0.041118 0.730201 -0.681994 0.000000
253.56599426 200.20799255 537.50000000 0.036849 0.115012 0.992680 0.000000
89.84269714 210.69700623 402.50000000 0.748879 0.058708 -0.660102 0.000000
142.28900146 171.47700500 466.25000000 0.547994 -0.230003 -0.804239 0.000000
90.29879761 296.89099121 440.00000000 0.179420 0.278032 -0.943667 0.000000
102.15599823 211.60899353 553.75000000 -0.839554 -0.230077 0.492152 0.000000
163.26800537 241.70899963 553.75000000 0.867900 0.496519 0.014801 0.000000
208.87300110 123.13500214 498.75000000 -0.617253 -0.035151 0.785979 0.000000
82.08979797 297.80398560 510.00000000 -0.432166 0.432166 0.791495 0.000000
222.55499268 202.48800659 551.25000000 0.485918 0.233058 0.842359 0.000000
171.47700500 232.58799744 556.25000000 0.351660 0.469410 0.809932 0.000000
113.10199738 183.78999329 560.00000000 -0.726213 -0.428449 0.537629 0.000000
101.24400330 321.51800537 475.00000000 -0.593517 0.792843 -0.138338 0.000000
57.00680161 273.63299561 487.50000000 -0.862116 0.286351 0.418042 0.000000
101.24400330 321.97399902 478.75000000 -0.444008 0.889425 -0.108535 0.000000
77.52929688 169.19599915 525.00000000 -0.000978 -0.000978 0.999999 0.000000
202.48800659 214.34599304 481.25000000 -0.438782 -0.362748 0.822122 0.000000
138.64100647 327.90301514 482.50000000 0.162403 0.970583 -0.177748 0.000000
70.23239899 173.75700378 440.00000000 -0.862866 -0.376831 0.336841 0.000000
116.75000000 124.04699707 523.75000000 -0.537513 -0.703926 0.464292 0.000000
141.37699890 123.13500214 471.25000000 0.594469 0.437942 -0.674398 0.000000
75.70500183 262.23098755 422.50000000 0.108001 0.684993 -0.720500 0.000000
119.48600006 300.08401489 523.75000000 -0.110449 0.631766 0.767250 0.000000
181.50999451 101.24400330 521.25000000 -0.141632 -0.382828 0.912898 0.000000
238.05999756 181.50999451 546.25000000 0.264803 0.083151 0.960711 0.000000
86.65039825 162.81100464 407.50000000 0.068143 -0.479784 -0.874736 0.000000
63.39160156 241.70899963 515.00000000 -0.804089 0.100329 0.585982 0.000000
116.75000000 249.91799927 548.75000000 0.064106 0.257680 0.964101 0.000000
161.44299316 188.80700684 576.25000000 0.000978 0.000978 0.999999 0.000000
167.82800293 166.00399780 496.25000000 0.344566 -0.356817 -0.868306 0.000000
113.55799866 245.35699463 442.50000000 0.558781 0.558781 -0.612802 0.000000
147.76199341 287.31399536 533.75000000 0.273752 0.571240 0.773786 0.000000
153.23399353 277.28100586 536.25000000 0.212356 0.480437 0.850932 0.000000
171.47700500 149.58599854 481.25000000 -0.182176 -0.377262 0.908012 0.000000
231.67599487 204.31199646 546.25000000 0.915040 -0.085913 -0.394108 0.000000
157.79499817 227.11500549 563.75000000 0.060018 0.509457 0.858400 0.000000
62.02339935 201.57600403 513.75000000 -0.822366 0.118316 0.556521 0.000000
216.16999817 245.81300354 510.00000000 -0.810433 -0.585236 -0.026412 0.000000
120.39800262 117.66200256 521.25000000 -0.476068 -0.686540 0.549566 0.000000
194.27900696 238.97300720 521.25000000 0.957560 -0.118879 -0.262578 0.000000
58.83100128 219.81799316 402.50000000 -0.939829 0.001251 -0.341642 0.000000
122.22299957 262.68701172 453.75000000 0.490161 0.193366 -0.849913 0.000000
111.27700043 233.50000000 433.75000000 0.226946 0.488923 -0.842288 0.000000
211.60899353 198.83999634 556.25000000 0.510995 0.174304 0.841726 0.000000
83.45800018 145.02499390 507.50000000 -0.730471 -0.674394 0.107726 0.000000
143.20100403 307.38101196 461.25000000 0.674661 0.001380 -0.738126 0.000000
150.49800110 244.44500732 461.25000000 0.452985 0.151960 -0.878472 0.000000
163.26800537 207.96099854 478.75000000 0.028987 0.832337 -0.553511 0.000000
183.33399963 128.60699463 546.25000000 0.262111 -0.646541 0.716437 0.000000
172.38900757 292.78698730 481.25000000 0.827571 0.137191 -0.544338 0.000000
142.28900146 290.05099487 461.25000000 0.001380 -0.674661 -0.738126 0.000000
114.01399994 210.69700623 428.75000000 0.642514 0.162527 -0.748840 0.000000
168.74000549 294.15499878 515.00000000 0.803757 0.402681 0.437975 0.000000
186.98199463 234.86799622 492.50000000 -0.665955 -0.498208 0.555242 0.000000
214.34599304 157.79499817 553.75000000 0.323658 -0.001240 0.946173 0.000000
124.95899963 252.65400696 451.25000000 0.512662 0.116974 -0.850585 0.000000
210.69700623 186.07000732 558.75000000 0.705176 -0.073848 0.705176 0.000000
237.14799500 110.36499786 531.25000000 0.267809 -0.597421 0.755888 0.000000
57.46289825 259.95098877 498.75000000 -0.865594 0.253160 0.432039 0.000000
218.90600586 122.22299957 508.75000000 0.628697 0.628697 0.457691 0.000000
240.79699707 113.55799866 532.50000000 -0.045434 -0.349196 0.935948 0.000000
160.53100586 205.22500610 571.25000000 -0.144633 0.433898 0.889277 0.000000
152.32200623 112.18900299 518.75000000 -0.650020 -0.376847 0.659894 0.000000
53.35839844 213.43400574 500.00000000 -0.996351 -0.044548 0.072798 0.000000
123.13500214 248.09399414 551.25000000 -0.477556 -0.119031 0.870501 0.000000
176.03700256 284.12200928 515.00000000 0.610122 0.401788 0.682874 0.000000
79.80950165 204.31199646 537.50000000 -0.731113 0.216684 0.646933 0.000000
115.83799744 142.28900146 446.25000000 0.873818 -0.232319 -0.427166 0.000000
228.93899536 106.71700287 518.75000000 -0.666730 -0.020966 0.745004 0.000000
139.55299377 286.85800171 535.00000000 0.210140 0.333079 0.919184 0.000000
114.01399994 186.07000732 563.75000000 -0.695172 -0.038227 0.717826 0.000000
126.78299713 292.78698730 531.25000000 0.298866 0.586544 0.752758 0.000000
180.59800720 112.18900299 528.75000000 0.023712 -0.615119 0.788078 0.000000
82.54589844 225.29100037 402.50000000 0.664612 0.399430 -0.631464 0.000000
158.70700073 235.32400513 463.75000000 0.387130 0.154569 -0.908977 0.000000
170.56399536 300.08401489 508.75000000 0.603271 0.475559 0.640240 0.000000
169.65199280 169.65199280 573.75000000 0.461610 -0.248325 0.851617 0.000000
247.18200684 204.31199646 523.75000000 0.000978 0.000978 0.999999 0.000000
108.54100037 290.96301270 448.75000000 0.572821 -0.100062 -0.813550 0.000000
124.95899963 311.02899170 518.75000000 0.064241 0.606725 0.792312 0.000000
129.51899719 325.16699219 462.50000000 0.137997 0.958094 -0.251023 0.000000
62.47949982 280.92999268 475.00000000 -0.628697 0.628697 -0.457691 0.000000
78.44139862 305.10000610 467.50000000 -0.800267 0.598448 -0.037841 0.000000
208.87300110 234.86799622 500.00000000 0.835716 -0.548395 -0.029008 0.000000
218.90600586 205.22500610 488.75000000 -0.501714 0.197371 0.842216 0.000000
56.09469986 241.70899963 505.00000000 -0.898989 0.092808 0.428024 0.000000
184.24600220 133.16799927 551.25000000 -0.531462 -0.796404 0.288598 0.000000
109.45300293 311.94100952 446.25000000 0.229137 0.186258 -0.955408 0.000000
234.41200256 193.82299805 547.50000000 0.423893 0.195079 0.884454 0.000000
67.49610138 237.14799500 521.25000000 -0.918997 0.024838 0.393482 0.000000
118.11799622 149.58599854 442.50000000 0.860216 -0.491760 -0.134907 0.000000
222.09899902 211.60899353 515.00000000 -0.843165 0.386385 -0.373871 0.000000
215.25799561 117.66200256 531.25000000 0.105995 -0.561919 0.820373 0.000000
60.65530014 228.93899536 402.50000000 -0.973760 0.201252 -0.106251 0.000000
195.19099426 146.39300537 557.50000000 0.264946 -0.617150 0.740898 0.000000
152.77799988 111.27700043 517.50000000 -0.684412 -0.684412 0.251320 0.000000
60.65530014 195.19099426 447.50000000 -0.904657 -0.417216 0.086748 0.000000
180.59800720 273.63299561 516.25000000 0.784626 0.399593 0.474011 0.000000
86.19429779 243.53300476 540.00000000 -0.517524 0.184509 0.835539 0.000000
121.76699829 258.12701416 452.50000000 0.540573 0.149583 -0.827892 0.000000
105.80500031 151.41000366 423.75000000 0.432166 -0.432166 -0.791495 0.000000
223.01100159 131.34399414 510.00000000 -0.471029 0.638655 0.608483 0.000000
77.98529816 229.85099792 402.50000000 0.744869 0.508090 -0.432452 0.000000
267.24798584 155.97099304 533.75000000 -0.545014 0.271722 0.793176 0.000000
220.72999573 120.39800262 508.75000000 0.579999 0.539416 0.610436 0.000000
54.27050018 263.60000610 477.50000000 -0.966279 0.256459 0.023093 0.000000
184.24600220 213.43400574 568.75000000 -0.000978 -0.000978 0.999999 0.000000
124.95899963 296.43499756 528.75000000 -0.040384 0.558418 0.828576 0.000000
97.59570313 222.55499268 421.25000000 0.679776 0.283107 -0.676577 0.000000
142.28900146 190.63099670 456.25000000 0.705551 -0.376623 -0.600294 0.000000
61.11130142 231.22000122 402.50000000 -0.978058 0.195612 -0.071684 0.000000
75.70500183 231.67599487 401.25000000 0.724087 0.531881 -0.439092 0.000000
246.26899719 195.19099426 523.75000000 -0.452982 0.017269 0.891352 0.000000
124.50299835 142.28900146 460.00000000 0.795806 -0.009654 -0.605475 0.000000
222.55499268 124.50299835 540.00000000 -0.019727 -0.416891 0.908743 0.000000
161.44299316 321.97399902 483.75000000 0.524749 0.639485 -0.561870 0.000000
121.31099701 155.05900574 446.25000000 0.882491 -0.441970 -0.160848 0.000000
125.87100220 185.15800476 436.25000000 0.708863 0.108031 -0.697024 0.000000
190.63099670 238.05999756 546.25000000 0.577468 0.634710 0.513492 0.000000
66.58399963 257.21499634 413.75000000 -0.220153 0.647967 -0.729158 0.000000
147.76199341 150.49800110 566.25000000 -0.132413 -0.507824 0.851224 0.000000
187.89399719 201.57600403 491.25000000 0.217651 0.975220 0.039682 0.000000
74.79290009 233.50000000 401.25000000 0.619280 0.548409 -0.561908 0.000000
100.33200073 319.23800659 498.75000000 -0.451419 0.791197 0.412587 0.000000
117.66200256 270.89599609 451.25000000 0.487288 0.028504 -0.872776 0.000000
258.12701416 139.55299377 531.25000000 -0.000978 -0.000978 0.999999 0.000000
80.72160339 304.64401245 500.00000000 -0.939829 -0.001251 0.341642 0.000000
134.99200439 102.61199951 510.00000000 -0.261947 -0.870634 0.416390 0.000000
73.88079834 234.41200256 401.25000000 0.599625 0.572600 -0.559087 0.000000
229.85099792 212.52099609 538.75000000 0.295838 0.798920 0.523648 0.000000
182.42199707 275.45700073 491.25000000 0.000978 0.000978 -0.999999 0.000000
121.31099701 122.67900085 527.50000000 -0.517450 -0.729059 0.448016 0.000000
173.30099487 208.87300110 488.75000000 0.452587 0.339046 0.824750 0.000000
95.77140045 295.52301025 518.75000000 -0.386366 0.424525 0.818841 0.000000
