242.32000732 100.14299774 219.00000000 -0.127848 -0.871951 0.472606 0.000000
179.26800537 103.02700043 208.00000000 -0.708486 -0.705724 -0.001381 0.000000
67.99800110 230.78100586 98.00000000 -0.827868 0.492372 -0.268708 0.000000
124.04499817 177.20700073 81.00000000 0.978136 -0.024778 -0.206482 0.000000
117.03900146 179.67999268 74.50000000 0.494360 -0.199848 -0.845972 0.000000
97.66989899 165.66799927 234.00000000 -0.824734 0.205044 0.527040 0.000000
107.56099701 133.52299500 240.00000000 -0.312091 -0.104916 0.944241 0.000000
157.42599487 115.39099884 213.50000000 -0.445367 -0.730137 0.518215 0.000000
102.61499786 134.34800720 237.00000000 -0.826124 -0.552207 -0.112190 0.000000
204.40600586 98.49410248 207.00000000 -0.139093 -0.976155 0.166661 0.000000
220.89100647 166.49200439 228.50000000 0.362705 -0.016661 0.931755 0.000000
79.12500000 237.37500000 197.50000000 -0.508265 0.238009 0.827658 0.000000
239.84800720 109.20899963 196.00000000 0.913682 0.120990 -0.388002 0.000000
94.78520203 232.84199524 85.00000000 0.748364 0.612871 -0.253656 0.000000
67.17379761 191.21899414 150.00000000 -0.999999 -0.000978 -0.000978 0.000000
131.87500000 115.39099884 131.50000000 0.733473 0.501676 -0.458627 0.000000
151.65600586 260.86499023 173.00000000 0.362541 0.618453 -0.697195 0.000000
230.78100586 182.97700500 219.50000000 0.038963 0.442031 0.896153 0.000000
67.17379761 206.87899780 71.00000000 -0.817940 0.350999 -0.455823 0.000000
121.16000366 257.98001099 210.50000000 -0.208912 0.971123 0.115218 0.000000
89.42769623 171.43800354 223.00000000 -0.764113 0.088783 0.638944 0.000000
116.62699890 187.09800720 76.00000000 0.794933 0.244236 -0.555364 0.000000
197.81199646 128.57800293 228.50000000 -0.000978 -0.000978 0.999999 0.000000
200.28500366 214.29699707 199.50000000 -0.441631 0.878860 -0.180467 0.000000
88.19139862 243.96899414 92.50000000 0.619054 0.534714 0.575198 0.000000
95.60939789 231.60499573 83.50000000 0.775575 0.417867 -0.473149 0.000000
134.75999451 174.73399353 109.00000000 0.937558 -0.105961 -0.331297 0.000000
232.84199524 170.61300659 183.00000000 0.397190 0.242479 -0.885124 0.000000
247.67799377 144.23800659 199.00000000 0.218493 0.197045 -0.955737 0.000000
218.41799927 160.72300720 228.50000000 0.000978 0.000978 0.999999 0.000000
142.58999634 222.53900146 225.50000000 0.022662 0.894464 0.446565 0.000000
65.11329651 216.35699463 185.00000000 -0.312091 0.104916 0.944241 0.000000
103.85199738 127.75399780 83.50000000 -0.848934 -0.509945 0.138810 0.000000
106.73600006 152.47999573 248.00000000 -0.742569 0.169251 0.648032 0.000000
111.68199921 200.28500366 75.00000000 0.768760 0.442322 -0.461909 0.000000
129.81399536 137.64500427 113.00000000 0.829462 -0.553449 0.075406 0.000000
79.12500000 154.54100037 71.00000000 -0.863262 -0.487302 -0.131586 0.000000
169.37699890 210.17599487 203.00000000 0.928179 0.127505 0.349609 0.000000
157.01400757 264.57400513 179.00000000 0.545989 0.515749 -0.660226 0.000000
99.73049927 277.76199341 149.50000000 0.610349 0.395321 -0.686436 0.000000
74.59179688 230.78100586 69.00000000 -0.631377 0.714918 -0.300426 0.000000
125.69300079 143.41400146 249.00000000 0.550330 -0.264974 0.791786 0.000000
132.69900513 168.96499634 255.50000000 -0.838215 0.213722 0.501716 0.000000
121.16000366 187.92199707 240.50000000 -0.430623 0.058413 0.900640 0.000000
210.58799744 94.78520203 192.00000000 -0.196558 -0.980491 0.001149 0.000000
129.40199280 106.32399750 146.50000000 -0.531567 -0.843420 0.077963 0.000000
162.37100220 243.96899414 206.50000000 0.572850 0.433374 0.695723 0.000000
128.57800293 241.08399963 147.00000000 0.468045 0.655934 -0.592186 0.000000
182.56399536 197.81199646 158.00000000 0.557132 -0.523469 -0.644658 0.000000
88.19139862 223.77499390 207.00000000 -0.883869 0.087968 0.459388 0.000000
197.39999390 183.80099487 175.00000000 -0.208457 -0.421349 -0.882616 0.000000
148.77099609 182.97700500 140.00000000 0.969464 -0.242671 -0.035364 0.000000
132.28700256 159.07400513 105.00000000 0.949135 -0.129488 -0.287010 0.000000
207.29100037 195.33999634 222.00000000 0.450454 0.631305 0.631305 0.000000
150.41999817 239.84800720 158.00000000 0.497096 0.598200 -0.628532 0.000000
210.17599487 125.28099823 173.50000000 0.604045 0.573589 -0.553285 0.000000
82.83399963 154.12899780 58.00000000 -0.191400 -0.592576 -0.782445 0.000000
181.32800293 146.71099854 231.50000000 0.444282 -0.292576 0.846767 0.000000
117.86299896 209.35200500 101.50000000 0.801931 0.521491 -0.291468 0.000000
159.89799500 173.91000366 170.50000000 0.636886 0.020904 -0.770674 0.000000
83.24610138 262.51400757 123.00000000 0.104671 0.747437 -0.656035 0.000000
109.20899963 223.36300659 102.00000000 0.684419 0.587835 -0.431301 0.000000
73.35549927 203.58200073 46.50000000 0.001326 -0.876523 -0.481358 0.000000
87.36720276 213.47300720 213.50000000 -0.728426 0.136674 0.671354 0.000000
111.26999664 291.36099243 169.00000000 0.258253 0.925999 -0.275374 0.000000
77.06449890 185.44900513 201.00000000 -0.943552 0.142142 0.299175 0.000000
128.57800293 246.02900696 151.00000000 0.248383 0.557691 -0.792014 0.000000
166.49200439 168.96499634 170.50000000 0.144362 0.491413 -0.858879 0.000000
164.02000427 198.63699341 143.50000000 0.291124 -0.369562 -0.882423 0.000000
251.79899597 109.62100220 218.00000000 0.756778 0.277644 0.591778 0.000000
212.64799500 96.02149963 201.00000000 -0.099984 -0.939854 0.326616 0.000000
100.14299774 171.43800354 57.00000000 0.808520 -0.473630 -0.349242 0.000000
93.13670349 250.97500610 115.00000000 0.695219 0.636606 -0.333770 0.000000
203.58200073 94.37300110 172.00000000 -0.046552 -0.991220 0.123761 0.000000
121.57199860 126.10500336 98.00000000 0.721210 0.179154 -0.669148 0.000000
159.89799500 124.86900330 148.00000000 0.289521 0.786295 -0.545818 0.000000
122.39600372 185.44900513 243.00000000 -0.434402 0.182829 0.881968 0.000000
116.62699890 274.46499634 161.00000000 0.749904 0.657430 0.073690 0.000000
141.76600647 167.72900391 127.00000000 0.910731 -0.148259 -0.385472 0.000000
162.37100220 143.41400146 155.50000000 -0.001201 0.964151 0.265352 0.000000
153.71699524 245.61700439 163.00000000 0.439792 0.555964 -0.705327 0.000000
240.67199707 184.62500000 219.50000000 -0.054139 0.200916 0.978111 0.000000
83.24610138 268.28298950 134.00000000 -0.250219 0.747511 -0.615319 0.000000
226.66000366 184.62500000 181.50000000 0.829664 -0.332181 -0.448680 0.000000
101.79100037 123.63300323 196.00000000 -0.661583 -0.749042 0.035266 0.000000
117.86299896 180.50399780 243.50000000 -0.395416 0.613805 0.683293 0.000000
206.05499268 215.53300476 201.00000000 0.787934 0.595093 -0.158189 0.000000
72.11910248 214.29699707 196.00000000 -0.876717 -0.276143 0.393844 0.000000
178.03100586 121.16000366 176.50000000 0.817767 -0.480576 0.316707 0.000000
67.17379761 193.69099426 66.00000000 -0.999999 -0.000978 -0.000978 0.000000
220.89100647 182.15199280 189.50000000 -0.046019 0.982922 -0.178177 0.000000
141.76600647 238.19900513 152.50000000 0.860091 0.318495 -0.398504 0.000000
83.24610138 204.40600586 46.50000000 0.405607 0.496828 -0.767232 0.000000
117.86299896 236.96299744 217.00000000 0.046979 0.208393 0.976916 0.000000
82.42189789 239.02299500 200.50000000 -0.508908 0.502234 0.699123 0.000000
98.90619659 127.34200287 180.00000000 -0.834985 -0.516036 -0.191069 0.000000
107.97299957 191.21899414 64.50000000 0.705693 0.110958 -0.699775 0.000000
168.14100647 190.39500427 146.50000000 0.410064 -0.612606 -0.675693 0.000000
67.17379761 192.04299927 114.00000000 -0.999999 0.000978 0.000978 0.000000
176.38299561 164.02000427 240.50000000 0.000978 0.000978 0.999999 0.000000
203.99400330 179.67999268 173.00000000 -0.560008 0.001356 -0.828486 0.000000
159.07400513 197.81199646 140.50000000 0.352685 -0.520171 -0.777840 0.000000
168.96499634 244.79299927 173.50000000 0.234042 0.500206 -0.833677 0.000000
102.61499786 248.91400146 132.00000000 0.702468 0.702468 0.114355 0.000000
142.58999634 104.26399994 141.00000000 0.000978 -0.999999 0.000978 0.000000
196.57600403 214.29699707 205.00000000 -0.910948 0.409189 0.052323 0.000000
70.47070313 255.50799561 170.00000000 -0.946675 0.316419 0.060701 0.000000
136.40800476 181.32800293 114.00000000 0.843946 0.295768 -0.447523 0.000000
228.72099304 165.66799927 182.00000000 0.766304 -0.446058 -0.462397 0.000000
164.43200684 252.21099854 202.00000000 0.722404 0.307303 0.619433 0.000000
151.65600586 159.07400513 246.50000000 -0.000978 -0.000978 0.999999 0.000000
187.92199707 187.92199707 167.50000000 0.144362 -0.491413 -0.858879 0.000000
165.66799927 101.79100037 186.00000000 -0.694314 -0.694314 0.189358 0.000000
174.32200623 240.67199707 193.00000000 0.903714 0.319912 0.284530 0.000000
110.85700226 157.42599487 252.00000000 -0.773177 -0.225575 0.592717 0.000000
160.72300720 253.85899353 170.50000000 0.638744 0.503916 -0.581442 0.000000
177.20700073 129.40199280 158.50000000 0.443035 0.126785 -0.887494 0.000000
96.43360138 236.13900757 93.00000000 0.630256 0.704786 -0.325660 0.000000
75.82810211 182.15199280 200.50000000 -0.962487 0.166761 0.214032 0.000000
109.62100220 117.45099640 172.00000000 -0.440494 -0.879525 -0.180003 0.000000
229.13299561 184.62500000 219.50000000 0.057605 0.057605 0.996676 0.000000
111.26999664 285.17999268 185.50000000 -0.250219 0.747511 0.615319 0.000000
99.73049927 123.63300323 116.50000000 -0.758664 -0.627386 0.175546 0.000000
80.77339935 219.24200439 55.50000000 -0.064397 0.098290 -0.993072 0.000000
212.64799500 187.09800720 172.50000000 -0.000978 -0.000978 -0.999999 0.000000
86.13089752 141.76600647 198.00000000 -0.808191 -0.345912 -0.476626 0.000000
82.83399963 158.25000000 201.00000000 -0.984166 0.154262 -0.087295 0.000000
81.59770203 206.05499268 46.50000000 0.405607 0.496828 -0.767232 0.000000
178.85499573 171.85000610 167.00000000 0.063635 -0.323368 -0.944131 0.000000
139.29299927 279.82199097 194.00000000 0.419720 0.701745 0.575664 0.000000
107.97299957 233.66600037 121.00000000 0.567577 -0.112348 -0.815619 0.000000
246.02900696 163.19500732 198.00000000 0.760245 0.089011 -0.643509 0.000000
98.08200073 247.26600647 206.50000000 -0.436933 0.219212 0.872374 0.000000
78.71289825 153.30499268 76.00000000 -0.918787 -0.358791 -0.164622 0.000000
64.70120239 224.18800354 167.00000000 -0.999999 -0.000978 -0.000978 0.000000
193.69099426 168.55299377 177.00000000 0.828370 0.112099 -0.548850 0.000000
82.42189789 240.67199707 83.50000000 -0.102178 0.844770 -0.525283 0.000000
215.12100220 196.57600403 174.00000000 0.305839 0.410346 -0.859115 0.000000
93.13670349 274.05300903 189.00000000 -0.561354 0.418946 0.713698 0.000000
127.75399780 247.26600647 216.50000000 0.976309 0.194272 0.095280 0.000000
101.37899780 186.27299500 231.50000000 -0.475340 0.256899 0.841460 0.000000
209.35200500 140.94099426 228.50000000 0.000978 0.000978 0.999999 0.000000
96.84570313 239.02299500 101.00000000 0.741146 0.639026 -0.205788 0.000000
219.24200439 133.52299500 228.50000000 0.000978 0.000978 0.999999 0.000000
112.91799927 279.41000366 158.50000000 0.607780 0.409051 -0.680647 0.000000
94.37300110 234.90199280 208.00000000 -0.468921 -0.235219 0.851343 0.000000
95.60939789 132.28700256 219.00000000 -0.805773 -0.578087 0.128628 0.000000
239.02299500 108.38500214 194.00000000 0.721913 0.353623 -0.594804 0.000000
170.61300659 141.76600647 231.50000000 0.152146 -0.456438 0.876651 0.000000
234.90199280 98.90619659 216.50000000 -0.085538 -0.961346 0.261721 0.000000
94.37300110 152.47999573 234.00000000 -0.771254 -0.001375 0.636526 0.000000
229.13299561 93.54879761 194.00000000 -0.000978 -0.999999 -0.000978 0.000000
132.69900513 132.28700256 231.00000000 -0.159640 -0.233522 -0.959157 0.000000
257.98001099 158.25000000 219.50000000 -0.000978 -0.000978 0.999999 0.000000
106.32399750 212.64799500 222.50000000 0.001364 0.587928 0.808912 0.000000
163.19500732 212.23599243 144.00000000 0.290042 0.159319 -0.943659 0.000000
64.70120239 226.66000366 117.00000000 -0.997236 0.074296 0.001046 0.000000
69.64649963 218.41799927 62.00000000 -0.917206 0.287439 -0.275884 0.000000
209.35200500 177.20700073 189.50000000 -0.808637 0.535470 0.243677 0.000000
109.20899963 273.64099121 155.00000000 0.779222 0.324809 0.536015 0.000000
69.64649963 175.55900574 78.00000000 -0.999999 0.000978 0.000978 0.000000
107.97299957 210.58799744 224.00000000 -0.123511 0.444357 0.887295 0.000000
64.28910065 212.64799500 179.50000000 -0.964151 -0.001201 0.265352 0.000000
116.21499634 261.27700806 206.50000000 -0.271375 0.348487 0.897169 0.000000
88.60350037 258.80499268 120.00000000 0.617393 0.735447 -0.279183 0.000000
67.58589935 199.46099854 188.50000000 -0.771254 -0.001375 0.636526 0.000000
209.35200500 215.94500732 184.50000000 0.708592 0.627517 -0.322677 0.000000
112.91799927 147.12300110 250.00000000 -0.033434 -0.439996 0.897377 0.000000
74.17970276 167.31599426 58.50000000 -0.884364 -0.185643 -0.428295 0.000000
213.47300720 196.98800659 211.50000000 -0.495115 0.048270 0.867486 0.000000
135.99600220 193.69099426 240.50000000 0.000978 0.000978 0.999999 0.000000
84.89450073 144.64999390 83.00000000 -0.867404 -0.483166 -0.118999 0.000000
64.70120239 221.71499634 108.00000000 -0.999999 0.000978 0.000978 0.000000
173.08599854 112.09400177 137.50000000 0.678665 0.336891 -0.652625 0.000000
136.82000732 135.99600220 234.50000000 -0.073269 -0.886141 0.457586 0.000000
211.00000000 215.12100220 186.50000000 0.732198 0.658825 -0.172731 0.000000
69.64649963 174.73399353 79.00000000 -0.964214 -0.204847 0.168313 0.000000
213.47300720 213.47300720 187.50000000 0.846100 0.532730 0.017712 0.000000
178.03100586 177.20700073 240.50000000 0.157131 0.132386 0.978664 0.000000
64.70120239 233.25399780 164.00000000 -0.999999 -0.000978 -0.000978 0.000000
164.02000427 258.80499268 197.50000000 0.671779 -0.001379 0.740750 0.000000
131.05099487 134.34800720 119.50000000 0.942749 -0.258117 -0.211187 0.000000
76.24019623 267.87100220 178.00000000 -0.833866 0.542949 -0.099373 0.000000
153.30499268 110.03299713 208.00000000 -0.000978 -0.000978 0.999999 0.000000
89.42769623 173.08599854 223.00000000 -0.763494 0.041079 0.644508 0.000000
166.49200439 105.08799744 204.00000000 0.233326 -0.929061 0.287062 0.000000
133.93600464 150.00799561 117.00000000 0.956698 -0.108330 -0.270173 0.000000
257.56799316 135.99600220 209.00000000 0.948265 -0.018790 -0.316923 0.000000
128.16600037 108.79699707 187.00000000 -0.282490 -0.955822 0.081264 0.000000
154.54100037 102.20300293 183.00000000 -0.045357 -0.994535 0.094033 0.000000
117.03900146 209.35200500 228.50000000 -0.309051 0.508746 0.803533 0.000000
93.13670349 282.70700073 149.50000000 -0.026525 0.783175 -0.621235 0.000000
128.57800293 155.77699280 255.50000000 -0.043196 -0.544822 0.837438 0.000000
70.05860138 171.02499390 88.00000000 -0.988358 -0.140201 0.059093 0.000000
75.00389862 178.03100586 197.50000000 -0.836958 -0.165013 0.521798 0.000000
159.07400513 215.94500732 228.50000000 -0.352111 0.440533 0.825802 0.000000
215.12100220 183.38900757 220.00000000 0.432146 0.551358 0.713620 0.000000
112.91799927 182.15199280 71.50000000 0.494360 -0.199848 -0.845972 0.000000
173.91000366 204.81799316 151.00000000 0.648216 0.648216 -0.399540 0.000000
218.41799927 170.61300659 176.50000000 0.125189 0.267509 -0.955388 0.000000
114.97899628 216.77000427 102.00000000 0.360486 0.899009 0.248662 0.000000
143.41400146 178.03100586 249.50000000 0.249897 0.337580 0.907519 0.000000
140.94099426 206.87899780 131.50000000 0.619945 0.439476 -0.650023 0.000000
96.43360138 192.86700439 225.50000000 -0.535711 -0.060461 0.842234 0.000000
255.09599304 131.87500000 221.00000000 0.747511 -0.250219 0.615319 0.000000
74.59179688 166.49200439 57.00000000 -0.970583 -0.162403 -0.177748 0.000000
72.53119659 176.38299561 161.50000000 -0.912055 -0.025006 -0.409306 0.000000
67.99800110 201.93400574 189.00000000 -0.901805 0.223624 -0.369784 0.000000
249.73800659 104.67600250 203.50000000 0.790924 0.227526 -0.568041 0.000000
64.70120239 201.93400574 143.00000000 -0.999999 -0.000978 -0.000978 0.000000
187.09800720 136.40800476 166.00000000 0.103982 0.411769 -0.905337 0.000000
106.73600006 269.51998901 150.00000000 0.604685 0.208779 -0.768614 0.000000
215.94500732 181.32800293 196.50000000 -0.495211 0.793299 -0.354180 0.000000
103.43900299 254.68400574 206.00000000 -0.393042 0.164363 0.904711 0.000000
135.99600220 267.04699707 203.50000000 0.049252 0.289200 0.956001 0.000000
187.92199707 201.10899353 197.50000000 -0.380905 0.920407 0.088110 0.000000
120.74800110 196.98800659 236.00000000 0.368631 0.706133 0.604555 0.000000
89.01560211 280.23400879 182.50000000 -0.443872 0.764901 0.466802 0.000000
127.75399780 160.72300720 89.50000000 0.908090 -0.353065 -0.225206 0.000000
75.82810211 162.78300476 129.00000000 -0.911905 -0.365048 0.187535 0.000000
171.85000610 233.25399780 168.00000000 0.376074 0.538877 -0.753777 0.000000
205.22999573 166.90400696 230.00000000 0.528668 0.848828 0.001345 0.000000
109.20899963 206.05499268 75.00000000 0.992991 0.068911 -0.096023 0.000000
225.01199341 162.78300476 177.00000000 0.600035 -0.091531 -0.794720 0.000000
205.22999573 101.37899780 216.50000000 -0.049605 -0.988638 0.141893 0.000000
121.57199860 190.39500427 84.00000000 0.910942 0.153942 -0.382737 0.000000
147.53500366 243.96899414 158.50000000 0.657267 0.526150 -0.539598 0.000000
190.80700684 153.30499268 178.00000000 0.952186 -0.018670 0.304948 0.000000
181.32800293 161.13499451 235.00000000 0.293380 -0.129945 0.947123 0.000000
153.30499268 180.50399780 246.50000000 0.783401 0.194700 0.590233 0.000000
187.09800720 186.68600464 170.00000000 -0.748326 -0.560027 -0.355496 0.000000
175.55900574 138.46899414 161.50000000 0.511105 0.287792 -0.809906 0.000000
203.58200073 144.23800659 173.50000000 0.000978 0.000978 -0.999999 0.000000
179.67999268 182.15199280 166.50000000 0.462431 0.001317 -0.886654 0.000000
126.10500336 130.63900757 107.00000000 0.276687 -0.898123 -0.341790 0.000000
169.37699890 206.87899780 147.00000000 0.667195 0.499136 -0.552915 0.000000
135.58399963 210.17599487 130.00000000 0.379254 0.532258 -0.756880 0.000000
117.86299896 221.30299377 120.00000000 0.618944 0.635717 -0.461272 0.000000
87.36720276 190.39500427 216.50000000 -0.827458 0.017839 0.561244 0.000000
89.83979797 130.63900757 116.00000000 -0.112266 -0.876814 0.467539 0.000000
207.29100037 172.26199341 182.00000000 -0.567837 0.341349 -0.749027 0.000000
182.15199280 117.86299896 170.50000000 0.670170 -0.552596 0.495489 0.000000
181.32800293 105.08799744 214.00000000 -0.252234 -0.937865 0.238299 0.000000
140.94099426 188.33399963 127.00000000 0.830933 -0.248201 -0.497943 0.000000
254.68400574 122.80899811 219.50000000 0.730157 -0.349630 0.587052 0.000000
77.06449890 156.60200500 154.00000000 -0.852590 -0.499185 0.154615 0.000000
82.00980377 150.83200073 210.00000000 -0.651473 0.731939 -0.199620 0.000000
133.11099243 104.67600250 157.00000000 -0.314746 -0.949175 0.001234 0.000000
222.53900146 201.52099609 186.00000000 0.667816 0.641433 -0.377605 0.000000
69.23439789 178.85499573 182.50000000 -0.908090 -0.353065 0.225206 0.000000
74.59179688 243.14500427 101.00000000 -0.823969 0.549804 -0.137082 0.000000
103.02700043 123.22100067 170.00000000 -0.640381 -0.695503 -0.325865 0.000000
129.81399536 149.18400574 104.00000000 0.903871 -0.290477 -0.314069 0.000000
145.88699341 168.55299377 150.00000000 0.941737 -0.331232 -0.058453 0.000000
91.48829651 183.38900757 223.00000000 -0.772175 0.142440 0.619239 0.000000
226.66000366 115.39099884 185.50000000 0.560606 0.287450 -0.776591 0.000000
141.35400391 157.42599487 146.00000000 0.903749 -0.115937 -0.412065 0.000000
129.81399536 145.88699341 247.00000000 0.586240 -0.616650 0.525420 0.000000
106.32399750 262.92599487 203.50000000 -0.258715 0.655517 0.709482 0.000000
69.64649963 244.79299927 178.00000000 -0.999999 -0.000978 -0.000978 0.000000
134.75999451 158.25000000 118.00000000 0.548122 -0.381231 -0.744464 0.000000
122.80899811 224.60000610 224.00000000 -0.093549 0.255017 0.962401 0.000000
104.67600250 159.89799500 246.50000000 -0.465644 0.103319 0.878920 0.000000
70.47070313 222.53900146 63.00000000 -0.934923 0.253705 -0.248098 0.000000
199.46099854 186.27299500 173.50000000 -0.208457 -0.421349 -0.882616 0.000000
106.32399750 223.77499390 98.00000000 0.711758 0.610776 -0.346921 0.000000
140.11700439 223.77499390 142.00000000 0.301232 0.460432 -0.835022 0.000000
72.11910248 164.02000427 73.00000000 -0.974139 -0.209186 -0.085407 0.000000
215.94500732 129.40199280 176.50000000 0.086949 -0.148885 -0.985024 0.000000
207.70300293 199.87300110 217.00000000 0.445221 0.487936 0.750797 0.000000
138.46899414 105.91200256 189.00000000 -0.170859 -0.969912 0.173428 0.000000
64.70120239 215.94500732 110.00000000 -0.999999 0.000978 0.000978 0.000000
169.78900146 221.30299377 207.00000000 0.917746 -0.306876 -0.252128 0.000000
216.77000427 167.31599426 228.50000000 0.000978 0.000978 0.999999 0.000000
148.35899353 176.38299561 246.50000000 0.000000 0.000000 0.000000 0.000000
222.53900146 129.40199280 182.50000000 0.268630 0.025759 -0.962899 0.000000
129.81399536 141.76600647 107.00000000 0.850403 -0.297873 -0.433690 0.000000
176.79499817 243.96899414 183.00000000 0.828387 0.096525 0.551778 0.000000
138.05700684 105.50000000 185.00000000 -0.200172 -0.976300 0.082279 0.000000
178.03100586 196.98800659 222.50000000 0.497977 0.736211 0.458271 0.000000
127.75399780 208.93899536 120.00000000 0.589200 0.401052 -0.701428 0.000000
123.63300323 138.88099670 242.00000000 0.615667 -0.581932 0.531329 0.000000
74.59179688 183.80099487 48.00000000 -0.760211 -0.274565 -0.588807 0.000000
101.79100037 121.98400116 153.00000000 -0.787144 -0.503836 0.355744 0.000000
212.64799500 131.05099487 176.50000000 -0.059843 -0.286482 -0.956215 0.000000
86.13089752 284.35501099 173.00000000 -0.920272 0.389901 -0.032820 0.000000
88.19139862 131.87500000 101.50000000 -0.557943 -0.799048 -0.224104 0.000000
165.66799927 150.83200073 158.50000000 -0.611022 0.611022 -0.503294 0.000000
64.70120239 234.90199280 160.00000000 -0.999999 -0.000978 -0.000978 0.000000
69.23439789 179.26800537 185.00000000 -0.774168 -0.624329 0.104300 0.000000
84.48239899 144.23800659 199.00000000 -0.808191 -0.345912 -0.476626 0.000000
199.46099854 117.03900146 228.50000000 0.000978 0.000978 0.999999 0.000000
81.59770203 164.84399414 206.50000000 -0.258186 -0.380564 0.887982 0.000000
124.86900330 192.86700439 96.00000000 0.139925 0.726709 -0.672544 0.000000
157.42599487 241.90800476 162.00000000 0.497096 0.628532 -0.598200 0.000000
93.13670349 229.95700073 77.50000000 0.743182 0.459751 -0.486117 0.000000
165.66799927 170.61300659 170.50000000 0.103770 0.242130 -0.964679 0.000000
143.41400146 165.25599670 138.00000000 0.925676 -0.371074 -0.073679 0.000000
238.19900513 107.97299957 225.50000000 0.460571 -0.716628 0.523754 0.000000
106.32399750 290.53698730 162.00000000 -0.230324 0.669037 -0.706641 0.000000
73.76760101 171.43800354 159.00000000 -0.896251 -0.001308 -0.443546 0.000000
177.20700073 135.17199707 228.50000000 0.000978 0.000978 0.999999 0.000000
117.86299896 204.40600586 95.50000000 0.829664 0.332181 -0.448680 0.000000
113.74199677 143.82600403 76.00000000 0.606766 -0.215705 -0.765053 0.000000
91.90039825 149.18400574 229.00000000 -0.614172 0.667434 0.421099 0.000000
131.87500000 167.31599426 252.50000000 -0.838215 0.213722 0.501716 0.000000
121.57199860 189.57000732 85.00000000 0.910942 0.153942 -0.382737 0.000000
194.92799377 176.38299561 232.00000000 0.684371 -0.077010 0.725056 0.000000
217.59399414 105.91200256 170.00000000 0.333779 0.562749 -0.756244 0.000000
76.24019623 207.70300293 201.00000000 -0.871538 0.162045 0.462777 0.000000
135.17199707 177.20700073 107.50000000 0.915242 -0.337648 -0.219831 0.000000
214.29699707 211.00000000 183.50000000 0.760008 0.592522 -0.267030 0.000000
85.30660248 142.58999634 127.00000000 -0.875549 -0.478707 0.065215 0.000000
112.91799927 229.95700073 125.50000000 0.723067 0.668034 -0.175798 0.000000
121.57199860 200.28500366 100.00000000 0.832164 0.274289 -0.481942 0.000000
142.58999634 145.88699341 146.50000000 0.083471 0.332559 -0.939381 0.000000
145.06199646 117.45099640 136.00000000 -0.293709 0.624332 -0.723840 0.000000
145.06199646 103.43900299 182.00000000 -0.236008 -0.971585 0.017970 0.000000
169.78900146 189.98199463 164.00000000 0.936165 -0.201700 -0.287944 0.000000
138.46899414 154.95300293 252.50000000 0.352800 -0.577161 0.736490 0.000000
103.85199738 117.86299896 144.50000000 -0.725806 -0.671483 -0.149386 0.000000
264.16198730 149.18400574 213.00000000 0.936678 0.134980 -0.323133 0.000000
246.44099426 134.34800720 225.50000000 0.057715 0.062071 0.996402 0.000000
92.31250000 234.49000549 81.00000000 0.792064 0.382320 -0.475884 0.000000
201.10899353 202.75799561 219.50000000 0.438846 0.717057 0.541519 0.000000
120.33599854 127.34200287 228.00000000 0.321521 -0.892782 0.315539 0.000000
206.87899780 175.97099304 184.00000000 0.393966 0.756872 -0.521474 0.000000
110.44499969 115.39099884 110.50000000 -0.399536 -0.909048 -0.118329 0.000000
174.32200623 228.30900574 177.00000000 0.778821 0.623917 -0.064543 0.000000
139.70500183 152.47999573 135.00000000 0.924546 0.333512 -0.184346 0.000000
144.23800659 131.46299744 220.00000000 0.644815 -0.702704 0.300699 0.000000
208.52699280 164.84399414 228.50000000 0.630666 0.750940 0.195830 0.000000
145.06199646 127.34200287 145.00000000 0.165895 0.823498 -0.542522 0.000000
215.94500732 208.52699280 204.50000000 0.428787 0.874008 -0.228587 0.000000
98.08200073 221.71499634 213.50000000 -0.602578 0.201887 0.772102 0.000000
134.34800720 260.45300293 210.50000000 -0.066654 0.328043 0.942308 0.000000
192.45500183 117.86299896 171.00000000 -0.967980 -0.194627 0.158537 0.000000
82.00980377 148.35899353 103.00000000 -0.957026 -0.286225 -0.046653 0.000000
103.02700043 261.27700806 203.50000000 0.000978 0.000978 0.999999 0.000000
133.52299500 196.98800659 240.50000000 0.000978 0.000978 0.999999 0.000000
242.32000732 162.37100220 194.50000000 0.653163 0.178970 -0.735764 0.000000
117.45099640 225.83599854 128.00000000 0.663801 0.713781 -0.223349 0.000000
140.94099426 282.29501343 182.00000000 0.455546 0.868061 -0.197354 0.000000
182.15199280 194.51600647 161.50000000 0.611022 -0.611022 -0.503294 0.000000
88.19139862 134.75999451 208.00000000 -0.786315 -0.579309 0.214731 0.000000
172.67399597 174.73399353 170.00000000 -0.747873 0.185817 -0.637305 0.000000
119.51200104 223.36300659 125.50000000 0.662587 0.712712 -0.230261 0.000000
126.51799774 201.10899353 110.00000000 0.810206 0.304814 -0.500654 0.000000
101.37899780 251.38699341 206.50000000 -0.399884 0.444851 0.801374 0.000000
212.64799500 187.09800720 216.50000000 0.681848 0.629272 0.372963 0.000000
135.17199707 142.58999634 240.50000000 0.564468 -0.140747 0.813367 0.000000
242.32000732 152.47999573 194.50000000 0.710256 -0.216979 -0.669669 0.000000
122.80899811 124.04499817 105.00000000 0.878743 -0.387370 -0.278846 0.000000
146.71099854 220.89100647 228.50000000 0.108534 0.886592 0.449639 0.000000
156.18899536 247.26600647 166.00000000 0.250219 0.747511 -0.615319 0.000000
194.51600647 209.76400757 177.00000000 0.433146 0.890594 -0.138664 0.000000
124.45700073 248.91400146 152.50000000 0.438249 0.604883 -0.664872 0.000000
64.70120239 215.94500732 96.00000000 -0.996159 0.083284 0.027040 0.000000
194.10400391 200.28500366 196.00000000 -0.811342 -0.055222 -0.581957 0.000000
155.77699280 229.13299561 152.50000000 0.462694 0.572939 -0.676502 0.000000
126.93000031 282.70700073 167.50000000 0.498880 0.699100 -0.512228 0.000000
112.09400177 243.14500427 213.50000000 -0.140747 0.564468 0.813367 0.000000
67.17379761 190.39500427 155.00000000 -0.999999 -0.000978 -0.000978 0.000000
148.35899353 179.67999268 140.50000000 0.941938 -0.263412 -0.208247 0.000000
69.64649963 179.67999268 105.00000000 -0.974853 -0.195969 0.106098 0.000000
168.96499634 258.80499268 188.50000000 0.811293 0.540349 0.223221 0.000000
141.76600647 153.30499268 246.50000000 0.333784 -0.430942 0.838378 0.000000
74.59179688 266.22299194 151.00000000 -0.999999 -0.000978 -0.000978 0.000000
105.08799744 121.16000366 171.00000000 -0.628305 -0.741118 -0.236594 0.000000
71.29489899 202.75799561 48.00000000 0.074217 -0.946587 -0.313793 0.000000
229.13299561 109.62100220 185.50000000 0.733790 0.398906 -0.549932 0.000000
223.36300659 158.25000000 228.50000000 0.000978 0.000978 0.999999 0.000000
229.95700073 94.37300110 202.00000000 -0.032505 -0.991976 0.122176 0.000000
133.52299500 248.08999634 155.50000000 0.157906 0.786521 -0.597034 0.000000
144.64999390 165.66799927 147.00000000 0.883512 -0.435206 -0.173209 0.000000
176.79499817 114.56600189 174.00000000 0.932879 -0.320201 -0.164952 0.000000
133.11099243 206.05499268 125.00000000 0.807667 0.385441 -0.446216 0.000000
79.53710175 150.83200073 130.00000000 -0.995927 -0.090153 0.001061 0.000000
121.16000366 281.88299561 191.50000000 -0.082534 0.774661 0.626968 0.000000
65.11329651 194.92799377 142.00000000 -0.551924 -0.488176 0.676065 0.000000
190.80700684 166.49200439 176.00000000 0.610852 -0.229655 -0.757706 0.000000
64.70120239 239.84800720 138.00000000 -0.301778 0.905333 -0.298834 0.000000
208.93899536 183.80099487 224.00000000 0.440233 0.295033 0.848027 0.000000
143.82600403 166.49200439 251.00000000 0.158756 0.254810 0.953870 0.000000
121.98400116 175.55900574 249.50000000 -0.591751 0.332353 0.734420 0.000000
136.82000732 249.32600403 158.00000000 0.490670 0.325525 -0.808255 0.000000
191.21899414 148.77099609 230.00000000 0.308862 0.052545 0.949654 0.000000
185.03700256 205.22999573 177.00000000 0.222616 0.917752 0.328897 0.000000
181.32800293 193.27900696 226.00000000 0.155524 0.620586 0.768560 0.000000
147.53500366 262.10198975 206.50000000 -0.061896 0.729797 0.680856 0.000000
196.16400146 211.82400513 208.50000000 -0.788268 0.237880 0.567491 0.000000
71.70700073 213.47300720 194.50000000 -0.755214 -0.006929 0.655442 0.000000
182.97700500 197.81199646 219.50000000 -0.226996 0.900661 0.370516 0.000000
167.31599426 186.27299500 158.50000000 0.500409 -0.584653 -0.638569 0.000000
168.14100647 192.04299927 146.50000000 0.410064 -0.612606 -0.675693 0.000000
257.56799316 104.67600250 212.00000000 0.946257 -0.228690 0.228690 0.000000
170.20100403 215.12100220 199.00000000 0.912552 0.022321 0.408351 0.000000
101.37899780 156.60200500 243.50000000 -0.694314 0.694314 0.189358 0.000000
119.09999847 112.91799927 192.00000000 -0.344530 -0.912499 -0.220557 0.000000
67.17379761 245.61700439 146.00000000 -0.999999 -0.000978 -0.000978 0.000000
74.17970276 210.58799744 198.00000000 -0.885617 -0.268233 0.379122 0.000000
145.88699341 103.43900299 169.00000000 -0.079782 -0.996744 0.011701 0.000000
241.49600220 187.92199707 219.50000000 -0.144251 0.482295 0.864051 0.000000
67.17379761 211.82400513 64.00000000 -0.984544 0.126224 -0.121415 0.000000
157.01400757 270.34399414 192.00000000 0.590661 0.763922 0.259891 0.000000
179.67999268 118.68800354 170.50000000 0.735696 -0.531610 0.419692 0.000000
150.83200073 226.24800110 148.00000000 0.162958 0.683814 -0.711227 0.000000
77.88870239 241.49600220 85.00000000 -0.293956 0.902548 -0.314636 0.000000
157.42599487 232.84199524 218.00000000 0.714473 -0.484643 0.504628 0.000000
124.45700073 128.99000549 227.00000000 0.337347 -0.871607 0.355665 0.000000
159.48599243 125.28099823 148.00000000 0.289521 0.786295 -0.545818 0.000000
74.59179688 257.15600586 125.00000000 0.330507 0.834883 0.440154 0.000000
142.58999634 171.02499390 250.00000000 0.278494 0.278494 0.919175 0.000000
171.43800354 196.98800659 240.50000000 -0.872474 -0.209572 0.441439 0.000000
173.91000366 196.16400146 146.50000000 -0.000978 -0.000978 -0.999999 0.000000
103.02700043 128.99000549 83.00000000 -0.373258 -0.805789 -0.459764 0.000000
151.65600586 160.31100464 156.00000000 0.307675 0.500170 -0.809423 0.000000
116.21499634 140.11700439 80.50000000 0.759482 -0.026673 -0.649982 0.000000
143.41400146 156.60200500 249.50000000 0.297311 -0.689441 0.660513 0.000000
228.30900574 165.66799927 179.50000000 0.658657 0.032439 -0.751744 0.000000
127.75399780 203.58200073 113.50000000 0.872551 0.337712 -0.352994 0.000000
124.45700073 253.85899353 213.50000000 -0.127110 0.389712 0.912122 0.000000
64.70120239 201.10899353 119.00000000 -0.999999 -0.000978 -0.000978 0.000000
178.03100586 208.11500549 165.00000000 0.414412 0.863996 -0.285960 0.000000
85.71880341 143.00199890 164.00000000 -0.782539 -0.618249 -0.073498 0.000000
71.29489899 257.15600586 168.00000000 -0.946675 0.316419 0.060701 0.000000
67.17379761 244.79299927 132.00000000 -0.955183 0.283065 -0.086600 0.000000
102.20300293 218.41799927 219.50000000 -0.901805 -0.223624 -0.369784 0.000000
227.48399353 131.05099487 228.50000000 0.000978 0.000978 0.999999 0.000000
84.07029724 142.17799377 103.00000000 -0.855212 -0.449710 -0.257631 0.000000
77.47660065 212.64799500 203.50000000 -0.415009 0.044036 0.908751 0.000000
219.24200439 184.62500000 196.50000000 -0.460094 0.875194 -0.149494 0.000000
227.48399353 107.56099701 227.00000000 0.519223 -0.001342 0.854638 0.000000
212.64799500 94.37300110 192.00000000 -0.196558 -0.980491 0.001149 0.000000
171.43800354 124.86900330 154.00000000 0.306011 0.351234 -0.884868 0.000000
95.60939789 156.18899536 58.00000000 0.317756 -0.528528 -0.787204 0.000000
153.30499268 121.98400116 216.50000000 -0.490832 -0.350137 0.797802 0.000000
64.70120239 206.05499268 143.00000000 -0.999999 -0.000978 -0.000978 0.000000
87.77929688 233.25399780 206.00000000 -0.669737 0.334054 0.663219 0.000000
73.76760101 256.33200073 127.00000000 -0.683534 0.721918 -0.107771 0.000000
234.90199280 139.29299927 228.50000000 0.000978 0.000978 0.999999 0.000000
126.93000031 196.98800659 237.50000000 -0.179242 0.709306 0.681731 0.000000
159.89799500 211.82400513 143.50000000 0.141719 0.141719 -0.979710 0.000000
116.62699890 177.20700073 246.00000000 -0.420498 0.643213 0.639889 0.000000
133.93600464 145.88699341 122.00000000 0.743983 -0.136222 0.654166 0.000000
72.94339752 168.96499634 124.00000000 -0.918934 -0.393455 0.027450 0.000000
64.70120239 215.94500732 113.00000000 -0.999999 -0.000978 -0.000978 0.000000
99.31839752 129.40199280 87.00000000 -0.454898 -0.869788 -0.191146 0.000000
239.02299500 143.41400146 191.50000000 0.883366 -0.100030 -0.457885 0.000000
63.87699890 221.71499634 173.00000000 -0.997746 0.066097 -0.011541 0.000000
210.17599487 163.19500732 173.50000000 -0.297416 0.628592 -0.718621 0.000000
127.75399780 151.65600586 98.50000000 0.898511 -0.098906 -0.427663 0.000000
98.08200073 221.71499634 77.50000000 0.715495 0.597610 -0.361841 0.000000
192.86700439 101.79100037 212.00000000 -0.189361 -0.946804 0.260201 0.000000
172.26199341 171.02499390 172.00000000 -0.751947 0.281384 -0.596153 0.000000
211.82400513 199.04899597 211.00000000 -0.514788 0.020374 0.857075 0.000000
215.94500732 183.80099487 219.50000000 0.432146 0.551358 0.713620 0.000000
178.44299316 189.57000732 231.00000000 0.077566 0.942623 0.324725 0.000000
185.44900513 138.46899414 228.50000000 0.000978 0.000978 0.999999 0.000000
258.80499268 128.57800293 216.50000000 0.621569 -0.148996 0.769060 0.000000
106.73600006 248.91400146 140.00000000 0.535563 0.468827 -0.702406 0.000000
103.02700043 175.55900574 58.50000000 0.801179 -0.585760 0.122464 0.000000
136.40800476 173.08599854 111.00000000 0.934017 -0.106475 -0.340990 0.000000
72.11910248 168.96499634 186.00000000 -0.817083 -0.441193 0.371112 0.000000
77.06449890 158.25000000 126.00000000 -0.437266 0.001305 -0.899331 0.000000
261.27700806 145.88699341 210.50000000 0.526609 -0.835158 0.158725 0.000000
109.62100220 157.42599487 67.50000000 0.574755 0.448142 -0.684708 0.000000
241.49600220 185.86099243 204.00000000 0.044095 0.741084 -0.669963 0.000000
240.25999451 108.79699707 225.00000000 0.656231 -0.691702 0.301511 0.000000
86.54299927 142.17799377 81.00000000 -0.767362 -0.466307 -0.440129 0.000000
192.86700439 111.26999664 228.50000000 -0.256235 -0.474112 0.842355 0.000000
112.91799927 134.75999451 243.00000000 -0.560685 -0.340936 0.754582 0.000000
168.96499634 252.21099854 194.50000000 0.879418 0.121152 0.460376 0.000000
89.83979797 134.34800720 194.50000000 -0.465346 -0.804362 -0.369399 0.000000
123.63300323 110.85700226 204.00000000 -0.169934 -0.887434 0.428466 0.000000
116.62699890 283.53100586 163.00000000 0.506758 0.506758 -0.697419 0.000000
67.17379761 192.04299927 57.00000000 -0.899233 -0.270213 -0.344042 0.000000
251.38699341 134.34800720 225.50000000 0.000978 0.000978 0.999999 0.000000
127.75399780 178.85499573 249.50000000 -0.690734 -0.041132 0.721938 0.000000
166.90400696 101.37899780 189.00000000 -0.242756 -0.969816 -0.022947 0.000000
192.86700439 121.98400116 228.50000000 0.000978 0.000978 0.999999 0.000000
140.94099426 273.22900391 198.00000000 0.078968 0.234398 0.968928 0.000000
102.61499786 121.98400116 157.00000000 -0.758216 -0.600583 0.253790 0.000000
89.01560211 258.80499268 197.50000000 -0.049703 0.302040 0.951999 0.000000
187.09800720 111.68199921 226.00000000 -0.149736 -0.676080 0.721454 0.000000
179.67999268 125.28099823 228.50000000 -0.671779 0.001379 0.740750 0.000000
107.14800262 263.75000000 149.50000000 -0.006789 0.840497 -0.541774 0.000000
84.07029724 279.82199097 177.00000000 -0.507679 0.688634 0.517732 0.000000
198.63699341 101.37899780 213.50000000 -0.289232 -0.919499 0.266209 0.000000
227.48399353 145.88699341 182.50000000 0.886283 -0.022794 -0.462583 0.000000
186.27299500 187.09800720 167.50000000 -0.900785 -0.397954 0.173836 0.000000
76.65229797 163.60699463 187.00000000 -0.959933 -0.215819 -0.178746 0.000000
103.02700043 224.18800354 92.50000000 0.792895 0.512112 -0.330240 0.000000
231.60499573 114.56600189 228.50000000 -0.000978 -0.000978 0.999999 0.000000
64.70120239 234.90199280 127.00000000 -0.888982 0.325310 -0.322312 0.000000
223.36300659 126.93000031 182.50000000 0.612421 0.001370 -0.790530 0.000000
70.47070313 187.09800720 193.00000000 -0.843165 0.373871 0.386385 0.000000
107.14800262 157.01400757 247.00000000 0.049474 0.211167 0.976197 0.000000
90.66410065 134.75999451 91.00000000 -0.563511 -0.754039 -0.337461 0.000000
179.67999268 196.98800659 219.50000000 0.156160 0.932816 0.324758 0.000000
148.77099609 176.38299561 146.00000000 0.968409 -0.227189 -0.102806 0.000000
160.31100464 244.79299927 208.00000000 0.678672 0.373023 0.632660 0.000000
220.06599426 152.47999573 228.50000000 0.000978 0.000978 0.999999 0.000000
172.26199341 244.79299927 173.50000000 -0.000978 -0.000978 -0.999999 0.000000
114.56600189 246.44099426 143.50000000 0.641692 0.544006 -0.540638 0.000000
126.93000031 160.72300720 89.50000000 0.908090 -0.353065 -0.225206 0.000000
77.06449890 161.54699707 185.00000000 -0.976443 -0.156281 0.148779 0.000000
69.64649963 237.37500000 105.00000000 -0.853048 0.496507 -0.160591 0.000000
100.96700287 242.32000732 118.00000000 0.713373 0.636425 -0.293365 0.000000
65.93750000 197.39999390 126.00000000 -0.955533 -0.294674 0.011097 0.000000
252.21099854 175.55900574 210.50000000 -0.000978 -0.000978 -0.999999 0.000000
71.70700073 239.02299500 95.50000000 -0.700287 0.709022 -0.082986 0.000000
190.39500427 150.41999817 169.00000000 0.766255 0.442761 -0.465635 0.000000
75.00389862 267.45901489 170.00000000 0.705724 0.708486 -0.001381 0.000000
257.98001099 125.28099823 210.50000000 0.459213 0.376011 -0.804823 0.000000
184.62500000 98.08200073 182.50000000 -0.166979 -0.984109 0.060397 0.000000
196.98800659 177.20700073 231.50000000 0.343280 0.195143 0.918737 0.000000
121.98400116 109.20899963 133.00000000 -0.278677 -0.958190 -0.064897 0.000000
77.06449890 162.37100220 115.00000000 -0.699842 -0.699842 -0.142978 0.000000
174.32200623 201.93400574 208.00000000 0.653470 0.748304 0.114098 0.000000
201.10899353 154.12899780 231.50000000 0.545329 0.124271 0.828959 0.000000
119.09999847 217.59399414 117.00000000 0.732603 0.538340 -0.416514 0.000000
67.17379761 183.80099487 182.00000000 -0.234487 -0.001178 0.972119 0.000000
148.35899353 165.25599670 161.00000000 0.839269 0.418850 -0.346689 0.000000
254.68400574 168.14100647 210.50000000 0.740312 0.130116 -0.659551 0.000000
101.37899780 136.40800476 236.00000000 -0.956112 -0.183199 0.228665 0.000000
203.58200073 217.59399414 194.50000000 0.560241 0.731106 -0.389376 0.000000
91.90039825 134.34800720 181.00000000 -0.806077 -0.590937 -0.032131 0.000000
150.00799561 177.20700073 158.50000000 0.607000 -0.772129 -0.188063 0.000000
196.98800659 110.44499969 228.50000000 -0.185684 -0.753476 0.630710 0.000000
149.18400574 175.97099304 159.00000000 0.607000 -0.772129 -0.188063 0.000000
153.30499268 114.97899628 211.00000000 -0.243067 -0.809707 0.534128 0.000000
128.57800293 241.90800476 219.00000000 0.692377 -0.646975 -0.319434 0.000000
132.28700256 151.65600586 112.00000000 0.964710 -0.162738 -0.207003 0.000000
100.96700287 195.33999634 228.00000000 -0.510390 0.399507 0.761509 0.000000
167.31599426 172.26199341 243.50000000 0.424518 0.255315 0.868676 0.000000
129.40199280 108.38500214 187.00000000 -0.314281 -0.945474 0.085474 0.000000
83.65820313 160.72300720 204.00000000 -0.471072 -0.611890 0.635360 0.000000
90.66410065 129.81399536 100.00000000 -0.702446 -0.671016 -0.237291 0.000000
196.98800659 178.03100586 175.50000000 -0.707106 0.707106 0.001384 0.000000
212.64799500 210.17599487 195.50000000 0.628313 0.761545 0.158971 0.000000
198.63699341 96.02149963 190.00000000 -0.306876 -0.917746 0.252128 0.000000
216.35699463 130.22700500 177.00000000 -0.059843 -0.286482 -0.956215 0.000000
199.46099854 186.68600464 173.00000000 0.418918 -0.700405 -0.577876 0.000000
79.12500000 271.99200439 167.50000000 -0.733521 0.675650 0.073786 0.000000
67.17379761 187.92199707 160.00000000 -0.999999 -0.000978 -0.000978 0.000000
217.18200684 207.70300293 186.00000000 0.749992 0.648602 -0.129720 0.000000
210.17599487 108.79699707 167.50000000 -0.298613 0.886837 0.352634 0.000000
82.00980377 275.28900146 181.00000000 -0.578755 0.713963 0.394081 0.000000
228.72099304 137.64500427 180.00000000 -0.248441 -0.968313 -0.025450 0.000000
76.65229797 158.66200256 76.00000000 -0.837227 -0.320807 -0.442870 0.000000
213.47300720 200.28500366 211.50000000 -0.511295 0.009443 0.859353 0.000000
145.88699341 105.08799744 192.00000000 0.000978 -0.999999 0.000978 0.000000
185.44900513 130.22700500 164.50000000 0.403153 0.043908 -0.914079 0.000000
145.06199646 149.18400574 152.50000000 0.669154 -0.058748 -0.740798 0.000000
149.18400574 169.37699890 167.00000000 0.661518 0.152891 -0.734179 0.000000
136.40800476 173.08599854 113.00000000 0.908886 -0.055206 -0.413375 0.000000
255.91999817 98.08200073 208.00000000 0.878881 -0.304053 -0.367587 0.000000
101.79100037 239.02299500 114.00000000 0.728375 0.577789 -0.368279 0.000000
73.35549927 168.96499634 116.50000000 -0.913582 -0.400789 -0.068822 0.000000
93.96089935 253.85899353 200.50000000 -0.227991 0.512598 0.827807 0.000000
95.60939789 279.41000366 185.50000000 -0.444741 0.697927 0.561340 0.000000
201.93400574 171.43800354 191.50000000 -0.334627 0.438314 -0.834210 0.000000
165.66799927 100.14299774 177.00000000 -0.147918 -0.978248 0.145432 0.000000
69.23439789 246.02900696 172.00000000 -0.992314 0.119435 0.032370 0.000000
96.84570313 254.68400574 127.00000000 0.678915 0.678915 -0.279553 0.000000
158.66200256 126.10500336 149.00000000 0.707106 0.707106 -0.001384 0.000000
143.41400146 260.45300293 168.50000000 0.165268 0.614069 -0.771755 0.000000
89.01560211 165.25599670 50.00000000 -0.497489 -0.387296 -0.776213 0.000000
84.89450073 154.54100037 58.00000000 -0.015229 -0.605013 -0.796070 0.000000
145.06199646 256.33200073 210.50000000 -0.732518 0.467951 0.494408 0.000000
168.14100647 241.49600220 170.50000000 0.554571 0.520859 -0.648966 0.000000
196.16400146 210.17599487 175.50000000 -0.475927 0.274394 -0.835585 0.000000
201.93400574 220.06599426 186.50000000 -0.548758 0.711230 0.439338 0.000000
130.22700500 143.41400146 246.50000000 0.579277 -0.599543 0.552255 0.000000
193.69099426 165.25599670 179.00000000 0.730582 -0.209403 -0.649923 0.000000
180.50399780 111.68199921 225.00000000 -0.216593 -0.684060 0.696526 0.000000
239.02299500 161.54699707 225.50000000 -0.000978 -0.000978 0.999999 0.000000
85.71880341 133.52299500 98.50000000 -0.218932 -0.920087 -0.324821 0.000000
76.24019623 267.04699707 176.00000000 -0.836888 0.544329 -0.057668 0.000000
77.06449890 159.07400513 162.00000000 -0.976073 -0.216511 -0.020113 0.000000
88.19139862 137.23199463 149.00000000 -0.896244 -0.442075 -0.036280 0.000000
69.64649963 244.79299927 122.00000000 -0.936353 0.327520 -0.126387 0.000000
139.29299927 274.05300903 172.00000000 0.566563 -0.118583 -0.815441 0.000000
225.83599854 181.32800293 188.50000000 0.313973 0.927839 -0.201337 0.000000
115.39099884 217.18200684 110.00000000 0.783743 0.578883 -0.225035 0.000000
69.64649963 172.26199341 84.00000000 -0.988358 -0.140201 0.059093 0.000000
193.69099426 96.84570313 193.00000000 -0.062708 -0.995622 0.069309 0.000000
167.72900391 239.84800720 204.00000000 0.613916 0.549650 0.566562 0.000000
189.15800476 150.83200073 181.00000000 0.961183 -0.137312 0.239315 0.000000
220.89100647 194.51600647 177.50000000 0.796895 0.322894 -0.510586 0.000000
104.26399994 219.24200439 89.00000000 0.667648 0.519655 -0.533109 0.000000
87.36720276 250.14999390 102.00000000 0.209031 0.358957 -0.909646 0.000000
77.06449890 157.42599487 126.00000000 -0.437266 0.001305 -0.899331 0.000000
164.02000427 175.55900574 173.50000000 0.396226 0.054698 -0.916522 0.000000
77.06449890 159.07400513 105.00000000 -0.953331 -0.292836 -0.073532 0.000000
88.19139862 167.31599426 49.50000000 -0.497489 -0.387296 -0.776213 0.000000
77.06449890 158.25000000 103.00000000 -0.983723 -0.156964 0.087469 0.000000
137.23199463 281.05899048 194.00000000 0.495574 0.824921 0.271867 0.000000
141.35400391 205.22999573 130.00000000 0.465206 0.248618 -0.849572 0.000000
133.52299500 272.40399170 202.00000000 -0.205328 0.770367 0.603634 0.000000
241.49600220 183.38900757 201.00000000 0.110897 0.678689 -0.726005 0.000000
181.74000549 134.34800720 163.00000000 0.514311 0.181433 -0.838192 0.000000
82.83399963 150.83200073 178.00000000 -0.892519 0.423982 0.153783 0.000000
100.55500031 228.30900574 213.50000000 -0.366525 0.385241 0.846906 0.000000
64.70120239 226.66000366 144.00000000 -0.995555 0.058432 -0.073867 0.000000
125.28099823 211.82400513 119.50000000 0.773883 0.518615 -0.363515 0.000000
126.93000031 204.40600586 234.50000000 -0.000978 -0.000978 0.999999 0.000000
108.79699707 134.34800720 240.50000000 -0.367570 -0.392597 0.843066 0.000000
115.80300140 112.91799927 114.00000000 -0.348485 -0.932433 -0.095531 0.000000
120.33599854 111.26999664 203.50000000 -0.194212 -0.576518 0.793668 0.000000
156.18899536 227.48399353 222.00000000 0.458323 0.409738 0.788705 0.000000
148.35899353 178.03100586 246.50000000 0.000000 0.000000 0.000000 0.000000
228.30900574 94.37300110 188.00000000 -0.097948 -0.987741 -0.121550 0.000000
81.59770203 147.94700623 202.00000000 -0.928937 -0.308706 0.204394 0.000000
114.56600189 265.81100464 155.00000000 0.650203 0.370369 -0.663372 0.000000
159.89799500 121.57199860 142.00000000 0.273619 0.860600 -0.429536 0.000000
235.72700500 93.54879761 195.00000000 0.070717 -0.997429 -0.011610 0.000000
104.26399994 224.18800354 93.00000000 0.792160 0.510503 -0.334468 0.000000
175.55900574 198.22500610 222.00000000 0.410499 0.884722 0.220810 0.000000
93.96089935 261.27700806 197.50000000 -0.376925 0.153876 0.913373 0.000000
187.92199707 105.91200256 220.00000000 -0.149419 -0.920252 0.361677 0.000000
98.49410248 237.37500000 100.00000000 0.744577 0.632657 -0.212958 0.000000
71.29489899 173.08599854 125.00000000 -0.928213 -0.372047 0.001270 0.000000
238.19900513 181.32800293 219.50000000 -0.001042 0.069839 0.997558 0.000000
123.63300323 241.49600220 146.50000000 0.312125 0.700260 -0.642039 0.000000
85.71880341 146.29899597 67.00000000 -0.575896 -0.814786 0.066832 0.000000
226.66000366 165.66799927 179.50000000 0.698761 -0.104888 -0.707624 0.000000
125.28099823 143.82600403 95.00000000 0.858822 -0.502760 0.098273 0.000000
106.32399750 184.21299744 236.00000000 -0.647675 0.650988 0.395893 0.000000
65.52539825 191.21899414 76.00000000 -0.864700 -0.472860 -0.169405 0.000000
