74.46679688 201.35200500 143.00000000 -0.883629 -0.461929 -0.076295 0.000000
208.00799561 188.45500183 163.00000000 0.129680 0.645419 -0.752740 0.000000
103.17199707 276.23400879 224.50000000 -0.514358 0.678550 0.524410 0.000000
146.02099609 113.15599823 176.00000000 -0.530749 -0.635214 0.561078 0.000000
78.62699890 182.21499634 207.00000000 -0.845851 -0.530921 0.051559 0.000000
96.93160248 289.54699707 152.00000000 -0.304846 0.917428 -0.255724 0.000000
67.39450073 240.45700073 159.50000000 -0.975383 0.121453 -0.184058 0.000000
76.13089752 224.64799500 118.00000000 -0.987087 -0.081373 -0.137980 0.000000
208.83999634 172.64599609 161.00000000 0.250215 0.182589 -0.950817 0.000000
75.29879761 182.21499634 111.00000000 -0.932535 -0.029666 0.359858 0.000000
247.52900696 153.09399414 192.00000000 0.855024 -0.107776 -0.507266 0.000000
259.59399414 185.95899963 202.00000000 0.876561 0.344851 -0.335736 0.000000
138.94900513 176.80700684 228.00000000 0.225621 -0.760886 0.608398 0.000000
163.07800293 275.40200806 209.50000000 0.628932 0.591837 0.504157 0.000000
98.59570313 158.08599854 176.00000000 -0.592576 -0.782445 -0.191400 0.000000
82.37110138 219.65600586 236.50000000 -0.768784 0.001375 0.639507 0.000000
247.11300659 110.24400330 200.00000000 -0.084482 -0.831928 0.548414 0.000000
101.50800323 197.19099426 249.50000000 -0.562279 -0.531886 0.633198 0.000000
106.50000000 222.15199280 250.50000000 -0.768784 -0.001375 0.639507 0.000000
159.33399963 183.87899780 158.00000000 -0.652613 -0.652613 0.384959 0.000000
80.29100037 249.60899353 117.00000000 -0.790304 0.392728 -0.470303 0.000000
138.11700439 123.55699921 182.00000000 -0.312678 -0.940741 0.131298 0.000000
71.13870239 218.82400513 132.00000000 -0.894688 -0.001310 -0.446689 0.000000
133.95700073 120.22899628 171.00000000 -0.495662 -0.724429 0.479085 0.000000
104.83599854 234.21699524 100.00000000 0.873043 -0.168174 -0.457726 0.000000
82.78710175 241.28900146 107.00000000 -0.641815 0.500313 -0.581171 0.000000
188.87100220 186.37500000 181.50000000 -0.804138 -0.510288 0.304909 0.000000
94.01950073 238.79299927 241.50000000 -0.556344 -0.556344 0.617221 0.000000
72.80269623 208.83999634 135.00000000 -0.980579 -0.164855 -0.106240 0.000000
111.49199677 299.94699097 164.00000000 -0.322234 0.943027 0.082860 0.000000
79.04299927 203.01600647 231.50000000 -0.620671 -0.195596 0.759282 0.000000
186.37500000 111.49199677 152.50000000 0.052804 0.431907 -0.900371 0.000000
163.91000366 247.94500732 159.50000000 0.546420 0.153355 -0.823352 0.000000
147.68600464 211.33599854 140.00000000 0.472606 -0.552765 -0.686364 0.000000
126.46900177 160.99800110 211.00000000 0.460083 -0.761347 0.456808 0.000000
150.59800720 278.73001099 154.50000000 0.814383 0.143889 -0.562206 0.000000
71.97070313 257.09799194 161.00000000 -0.887846 0.415307 -0.198114 0.000000
180.55099487 195.52699280 221.50000000 0.000978 0.000978 0.999999 0.000000
84.86720276 229.64100647 91.50000000 -0.835105 0.464984 -0.293920 0.000000
157.25399780 192.19900513 231.50000000 0.317508 -0.419730 0.850303 0.000000
128.13299561 124.38899994 169.00000000 -0.739942 -0.505930 0.443306 0.000000
166.40600586 208.42399597 152.00000000 0.101628 -0.667208 -0.737906 0.000000
97.34770203 165.99000549 222.00000000 -0.478948 -0.752163 0.452614 0.000000
84.86720276 230.05700684 92.00000000 -0.834599 0.463319 -0.297960 0.000000
243.36900330 184.71099854 186.00000000 0.742413 -0.032401 -0.669158 0.000000
86.11519623 277.89801025 147.00000000 -0.963362 -0.001203 0.268202 0.000000
157.25399780 116.48400116 151.50000000 -0.561864 0.238131 0.792213 0.000000
168.48599243 247.11300659 162.00000000 0.586667 0.324849 -0.741819 0.000000
153.09399414 209.67199707 241.50000000 0.787490 -0.214210 0.577904 0.000000
252.10499573 195.11099243 206.00000000 0.247939 0.191035 0.949754 0.000000
126.05300140 231.30499268 128.00000000 0.674900 0.182946 -0.714871 0.000000
132.70899963 195.52699280 134.00000000 0.762204 -0.270970 -0.587895 0.000000
177.63900757 251.27299500 212.00000000 0.676198 0.334026 0.656645 0.000000
200.52000427 127.30100250 219.50000000 0.000978 0.000978 0.999999 0.000000
149.76600647 284.13900757 212.00000000 0.468722 0.811923 0.347967 0.000000
197.19099426 215.49600220 194.50000000 -0.479382 0.800038 0.360739 0.000000
128.96499634 241.70500183 130.00000000 0.729023 -0.146408 -0.668648 0.000000
198.02299500 148.93400574 219.50000000 0.000978 0.000978 0.999999 0.000000
84.45120239 282.05899048 191.00000000 -0.836568 0.505585 0.211040 0.000000
217.16000366 122.72499847 217.00000000 0.021010 -0.668120 0.743757 0.000000
68.22660065 244.20100403 159.00000000 -0.973917 0.162951 -0.157898 0.000000
204.26400757 94.85160065 166.00000000 -0.026739 -0.940972 0.337426 0.000000
168.90199280 271.24200439 204.50000000 0.786761 0.506809 0.352353 0.000000
89.02729797 183.04699707 234.50000000 -0.190058 -0.069002 0.979345 0.000000
95.68360138 212.16799927 246.50000000 -0.706322 0.047088 0.706322 0.000000
131.46099854 109.41200256 156.00000000 -0.277964 -0.949375 0.146368 0.000000
139.78100586 274.57000732 139.50000000 0.193062 -0.053962 -0.979702 0.000000
175.14300537 225.47999573 157.00000000 0.588646 0.115968 -0.800030 0.000000
118.98000336 303.27499390 184.00000000 0.082122 0.976890 -0.197339 0.000000
101.09200287 233.80099487 92.00000000 0.856917 -0.348655 -0.379647 0.000000
168.07000732 172.22999573 218.50000000 -0.112560 -0.114930 0.986976 0.000000
73.63480377 202.18400574 222.00000000 -0.912987 -0.278119 0.298504 0.000000
167.65400696 254.60200500 223.00000000 0.505514 0.190505 0.841524 0.000000
144.77299500 282.47500610 144.00000000 0.562279 -0.531886 -0.633198 0.000000
191.78300476 127.30100250 219.00000000 -0.250603 -0.152484 0.956006 0.000000
222.98399353 193.86300659 209.50000000 -0.000978 -0.000978 0.999999 0.000000
115.23600006 272.90600586 232.00000000 -0.156046 0.692358 0.704478 0.000000
237.12899780 141.44500732 181.50000000 0.750279 0.126787 -0.648850 0.000000
98.59570313 292.04299927 167.00000000 -0.533956 0.832735 -0.146431 0.000000
111.90799713 143.94099426 176.00000000 -0.626816 -0.750631 0.208939 0.000000
115.65200043 298.28298950 150.00000000 -0.110449 0.925867 -0.361347 0.000000
148.51800537 112.32399750 178.00000000 -0.595421 -0.645738 0.478014 0.000000
146.85400391 218.82400513 246.00000000 0.960457 -0.080357 0.266581 0.000000
151.42999268 163.07800293 214.50000000 -0.055655 -0.116990 0.991572 0.000000
77.37889862 251.68899536 219.00000000 -0.863867 0.295091 0.408234 0.000000
246.28100586 200.93600464 192.00000000 0.813364 0.001362 -0.581753 0.000000
152.67799377 202.18400574 241.00000000 0.484003 -0.299174 0.822336 0.000000
172.22999573 108.16400146 186.50000000 0.786676 -0.557425 -0.265366 0.000000
186.37500000 116.90000153 210.00000000 -0.077963 -0.843420 0.531567 0.000000
137.28500366 302.02700806 156.50000000 0.178829 0.978012 -0.107298 0.000000
121.47699738 181.79899597 244.00000000 -0.188513 -0.311396 0.931394 0.000000
160.58200073 252.52099609 231.00000000 0.503014 0.587130 0.634235 0.000000
214.66400146 157.25399780 161.50000000 0.373730 -0.024570 -0.927212 0.000000
112.73999786 259.59399414 104.00000000 0.765786 0.073550 -0.638876 0.000000
160.58200073 288.29901123 165.00000000 0.659481 0.348559 -0.666027 0.000000
158.50199890 295.37100220 167.00000000 0.872374 0.219212 -0.436933 0.000000
71.97070313 199.68800354 170.00000000 -0.895581 -0.128749 -0.425861 0.000000
209.25599670 199.68800354 161.00000000 0.510748 0.023154 -0.859419 0.000000
71.13870239 207.17599487 192.00000000 -0.943541 -0.330556 -0.021530 0.000000
171.81399536 232.96899414 158.00000000 0.856183 0.264028 -0.444116 0.000000
113.98799896 288.71499634 216.50000000 0.713533 0.612760 0.339700 0.000000
104.00399780 144.77299500 129.50000000 0.000978 0.000978 0.999999 0.000000
149.76600647 125.63700104 201.50000000 -0.486951 -0.405521 0.773584 0.000000
160.58200073 216.32800293 144.50000000 0.285732 -0.186347 -0.940017 0.000000
87.36329651 194.69500732 99.50000000 0.526274 0.037295 -0.849497 0.000000
107.33200073 232.13699341 249.50000000 -0.196394 0.108830 0.974467 0.000000
85.69920349 285.38699341 181.50000000 -0.590420 0.785701 -0.184602 0.000000
125.63700104 232.13699341 251.50000000 -0.001270 0.372047 0.928213 0.000000
181.38299561 251.68899536 194.00000000 0.770765 0.630890 -0.088878 0.000000
115.65200043 262.08999634 106.50000000 0.764442 -0.023758 -0.644255 0.000000
76.54689789 205.51199341 104.50000000 -0.917428 0.304846 -0.255724 0.000000
92.35549927 260.84201050 231.00000000 -0.248523 0.279765 0.927345 0.000000
262.08999634 133.12500000 209.50000000 0.657133 0.743559 0.123678 0.000000
252.93800354 143.94099426 196.50000000 0.329489 -0.719032 -0.611907 0.000000
69.47460175 242.95300293 178.00000000 -0.976642 -0.044447 -0.210224 0.000000
226.31199646 169.73399353 214.50000000 0.175092 0.334776 0.925887 0.000000
222.15199280 166.40600586 164.50000000 -0.109048 0.551057 -0.827312 0.000000
208.00799561 220.07200623 166.00000000 0.441439 0.209572 -0.872474 0.000000
193.86300659 186.79100037 163.00000000 -0.222343 -0.757210 -0.614164 0.000000
161.41400146 176.80700684 220.00000000 -0.001203 -0.963362 0.268202 0.000000
70.30660248 215.49600220 155.00000000 -0.999999 0.000978 0.000978 0.000000
76.13089752 203.01600647 103.00000000 -0.917428 0.304846 -0.255724 0.000000
77.37889862 267.49798584 161.00000000 -0.562036 0.616045 -0.551909 0.000000
209.25599670 216.32800293 166.00000000 0.859078 0.277171 -0.430304 0.000000
118.56400299 183.87899780 125.00000000 0.537199 -0.409060 -0.737622 0.000000
102.75599670 240.45700073 245.00000000 -0.177743 0.137404 0.974437 0.000000
182.63099670 173.06199646 168.00000000 -0.969423 0.227582 -0.091787 0.000000
70.30660248 223.81599426 205.00000000 -0.980338 0.104031 0.167673 0.000000
99.01170349 156.00599670 188.00000000 -0.641584 -0.766839 -0.018092 0.000000
213.00000000 168.07000732 161.50000000 0.388089 0.079781 -0.918162 0.000000
248.77699280 112.32399750 204.50000000 0.035134 -0.788411 0.614145 0.000000
158.50199890 241.28900146 151.00000000 0.910632 0.413217 0.001295 0.000000
92.35549927 244.20100403 92.00000000 -0.734368 0.392649 -0.553651 0.000000
247.94500732 197.19099426 205.50000000 0.314738 0.731160 0.605265 0.000000
165.99000549 218.82400513 147.00000000 0.658324 0.098236 -0.746297 0.000000
154.75799561 193.86300659 164.50000000 -0.113232 -0.259002 0.959217 0.000000
185.95899963 225.47999573 205.00000000 0.953051 -0.033993 0.300897 0.000000
227.97700500 107.33200073 171.50000000 0.609121 0.609121 -0.507882 0.000000
69.47460175 240.45700073 178.00000000 -0.940843 0.116767 -0.318088 0.000000
95.26760101 160.58200073 144.00000000 -0.792014 -0.557691 0.248383 0.000000
245.86500549 168.07000732 211.00000000 0.494934 0.300103 0.815462 0.000000
80.29100037 266.25000000 150.00000000 -0.881108 0.452772 -0.136550 0.000000
127.30100250 280.39498901 121.50000000 0.624938 0.126175 -0.770411 0.000000
208.00799561 95.26760101 169.00000000 -0.044447 -0.976642 0.210224 0.000000
145.18899536 198.85499573 152.00000000 0.611770 -0.674771 -0.412821 0.000000
110.66000366 262.92199707 101.50000000 0.855920 -0.017634 -0.516807 0.000000
113.15599823 179.30299377 241.00000000 -0.169630 -0.695329 0.698386 0.000000
131.46099854 303.69100952 171.50000000 0.001203 0.963362 -0.268202 0.000000
153.09399414 272.07400513 154.50000000 0.381348 0.317024 -0.868371 0.000000
109.41200256 145.60499573 167.00000000 -0.767863 -0.640577 0.006918 0.000000
213.41600037 214.66400146 187.00000000 0.917020 0.351169 0.189091 0.000000
86.94730377 279.56201172 150.00000000 -0.973044 0.180943 0.142983 0.000000
148.10200500 301.61099243 169.00000000 0.338135 0.940953 -0.016464 0.000000
94.85160065 247.11300659 91.50000000 -0.601035 0.657957 -0.453706 0.000000
208.83999634 183.46299744 216.00000000 -0.247366 -0.745250 0.619203 0.000000
243.78500366 187.20700073 209.50000000 0.139909 -0.356005 0.923951 0.000000
88.19529724 278.31399536 214.00000000 -0.871672 0.343479 -0.349585 0.000000
241.28900146 123.55699921 217.00000000 0.244283 -0.698176 0.672960 0.000000
260.01000977 126.46900177 209.00000000 0.705664 -0.671241 -0.226876 0.000000
246.28100586 110.24400330 201.00000000 0.089671 -0.849739 0.519522 0.000000
174.31100464 212.16799927 227.00000000 -0.219625 -0.935853 0.275580 0.000000
77.37889862 213.00000000 106.50000000 -0.964372 0.173561 -0.199660 0.000000
69.47460175 218.82400513 163.00000000 -0.980276 -0.101324 -0.169687 0.000000
134.37300110 266.25000000 136.00000000 0.749002 -0.055853 -0.660210 0.000000
147.27000427 272.07400513 226.50000000 0.512228 0.498880 0.699100 0.000000
168.07000732 186.79100037 176.00000000 -0.569865 -0.287314 0.769873 0.000000
110.24400330 163.91000366 225.00000000 -0.168260 -0.841300 0.513714 0.000000
186.79100037 242.95300293 198.00000000 0.932109 -0.357286 0.059328 0.000000
81.95510101 180.55099487 161.00000000 -0.878920 -0.473265 -0.059331 0.000000
73.21880341 197.60699463 168.00000000 -0.940907 -0.314536 -0.125544 0.000000
96.51560211 248.77699280 91.50000000 -0.146520 0.283630 -0.947674 0.000000
84.45120239 251.27299500 114.00000000 -0.672959 0.413745 -0.613140 0.000000
117.31600189 184.71099854 244.50000000 0.033226 -0.423961 0.905071 0.000000
79.04299927 252.10499573 221.50000000 -0.798488 0.484853 0.356839 0.000000
193.03100586 95.26760101 167.00000000 0.139422 -0.983225 0.117599 0.000000
85.28320313 286.21899414 186.00000000 -0.830587 0.556887 -0.001355 0.000000
106.91600037 180.55099487 118.00000000 0.755828 -0.414804 -0.506618 0.000000
112.73999786 164.74200439 136.00000000 -0.160034 0.380965 -0.910634 0.000000
123.97299957 132.29299927 134.50000000 0.000978 0.000978 0.999999 0.000000
91.52339935 203.84800720 244.50000000 -0.758618 0.476799 0.444029 0.000000
141.44500732 216.32800293 136.50000000 0.415165 -0.415165 -0.809491 0.000000
99.01170349 249.60899353 91.50000000 0.354611 -0.285784 -0.890269 0.000000
114.81999969 214.66400146 253.50000000 -0.242814 0.001184 0.970072 0.000000
201.35200500 206.75999451 159.00000000 -0.193947 0.569624 -0.798695 0.000000
141.86099243 296.20300293 140.00000000 0.519617 0.752379 -0.404875 0.000000
180.55099487 193.03100586 221.50000000 -0.063877 -0.088532 0.994023 0.000000
156.42199707 245.86500549 151.00000000 0.465314 0.112415 -0.877978 0.000000
184.71099854 214.66400146 219.50000000 0.778721 0.349860 0.520760 0.000000
125.63700104 163.49400330 216.00000000 0.413221 -0.648873 0.638915 0.000000
182.63099670 237.96099854 176.00000000 0.745250 0.247366 -0.619203 0.000000
156.42199707 188.45500183 230.00000000 0.193856 -0.369045 0.908970 0.000000
73.63480377 193.03100586 207.00000000 -0.952402 0.189942 -0.238437 0.000000
116.48400116 123.97299957 151.50000000 -0.663257 -0.481911 0.572584 0.000000
124.80500031 149.76600647 131.50000000 0.000978 0.000978 0.999999 0.000000
134.37300110 226.31199646 251.00000000 0.337332 0.252634 0.906853 0.000000
99.84380341 259.59399414 99.50000000 -0.670291 0.549336 -0.498938 0.000000
67.39450073 240.87300110 160.00000000 -0.975383 0.121453 -0.184058 0.000000
99.42769623 251.27299500 92.00000000 0.321719 -0.069033 -0.944315 0.000000
76.13089752 254.60200500 145.00000000 -0.962680 0.223363 -0.152827 0.000000
175.14300537 238.79299927 223.00000000 0.963976 0.265966 -0.003610 0.000000
106.50000000 186.37500000 114.50000000 0.638734 -0.297647 -0.709525 0.000000
127.30100250 226.31199646 252.50000000 -0.189009 0.754500 0.628494 0.000000
121.47699738 302.44299316 193.00000000 0.001203 0.963362 0.268202 0.000000
70.30660248 214.66400146 149.00000000 -0.957298 -0.288787 0.013518 0.000000
232.13699341 178.88699341 211.50000000 0.024744 0.389393 0.920739 0.000000
188.45500183 237.12899780 185.00000000 0.836341 0.287056 -0.467047 0.000000
169.73399353 98.59570313 160.00000000 -0.603585 -0.760361 -0.239866 0.000000
83.20310211 281.64300537 185.00000000 -0.900400 0.428958 0.072635 0.000000
89.44339752 183.04699707 103.00000000 0.422746 -0.375247 -0.824909 0.000000
246.69700623 129.79699707 219.00000000 0.554795 0.282929 0.782403 0.000000
86.53119659 237.12899780 239.50000000 -0.829903 0.261180 0.492997 0.000000
108.16400146 207.17599487 111.50000000 0.397019 -0.422530 -0.814766 0.000000
128.96499634 190.53500366 129.50000000 0.596123 0.181429 -0.782126 0.000000
101.50800323 242.12100220 244.50000000 -0.150300 0.074558 0.985825 0.000000
134.78900146 301.61099243 185.00000000 0.839657 0.279886 -0.465445 0.000000
89.85939789 280.81100464 212.00000000 -0.881274 0.407086 -0.240076 0.000000
81.95510101 180.55099487 164.00000000 -0.705724 -0.708486 -0.001381 0.000000
114.40399933 202.18400574 118.00000000 0.784202 -0.539238 -0.307000 0.000000
156.83799744 130.62899780 151.00000000 -0.743982 0.236508 0.624944 0.000000
95.68360138 270.82598877 226.00000000 -0.282624 0.498105 0.819765 0.000000
76.96289825 195.52699280 143.00000000 -0.903438 -0.426958 0.038814 0.000000
129.79699707 280.39498901 226.50000000 0.182750 0.551270 0.814067 0.000000
100.26000214 171.39799500 230.00000000 -0.308455 -0.551383 0.775133 0.000000
253.35400391 160.58200073 199.00000000 0.174374 0.112539 -0.978227 0.000000
196.35899353 92.35549927 159.50000000 0.083374 -0.971872 0.220258 0.000000
93.18750000 257.51400757 105.00000000 -0.412410 0.214335 -0.885425 0.000000
189.70300293 173.89500427 164.50000000 -0.439299 0.659784 -0.609674 0.000000
89.44339752 160.58200073 133.00000000 -0.653981 -0.427667 0.624027 0.000000
111.07599640 136.45300293 152.00000000 -0.794627 -0.285939 0.535544 0.000000
116.48400116 161.83000183 223.00000000 0.528635 -0.847759 -0.043012 0.000000
208.83999634 215.08000183 198.00000000 0.617790 0.486489 0.617790 0.000000
135.62100220 302.44299316 158.00000000 0.178829 0.978012 -0.107298 0.000000
111.49199677 159.33399963 214.00000000 -0.192546 -0.967901 0.161532 0.000000
125.63700104 300.77899170 154.00000000 -0.258409 0.899265 -0.352913 0.000000
146.43800354 294.53900146 144.50000000 0.492508 0.630343 -0.600086 0.000000
136.86900330 128.96499634 139.00000000 -0.480337 -0.674480 0.560672 0.000000
124.80500031 161.41400146 141.50000000 0.444528 0.334574 -0.830937 0.000000
238.79299927 107.33200073 194.50000000 0.171047 -0.901231 0.398152 0.000000
252.93800354 152.26199341 211.50000000 0.283243 0.111980 0.952488 0.000000
94.43550110 166.40600586 161.00000000 -0.789790 -0.611130 -0.052464 0.000000
114.40399933 174.72700500 135.00000000 0.842002 -0.187612 -0.505801 0.000000
71.13870239 258.76199341 165.00000000 -0.869342 0.397370 -0.293841 0.000000
187.62300110 143.94099426 154.00000000 0.036713 -0.107915 -0.993482 0.000000
116.90000153 292.04299927 212.00000000 -0.074870 0.851828 0.518443 0.000000
212.58399963 213.83200073 170.00000000 0.794509 0.539637 -0.278472 0.000000
164.74200439 162.24600220 146.50000000 -0.131077 0.552291 0.823282 0.000000
201.76800537 118.98000336 159.00000000 0.624305 -0.026536 -0.780730 0.000000
148.10200500 114.40399933 180.00000000 -0.634513 -0.670771 0.384004 0.000000
176.39100647 257.51400757 178.00000000 0.792607 0.295843 -0.533151 0.000000
174.72700500 171.81399536 164.00000000 -0.882608 -0.418389 0.214369 0.000000
86.53119659 282.47500610 171.00000000 -0.609121 0.609121 -0.507882 0.000000
155.58999634 274.98599243 158.00000000 0.281621 0.587107 -0.758943 0.000000
98.17970276 296.20300293 181.50000000 -0.492997 0.829903 -0.261180 0.000000
235.88099670 183.87899780 176.00000000 0.852507 -0.123027 -0.508031 0.000000
141.02900696 130.62899780 198.00000000 -0.501826 -0.065699 0.862470 0.000000
106.91600037 148.93400574 162.00000000 -0.838494 -0.542719 -0.048831 0.000000
148.10200500 161.41400146 214.50000000 0.038520 -0.173923 0.984006 0.000000
111.49199677 143.52499390 165.00000000 -0.773532 -0.629485 0.073464 0.000000
82.78710175 178.05499268 217.00000000 -0.882225 -0.460108 0.099901 0.000000
93.18750000 255.43400574 104.50000000 -0.788258 0.467775 -0.399794 0.000000
136.45300293 110.24400330 164.00000000 -0.271130 -0.856280 0.439629 0.000000
187.20700073 233.38499451 210.00000000 0.437995 -0.167340 0.883265 0.000000
140.61300659 302.44299316 175.00000000 -0.001327 0.874782 0.484515 0.000000
148.93400574 139.78100586 206.50000000 -0.554247 -0.362455 0.749290 0.000000
80.29100037 218.82400513 93.00000000 -0.955271 0.202308 -0.215706 0.000000
215.08000183 149.76600647 162.00000000 0.657007 0.695560 -0.290754 0.000000
151.84599304 266.25000000 154.00000000 0.689297 0.213168 -0.692409 0.000000
211.33599854 161.41400146 161.50000000 0.195617 0.022256 -0.980428 0.000000
196.35899353 213.41600037 198.00000000 -0.030331 0.913880 0.404850 0.000000
78.21089935 193.86300659 226.50000000 -0.742505 -0.439576 0.505430 0.000000
190.53500366 162.24600220 156.50000000 0.132279 0.504406 -0.853274 0.000000
91.10739899 160.58200073 135.00000000 -0.671053 -0.424612 0.607777 0.000000
96.09960175 220.48800659 93.00000000 0.683822 -0.624503 -0.377338 0.000000
102.75599670 153.92599487 166.00000000 -0.803446 -0.554577 -0.216608 0.000000
65.73049927 238.79299927 149.50000000 -0.461585 0.729602 0.504600 0.000000
146.43800354 289.54699707 141.50000000 0.504805 0.113617 -0.855724 0.000000
152.26199341 210.91999817 163.00000000 0.054467 -0.844930 0.532096 0.000000
81.95510101 272.07400513 213.00000000 -0.755828 0.414804 0.506618 0.000000
203.84800720 161.41400146 159.50000000 -0.000978 -0.000978 -0.999999 0.000000
111.49199677 299.11499023 167.00000000 -0.369541 0.901212 0.226399 0.000000
97.76370239 288.71499634 148.00000000 -0.270597 0.935173 -0.228536 0.000000
183.04699707 94.43550110 164.00000000 -0.351515 -0.882560 0.312290 0.000000
123.97299957 303.27499390 180.00000000 -0.000978 0.999999 -0.000978 0.000000
193.86300659 118.14800262 154.50000000 0.130007 0.130007 -0.982953 0.000000
79.04299927 265.41799927 154.50000000 -0.839985 0.485019 -0.243274 0.000000
146.02099609 117.31600189 183.00000000 -0.590610 -0.750667 0.296105 0.000000
121.47699738 168.07000732 141.50000000 0.355798 -0.075957 -0.931471 0.000000
213.41600037 213.83200073 185.00000000 0.972157 0.215896 -0.091101 0.000000
170.98199463 225.47999573 154.00000000 0.672986 0.009713 -0.739591 0.000000
104.41999817 299.53100586 194.00000000 -0.343038 0.937111 0.064402 0.000000
100.67600250 295.78698730 197.00000000 -0.495520 0.763722 0.413751 0.000000
158.91799927 289.54699707 191.50000000 0.438522 0.618599 0.651947 0.000000
159.75000000 210.91999817 163.00000000 0.973256 0.224784 -0.047387 0.000000
230.88900757 123.14099884 175.00000000 0.355853 -0.238700 -0.903544 0.000000
136.45300293 121.89299774 176.00000000 -0.467257 -0.798030 0.380550 0.000000
119.81199646 214.66400146 121.50000000 0.568136 -0.320281 -0.758051 0.000000
86.11519623 173.89500427 220.00000000 -0.874569 -0.410942 0.257403 0.000000
153.50999451 213.00000000 243.00000000 0.805297 -0.257010 0.534269 0.000000
164.32600403 133.95700073 212.00000000 -0.486830 -0.170168 0.856761 0.000000
81.12300110 174.72700500 122.00000000 -0.930596 -0.098597 0.352519 0.000000
99.42769623 228.80900574 93.00000000 0.869220 -0.357193 -0.341863 0.000000
218.82400513 202.60000610 205.00000000 0.054602 0.387538 0.920235 0.000000
182.21499634 145.60499573 153.50000000 -0.099308 -0.078761 -0.991935 0.000000
84.86720276 230.05700684 93.00000000 -0.804363 0.517878 -0.291208 0.000000
66.97850037 227.14500427 177.00000000 -0.956226 -0.067664 0.284698 0.000000
127.30100250 281.22698975 226.50000000 0.264974 0.791786 0.550330 0.000000
73.63480377 265.41799927 175.00000000 -0.939945 0.339816 0.032058 0.000000
122.30899811 235.46499634 124.50000000 0.963362 -0.001203 -0.268202 0.000000
119.39600372 189.70300293 122.00000000 0.076977 -0.675362 -0.733458 0.000000
168.90199280 248.77699280 224.50000000 -0.001375 -0.768784 0.639507 0.000000
105.66799927 297.86700439 199.50000000 -0.481196 0.739156 0.471274 0.000000
127.30100250 292.87500000 129.50000000 -0.109048 0.551057 -0.827312 0.000000
220.90400696 123.14099884 171.00000000 0.372617 0.541840 -0.753370 0.000000
83.20310211 275.81799316 163.00000000 -0.617930 0.601093 -0.506804 0.000000
220.48800659 207.59199524 199.00000000 0.023857 0.998897 -0.040454 0.000000
114.81999969 265.83401489 238.00000000 -0.070895 0.672779 0.736439 0.000000
156.42199707 191.36700439 164.50000000 -0.147777 -0.099720 0.983981 0.000000
107.33200073 148.51800537 184.00000000 -0.562691 -0.682909 0.465848 0.000000
70.72270203 260.01000977 168.00000000 -0.945855 0.240239 -0.218274 0.000000
88.61129761 242.12100220 238.00000000 -0.653017 0.237604 0.719106 0.000000
170.14999390 233.80099487 230.00000000 -0.720508 0.172861 0.671556 0.000000
98.17970276 237.96099854 244.50000000 -0.404444 0.312175 0.859635 0.000000
252.93800354 193.86300659 204.50000000 0.474837 0.094404 0.874996 0.000000
129.38099670 270.41000366 127.00000000 0.686955 -0.308726 -0.657861 0.000000
97.34770203 292.45901489 200.00000000 -0.000978 -0.000978 0.999999 0.000000
72.80269623 235.46499634 218.00000000 -0.918280 0.292639 0.266690 0.000000
102.33999634 298.28298950 180.00000000 -0.423643 0.810518 -0.404459 0.000000
81.12300110 181.38299561 127.00000000 -0.894390 -0.337814 0.293169 0.000000
105.66799927 162.24600220 219.50000000 -0.569505 -0.758805 0.316035 0.000000
83.61910248 279.56201172 194.00000000 -0.852050 0.487952 0.189510 0.000000
187.20700073 187.62300110 164.00000000 0.076645 -0.876535 -0.475196 0.000000
104.41999817 172.22999573 234.00000000 -0.118032 -0.546443 0.829137 0.000000
144.35699463 258.76199341 145.00000000 0.649365 0.248054 -0.718884 0.000000
76.96289825 262.92199707 155.00000000 -0.779029 0.511288 -0.362902 0.000000
145.60499573 239.62500000 244.50000000 0.152277 0.159828 0.975329 0.000000
141.02900696 264.58599854 144.00000000 0.787878 -0.474021 -0.393130 0.000000
165.99000549 279.56201172 196.00000000 0.810732 0.539975 0.226143 0.000000
146.02099609 194.69500732 161.00000000 -0.420164 -0.612809 0.669274 0.000000
237.96099854 138.11700439 181.50000000 0.608282 0.303339 -0.733470 0.000000
75.29879761 270.41000366 178.00000000 -0.876347 0.480840 0.028444 0.000000
211.33599854 104.00399780 159.50000000 0.536119 -0.152965 -0.830168 0.000000
133.12500000 261.25799561 134.50000000 0.654638 0.023830 -0.755567 0.000000
91.10739899 242.12100220 93.00000000 -0.747248 0.380982 -0.544494 0.000000
244.61700439 148.93400574 214.50000000 0.330222 0.401538 0.854237 0.000000
210.91999817 214.66400146 167.00000000 0.809922 0.365823 -0.458476 0.000000
123.14099884 270.41000366 234.50000000 0.133553 0.455229 0.880301 0.000000
135.20500183 270.41000366 136.00000000 0.771255 -0.256038 -0.582761 0.000000
183.04699707 196.35899353 164.50000000 -0.971900 0.122593 -0.200952 0.000000
222.15199280 120.64499664 169.50000000 0.489612 0.430662 -0.758162 0.000000
77.37889862 235.88099670 116.00000000 -0.881645 0.293882 -0.369236 0.000000
96.93160248 266.25000000 110.00000000 -0.708687 0.590298 -0.386407 0.000000
95.68360138 284.55499268 136.50000000 -0.435968 0.867410 -0.239858 0.000000
130.62899780 304.10699463 162.00000000 0.139809 0.968405 -0.206508 0.000000
98.17970276 163.07800293 119.50000000 0.645419 -0.129680 -0.752740 0.000000
199.68800354 138.53300476 157.00000000 0.747816 -0.257704 -0.611849 0.000000
85.69920349 170.14999390 190.00000000 -0.850301 -0.522508 0.063037 0.000000
172.22999573 107.33200073 188.50000000 -0.119142 -0.798693 0.589826 0.000000
103.17199707 212.16799927 106.50000000 0.631682 0.049683 -0.773634 0.000000
163.91000366 273.32199097 211.00000000 0.608615 0.520947 0.598499 0.000000
68.64260101 242.95300293 183.00000000 -0.921469 0.250789 -0.296647 0.000000
121.47699738 128.54899597 164.00000000 -0.849166 -0.344341 0.400432 0.000000
208.83999634 128.96499634 164.50000000 0.958232 0.192710 -0.211316 0.000000
193.86300659 104.83599854 151.50000000 0.210505 0.504303 -0.837476 0.000000
183.87899780 215.08000183 176.00000000 0.471039 0.882031 0.012009 0.000000
122.30899811 202.18400574 124.50000000 0.550919 -0.223762 -0.804002 0.000000
101.50800323 197.19099426 106.50000000 0.680776 -0.086008 -0.727425 0.000000
211.75199890 215.49600220 192.00000000 0.881939 0.393803 0.259042 0.000000
180.55099487 108.99600220 194.50000000 -0.323520 -0.931683 0.165231 0.000000
117.73200226 138.11700439 175.00000000 -0.653686 -0.741246 0.152476 0.000000
180.96699524 227.14500427 184.00000000 0.961494 0.023331 -0.273835 0.000000
129.79699707 132.29299927 189.50000000 -0.987804 -0.045058 0.149037 0.000000
167.23800659 113.15599823 196.50000000 -0.403449 -0.863656 0.302203 0.000000
140.61300659 254.60200500 239.50000000 0.345106 0.145527 0.927213 0.000000
76.96289825 221.32000732 114.00000000 -0.974318 0.008247 -0.225024 0.000000
156.42199707 282.47500610 207.00000000 0.650154 0.610041 0.452935 0.000000
77.79489899 237.96099854 115.00000000 -0.911936 0.269072 -0.309796 0.000000
87.36329651 166.82200623 184.00000000 -0.821480 -0.567850 -0.052135 0.000000
169.73399353 165.15800476 216.00000000 -0.032092 -0.584628 0.810666 0.000000
149.76600647 205.09599304 159.00000000 0.029754 -0.210655 0.977107 0.000000
101.50800323 250.85699463 93.00000000 0.452985 0.151960 -0.878472 0.000000
167.23800659 281.22698975 176.50000000 0.957246 0.222337 0.185059 0.000000
136.86900330 212.16799927 135.00000000 0.567845 -0.140849 -0.810995 0.000000
208.83999634 213.00000000 199.50000000 0.539665 0.443356 0.715679 0.000000
146.43800354 124.80500031 144.50000000 -0.301466 0.503496 0.809697 0.000000
148.10200500 153.92599487 209.50000000 -0.199074 -0.092736 0.975587 0.000000
138.11700439 299.94699097 190.00000000 0.473500 0.829798 0.295352 0.000000
68.64260101 211.33599854 167.00000000 -0.952430 -0.179170 0.246527 0.000000
77.79489899 202.18400574 94.00000000 -0.798865 -0.319228 -0.509812 0.000000
77.37889862 184.29499817 196.00000000 -0.755943 -0.605068 0.249885 0.000000
186.79100037 186.37500000 218.00000000 0.635457 -0.318537 0.703369 0.000000
113.98799896 303.27499390 182.00000000 0.069233 0.977758 -0.197981 0.000000
243.36900330 149.76600647 215.00000000 0.330222 0.401538 0.854237 0.000000
151.42999268 189.70300293 156.50000000 -0.497822 -0.858563 0.122652 0.000000
88.19529724 219.65600586 239.50000000 -0.790342 0.258231 0.555587 0.000000
139.78100586 143.10899353 134.50000000 0.483095 0.150329 -0.862566 0.000000
80.29100037 229.64100647 106.00000000 -0.849149 0.258570 -0.460530 0.000000
179.71899414 253.77000427 204.50000000 0.828038 0.504225 0.245173 0.000000
256.68200684 123.97299957 206.00000000 0.627715 0.088841 -0.773357 0.000000
188.87100220 133.12500000 154.50000000 -0.000978 -0.000978 -0.999999 0.000000
193.44700623 232.13699341 197.00000000 0.949097 -0.265963 0.168758 0.000000
248.77699280 119.81199646 194.50000000 0.768784 -0.001375 0.639507 0.000000
217.99200439 200.10400391 176.00000000 0.555026 -0.230359 0.799300 0.000000
215.08000183 208.83999634 176.00000000 0.928213 0.372047 -0.001270 0.000000
123.14099884 228.80900574 124.50000000 0.619334 -0.046769 -0.783734 0.000000
185.12699890 198.85499573 221.00000000 0.408550 -0.101099 0.907120 0.000000
86.11519623 206.34399414 94.00000000 0.141066 -0.989717 0.023699 0.000000
104.00399780 141.02900696 143.00000000 -0.815638 -0.327839 0.476713 0.000000
70.30660248 256.26599121 166.00000000 -0.859852 0.424562 -0.283552 0.000000
221.32000732 112.32399750 204.50000000 0.047393 -0.946588 0.318945 0.000000
67.81050110 217.99200439 170.00000000 -0.992750 -0.111053 0.045992 0.000000
137.28500366 121.89299774 175.00000000 -0.377568 -0.638073 0.671048 0.000000
160.58200073 181.38299561 154.50000000 -0.765590 -0.538988 0.351232 0.000000
225.47999573 101.92400360 185.00000000 0.132198 -0.858559 0.495378 0.000000
246.28100586 184.29499817 208.00000000 0.122937 -0.368812 0.921338 0.000000
158.08599854 181.38299561 151.50000000 -0.681997 -0.585284 0.438546 0.000000
100.26000214 149.76600647 144.00000000 -0.605912 -0.585658 0.538401 0.000000
137.70100403 119.81199646 174.00000000 -0.556786 -0.661078 0.502957 0.000000
66.97850037 238.79299927 160.00000000 -0.983268 0.065393 -0.170021 0.000000
236.29699707 138.94900513 181.50000000 0.630732 0.265320 -0.729234 0.000000
134.78900146 291.62701416 211.00000000 0.264734 0.828262 0.493861 0.000000
259.59399414 153.92599487 201.50000000 0.796463 0.112942 -0.594047 0.000000
179.71899414 194.69500732 221.50000000 -0.063877 -0.088532 0.994023 0.000000
148.93400574 293.70700073 196.50000000 0.385871 0.766858 0.512867 0.000000
172.22999573 144.35699463 165.00000000 -0.428456 0.412409 -0.803956 0.000000
106.50000000 297.45098877 160.00000000 -0.450831 0.883057 -0.130240 0.000000
132.29299927 264.58599854 236.50000000 -0.996496 -0.076654 0.033468 0.000000
80.29100037 188.03900146 134.00000000 -0.923531 -0.380742 -0.046111 0.000000
95.68360138 233.80099487 244.50000000 -0.337662 0.203737 0.918954 0.000000
131.46099854 152.26199341 204.50000000 -0.136208 -0.517005 0.845076 0.000000
258.76199341 153.09399414 209.50000000 0.748840 -0.162527 0.642514 0.000000
137.70100403 296.20300293 139.00000000 0.257043 0.920473 -0.294379 0.000000
150.59800720 259.59399414 149.50000000 0.768784 0.001375 -0.639507 0.000000
72.38670349 200.10400391 169.00000000 -0.895581 -0.128749 -0.425861 0.000000
182.21499634 245.86500549 181.00000000 0.663658 0.459713 -0.590104 0.000000
132.29299927 142.27699280 134.50000000 0.247148 0.247148 0.936929 0.000000
115.23600006 294.53900146 140.00000000 -0.291124 0.882423 -0.369562 0.000000
71.97070313 237.96099854 211.00000000 -0.967204 0.207904 0.145920 0.000000
169.73399353 215.49600220 149.50000000 0.670670 -0.516029 -0.532838 0.000000
118.14800262 246.28100586 116.50000000 0.830840 -0.211128 -0.514908 0.000000
209.25599670 170.56599426 160.00000000 0.327985 0.069256 -0.942141 0.000000
93.60350037 287.05099487 164.00000000 -0.622911 0.775341 -0.104063 0.000000
72.38670349 200.93600464 177.00000000 -0.938269 -0.339877 0.064301 0.000000
110.66000366 280.81100464 225.00000000 -0.152453 0.356657 0.921713 0.000000
252.93800354 156.42199707 211.50000000 0.992181 0.114005 0.050794 0.000000
184.29499817 222.15199280 208.00000000 0.962156 -0.040969 0.269404 0.000000
90.69139862 283.30700684 159.00000000 -0.886908 0.456558 0.070346 0.000000
90.69139862 280.81100464 135.00000000 -0.473149 0.775575 -0.417867 0.000000
170.98199463 232.13699341 231.00000000 0.001340 0.516071 0.856545 0.000000
146.02099609 282.05899048 146.00000000 0.678178 0.193103 -0.709074 0.000000
101.50800323 211.33599854 104.50000000 0.732150 0.142822 -0.666001 0.000000
148.10200500 171.81399536 141.00000000 0.109212 0.391229 -0.913790 0.000000
237.12899780 200.93600464 187.00000000 0.197271 0.838776 -0.507482 0.000000
93.18750000 222.98399353 244.50000000 -0.522820 0.117309 0.844333 0.000000
231.30499268 183.04699707 171.50000000 0.839897 -0.406604 -0.359507 0.000000
135.62100220 150.59800720 131.50000000 0.290701 -0.869060 -0.400285 0.000000
80.29100037 265.41799927 142.00000000 -0.921622 0.387984 0.009023 0.000000
139.36500549 173.89500427 224.00000000 0.411030 -0.751644 0.515834 0.000000
76.13089752 226.31199646 117.00000000 -0.988400 -0.085591 -0.125455 0.000000
97.34770203 266.25000000 229.50000000 -0.390932 0.488259 0.780241 0.000000
104.41999817 295.37100220 170.00000000 -0.561321 0.824129 -0.075700 0.000000
131.04499817 261.25799561 132.00000000 0.686841 -0.175917 -0.705197 0.000000
99.01170349 180.96699524 238.00000000 -0.359419 -0.648267 0.671244 0.000000
128.96499634 142.27699280 198.50000000 0.416886 -0.887895 0.194547 0.000000
177.22300720 257.92999268 206.50000000 0.878912 0.448899 0.161255 0.000000
190.53500366 99.01170349 174.50000000 0.073848 -0.949658 0.304461 0.000000
147.68600464 122.30899811 145.00000000 -0.221096 0.315240 0.922898 0.000000
223.81599426 133.95700073 221.50000000 0.000978 0.000978 0.999999 0.000000
76.96289825 185.54299927 211.00000000 -0.927294 -0.348596 0.136407 0.000000
168.90199280 102.33999634 174.50000000 0.032255 -0.789545 0.612844 0.000000
216.74400330 204.67999268 179.00000000 0.947674 0.283630 -0.146520 0.000000
111.90799713 249.60899353 106.00000000 0.347459 -0.347459 -0.870944 0.000000
175.97500610 263.75399780 190.00000000 0.909733 0.414943 0.014399 0.000000
179.71899414 210.50399780 161.50000000 0.759391 0.647420 -0.064598 0.000000
118.98000336 149.76600647 129.50000000 -0.188183 -0.043791 0.981157 0.000000
177.22300720 245.44900513 169.50000000 0.957915 0.096955 0.270181 0.000000
185.95899963 210.50399780 220.00000000 0.744119 0.254359 0.617729 0.000000
101.50800323 258.34600830 238.00000000 -0.627147 0.443184 0.640526 0.000000
107.33200073 181.38299561 241.50000000 -0.879640 -0.446363 -0.164296 0.000000
91.93949890 169.73399353 163.00000000 -0.776178 -0.628063 -0.055543 0.000000
151.01400757 289.54699707 202.00000000 0.589778 0.698813 0.404750 0.000000
203.84800720 98.17970276 174.50000000 -0.067779 -0.955306 0.287743 0.000000
217.16000366 119.81199646 166.50000000 0.362822 0.256197 -0.895948 0.000000
249.19299316 152.26199341 195.00000000 0.626968 -0.082534 -0.774661 0.000000
118.98000336 188.87100220 247.50000000 -0.173948 -0.582348 0.794111 0.000000
68.64260101 222.15199280 194.00000000 -0.989750 -0.132197 0.054028 0.000000
128.96499634 301.61099243 194.00000000 -0.418393 0.838353 0.349444 0.000000
72.38670349 212.58399963 131.00000000 -0.891760 -0.200609 -0.405611 0.000000
150.18200684 281.22698975 154.00000000 0.885040 -0.117911 -0.450334 0.000000
142.27699280 231.30499268 136.50000000 0.094612 0.612798 -0.784556 0.000000
246.28100586 174.72700500 189.50000000 0.678382 -0.240818 -0.694122 0.000000
104.83599854 148.10200500 129.50000000 -0.030267 0.038616 0.998796 0.000000
185.54299927 93.60350037 164.00000000 -0.293188 -0.953822 0.065295 0.000000
163.07800293 272.07400513 211.50000000 0.626542 0.609745 0.485444 0.000000
199.27099609 213.00000000 200.00000000 0.004048 0.846091 0.533024 0.000000
75.29879761 217.99200439 121.00000000 -0.967567 0.073851 -0.241579 0.000000
100.67600250 185.54299927 109.50000000 0.684429 -0.114319 -0.720061 0.000000
127.30100250 168.48599243 228.00000000 -0.469506 0.781426 -0.411020 0.000000
157.25399780 198.02299500 169.50000000 -0.106765 0.027517 0.993903 0.000000
227.56100464 127.30100250 172.00000000 0.018715 -0.951953 -0.305673 0.000000
92.77149963 292.87500000 190.00000000 -0.556054 0.812231 0.176310 0.000000
111.90799713 262.92199707 103.00000000 0.751616 -0.052770 -0.657486 0.000000
199.68800354 193.03100586 214.50000000 0.079893 -0.079893 0.993597 0.000000
107.33200073 188.03900146 244.50000000 -0.118691 -0.561217 0.819114 0.000000
156.42199707 287.88299561 196.50000000 0.571334 0.731766 0.371613 0.000000
242.12100220 188.03900146 184.50000000 0.642217 -0.101403 -0.759786 0.000000
226.31199646 197.60699463 177.00000000 -0.001340 0.516071 -0.856545 0.000000
85.28320313 168.07000732 131.00000000 -0.782241 -0.616179 -0.091771 0.000000
70.30660248 219.65600586 138.00000000 -0.990429 0.001104 -0.138020 0.000000
213.00000000 96.09960175 174.00000000 -0.051314 -0.962445 0.266581 0.000000
222.15199280 118.14800262 214.50000000 -0.004132 -0.621156 0.783676 0.000000
108.99600220 276.23400879 226.50000000 -0.347134 0.617671 0.705677 0.000000
108.58000183 163.07800293 131.00000000 0.786318 -0.177948 -0.591640 0.000000
175.14300537 168.90199280 160.00000000 -0.882608 -0.418389 0.214369 0.000000
182.21499634 217.16000366 221.50000000 0.745908 0.130048 0.653230 0.000000
131.04499817 168.90199280 221.00000000 0.508178 -0.845976 0.161491 0.000000
101.50800323 151.42999268 126.50000000 0.894688 0.001310 -0.446689 0.000000
187.62300110 202.18400574 158.00000000 -0.387966 0.314360 -0.866407 0.000000
77.37889862 189.70300293 119.50000000 -0.974459 -0.134538 0.179803 0.000000
86.11519623 278.73001099 164.00000000 -0.637021 0.714041 -0.290430 0.000000
122.30899811 165.99000549 142.00000000 0.838353 0.418393 0.349444 0.000000
79.87500000 248.77699280 119.50000000 -0.907267 0.268223 -0.323919 0.000000
75.71479797 198.43899536 146.00000000 -0.913949 -0.405475 -0.016949 0.000000
102.75599670 153.92599487 195.00000000 -0.512057 -0.846581 0.145254 0.000000
99.84380341 262.92199707 101.50000000 -0.736211 0.458271 -0.497977 0.000000
221.32000732 147.68600464 167.00000000 0.638758 -0.155537 -0.753523 0.000000
74.88279724 200.93600464 141.00000000 -0.707106 -0.707106 -0.001384 0.000000
151.01400757 261.25799561 233.00000000 0.343290 0.343290 0.874245 0.000000
132.29299927 263.33801270 239.00000000 -0.997132 -0.009517 0.075076 0.000000
128.96499634 241.28900146 131.50000000 0.665427 -0.067842 -0.743373 0.000000
256.68200684 197.19099426 200.00000000 0.701670 0.698665 -0.139733 0.000000
74.46679688 240.45700073 126.00000000 -0.869292 0.193999 -0.454638 0.000000
95.68360138 285.80300903 141.00000000 -0.489309 0.823853 -0.286082 0.000000
110.66000366 183.87899780 119.50000000 0.491631 -0.548680 -0.676202 0.000000
102.75599670 245.44900513 94.00000000 0.768784 0.001375 -0.639507 0.000000
200.52000427 180.13499451 215.00000000 -0.142750 0.273493 0.951222 0.000000
144.77299500 242.95300293 141.50000000 0.482030 0.285474 -0.828343 0.000000
68.22660065 236.71299744 151.00000000 -0.607773 0.463782 0.644607 0.000000
158.50199890 171.39799500 145.00000000 0.345555 0.124291 -0.930131 0.000000
125.63700104 156.83799744 136.00000000 0.001375 0.768784 -0.639507 0.000000
80.70700073 183.04699707 219.50000000 -0.841300 -0.168260 0.513714 0.000000
158.08599854 155.58999634 214.50000000 0.099268 -0.050192 0.993794 0.000000
158.08599854 247.11300659 151.50000000 -0.600218 0.799835 0.001367 0.000000
159.33399963 207.17599487 238.00000000 0.568125 -0.484330 0.665326 0.000000
106.50000000 245.44900513 99.50000000 0.870399 -0.012070 -0.492198 0.000000
129.79699707 292.87500000 211.50000000 0.159076 0.737809 0.655998 0.000000
141.44500732 106.91600037 161.00000000 -0.501540 -0.846813 0.177102 0.000000
250.85699463 115.65200043 199.00000000 0.841663 0.136130 -0.522563 0.000000
171.81399536 271.24200439 188.00000000 0.838353 0.418393 -0.349444 0.000000
202.18400574 184.71099854 161.50000000 0.917428 0.304846 0.255724 0.000000
69.05860138 247.11300659 156.50000000 -0.953740 0.235408 -0.186982 0.000000
134.78900146 176.39100647 234.50000000 0.614918 -0.730516 0.297023 0.000000
200.52000427 177.22300720 159.50000000 -0.310653 0.039307 -0.949710 0.000000
143.94099426 218.82400513 136.50000000 0.519914 -0.364426 -0.772582 0.000000
85.69920349 160.99800110 127.00000000 -0.733281 0.370724 0.569967 0.000000
214.66400146 193.03100586 209.50000000 0.214867 0.214867 0.952714 0.000000
172.22999573 185.54299927 179.50000000 -0.945258 -0.314210 0.088084 0.000000
158.91799927 162.24600220 214.50000000 0.000978 0.000978 0.999999 0.000000
179.71899414 217.99200439 224.50000000 0.778840 0.221420 0.586840 0.000000
233.38499451 175.55900574 213.00000000 0.410909 0.410909 0.813823 0.000000
103.58799744 292.87500000 151.00000000 -0.478339 0.729921 -0.488269 0.000000
188.03900146 123.14099884 154.50000000 -0.000978 -0.000978 -0.999999 0.000000
229.64100647 150.59800720 174.50000000 0.565134 -0.312185 -0.763652 0.000000
100.26000214 200.52000427 105.00000000 0.538467 -0.096206 -0.837137 0.000000
108.16400146 164.32600403 225.00000000 -0.168260 -0.841300 0.513714 0.000000
115.65200043 185.95899963 246.00000000 0.091295 -0.464901 0.880643 0.000000
197.19099426 136.45300293 156.50000000 0.648113 -0.377654 -0.661307 0.000000
133.54100037 198.85499573 133.00000000 0.733167 -0.189056 -0.653241 0.000000
72.80269623 203.01600647 188.00000000 -0.917428 -0.304846 0.255724 0.000000
100.26000214 176.39100647 113.00000000 0.440829 -0.044487 -0.896488 0.000000
208.00799561 151.42999268 159.50000000 0.424618 0.211569 -0.880306 0.000000
125.22100067 224.64799500 128.00000000 0.608436 -0.188508 -0.770890 0.000000
223.39999390 175.55900574 166.00000000 0.518334 0.164857 -0.839137 0.000000
124.80500031 286.63500977 220.00000000 -0.017799 0.833809 0.551766 0.000000
183.46299744 218.82400513 187.00000000 0.851629 0.362760 -0.378329 0.000000
165.57400513 142.27699280 213.50000000 -0.377530 -0.169532 0.910346 0.000000
198.02299500 136.45300293 219.50000000 -0.497943 0.248201 0.830933 0.000000
140.61300659 188.03900146 241.50000000 0.641389 -0.315040 0.699550 0.000000
105.66799927 286.63500977 217.00000000 -0.286561 0.657969 0.696391 0.000000
158.91799927 277.89801025 211.50000000 0.555026 0.642750 0.528033 0.000000
165.99000549 227.97700500 150.00000000 0.327520 0.126387 -0.936353 0.000000
98.17970276 210.08799744 249.00000000 -0.645419 0.129680 0.752740 0.000000
217.99200439 120.64499664 166.50000000 0.397444 0.375451 -0.837302 0.000000
239.20899963 190.53500366 180.00000000 0.824163 0.505631 -0.255135 0.000000
70.30660248 239.62500000 202.00000000 -0.768784 -0.001375 0.639507 0.000000
73.63480377 223.81599426 227.00000000 -0.841300 0.168260 0.513714 0.000000
91.52339935 286.63500977 170.00000000 -0.568504 0.801969 -0.183437 0.000000
125.63700104 138.11700439 191.50000000 -0.281095 -0.808738 0.516650 0.000000
184.71099854 164.32600403 158.00000000 -0.487272 0.554251 -0.674813 0.000000
96.51560211 289.96301270 165.00000000 -0.565044 0.795989 -0.217088 0.000000
183.04699707 106.50000000 149.50000000 -0.001340 0.516071 -0.856545 0.000000
183.04699707 230.88900757 180.00000000 0.760192 -0.567331 -0.316613 0.000000
148.93400574 268.32998657 150.00000000 0.692583 -0.297281 -0.657231 0.000000
178.88699341 245.86500549 176.00000000 0.836459 0.389087 -0.385937 0.000000
157.25399780 212.58399963 167.00000000 0.676751 0.518898 0.522257 0.000000
158.08599854 185.12699890 229.00000000 0.090076 -0.358961 0.928996 0.000000
152.67799377 147.27000427 143.00000000 -0.556510 0.063723 0.828393 0.000000
175.55900574 239.62500000 164.50000000 0.674113 0.165865 -0.719764 0.000000
87.36329651 265.41799927 224.50000000 -0.750057 0.243729 0.614826 0.000000
99.84380341 271.65798950 114.00000000 -0.782766 0.537255 -0.314063 0.000000
164.74200439 137.70100403 160.00000000 -0.793899 0.607590 0.023636 0.000000
100.67600250 184.71099854 241.50000000 -0.401872 -0.496238 0.769576 0.000000
199.68800354 136.45300293 159.50000000 0.702295 -0.133271 -0.699300 0.000000
89.44339752 208.83999634 244.00000000 -0.561978 -0.330102 0.758429 0.000000
194.69500732 215.08000183 173.00000000 -0.293286 0.942608 -0.159602 0.000000
239.62500000 121.47699738 216.50000000 0.283676 -0.665116 0.690759 0.000000
115.65200043 245.44900513 247.50000000 -0.208202 0.587592 0.781913 0.000000
128.96499634 196.35899353 129.50000000 0.493399 -0.196460 -0.847326 0.000000
163.49400330 289.54699707 177.00000000 0.842770 0.536308 0.045969 0.000000
218.82400513 106.50000000 164.50000000 0.695073 0.244300 -0.676159 0.000000
224.64799500 148.93400574 169.50000000 0.778804 -0.231620 -0.582937 0.000000
252.10499573 158.91799927 211.50000000 0.791786 0.264974 0.550330 0.000000
176.80700684 256.26599121 179.00000000 0.779783 0.304578 -0.546965 0.000000
205.51199341 162.24600220 159.50000000 0.290183 0.062639 -0.954919 0.000000
78.62699890 179.71899414 199.00000000 -0.937601 -0.338173 -0.080896 0.000000
247.52900696 131.46099854 217.00000000 0.554795 0.282929 0.782403 0.000000
147.27000427 246.28100586 144.50000000 0.546618 0.318994 -0.774242 0.000000
213.00000000 116.90000153 211.00000000 -0.651280 -0.714665 0.255124 0.000000
144.77299500 262.92199707 234.50000000 0.516030 0.309618 0.798655 0.000000
190.11900330 235.46499634 187.00000000 0.823135 0.261977 -0.503802 0.000000
113.98799896 213.83200073 253.50000000 -0.242814 0.001184 0.970072 0.000000
239.62500000 136.45300293 181.50000000 0.587453 0.328521 -0.739576 0.000000
230.47300720 112.32399750 204.50000000 0.155164 -0.769792 0.619148 0.000000
104.83599854 283.30700684 128.00000000 -0.501653 0.666075 -0.551986 0.000000
71.55470276 250.44099426 151.50000000 -0.889996 0.404543 -0.210363 0.000000
168.07000732 242.95300293 229.50000000 0.685677 0.685677 0.244322 0.000000
79.87500000 239.62500000 111.50000000 -0.879686 0.301304 -0.367924 0.000000
78.62699890 243.78500366 227.00000000 -0.846020 0.386261 0.367495 0.000000
201.35200500 93.60350037 164.00000000 0.223209 -0.971395 0.081053 0.000000
84.86720276 255.01800537 115.00000000 -0.625741 0.384690 -0.678574 0.000000
211.33599854 208.83999634 201.50000000 0.469800 0.503001 0.725450 0.000000
