107.63099670 310.01400757 189.60099792 0.511616 -0.521681 -0.682714 0.000000
196.86300659 135.68800354 172.80099487 0.204994 0.593405 -0.778362 0.000000
80.03320313 275.97698975 53.60029984 0.815796 -0.423064 0.394328 0.000000
88.77249908 197.78300476 88.00050354 0.999999 -0.000978 -0.000978 0.000000
126.94899750 302.19400024 115.20099640 -0.642738 -0.481634 0.595749 0.000000
103.03099823 185.36399841 164.80099487 0.710132 0.676096 -0.196485 0.000000
149.02699280 255.27799988 67.20040131 -0.456025 -0.745773 0.485658 0.000000
193.18400574 269.99700928 155.20100403 0.099541 0.444432 0.890265 0.000000
162.82600403 228.60099792 204.80099487 -0.433665 0.216087 -0.874781 0.000000
96.13189697 277.81600952 193.60099792 0.701001 -0.315693 -0.639481 0.000000
90.61229706 307.25399780 128.00100708 0.654738 -0.654738 0.377670 0.000000
170.18600464 256.19799805 89.60060120 -0.679474 -0.538546 0.498281 0.000000
147.18800354 244.23899841 52.80030060 -0.767121 -0.309091 0.562128 0.000000
204.68299866 201.46299744 190.40100098 -0.071535 0.500748 -0.862632 0.000000
198.70300293 219.86099243 197.60099792 -0.307622 0.071389 -0.948827 0.000000
243.77900696 165.12600708 139.20100403 -0.247877 0.087710 0.964813 0.000000
148.10699463 304.95401001 132.80099487 -0.300650 -0.728312 0.615769 0.000000
172.94500732 286.09600830 196.00100708 -0.701093 -0.206752 -0.682438 0.000000
127.86900330 171.10499573 80.80049896 0.104542 0.737682 0.667006 0.000000
221.70100403 230.89999390 175.20100403 -0.661484 0.457177 0.594498 0.000000
163.74600220 278.27600098 116.80100250 -0.230401 -0.884443 0.405803 0.000000
93.83200073 256.65798950 21.60009956 0.685911 0.076857 0.723615 0.000000
191.34399414 241.02000427 117.60099792 -0.533016 -0.489573 0.690081 0.000000
137.06799316 266.77700806 71.20040131 -0.612390 -0.750926 0.247160 0.000000
94.75199890 223.08099365 41.60029984 0.308919 0.760294 0.571421 0.000000
127.40899658 163.74600220 156.80099487 0.368868 0.859663 -0.353434 0.000000
121.43000031 306.33401489 112.80100250 -0.548546 -0.538419 0.639689 0.000000
158.68699646 157.30700684 171.20100403 0.248628 0.573878 -0.780287 0.000000
216.18200684 153.62699890 181.60099792 0.245401 0.276609 -0.929121 0.000000
116.83000183 220.78100586 210.40100098 0.190105 0.396172 -0.898280 0.000000
71.29399872 249.29899597 64.00039673 0.980999 -0.038957 0.190061 0.000000
143.50799561 241.93899536 47.20029831 -0.756148 -0.239525 0.608989 0.000000
107.63099670 317.37298584 117.60099792 0.061197 -0.898919 0.433820 0.000000
186.74400330 254.35800171 174.40100098 0.782335 -0.224631 -0.580942 0.000000
155.46699524 235.50000000 124.00099945 -0.127418 0.162056 -0.978521 0.000000
129.70899963 294.37500000 109.60099792 -0.755098 -0.568336 0.326834 0.000000
201.46299744 258.49798584 180.00100708 -0.822562 0.023502 -0.568190 0.000000
194.56399536 250.21899414 188.80099487 -0.815393 -0.235832 -0.528695 0.000000
143.50799561 246.99899292 49.60029984 -0.775716 -0.270158 0.570333 0.000000
100.73100281 312.77301025 113.60099792 0.371566 -0.901958 0.220025 0.000000
206.06300354 116.37000275 152.00100708 0.115878 0.928387 -0.353087 0.000000
139.82800293 339.91101074 156.80099487 -0.189798 -0.806262 0.560284 0.000000
145.34800720 251.13900757 55.20029831 -0.838412 -0.388532 0.382240 0.000000
148.10699463 336.69100952 157.60099792 -0.654738 -0.654738 0.377670 0.000000
223.54100037 251.13900757 170.40100098 -0.944596 0.079917 -0.318359 0.000000
92.45220184 260.33801270 22.40010071 0.591826 0.006866 0.806037 0.000000
143.50799561 194.56399536 190.40100098 0.418814 0.396519 -0.816926 0.000000
193.18400574 231.36000061 128.00100708 -0.253305 -0.906333 -0.338228 0.000000
177.54499817 300.81399536 188.00100708 -0.537145 -0.483598 -0.691093 0.000000
90.61229706 307.25399780 140.80099487 0.861627 -0.507237 -0.017584 0.000000
220.32099915 223.54100037 161.60099792 0.745060 -0.559203 0.363563 0.000000
215.26199341 119.58999634 144.80099487 -0.341968 0.388389 0.855694 0.000000
206.52200317 206.06300354 150.40100098 -0.445998 -0.400915 0.800220 0.000000
154.54699707 221.70100403 204.00100708 -0.412798 0.585212 -0.697944 0.000000
72.67379761 267.23699951 78.40049744 0.940597 -0.327683 0.088886 0.000000
187.66400146 148.10699463 175.20100403 0.654738 0.654738 -0.377670 0.000000
130.62899780 279.19601440 89.60060120 -0.654738 -0.654738 0.377670 0.000000
126.94899750 190.42399597 186.40100098 0.001334 0.500299 -0.865851 0.000000
93.83200073 204.22300720 181.60099792 0.887934 0.385218 -0.251358 0.000000
243.77900696 210.66200256 154.40100098 -0.159421 -0.543818 0.823922 0.000000
92.91210175 263.09799194 21.60009956 0.649765 0.104611 0.752902 0.000000
116.83000183 302.65399170 103.20099640 -0.589491 -0.521927 0.616516 0.000000
149.94700623 183.98399353 188.00100708 0.004051 0.527930 -0.849278 0.000000
94.75199890 188.58399963 90.40059662 0.717766 0.665057 0.206183 0.000000
229.06100464 200.08299255 136.00100708 -0.187546 -0.590085 0.785255 0.000000
165.58599854 154.54699707 172.00100708 0.460571 0.523754 -0.716628 0.000000
177.54499817 201.00300598 104.00099945 0.777840 0.352685 -0.520171 0.000000
178.00500488 318.29299927 169.60099792 -0.707106 -0.707106 0.001384 0.000000
263.09799194 209.74200439 160.80099487 -0.523806 -0.710048 0.470594 0.000000
84.17289734 287.93600464 70.40039825 0.764534 -0.640711 0.070550 0.000000
245.15899658 195.02299500 179.20100403 -0.304376 -0.151506 -0.940426 0.000000
182.14500427 176.62500000 109.60099792 0.625386 -0.471135 -0.622032 0.000000
139.82800293 307.25399780 130.40100098 -0.497195 -0.493869 0.713366 0.000000
116.83000183 264.93798828 21.60009956 -0.569787 -0.436892 0.696037 0.000000
183.06399536 304.49398804 183.20100403 -0.530251 -0.343294 -0.775231 0.000000
208.82200623 207.90199280 152.80099487 -0.152550 -0.317470 0.935917 0.000000
203.30299377 235.50000000 183.20100403 -0.709170 -0.047088 0.703463 0.000000
276.89700317 188.12399292 160.00100708 -0.606140 -0.514965 0.606140 0.000000
126.94899750 298.05499268 109.60099792 -0.665841 -0.605765 0.435550 0.000000
240.10000610 205.14300537 144.80099487 -0.384138 -0.697383 0.605058 0.000000
167.42599487 170.64599609 102.40100098 0.743206 -0.430104 -0.512499 0.000000
121.43000031 292.53500366 95.20059967 -0.724070 -0.583506 0.367756 0.000000
126.94899750 165.58599854 160.80099487 0.562129 0.741358 -0.366606 0.000000
75.89360046 248.37899780 46.40029907 0.923158 0.131484 0.361236 0.000000
132.00900269 267.69699097 64.00039673 -0.713005 -0.618804 0.329704 0.000000
192.72399902 247.45899963 137.60099792 -0.956973 -0.288215 0.033687 0.000000
94.29199982 302.65399170 179.20100403 0.915688 -0.183707 -0.357446 0.000000
95.67189789 218.02200317 196.00100708 0.819604 0.344012 -0.458154 0.000000
204.22300720 225.84100342 193.60099792 -0.304046 -0.778423 -0.549194 0.000000
188.58399963 275.97698975 184.80099487 -0.634858 -0.159093 -0.756072 0.000000
159.14599609 231.82000732 208.80099487 -0.000978 -0.000978 -0.999999 0.000000
119.58999634 300.81399536 104.80100250 -0.614946 -0.493642 0.614946 0.000000
124.18900299 164.20599365 91.20059967 0.563202 0.650624 0.509403 0.000000
75.43360138 273.67700195 70.40039825 0.939322 -0.307638 0.151768 0.000000
97.05180359 312.77301025 171.20100403 0.833336 -0.530305 -0.155972 0.000000
143.50799561 197.78300476 79.20050049 0.500299 0.001334 -0.865851 0.000000
128.78900146 197.78300476 197.60099792 0.001334 0.500299 -0.865851 0.000000
279.65600586 195.02299500 165.60099792 -0.530040 -0.292709 0.795851 0.000000
132.46899414 155.00700378 139.20100403 0.577401 0.782837 -0.231894 0.000000
75.89360046 242.85899353 49.60029984 0.901153 0.294465 0.318141 0.000000
177.54499817 211.12199402 131.20100403 0.557349 0.169759 -0.812738 0.000000
179.84500122 167.42599487 115.20099640 0.538450 -0.599215 -0.592464 0.000000
125.10900116 197.78300476 197.60099792 0.001334 0.500299 -0.865851 0.000000
157.30700684 248.37899780 208.80099487 -0.327684 0.791237 -0.516302 0.000000
144.42799377 226.30099487 213.60099792 -0.143372 0.315418 -0.938060 0.000000
86.01270294 236.41999817 174.40100098 0.983446 0.014953 -0.180586 0.000000
118.66999817 295.29501343 95.20059967 -0.659141 -0.588698 0.467940 0.000000
167.42599487 250.21899414 205.60099792 -0.729959 0.055930 -0.681199 0.000000
97.05180359 311.85400391 174.40100098 0.840181 -0.501081 -0.207396 0.000000
136.14799500 340.83099365 156.80099487 -0.175766 -0.861105 0.477079 0.000000
181.22500610 266.77700806 116.00099945 -0.755705 -0.653621 0.041117 0.000000
180.30499268 190.42399597 189.60099792 -0.241709 0.353042 -0.903846 0.000000
137.06799316 320.13299561 194.40100098 -0.211622 -0.386758 -0.897571 0.000000
142.58799744 183.98399353 186.40100098 0.774790 0.360706 -0.519222 0.000000
159.14599609 238.25999451 208.80099487 -0.261504 0.110586 -0.958847 0.000000
179.38499451 232.27999878 128.00100708 -0.070346 -0.618761 -0.782424 0.000000
126.02899933 216.18200684 210.40100098 -0.247050 0.608970 -0.753738 0.000000
76.35350037 261.25799561 48.80030060 0.914257 -0.295062 0.277620 0.000000
160.06599426 173.86500549 92.00060272 0.802576 -0.281137 -0.526150 0.000000
142.58799744 321.97299194 192.80099487 0.054984 -0.570985 -0.819117 0.000000
100.27100372 185.36399841 83.20050049 0.665343 0.662073 0.344932 0.000000
190.88400269 136.14799500 139.20100403 0.747203 0.107586 0.655829 0.000000
273.21701050 187.66400146 173.60099792 -0.635587 0.258356 -0.727517 0.000000
149.48699951 287.93600464 120.00099945 -0.482183 -0.579627 0.656911 0.000000
97.05180359 183.98399353 120.00099945 0.761759 0.620749 -0.185458 0.000000
114.52999878 177.54499817 168.00100708 0.340685 0.836799 -0.428604 0.000000
118.66999817 181.22500610 69.60040283 0.361133 0.599709 0.714095 0.000000
258.49798584 206.06300354 178.40100098 -0.000978 -0.000978 -0.999999 0.000000
224.46099854 252.51899719 168.00100708 -0.448825 -0.689089 -0.568957 0.000000
227.22099304 182.14500427 181.60099792 -0.195645 -0.069266 -0.978226 0.000000
95.67189789 286.09600830 42.40029907 0.325014 -0.871283 0.367739 0.000000
149.94700623 160.98599243 170.40100098 0.295691 0.596176 -0.746419 0.000000
195.02299500 242.85899353 157.60099792 -0.504303 -0.837476 -0.210505 0.000000
114.06999969 259.41799927 208.80099487 0.000978 0.000978 -0.999999 0.000000
199.62300110 241.93899536 141.60099792 0.192255 -0.947642 -0.254977 0.000000
110.39099884 298.05499268 88.80059814 -0.555677 -0.575945 0.599591 0.000000
114.98999786 334.85198975 165.60099792 0.516100 -0.847567 -0.123573 0.000000
258.49798584 156.84700012 174.40100098 -0.348961 0.408426 -0.843454 0.000000
170.18600464 298.97500610 194.40100098 -0.470136 -0.235829 -0.850504 0.000000
225.38099670 232.74000549 165.60099792 0.856560 -0.402815 0.322560 0.000000
190.88400269 268.61700439 169.60099792 0.112875 0.970216 0.214335 0.000000
222.62100220 140.74800110 178.40100098 -0.001244 0.329630 -0.944109 0.000000
92.91210175 293.91500854 67.20040131 0.305493 -0.925004 0.225923 0.000000
124.64900208 297.13500977 105.60099792 -0.524195 -0.713903 0.464287 0.000000
105.33100128 178.46499634 88.00050354 0.677912 0.696786 0.234359 0.000000
170.64599609 198.70300293 94.40059662 0.651417 0.070775 -0.755412 0.000000
110.39099884 292.07501221 76.80049896 -0.766700 -0.594231 0.243023 0.000000
82.33300018 284.25601196 168.00100708 0.862990 -0.501674 0.059756 0.000000
102.11100006 212.50199890 50.40029907 0.314981 0.612193 0.725263 0.000000
121.43000031 201.46299744 200.80099487 0.443498 0.556448 -0.702620 0.000000
177.54499817 316.45300293 183.20100403 -0.325725 -0.399823 -0.856764 0.000000
174.32499695 160.06599426 115.20099640 0.617108 -0.542717 -0.569768 0.000000
256.19799805 137.98800659 148.80099487 -0.289423 0.156261 0.944361 0.000000
143.50799561 142.12800598 115.20099640 0.500039 0.820937 0.275723 0.000000
265.85699463 171.10499573 151.20100403 -0.604768 -0.151567 0.781846 0.000000
173.40499878 165.58599854 177.60099792 0.203677 0.302004 -0.931295 0.000000
95.21189880 220.78100586 198.40100098 0.774507 0.277175 -0.568606 0.000000
183.98399353 303.11401367 182.40100098 -0.530251 -0.343294 -0.775231 0.000000
139.36799622 264.01800537 68.80039978 -0.531599 -0.759195 0.375533 0.000000
173.86500549 183.98399353 100.00099945 0.758805 -0.316035 -0.569505 0.000000
221.24099731 258.49798584 156.80099487 0.845571 0.527238 0.083847 0.000000
202.38299561 218.02200317 132.00100708 -0.020673 -0.571952 -0.820027 0.000000
114.98999786 214.80200195 206.40100098 0.284177 0.510263 -0.811711 0.000000
189.04400635 249.29899597 128.00100708 0.164159 -0.945613 -0.280835 0.000000
70.83399963 244.23899841 73.60050201 0.979252 0.139540 0.146950 0.000000
162.82600403 241.02000427 109.60099792 0.524893 0.133051 0.840705 0.000000
182.14500427 232.74000549 127.20099640 0.227681 -0.571526 -0.788365 0.000000
190.88400269 279.65600586 182.40100098 -0.572495 -0.324145 -0.753113 0.000000
197.78300476 169.26600647 125.60099792 0.178286 0.123428 0.976207 0.000000
192.26400757 137.98800659 138.40100098 -0.090745 0.453725 0.886509 0.000000
242.85899353 134.30900574 170.40100098 -0.368790 0.588424 -0.719549 0.000000
194.10400391 246.99899292 169.60099792 -0.732534 -0.631276 0.254725 0.000000
189.96400452 194.10400391 123.20099640 0.870416 0.463734 0.165306 0.000000
103.95099640 176.16499329 126.40100098 0.778783 0.623315 -0.070537 0.000000
91.99220276 200.54299927 159.20100403 0.909489 0.373822 -0.181898 0.000000
195.94299316 240.10000610 120.80100250 -0.590321 -0.499503 0.634049 0.000000
247.45899963 210.66200256 178.40100098 -0.000978 -0.000978 -0.999999 0.000000
121.43000031 286.55599976 88.00050354 -0.669340 -0.478100 0.568687 0.000000
221.70100403 256.65798950 154.40100098 0.795673 0.544573 -0.265224 0.000000
236.41999817 173.86500549 180.00100708 -0.000978 -0.000978 -0.999999 0.000000
210.66200256 225.84100342 190.40100098 -0.706861 -0.272852 -0.652610 0.000000
226.30099487 236.41999817 167.20100403 0.864927 -0.351809 0.357954 0.000000
132.46899414 259.87799072 38.40019989 -0.834588 -0.443130 0.327259 0.000000
199.62300110 165.58599854 181.60099792 -0.028895 0.307792 -0.951015 0.000000
113.15000153 334.39199829 156.80099487 0.473792 -0.871260 0.128169 0.000000
184.90400696 250.21899414 122.40100098 -0.655302 -0.718160 0.234149 0.000000
160.98599243 219.40100098 105.60099792 0.607761 0.693407 -0.387056 0.000000
157.30700684 231.82000732 98.40059662 0.864677 -0.492682 0.097968 0.000000
249.29899597 151.78700256 176.80099487 -0.435160 0.305077 -0.847091 0.000000
221.70100403 227.22099304 172.00100708 0.305998 -0.794327 0.524795 0.000000
180.76499939 269.53698730 128.00100708 -0.779478 -0.484541 0.397032 0.000000
191.34399414 133.38900757 168.80099487 0.189050 0.818208 -0.542951 0.000000
163.74600220 282.41598511 199.20100403 -0.333574 -0.200145 -0.921233 0.000000
174.32499695 290.69500732 193.60099792 -0.534128 -0.243067 -0.809707 0.000000
206.98199463 135.68800354 174.40100098 0.012491 0.634246 -0.773031 0.000000
150.86700439 325.19198608 190.40100098 -0.410146 -0.616049 -0.672506 0.000000
90.15239716 285.63598633 49.60029984 0.576229 -0.723980 0.379228 0.000000
270.45700073 165.58599854 151.20100403 -0.266331 -0.392725 0.880247 0.000000
114.98999786 166.04600525 131.20100403 0.687365 0.726247 -0.009720 0.000000
126.94899750 289.77499390 101.60099792 -0.621279 -0.783230 0.023734 0.000000
102.57099915 185.82400513 80.00050354 0.675209 0.608850 0.416407 0.000000
160.06599426 296.67498779 134.40100098 -0.441425 -0.568022 0.694619 0.000000
221.70100403 229.97999573 175.20100403 -0.229331 -0.845943 0.481443 0.000000
172.94500732 188.12399292 190.40100098 -0.198456 0.316686 -0.927537 0.000000
210.66200256 114.98999786 149.60099792 0.140314 0.984594 0.104336 0.000000
151.78700256 265.39700317 84.80049896 -0.347566 -0.831955 0.432491 0.000000
160.06599426 242.39900208 118.40100098 -0.418048 -0.889991 -0.182077 0.000000
131.54899597 305.87399292 121.60099792 -0.526406 -0.526406 0.667678 0.000000
95.67189789 306.79400635 105.60099792 0.433694 -0.865876 0.249336 0.000000
163.28599548 135.22900391 140.80099487 0.552657 0.829699 -0.078543 0.000000
98.89160156 218.94099426 44.80030060 0.437109 0.706355 0.556774 0.000000
211.58200073 242.85899353 127.20099640 0.274413 0.762963 -0.585308 0.000000
82.33300018 292.53500366 110.40100098 0.833807 -0.550784 0.037459 0.000000
196.40299988 245.61900330 182.40100098 -0.934776 -0.220030 -0.278891 0.000000
115.44999695 283.33599854 62.40039825 -0.699630 -0.560036 0.443708 0.000000
154.54699707 213.42199707 88.80059814 0.628778 0.145564 -0.763838 0.000000
183.52400208 264.01800537 118.40100098 -0.800852 -0.596016 -0.058321 0.000000
180.76499939 285.17599487 145.60099792 -0.289441 -0.098227 0.952143 0.000000
202.38299561 240.10000610 175.20100403 -0.556497 -0.829864 0.040447 0.000000
172.02499390 217.10200500 200.80099487 0.169504 0.269850 -0.947866 0.000000
234.11999512 182.14500427 180.80099487 -0.461929 -0.076295 -0.883629 0.000000
217.10200500 248.37899780 138.40100098 0.718905 0.483144 -0.499747 0.000000
111.31099701 288.85501099 199.20100403 0.447955 -0.447955 -0.773740 0.000000
90.15239716 239.63999939 195.20100403 0.982534 -0.050964 -0.178966 0.000000
95.67189789 298.05499268 77.60050201 0.083180 -0.992461 -0.090017 0.000000
143.04800415 284.25601196 110.40100098 -0.487638 -0.779249 0.393675 0.000000
158.22700500 221.70100403 104.80100250 0.266737 0.585559 0.765488 0.000000
102.57099915 323.81298828 156.80099487 0.654738 -0.654738 0.377670 0.000000
124.64900208 311.85400391 120.00099945 -0.678298 -0.362963 0.638881 0.000000
180.76499939 198.70300293 107.20099640 0.768470 0.375299 -0.518270 0.000000
93.83200073 311.85400391 151.20100403 0.826496 -0.561683 -0.037631 0.000000
225.38099670 160.98599243 184.80099487 -0.238659 0.211384 -0.947818 0.000000
140.28799438 241.02000427 43.20029831 -0.767121 -0.155233 0.622438 0.000000
190.42399597 250.67900085 168.00100708 -0.595927 -0.786021 0.164446 0.000000
137.52799988 197.78300476 68.80039978 0.999999 0.000978 0.000978 0.000000
91.99220276 307.71398926 120.00099945 0.708486 -0.705724 0.001381 0.000000
126.94899750 298.97500610 200.80099487 0.217799 -0.101975 -0.970652 0.000000
252.05900574 198.70300293 178.40100098 -0.000978 -0.000978 -0.999999 0.000000
196.86300659 126.48899841 161.60099792 0.179616 0.710789 -0.680086 0.000000
101.19100189 271.37701416 197.60099792 0.312151 -0.077058 -0.946902 0.000000
218.94099426 208.36199951 148.80099487 0.313277 -0.796710 0.516828 0.000000
76.81349945 274.13699341 144.00100708 0.984318 -0.173156 -0.033702 0.000000
177.54499817 233.19999695 105.60099792 0.291910 -0.943615 0.156138 0.000000
188.58399963 250.21899414 124.00099945 0.124904 -0.944167 -0.304873 0.000000
259.41799927 133.84899902 150.40100098 -0.257447 0.210639 0.943055 0.000000
186.74400330 266.77700806 157.60099792 -0.857970 0.237568 0.455466 0.000000
79.57319641 244.69900513 160.00100708 0.948041 0.316014 -0.036805 0.000000
178.46499634 197.78300476 192.80099487 -0.219868 0.399893 -0.889800 0.000000
167.88600159 310.01400757 190.40100098 -0.411521 -0.367373 -0.834079 0.000000
159.14599609 241.93899536 125.60099792 0.001323 -0.879960 -0.475046 0.000000
145.34800720 153.16700745 156.80099487 0.284670 0.854009 -0.435468 0.000000
183.06399536 198.70300293 111.20099640 0.793553 0.412130 -0.447686 0.000000
139.82800293 171.10499573 175.20100403 0.167879 0.588334 -0.790999 0.000000
114.98999786 297.13500977 92.00060272 -0.629885 -0.528563 0.569092 0.000000
169.26600647 300.81399536 144.80099487 -0.618152 -0.434873 0.654808 0.000000
263.55801392 175.70500183 176.00100708 -0.536889 -0.063412 -0.841267 0.000000
103.95099640 321.05300903 180.00100708 0.702007 -0.505245 -0.501910 0.000000
166.50599670 240.10000610 117.60099792 -0.113954 -0.759199 -0.640805 0.000000
255.73800659 182.14500427 178.40100098 0.000978 0.000978 -0.999999 0.000000
80.49320221 288.85501099 107.20099640 0.809503 -0.573582 0.125333 0.000000
168.80599976 155.46699524 110.40100098 0.623672 -0.311030 -0.717142 0.000000
263.09799194 138.90800476 162.40100098 -0.411916 0.567418 -0.712995 0.000000
132.46899414 169.26600647 170.40100098 0.449728 0.670412 -0.590163 0.000000
126.02899933 156.38699341 103.20099640 0.539221 0.797041 0.271969 0.000000
256.65798950 128.78900146 151.20100403 -0.859237 0.491618 0.141504 0.000000
167.42599487 232.27999878 94.40059662 -0.164790 -0.974903 0.149695 0.000000
191.80400085 287.93600464 168.00100708 -0.874296 -0.403173 0.270292 0.000000
147.18800354 229.06100464 68.00039673 0.307094 -0.906590 0.289462 0.000000
127.86900330 152.24699402 113.60099792 0.707106 0.707106 0.001384 0.000000
183.98399353 196.40299988 110.40100098 0.794745 0.446540 -0.411075 0.000000
94.75199890 288.85501099 188.00100708 0.691204 -0.152761 -0.706329 0.000000
87.39260101 199.16299438 94.40059662 0.881789 0.471093 -0.022816 0.000000
205.14300537 190.88400269 187.20100403 0.019576 0.173883 -0.984572 0.000000
186.74400330 257.57800293 144.80099487 -0.810368 -0.452336 0.372418 0.000000
157.30700684 191.34399414 87.20050049 0.399807 -0.001286 -0.916599 0.000000
183.06399536 226.30099487 199.20100403 -0.069570 -0.261838 -0.962601 0.000000
205.60299683 214.34199524 145.60099792 0.390263 -0.902934 0.180011 0.000000
192.26400757 259.41799927 178.40100098 0.173169 -0.031380 -0.984392 0.000000
112.23000336 166.96600342 121.60099792 0.658713 0.748472 -0.076729 0.000000
169.26600647 143.96800232 163.20100403 0.466079 0.728145 -0.502569 0.000000
100.73100281 321.97299194 150.40100098 0.744734 -0.667359 -0.001382 0.000000
93.83200073 203.30299377 181.60099792 0.887934 0.385218 -0.251358 0.000000
121.43000031 185.36399841 182.40100098 0.049950 0.746398 -0.663623 0.000000
89.69239807 302.65399170 164.80099487 0.887494 -0.443035 -0.126785 0.000000
157.30700684 312.31399536 144.00100708 -0.185371 -0.418909 0.888905 0.000000
165.58599854 176.62500000 96.80059814 0.507563 -0.428718 -0.747382 0.000000
183.06399536 264.01800537 146.40100098 -0.851006 -0.138672 0.506516 0.000000
113.15000153 279.19601440 35.20019913 -0.609752 -0.761803 0.218766 0.000000
103.03099823 299.89498901 191.20100403 0.629140 -0.336517 -0.700670 0.000000
185.82400513 282.41598511 148.00100708 -0.856971 -0.221397 0.465385 0.000000
146.26800537 291.15499878 120.00099945 -0.438039 -0.530606 0.725658 0.000000
278.73599243 166.50599670 164.00100708 -0.276613 0.363335 -0.889648 0.000000
188.58399963 173.86500549 183.20100403 0.100148 0.329819 -0.938717 0.000000
89.69239807 300.81399536 99.20059967 0.665818 -0.709684 0.230295 0.000000
103.03099823 178.92500305 134.40100098 0.757706 0.610852 -0.229655 0.000000
88.31250000 198.24299622 110.40100098 0.877621 0.421675 -0.227973 0.000000
214.34199524 115.91000366 146.40100098 0.532310 0.292218 0.794516 0.000000
83.71289825 262.17800903 34.40019989 0.830300 -0.291306 0.475125 0.000000
282.41598511 163.74600220 154.40100098 -0.001334 0.500299 0.865851 0.000000
187.20399475 284.25601196 152.00100708 -0.817398 -0.173114 0.549448 0.000000
105.79100037 213.88200378 48.00030136 0.133073 0.758069 0.638453 0.000000
89.23239899 294.83499146 80.00050354 0.557066 -0.784311 0.273010 0.000000
182.60499573 248.37899780 115.20099640 -0.833730 -0.069360 0.547799 0.000000
110.85099792 328.41198730 177.60099792 0.433694 -0.865876 0.249336 0.000000
92.45220184 206.98199463 180.80099487 0.933603 0.270955 -0.234454 0.000000
238.25999451 201.46299744 180.00100708 -0.026929 -0.080787 -0.996368 0.000000
189.04400635 192.26400757 131.20100403 0.982002 0.105605 0.156586 0.000000
179.38499451 228.14100647 132.00100708 0.061796 -0.460039 -0.885746 0.000000
261.25799561 207.90199280 178.40100098 0.000978 0.000978 -0.999999 0.000000
86.01270294 218.02200317 147.20100403 0.967470 0.248354 0.048188 0.000000
87.39260101 212.50199890 148.00100708 0.975002 0.220778 -0.025061 0.000000
94.75199890 242.85899353 23.20009995 0.446663 0.070092 0.891952 0.000000
145.34800720 162.36599731 169.60099792 0.344821 0.681472 -0.645519 0.000000
151.78700256 270.91699219 96.00060272 -0.432405 -0.768539 0.471566 0.000000
126.02899933 328.41198730 135.20100403 0.030966 -0.987456 0.154828 0.000000
224.46099854 211.58200073 152.80099487 0.066064 -0.912758 0.403123 0.000000
170.64599609 242.85899353 80.00050354 -0.763508 0.205145 0.612349 0.000000
187.20399475 171.10499573 132.80099487 -0.231802 -0.856003 0.462090 0.000000
151.32699585 141.66799927 139.20100403 0.407086 0.881274 -0.240076 0.000000
77.73339844 246.53900146 145.60099792 0.936985 0.103216 -0.333776 0.000000
200.54299927 118.20999908 147.20100403 0.349109 0.576436 0.738813 0.000000
104.87100220 225.84100342 35.20019913 0.032297 0.770919 0.636114 0.000000
201.46299744 120.51000214 144.80099487 0.075275 0.538290 0.839391 0.000000
89.69239807 306.33401489 144.00100708 0.861627 -0.507237 -0.017584 0.000000
237.33999634 157.30700684 136.80099487 0.090745 -0.453725 0.886509 0.000000
248.37899780 200.54299927 178.40100098 -0.000978 -0.000978 -0.999999 0.000000
137.98800659 329.33200073 188.00100708 0.009577 -0.565050 -0.825001 0.000000
81.41310120 268.61700439 168.00100708 0.987769 0.040247 -0.150638 0.000000
208.82200623 216.64199829 132.80099487 -0.296397 -0.744998 -0.597601 0.000000
177.54499817 302.65399170 186.40100098 -0.537145 -0.483598 -0.691093 0.000000
91.53220367 291.61499023 182.40100098 0.755544 -0.431037 -0.493316 0.000000
88.31250000 255.73800659 186.40100098 0.791541 0.116446 -0.599920 0.000000
169.72599792 293.45498657 139.20100403 -0.660062 -0.508903 0.552571 0.000000
76.81349945 232.74000549 115.20099640 0.954597 0.263474 -0.139019 0.000000
108.09100342 287.01599121 52.80030060 -0.489914 -0.810182 0.321853 0.000000
215.26199341 183.06399536 184.80099487 -0.079586 0.109575 -0.990787 0.000000
108.55100250 288.39599609 62.40039825 -0.654738 -0.654738 0.377670 0.000000
109.47100067 315.53298950 112.80100250 -0.034328 -0.858197 0.512172 0.000000
172.94500732 232.74000549 128.80099487 -0.032495 -0.685223 -0.727608 0.000000
76.81349945 253.89799500 43.20029831 0.785555 -0.103863 0.610012 0.000000
203.30299377 162.82600403 127.20099640 -0.053196 0.451484 0.890692 0.000000
222.62100220 229.97999573 168.80099487 0.965488 -0.232694 0.116990 0.000000
215.26199341 259.41799927 168.80099487 -0.001378 0.657235 0.753685 0.000000
156.38699341 184.90400696 186.40100098 -0.195307 0.525360 -0.828162 0.000000
171.10499573 278.27600098 120.00099945 -0.398518 -0.795423 0.456602 0.000000
108.55100250 186.28399658 179.20100403 0.342804 0.826206 -0.447067 0.000000
188.58399963 177.54499817 184.80099487 0.082219 0.458474 -0.884896 0.000000
98.43170166 212.50199890 52.00030136 0.405770 0.624389 0.667450 0.000000
207.90199280 240.10000610 165.60099792 0.176507 -0.984055 0.021919 0.000000
88.77249908 292.53500366 72.00050354 0.581702 -0.787370 0.204133 0.000000
183.98399353 163.74600220 120.80100250 0.426928 -0.456148 -0.780808 0.000000
114.06999969 192.72399902 190.40100098 0.212824 0.846769 -0.487533 0.000000
82.33300018 290.69500732 97.60060120 0.840450 -0.540389 0.040286 0.000000
149.02699280 280.57598877 109.60099792 -0.340688 -0.791739 0.507033 0.000000
178.00500488 274.13699341 126.40100098 -0.801188 -0.478154 0.359815 0.000000
196.86300659 273.67700195 155.20100403 -0.939051 0.278803 0.201126 0.000000
84.17289734 263.09799194 33.60020065 0.830300 -0.291306 0.475125 0.000000
223.54100037 229.52099609 166.40100098 0.979345 -0.190058 0.069002 0.000000
239.17999268 169.26600647 138.40100098 -0.500299 0.001334 0.865851 0.000000
96.59179688 197.78300476 183.20100403 0.520309 0.638178 -0.567457 0.000000
200.54299927 184.90400696 143.20100403 0.566517 -0.234367 -0.790019 0.000000
198.24299622 255.73800659 184.00100708 -0.839221 0.117811 -0.530876 0.000000
173.86500549 272.29699707 111.20099640 -0.445421 -0.799185 0.403613 0.000000
149.48699951 229.97999573 57.60039902 -0.868013 0.288321 0.404259 0.000000
197.32299805 243.77900696 182.40100098 -0.902055 -0.239081 -0.359355 0.000000
276.89700317 153.62699890 157.60099792 -0.556740 0.793784 -0.244841 0.000000
183.98399353 307.25399780 167.20100403 -0.849417 -0.489875 0.196250 0.000000
119.58999634 327.95199585 134.40100098 0.095068 -0.753231 0.650850 0.000000
200.54299927 255.73800659 180.00100708 -0.901707 0.293682 -0.317295 0.000000
99.81150055 179.38499451 102.40100098 0.671804 0.728661 0.133164 0.000000
189.04400635 248.37899780 128.00100708 0.164159 -0.945613 -0.280835 0.000000
172.02499390 264.01800537 101.60099792 -0.597058 -0.657265 0.459918 0.000000
153.62699890 293.45498657 200.80099487 -0.116040 -0.223154 -0.967852 0.000000
149.94700623 254.81799316 68.00039673 0.001333 -0.867668 -0.497143 0.000000
163.28599548 233.66000366 100.80100250 -0.316681 -0.942026 0.110905 0.000000
106.25099945 178.46499634 86.40049744 0.619788 0.698284 0.358136 0.000000
102.57099915 284.25601196 196.80099487 0.493082 -0.580592 -0.647907 0.000000
103.03099823 311.85400391 108.00099945 0.262472 -0.848812 0.458942 0.000000
100.27100372 224.46099854 37.60020065 0.085526 0.778432 0.621876 0.000000
85.09279633 298.97500610 132.80099487 0.880069 -0.474297 -0.022841 0.000000
146.26800537 339.45098877 159.20100403 -0.377071 -0.781653 0.496827 0.000000
81.41310120 245.61900330 36.80020142 0.794796 0.193741 0.575121 0.000000
202.38299561 165.58599854 181.60099792 0.198383 0.258582 -0.945399 0.000000
177.54499817 281.95599365 140.80099487 -0.472118 -0.626691 0.619970 0.000000
87.85250092 286.09600830 52.80030060 0.593928 -0.709094 0.380048 0.000000
228.14100647 212.50199890 181.60099792 -0.001286 -0.399807 -0.916599 0.000000
132.46899414 150.86700439 104.80100250 0.458536 0.864797 0.204624 0.000000
205.60299683 244.69900513 153.60099792 -0.113572 0.615061 0.780257 0.000000
178.00500488 235.50000000 121.60099792 -0.296923 -0.954837 0.011088 0.000000
167.42599487 246.53900146 205.60099792 -0.366846 0.059596 -0.928371 0.000000
152.24699402 150.86700439 160.00100708 0.377408 0.680652 -0.627914 0.000000
182.14500427 235.03999329 120.00099945 -0.063331 -0.997202 0.039716 0.000000
187.66400146 252.97900391 172.00100708 -0.701670 -0.698665 -0.139733 0.000000
110.85099792 168.34599304 123.20099640 0.658713 0.748472 -0.076729 0.000000
147.64700317 149.94700623 152.00100708 0.503023 0.804520 -0.315778 0.000000
88.77249908 199.62300110 84.80049896 0.832514 0.497046 0.244676 0.000000
129.70899963 157.76699829 142.40100098 0.555771 0.808532 -0.193378 0.000000
106.71099854 310.47399902 104.00099945 0.033432 -0.899994 0.434618 0.000000
175.70500183 171.10499573 108.00099945 0.545197 -0.406839 -0.732969 0.000000
81.87310028 291.15499878 126.40100098 0.935843 -0.352362 0.006315 0.000000
264.93798828 143.50799561 151.20100403 -0.663323 0.206609 0.719247 0.000000
84.17289734 294.37500000 150.40100098 0.906772 -0.411419 0.092191 0.000000
73.13379669 253.89799500 57.60039902 0.973138 -0.032559 0.227910 0.000000
110.39099884 167.88600159 115.20099640 0.708486 0.705724 -0.001381 0.000000
93.37210083 302.65399170 96.00060272 0.560562 -0.808357 0.179803 0.000000
175.70500183 310.93399048 184.80099487 -0.447955 -0.447955 -0.773740 0.000000
101.65100098 242.85899353 208.00100708 0.784134 -0.331934 -0.524360 0.000000
84.63279724 287.47601318 64.00039673 0.871567 -0.480425 0.097786 0.000000
171.56500244 243.77900696 81.60050201 -0.763508 0.205145 0.612349 0.000000
77.73339844 252.05900574 148.80099487 0.967518 0.204841 -0.148155 0.000000
138.90800476 343.59100342 163.20100403 -0.032820 -0.920272 0.389901 0.000000
83.71289825 240.10000610 167.20100403 0.813279 0.453590 -0.364464 0.000000
123.26999664 167.88600159 86.40049744 0.556981 0.715646 0.421454 0.000000
196.40299988 245.61900330 190.40100098 -0.913466 -0.331511 0.235967 0.000000
199.62300110 212.04200745 142.40100098 0.876330 -0.136702 -0.461908 0.000000
160.98599243 333.01199341 162.40100098 -0.589538 -0.586160 0.555754 0.000000
109.93099976 314.61300659 112.00099945 -0.036823 -0.874207 0.484155 0.000000
116.83000183 215.72200012 208.00100708 0.306967 0.453439 -0.836758 0.000000
143.50799561 287.93600464 204.00100708 0.083597 -0.415243 -0.905861 0.000000
107.17099762 252.05900574 208.00100708 0.510647 0.107883 -0.852996 0.000000
83.25289917 291.61499023 91.20059967 0.837093 -0.537411 0.102295 0.000000
225.38099670 250.67900085 155.20100403 0.920358 0.322054 -0.221859 0.000000
152.70700073 176.62500000 84.00050354 0.713471 -0.104879 -0.692791 0.000000
149.02699280 270.45700073 92.00060272 -0.451082 -0.756178 0.474046 0.000000
191.34399414 255.27799988 155.20100403 -0.903086 -0.363277 -0.229054 0.000000
219.86099243 207.44200134 147.20100403 0.333445 -0.851447 0.404786 0.000000
138.90800476 154.54699707 92.00060272 0.271288 0.798183 0.537872 0.000000
86.93260193 222.62100220 172.80099487 0.867668 -0.001333 -0.497143 0.000000
95.67189789 248.83900452 196.80099487 0.635344 -0.551081 -0.540969 0.000000
159.14599609 331.63198853 182.40100098 -0.067244 -0.270243 -0.960441 0.000000
136.14799500 210.20199585 60.80039978 -0.000978 -0.000978 -0.999999 0.000000
97.05180359 248.37899780 198.40100098 0.701679 -0.481675 -0.525009 0.000000
184.90400696 163.74600220 130.40100098 0.424444 -0.731630 0.533446 0.000000
266.77700806 200.54299927 156.00100708 -0.763861 -0.395774 0.509784 0.000000
103.49099731 176.62500000 124.80100250 0.778783 0.623315 -0.070537 0.000000
146.26800537 187.66400146 189.60099792 0.231788 0.385329 -0.893194 0.000000
165.58599854 308.17401123 192.80099487 -0.461643 -0.368995 -0.806677 0.000000
72.21389771 238.25999451 73.60050201 0.978520 0.193273 0.071718 0.000000
252.97900391 200.54299927 151.20100403 -0.506310 -0.476429 0.718794 0.000000
193.18400574 252.51899719 190.40100098 -0.648985 -0.162626 -0.743217 0.000000
126.94899750 314.61300659 125.60099792 -0.660152 -0.442887 0.606672 0.000000
84.63279724 227.22099304 159.20100403 0.971759 0.201447 -0.122895 0.000000
97.05180359 276.89700317 195.20100403 0.448456 -0.223478 -0.865416 0.000000
222.62100220 199.16299438 136.00100708 0.185825 -0.545388 0.817326 0.000000
89.69239807 257.57800293 24.00020027 0.520612 -0.071954 0.850756 0.000000
188.12399292 275.05700684 142.40100098 -0.544255 -0.099612 0.832985 0.000000
151.78700256 316.45300293 194.40100098 -0.283504 -0.271991 -0.919590 0.000000
91.07230377 294.83499146 73.60050201 0.568459 -0.786498 0.241401 0.000000
181.68499756 133.38900757 139.20100403 0.969672 0.099615 -0.223188 0.000000
126.02899933 222.62100220 212.00100708 0.047812 0.332101 -0.942031 0.000000
118.66999817 292.53500366 200.80099487 0.108805 -0.326414 -0.938944 0.000000
191.34399414 161.90600586 180.00100708 0.027000 0.196045 -0.980223 0.000000
165.58599854 173.40499878 180.80099487 -0.069576 0.560870 -0.824975 0.000000
82.33300018 283.33599854 166.40100098 0.985318 -0.062392 -0.158922 0.000000
188.12399292 124.18900299 152.00100708 0.692291 0.720605 -0.038225 0.000000
166.96600342 189.50399780 92.80059814 0.363654 -0.059507 -0.929631 0.000000
119.12999725 291.61499023 89.60060120 -0.669340 -0.478100 0.568687 0.000000
77.73339844 242.85899353 136.00100708 0.970221 0.139333 -0.198135 0.000000
84.63279724 287.93600464 170.40100098 0.838192 -0.181433 -0.514311 0.000000
177.54499817 160.98599243 119.20099640 0.604492 -0.453787 -0.654727 0.000000
150.40699768 230.89999390 120.00099945 0.952373 -0.233703 -0.195878 0.000000
72.67379761 244.69900513 58.40039825 0.958730 0.080641 0.272643 0.000000
72.21389771 251.13900757 62.40039825 0.985315 -0.067261 0.156942 0.000000
97.51170349 296.67498779 72.00050354 -0.064403 -0.960991 0.268977 0.000000
157.76699829 233.66000366 104.00099945 0.834400 -0.536296 0.127133 0.000000
92.45220184 297.13500977 80.00050354 0.509738 -0.755593 0.411396 0.000000
106.71099854 199.62300110 192.80099487 0.397236 0.720300 -0.568658 0.000000
103.49099731 188.58399963 176.00100708 0.643203 0.733532 -0.219592 0.000000
94.29199982 186.74400330 115.20099640 0.848939 0.502252 -0.164454 0.000000
191.34399414 161.90600586 130.40100098 0.029592 0.739807 0.672168 0.000000
122.34999847 260.33801270 23.20009995 -0.639978 -0.333831 0.692088 0.000000
184.90400696 184.90400696 186.40100098 -0.003604 0.263116 -0.964758 0.000000
188.58399963 158.22700500 180.00100708 -0.000978 -0.000978 -0.999999 0.000000
117.75000000 256.65798950 208.80099487 0.344660 -0.130449 -0.929620 0.000000
202.84300232 270.45700073 158.40100098 -0.371059 -0.903637 -0.213904 0.000000
227.22099304 126.94899750 168.80099487 0.087324 0.831724 -0.548279 0.000000
74.05370331 263.09799194 108.80100250 -0.001209 -0.960928 -0.276796 0.000000
237.33999634 195.94299316 180.00100708 -0.000978 -0.000978 -0.999999 0.000000
201.92300415 260.33801270 179.20100403 -0.592751 -0.032078 -0.804747 0.000000
218.02200317 194.56399536 185.60099792 -0.240292 -0.079259 -0.967459 0.000000
90.61229706 262.17800903 24.00020027 0.636072 -0.052650 0.769832 0.000000
134.30900574 221.70100403 212.00100708 0.037385 0.346778 -0.937202 0.000000
241.02000427 215.26199341 157.60099792 -0.152127 -0.760636 0.631102 0.000000
179.38499451 285.17599487 144.80099487 -0.442989 -0.459335 0.769917 0.000000
197.78300476 122.34999847 157.60099792 0.155423 0.759009 -0.632256 0.000000
202.38299561 243.77900696 133.60099792 -0.120198 -0.977694 -0.172243 0.000000
133.38900757 327.95199585 188.80099487 0.098200 -0.634636 -0.766547 0.000000
241.02000427 151.78700256 138.40100098 -0.393938 -0.130378 0.909843 0.000000
155.46699524 335.31201172 160.00100708 -0.362963 -0.678298 0.638881 0.000000
281.95599365 192.26400757 171.20100403 -0.866983 -0.494027 0.065406 0.000000
207.44200134 241.93899536 124.80100250 0.151401 0.786984 -0.598108 0.000000
276.89700317 198.70300293 175.20100403 -0.179801 0.225084 -0.957606 0.000000
191.34399414 291.61499023 172.00100708 -0.874296 -0.403173 0.270292 0.000000
104.41100311 319.21301270 124.80100250 0.528363 -0.823759 0.205559 0.000000
89.69239807 228.14100647 187.20100403 0.918022 0.384447 -0.097138 0.000000
142.58799744 321.05300903 141.60099792 -0.541455 -0.390960 0.744296 0.000000
173.40499878 236.41999817 115.20099640 -0.475127 -0.844840 0.245966 0.000000
242.85899353 214.34199524 178.40100098 -0.152817 -0.191342 -0.969554 0.000000
101.19100189 230.89999390 208.80099487 0.387615 0.183000 -0.903474 0.000000
160.06599426 242.39900208 116.80100250 -0.409241 -0.909576 -0.072059 0.000000
88.31250000 231.82000732 37.60020065 0.651856 0.510368 0.560899 0.000000
163.28599548 241.02000427 118.40100098 -0.278961 -0.741240 -0.610527 0.000000
282.41598511 188.58399963 165.60099792 -0.871557 0.488455 0.042415 0.000000
170.18600464 307.25399780 148.00100708 -0.233828 -0.701483 0.673235 0.000000
215.26199341 132.46899414 173.60099792 0.117182 0.671942 -0.731275 0.000000
149.94700623 189.04400635 190.40100098 -0.049391 0.401800 -0.914395 0.000000
142.58799744 245.61900330 47.20029831 -0.780890 -0.245691 0.574322 0.000000
92.45220184 194.10400391 120.00099945 0.933557 0.310258 -0.179477 0.000000
75.89360046 269.53698730 129.60099792 0.986263 -0.160716 -0.038156 0.000000
162.82600403 327.49200439 183.20100403 -0.333536 -0.499506 -0.799529 0.000000
103.95099640 174.32499695 112.00099945 0.705724 0.708486 -0.001381 0.000000
228.14100647 202.38299561 181.60099792 -0.001333 -0.867668 -0.497143 0.000000
222.16099548 151.78700256 182.40100098 0.006106 0.284540 -0.958645 0.000000
168.34599304 240.10000610 79.20050049 -0.756814 0.653294 0.020984 0.000000
166.50599670 285.17599487 197.60099792 -0.179321 -0.312770 -0.932748 0.000000
173.86500549 164.66600037 176.80099487 0.203677 0.302004 -0.931295 0.000000
110.39099884 169.72599792 129.60099792 0.569284 0.798218 -0.196884 0.000000
151.78700256 310.93399048 196.00100708 -0.109866 -0.345874 -0.931826 0.000000
149.48699951 246.53900146 57.60039902 -0.755111 -0.344408 0.557844 0.000000
177.54499817 178.46499634 104.80100250 0.307065 -0.492878 -0.814115 0.000000
111.31099701 310.47399902 192.00100708 0.535570 -0.505350 -0.676598 0.000000
106.71099854 187.20399475 72.00050354 0.434921 0.651548 0.621554 0.000000
168.34599304 143.04800415 161.60099792 0.650720 0.583462 -0.485938 0.000000
169.26600647 170.18600464 178.40100098 -0.066541 0.547904 -0.833890 0.000000
91.53220367 268.61700439 24.00020027 0.727551 -0.289421 0.622016 0.000000
85.09279633 225.38099670 166.40100098 0.974473 0.077613 -0.210664 0.000000
163.74600220 306.33401489 143.20100403 -0.478234 -0.455226 0.751041 0.000000
139.82800293 241.93899536 42.40029907 -0.756901 -0.026681 0.652985 0.000000
123.26999664 172.02499390 167.20100403 0.626258 0.716413 -0.307494 0.000000
202.38299561 179.38499451 183.20100403 0.040606 0.086700 -0.995407 0.000000
263.09799194 135.22900391 151.20100403 -0.661564 0.269408 0.699823 0.000000
139.82800293 310.01400757 197.60099792 -0.079318 -0.300369 -0.950519 0.000000
85.09279633 298.05499268 136.00100708 0.882212 -0.464102 -0.079441 0.000000
159.14599609 218.94099426 200.80099487 -0.039844 0.332892 -0.942123 0.000000
175.70500183 257.57800293 101.60099792 -0.514433 0.142165 -0.845664 0.000000
203.76300049 233.66000366 187.20100403 -0.690043 -0.708163 -0.149484 0.000000
225.84100342 225.38099670 139.20100403 0.809231 -0.073046 -0.582932 0.000000
103.49099731 314.61300659 184.00100708 0.637927 -0.431392 -0.637927 0.000000
81.41310120 288.85501099 136.00100708 0.957402 -0.268904 0.105223 0.000000
187.66400146 258.49798584 156.00100708 -0.880226 -0.473342 -0.033907 0.000000
72.67379761 234.58000183 76.00050354 0.982179 0.177819 0.060864 0.000000
183.52400208 218.02200317 134.40100098 0.113890 -0.366370 -0.923473 0.000000
279.65600586 198.70300293 167.20100403 -0.697466 -0.265323 0.665691 0.000000
87.39260101 211.12199402 67.20040131 0.654738 0.654738 0.377670 0.000000
85.09279633 296.21499634 148.80099487 0.894688 -0.446689 -0.001310 0.000000
178.00500488 241.93899536 92.80059814 -0.867668 0.001333 0.497143 0.000000
114.98999786 271.37701416 23.20009995 -0.460571 -0.523754 0.716628 0.000000
149.94700623 139.36799622 112.00099945 -0.001377 0.756234 -0.654300 0.000000
179.38499451 135.22900391 160.80099487 0.498730 0.673370 -0.545749 0.000000
196.86300659 276.89700317 175.20100403 -0.829787 -0.155863 0.535873 0.000000
172.02499390 243.77900696 82.40049744 -0.867668 -0.001333 0.497143 0.000000
87.85250092 243.77900696 180.80099487 0.876005 0.164706 -0.453307 0.000000
269.53698730 198.24299622 158.40100098 -0.775871 -0.329303 0.538130 0.000000
209.28199768 218.94099426 193.60099792 -0.523053 0.249886 -0.814845 0.000000
155.00700378 237.33999634 67.20040131 -0.930596 -0.098597 0.352519 0.000000
199.62300110 263.09799194 180.00100708 -0.721039 -0.573217 -0.389262 0.000000
117.29000092 288.85501099 81.60050201 -0.654738 -0.654738 0.377670 0.000000
241.02000427 217.56199646 161.60099792 -0.144515 -0.856874 0.494856 0.000000
166.50599670 327.49200439 162.40100098 -0.526150 -0.657267 0.539598 0.000000
167.88600159 275.97698975 113.60099792 -0.153081 -0.870374 0.467990 0.000000
137.52799988 206.06300354 67.20040131 0.974976 0.077653 -0.208307 0.000000
120.51000214 159.14599609 108.00099945 0.654738 0.654738 0.377670 0.000000
180.30499268 204.68299866 118.40100098 0.445735 0.892841 0.064460 0.000000
71.75389862 236.88000488 83.20050049 0.979718 0.185287 0.076295 0.000000
110.39099884 306.79400635 100.80100250 -0.340378 -0.769480 0.540410 0.000000
195.02299500 245.61900330 186.40100098 -0.975967 -0.110651 -0.187734 0.000000
100.27100372 199.62300110 189.60099792 0.612775 0.565508 -0.552004 0.000000
269.53698730 189.50399780 154.40100098 -0.374503 -0.233514 0.897340 0.000000
184.90400696 260.33801270 128.80099487 -0.957840 0.146649 0.247057 0.000000
121.88999939 287.93600464 89.60060120 -0.669340 -0.478100 0.568687 0.000000
163.74600220 328.41198730 183.20100403 -0.333536 -0.499506 -0.799529 0.000000
140.28799438 222.62100220 73.60050201 0.956215 -0.286482 -0.059843 0.000000
121.88999939 302.65399170 198.40100098 0.340166 -0.249649 -0.906622 0.000000
120.51000214 158.68699646 108.80100250 0.654738 0.654738 0.377670 0.000000
136.14799500 183.52400208 182.40100098 0.344325 0.435516 -0.831725 0.000000
137.98800659 300.81399536 122.40100098 -0.635142 -0.564383 0.527319 0.000000
156.38699341 203.76300049 198.40100098 -0.203348 0.440836 -0.874250 0.000000
202.38299561 229.06100464 124.00099945 0.043656 -0.604149 -0.795674 0.000000
175.24499512 188.58399963 99.20059967 0.727822 -0.172419 -0.663737 0.000000
260.33801270 168.34599304 176.80099487 -0.000978 -0.000978 -0.999999 0.000000
127.86900330 216.18200684 210.40100098 -0.001182 0.240031 -0.970765 0.000000
129.70899963 281.95599365 92.80059814 -0.391703 -0.735877 0.552317 0.000000
223.08099365 217.10200500 182.40100098 -0.489875 -0.196250 -0.849417 0.000000
72.21389771 266.77700806 89.60060120 0.922845 -0.370505 0.105273 0.000000
129.70899963 158.22700500 93.60060120 0.529418 0.749053 0.398293 0.000000
180.76499939 207.90199280 132.80099487 0.553205 0.127663 -0.823205 0.000000
109.47100067 310.01400757 104.80100250 -0.236508 -0.743982 0.624944 0.000000
175.70500183 233.19999695 128.00100708 -0.110955 -0.696798 -0.708633 0.000000
190.88400269 180.30499268 118.40100098 0.792381 -0.122472 -0.597606 0.000000
134.30900574 311.85400391 128.80099487 -0.548758 -0.439338 0.711230 0.000000
83.25289917 268.61700439 36.80020142 0.812783 -0.263647 0.519494 0.000000
117.75000000 315.53298950 192.80099487 0.427813 -0.463600 -0.775920 0.000000
109.93099976 331.17199707 152.00100708 0.597729 -0.766280 0.235658 0.000000
102.11100006 288.85501099 50.40029907 -0.291281 -0.942218 0.165469 0.000000
211.58200073 232.74000549 178.40100098 -0.497146 -0.537319 -0.681274 0.000000
260.33801270 172.02499390 176.80099487 -0.118484 -0.046265 -0.991878 0.000000
126.02899933 331.17199707 186.40100098 -0.155299 -0.625719 -0.764433 0.000000
206.06300354 243.77900696 141.60099792 -0.415295 0.871364 -0.261258 0.000000
108.55100250 241.93899536 212.00100708 -0.397497 0.796604 -0.455432 0.000000
102.57099915 183.06399536 152.00100708 0.807304 0.590006 -0.012378 0.000000
264.01800537 191.34399414 152.80099487 -0.355928 -0.278488 0.892054 0.000000
243.77900696 153.16700745 179.20100403 -0.278182 0.605642 -0.745528 0.000000
180.30499268 235.03999329 115.20099640 0.041901 -0.990893 -0.127967 0.000000
92.45220184 193.18400574 86.40049744 0.753226 0.597823 0.274333 0.000000
121.43000031 338.07101440 153.60099792 0.379754 -0.893974 0.237901 0.000000
91.99220276 282.87600708 40.00030136 0.523848 -0.755581 0.393294 0.000000
115.91000366 308.63400269 107.20099640 -0.500639 -0.520732 0.691519 0.000000
86.01270294 218.02200317 160.00100708 0.933557 0.310258 0.179477 0.000000
200.54299927 243.31900024 137.60099792 0.025671 -0.964502 -0.262824 0.000000
113.61000061 167.42599487 129.60099792 0.644948 0.750184 -0.145827 0.000000
118.66999817 309.09399414 196.00100708 0.209512 -0.201506 -0.956818 0.000000
249.29899597 216.18200684 160.80099487 0.001333 -0.867668 0.497143 0.000000
260.33801270 139.36799622 163.20100403 -0.411916 0.567418 -0.712995 0.000000
237.33999634 137.06799316 173.60099792 0.000978 0.999999 0.000978 0.000000
195.02299500 261.25799561 184.80099487 -0.591716 -0.167981 -0.788451 0.000000
136.60800171 149.02699280 131.20100403 0.610739 0.774410 -0.165187 0.000000
89.69239807 195.02299500 105.60099792 0.908962 0.415336 -0.035828 0.000000
143.96800232 344.05099487 169.60099792 -0.557844 -0.805435 -0.200212 0.000000
194.56399536 252.05900574 190.40100098 -0.623931 -0.417618 -0.660535 0.000000
225.38099670 166.50599670 132.00100708 -0.429258 -0.128919 0.893934 0.000000
185.82400513 175.70500183 114.40100098 0.665039 -0.333332 -0.668291 0.000000
251.13900757 182.14500427 141.60099792 -0.380702 -0.313430 0.869958 0.000000
90.61229706 209.74200439 172.80099487 0.935642 0.331740 -0.120510 0.000000
93.83200073 280.11599731 33.60020065 0.551867 -0.710964 0.435859 0.000000
190.42399597 243.77900696 120.80100250 -0.637485 -0.482739 0.600480 0.000000
116.83000183 196.40299988 195.20100403 0.001366 0.597153 -0.802126 0.000000
218.02200317 122.34999847 162.40100098 0.152551 0.660049 -0.735570 0.000000
102.11100006 263.09799194 199.20100403 -0.041847 0.444120 -0.894990 0.000000
212.96200562 257.57800293 147.20100403 -0.790999 0.167879 -0.588334 0.000000
