211.70799255 127.99199677 400.00000000 0.593678 0.167680 -0.787039 0.000000
128.73599243 188.26800537 359.60000610 0.123562 0.674380 0.727973 0.000000
44.27640152 213.56799316 309.60000610 -0.957650 0.279262 0.070134 0.000000
55.43849945 183.05900574 394.39999390 -0.602159 0.076168 0.794735 0.000000
120.17900085 151.80499268 342.39999390 -0.859059 -0.095451 -0.502899 0.000000
190.50000000 128.36399841 361.60000610 0.590570 0.590570 -0.549958 0.000000
123.52700043 108.27300262 380.79998779 -0.061951 0.996657 0.053256 0.000000
148.82800293 129.85299683 309.60000610 0.000978 0.999999 0.000978 0.000000
156.27000427 142.87500000 314.00000000 0.328228 0.779741 -0.533170 0.000000
132.08500671 262.68200684 351.00000000 0.935477 0.337848 -0.103643 0.000000
137.66600037 167.05999756 335.20001221 0.810780 0.502212 -0.300697 0.000000
153.29299927 113.48100281 369.60000610 -0.000978 0.999999 -0.000978 0.000000
67.34480286 215.80099487 408.00000000 -0.433718 0.090069 0.896536 0.000000
164.45500183 147.33999634 414.00000000 0.003122 0.065552 -0.997844 0.000000
43.53219986 183.05900574 303.20001221 -0.955161 -0.295141 -0.023661 0.000000
47.25299835 228.45100403 320.79998779 -0.979475 0.193491 0.056485 0.000000
132.08500671 261.93798828 377.60000610 0.732446 0.464599 0.497666 0.000000
58.41510010 162.22300720 284.79998779 -0.631801 -0.178985 -0.754183 0.000000
157.75799561 208.35899353 369.20001221 0.602955 0.565798 0.562421 0.000000
50.60160065 195.33700562 391.20001221 -0.886570 -0.009277 0.462501 0.000000
118.31800079 263.79800415 385.60000610 0.337571 0.647419 0.683296 0.000000
104.18000031 180.82600403 418.79998779 -0.109537 0.107181 0.988187 0.000000
165.57099915 202.40600586 368.00000000 0.206598 0.972891 0.103925 0.000000
82.22760010 127.24800110 340.00000000 -0.151090 -0.927334 -0.342379 0.000000
42.78810120 202.40600586 322.39999390 -0.990553 0.120519 -0.065425 0.000000
205.38299561 182.68699646 400.79998779 -0.552915 -0.667195 -0.499136 0.000000
78.50689697 137.66600037 323.20001221 -0.413396 -0.825207 -0.384886 0.000000
125.76000214 274.58801270 352.39999390 0.885312 0.386671 -0.258278 0.000000
108.64499664 238.86900330 401.00000000 0.335899 0.528759 0.779478 0.000000
78.13480377 197.94099426 281.00000000 0.658440 0.438405 -0.611766 0.000000
47.62500000 204.26699829 268.00000000 -0.914524 0.268125 -0.302909 0.000000
153.29299927 205.75500488 353.60000610 0.630351 0.630351 -0.453117 0.000000
160.36199951 149.57200623 342.39999390 0.620384 0.492608 -0.610296 0.000000
49.85739899 219.89399719 277.60000610 -0.905160 0.327149 -0.271401 0.000000
220.26600647 172.64100647 402.79998779 0.545437 0.233317 -0.805022 0.000000
41.29980087 229.94000244 365.60000610 -0.985437 0.168637 0.021797 0.000000
130.22500610 164.08299255 342.39999390 -0.389162 0.805549 -0.446815 0.000000
104.92400360 196.08099365 364.00000000 0.196109 0.432030 -0.880279 0.000000
116.45800018 279.79699707 341.60000610 0.738980 0.426271 -0.521730 0.000000
58.04299927 222.49800110 401.20001221 -0.661268 0.082840 0.745562 0.000000
127.99199677 271.98400879 355.20001221 0.869938 0.405364 -0.280870 0.000000
168.17599487 112.73699951 374.39999390 0.278089 0.904894 0.322231 0.000000
91.15730286 241.84599304 303.20001221 0.818426 -0.029180 -0.573871 0.000000
53.57820129 153.66499329 343.20001221 -0.876074 -0.189939 0.443190 0.000000
133.20100403 112.36499786 370.00000000 0.029142 0.982678 0.183014 0.000000
57.67089844 154.78100586 319.20001221 -0.756213 -0.620126 -0.208771 0.000000
82.59960175 205.38299561 414.00000000 -0.210725 -0.126435 0.969334 0.000000
141.01499939 192.73300171 408.79998779 0.606319 0.518496 0.602942 0.000000
63.25199890 237.75300598 278.39999390 -0.455412 0.810153 -0.369123 0.000000
109.01699829 221.75399780 413.60000610 0.477148 0.477148 0.738011 0.000000
69.20510101 142.50300598 394.39999390 -0.590570 -0.590570 0.549958 0.000000
56.18259811 202.40600586 400.00000000 -0.703210 -0.082988 0.706122 0.000000
43.53219986 209.84800720 304.79998779 -0.981399 0.140549 0.130772 0.000000
210.96400452 171.15199280 397.60000610 0.451417 -0.055916 -0.890560 0.000000
139.15400696 200.91799927 328.39999390 0.707386 0.182601 -0.682834 0.000000
78.13480377 173.38499451 409.20001221 -0.346558 0.365041 0.864085 0.000000
159.24600220 184.54699707 400.39999390 -0.667818 0.029525 0.743739 0.000000
94.50589752 120.17900085 351.00000000 -0.094463 -0.915883 -0.390174 0.000000
58.78710175 213.56799316 402.79998779 -0.653099 0.254598 0.713191 0.000000
65.11229706 154.03700256 287.20001221 -0.341879 -0.781667 -0.521646 0.000000
43.53219986 183.05900574 329.60000610 -0.987213 -0.159082 0.010154 0.000000
120.17900085 142.13099670 316.79998779 -0.950668 -0.293221 0.101247 0.000000
93.01760101 113.85399628 367.60000610 0.146931 -0.823704 -0.547652 0.000000
180.82600403 135.43400574 361.00000000 0.622629 0.762683 -0.175067 0.000000
159.99000549 200.54600525 377.60000610 0.564491 0.808351 -0.167089 0.000000
118.69000244 238.12500000 402.39999390 0.395502 0.411385 0.821182 0.000000
100.45899963 204.63900757 415.60000610 -0.133970 -0.009965 0.990935 0.000000
44.27640152 235.14900208 348.00000000 -0.964052 0.229660 -0.133644 0.000000
152.54899597 114.97000122 363.20001221 0.039247 0.978806 0.200994 0.000000
71.80960083 129.48100281 384.79998779 -0.820182 -0.469352 0.327124 0.000000
97.85449982 268.63500977 314.39999390 0.747516 0.126824 -0.652025 0.000000
160.73399353 112.73699951 372.79998779 -0.043569 0.993156 0.108365 0.000000
145.10699463 170.03599548 345.60000610 0.345379 0.937086 -0.050829 0.000000
200.91799927 125.38800049 409.60000610 -0.229139 0.231883 -0.945370 0.000000
131.71299744 193.84899902 353.60000610 -0.347566 -0.831955 -0.432491 0.000000
63.25199890 141.75900269 359.20001221 -0.758191 -0.379911 0.529919 0.000000
61.01959991 142.50300598 347.20001221 -0.707106 -0.707106 0.001384 0.000000
78.50689697 203.14999390 412.79998779 -0.231117 -0.127824 0.964493 0.000000
125.01599884 170.03599548 323.20001221 0.778424 0.235555 -0.581868 0.000000
140.27099609 241.84599304 374.39999390 0.961944 0.261190 -0.080268 0.000000
112.36499786 189.01199341 331.60000610 0.322758 -0.630919 0.705527 0.000000
203.89500427 139.15400696 396.39999390 0.579329 -0.141481 -0.802721 0.000000
78.13480377 166.68800354 408.39999390 -0.528427 -0.448915 0.720583 0.000000
157.75799561 188.63999939 357.60000610 -0.424794 -0.272538 -0.863292 0.000000
137.66600037 225.47500610 355.60000610 0.863045 0.370756 -0.343064 0.000000
65.11229706 153.29299927 291.00000000 -0.553113 -0.816928 -0.163386 0.000000
158.50199890 114.97000122 401.60000610 -0.192297 0.739959 -0.644580 0.000000
130.96899414 122.78299713 336.39999390 0.099428 0.970363 0.220251 0.000000
42.78810120 210.59199524 325.60000610 -0.999999 0.000978 0.000978 0.000000
135.43400574 109.76100159 391.00000000 -0.308263 0.948201 -0.076741 0.000000
119.06300354 193.47700500 317.20001221 0.807333 0.034980 -0.589059 0.000000
91.52929688 128.73599243 332.39999390 -0.131688 -0.896328 -0.423384 0.000000
199.42999268 155.52499390 409.20001221 -0.139596 -0.174809 -0.974656 0.000000
52.08990097 170.03599548 283.20001221 -0.770367 -0.630034 -0.097940 0.000000
132.82899475 258.21701050 380.00000000 0.718098 0.436166 0.542305 0.000000
174.87300110 174.87300110 358.79998779 0.495059 -0.086036 -0.864589 0.000000
61.76369858 246.68299866 295.20001221 -0.744983 0.633468 -0.209091 0.000000
126.50399780 161.10699463 344.00000000 -0.278056 0.748367 0.602189 0.000000
125.76000214 119.06300354 402.79998779 0.157963 0.160490 -0.974315 0.000000
110.13300323 198.31399536 344.79998779 0.826897 -0.118128 0.549806 0.000000
127.62000275 162.22300720 328.00000000 0.835542 -0.297185 -0.462115 0.000000
41.29980087 229.94000244 355.20001221 -0.981956 0.149666 0.115596 0.000000
127.24800110 178.59399414 419.60000610 0.138508 -0.112011 0.984007 0.000000
175.24499512 144.36300659 358.39999390 0.567735 0.706773 -0.422077 0.000000
146.22399902 218.77699280 391.00000000 0.529028 0.593255 0.606777 0.000000
78.87889862 135.80599976 400.79998779 -0.710292 -0.450794 0.540620 0.000000
133.94500732 153.66499329 371.00000000 -0.149379 0.900542 -0.408302 0.000000
133.94500732 130.22500610 314.00000000 -0.108375 0.993250 -0.041339 0.000000
106.41200256 257.84500122 322.39999390 0.893786 -0.212806 -0.394792 0.000000
53.20610046 176.36099243 388.00000000 -0.863587 -0.128743 0.487486 0.000000
132.45700073 214.31300354 390.79998779 0.721506 0.382940 -0.576876 0.000000
81.11139679 255.24000549 293.20001221 0.342372 0.572784 -0.744782 0.000000
97.48249817 110.50499725 380.79998779 -0.001297 -0.906778 -0.421606 0.000000
77.76270294 279.05300903 359.20001221 -0.553602 0.773767 0.307911 0.000000
168.17599487 111.99299622 383.20001221 -0.413396 0.825207 0.384886 0.000000
138.78199768 168.17599487 348.00000000 -0.291453 0.581314 0.759690 0.000000
94.50589752 111.24900055 386.39999390 -0.383078 -0.903486 0.192262 0.000000
115.34200287 255.98399353 330.79998779 0.678911 -0.001383 -0.734219 0.000000
64.74030304 154.03700256 287.60000610 -0.341879 -0.781667 -0.521646 0.000000
118.31800079 172.64100647 318.00000000 -0.001197 0.259673 -0.965696 0.000000
125.76000214 253.75199890 390.79998779 0.186620 0.232268 0.954581 0.000000
122.03900146 257.47299194 389.20001221 0.242440 0.592805 0.767988 0.000000
67.71679688 267.51901245 324.00000000 -0.717617 0.684795 -0.126814 0.000000
67.71679688 241.10200500 279.60000610 0.365688 0.464696 -0.806430 0.000000
51.71780014 172.64100647 364.00000000 -0.985178 -0.116397 -0.125997 0.000000
133.94500732 215.05700684 331.60000610 0.888949 0.251646 -0.382680 0.000000
190.50000000 146.59599304 376.39999390 0.691818 -0.461767 -0.555121 0.000000
83.34380341 253.38000488 398.39999390 -0.001380 0.732842 0.680398 0.000000
168.91999817 132.08500671 412.79998779 0.068577 0.238149 -0.968805 0.000000
42.78810120 223.98599243 379.20001221 -0.971830 0.073042 0.224078 0.000000
69.94920349 233.66000366 277.20001221 0.635761 0.223376 -0.738858 0.000000
188.26800537 129.10800171 355.20001221 0.590570 0.590570 0.549958 0.000000
69.94920349 261.56600952 382.39999390 -0.535899 0.579853 0.613664 0.000000
218.77699280 165.94299316 404.39999390 -0.166249 -0.055416 -0.984525 0.000000
164.45500183 112.73699951 377.60000610 0.111917 0.963516 0.243130 0.000000
230.31199646 168.91999817 403.20001221 -0.055989 0.073554 -0.995718 0.000000
100.45899963 234.03199768 410.39999390 0.110442 0.418001 0.901708 0.000000
151.80499268 187.52400208 359.60000610 0.699754 -0.430490 -0.570108 0.000000
167.80400085 206.12699890 395.20001221 0.652718 0.659294 0.373216 0.000000
83.34380341 257.84500122 394.39999390 -0.178632 0.532894 0.827112 0.000000
54.69440079 259.70498657 351.00000000 -0.740691 0.664118 -0.101606 0.000000
117.20200348 270.86700439 331.00000000 0.758719 0.249765 -0.601634 0.000000
173.38499451 200.54600525 370.39999390 0.001297 0.906778 0.421606 0.000000
129.48100281 197.94099426 414.79998779 0.442304 0.237003 0.864984 0.000000
42.78810120 206.12699890 309.60000610 -0.992951 0.117659 -0.014295 0.000000
47.25299835 215.05700684 282.39999390 -0.922982 0.359477 -0.137406 0.000000
133.94500732 209.84800720 390.00000000 0.711758 0.346921 -0.610776 0.000000
136.92199707 170.40800476 341.00000000 0.736390 0.643372 0.209290 0.000000
116.83000183 265.65798950 333.20001221 0.760658 0.067582 -0.645625 0.000000
120.55100250 114.97000122 360.79998779 0.095229 0.934855 0.342020 0.000000
60.27539825 149.19999695 377.60000610 -0.865628 -0.478641 0.146939 0.000000
89.29689789 121.66699982 350.39999390 -0.225691 -0.904220 -0.362561 0.000000
69.20510101 131.34100342 351.00000000 -0.272681 -0.818044 -0.506408 0.000000
128.73599243 114.22599792 362.39999390 -0.112442 0.971546 0.208459 0.000000
72.18170166 192.73300171 276.39999390 0.595731 0.076081 -0.799572 0.000000
130.59700012 232.17199707 344.00000000 0.945712 0.212751 -0.245693 0.000000
151.06100464 213.94099426 394.39999390 0.453645 0.386320 0.803096 0.000000
116.08599854 189.01199341 358.00000000 0.118115 -0.340768 -0.932698 0.000000
119.80699921 149.94400024 351.00000000 -0.527445 -0.820979 0.218622 0.000000
122.03900146 181.19799805 347.20001221 0.385983 0.898685 0.208285 0.000000
47.99710083 171.15199280 340.00000000 -0.972197 -0.217842 0.085892 0.000000
75.90239716 129.48100281 392.39999390 -0.597045 -0.593662 0.539539 0.000000
95.25000000 117.20200348 358.39999390 -0.094091 -0.917726 -0.385909 0.000000
63.62409973 263.42599487 324.00000000 -0.796267 0.495063 -0.347666 0.000000
77.39070129 258.21701050 392.39999390 -0.381288 0.645384 0.661890 0.000000
58.04299927 146.96800232 347.20001221 -0.697282 -0.648972 0.304357 0.000000
181.57000732 118.69000244 355.20001221 -0.128447 0.970349 0.204753 0.000000
43.16019821 228.45100403 380.39999390 -0.920534 0.111123 0.374524 0.000000
42.41600037 216.17300415 379.20001221 -0.981145 -0.010401 0.192993 0.000000
121.66699982 281.28500366 363.20001221 0.413396 0.825207 0.384886 0.000000
120.55100250 142.50300598 320.00000000 -0.698633 -0.478539 0.531895 0.000000
46.13669968 241.10200500 376.39999390 -0.800206 0.349791 0.487151 0.000000
145.85200500 118.69000244 347.20001221 -0.069256 0.942141 0.327985 0.000000
181.94200134 187.52400208 364.00000000 0.757664 0.209171 -0.618217 0.000000
128.73599243 199.42999268 414.79998779 0.395993 0.269516 0.877810 0.000000
153.29299927 186.77900696 361.20001221 0.705688 -0.308436 -0.637865 0.000000
93.76180267 283.51800537 361.00000000 -0.344408 0.755111 0.557844 0.000000
174.12899780 151.80499268 412.39999390 -0.135932 -0.226553 -0.964467 0.000000
159.99000549 142.87500000 319.60000610 0.387567 0.873926 -0.293335 0.000000
125.76000214 193.84899902 343.20001221 -0.639275 -0.652558 0.406811 0.000000
106.04000092 287.98300171 360.00000000 0.258456 0.937426 0.233309 0.000000
50.97370148 159.99000549 331.00000000 -0.969220 -0.246170 0.003568 0.000000
181.57000732 111.99299622 389.60000610 0.082178 0.948305 -0.306536 0.000000
131.71299744 122.03900146 404.39999390 0.261274 0.195613 -0.945236 0.000000
66.97270203 152.17700195 290.39999390 -0.335592 -0.921816 -0.193992 0.000000
138.78199768 164.45500183 415.20001221 0.156563 -0.203144 0.966551 0.000000
125.76000214 112.73699951 365.60000610 -0.033511 0.985683 0.165244 0.000000
86.32039642 125.76000214 398.79998779 -0.119879 -0.628994 0.768112 0.000000
151.06100464 123.89900208 336.79998779 -0.022438 0.906763 0.421044 0.000000
147.33999634 170.03599548 381.60000610 -0.516071 0.001340 0.856545 0.000000
208.35899353 121.29499817 405.20001221 -0.317408 0.250738 -0.914540 0.000000
72.92579651 130.59700012 342.39999390 -0.300967 -0.878704 -0.370538 0.000000
131.34100342 189.01199341 335.20001221 -0.249866 -0.917137 0.310527 0.000000
103.43599701 123.15499878 340.00000000 -0.594123 -0.774066 -0.218724 0.000000
178.59399414 114.97000122 367.20001221 -0.027212 0.978450 0.204682 0.000000
183.05900574 164.45500183 362.79998779 0.719460 0.021037 -0.694216 0.000000
189.75599670 145.85200500 411.60000610 -0.322310 -0.134636 -0.937011 0.000000
97.48249817 206.87100220 415.60000610 -0.018919 0.127984 0.991596 0.000000
123.15499878 124.27200317 337.60000610 0.278014 0.882130 0.380203 0.000000
116.83000183 108.27300262 381.60000610 -0.066834 0.995943 0.060261 0.000000
179.33799744 113.10900116 374.00000000 -0.027560 0.974182 0.224074 0.000000
134.31700134 229.94000244 351.00000000 0.901442 0.101395 -0.420858 0.000000
116.08599854 109.38899994 393.20001221 0.104884 0.852002 -0.512925 0.000000
130.96899414 221.75399780 404.39999390 0.433661 0.392055 0.811314 0.000000
120.55100250 156.27000427 415.60000610 -0.053178 -0.112014 0.992283 0.000000
58.41510010 159.99000549 385.60000610 -0.845045 -0.385816 0.370195 0.000000
157.01400757 113.85399628 400.39999390 0.385390 0.385390 -0.838420 0.000000
139.89799500 112.36499786 400.39999390 0.197943 0.930751 -0.307443 0.000000
60.64749908 240.35800171 286.39999390 -0.847215 0.507146 -0.158206 0.000000
136.92199707 180.08200073 417.20001221 0.286227 0.026021 0.957808 0.000000
47.25299835 229.19500732 316.79998779 -0.981810 0.187957 0.026851 0.000000
130.22500610 269.75100708 359.20001221 0.851598 0.482122 -0.205765 0.000000
101.20300293 226.59100342 308.00000000 0.550328 0.234083 -0.801464 0.000000
148.08399963 218.77699280 394.00000000 0.535832 0.576399 0.616967 0.000000
145.10699463 182.68699646 368.79998779 0.269331 0.655001 0.705999 0.000000
125.76000214 173.38499451 327.60000610 0.934878 0.042908 -0.352367 0.000000
46.88090134 178.96600342 283.20001221 -0.619292 -0.394695 -0.678744 0.000000
209.84800720 174.87300110 396.39999390 0.608211 0.171391 -0.775052 0.000000
206.87100220 129.10800171 395.20001221 0.841104 0.057571 -0.537801 0.000000
57.67089844 229.94000244 398.39999390 -0.689032 0.073980 0.720945 0.000000
128.36399841 271.61099243 370.39999390 0.714810 0.638052 0.286244 0.000000
78.13480377 269.75100708 379.20001221 -0.435081 0.824281 0.362304 0.000000
125.76000214 177.85000610 327.60000610 0.951418 0.291838 0.098152 0.000000
42.04399872 200.91799927 330.39999390 -0.999999 -0.000978 -0.000978 0.000000
126.87599945 274.58801270 364.00000000 0.777578 0.608473 0.158535 0.000000
134.69000244 117.94599915 350.39999390 0.140959 0.989006 0.044694 0.000000
92.27349854 191.24400330 414.00000000 -0.405021 -0.049458 0.912969 0.000000
58.41510010 181.57000732 396.79998779 -0.545242 -0.105577 0.831603 0.000000
127.24800110 113.10900116 362.79998779 -0.196885 0.949123 0.245767 0.000000
45.76470184 188.26800537 354.39999390 -0.991572 -0.055655 -0.116990 0.000000
109.38899994 286.86599731 342.39999390 0.305103 0.921038 -0.242077 0.000000
56.55469894 147.33999634 344.39999390 -0.697282 -0.648972 0.304357 0.000000
119.80699921 250.03100586 335.60000610 0.732842 -0.001380 -0.680398 0.000000
118.31800079 234.77600098 404.00000000 0.406409 0.438536 0.801573 0.000000
180.82600403 113.48100281 396.79998779 0.103193 0.966953 -0.233139 0.000000
112.36499786 130.22500610 401.00000000 0.172963 -0.693381 0.699504 0.000000
196.82499695 127.99199677 383.20001221 0.754409 0.488147 -0.438839 0.000000
48.74119949 233.66000366 313.60000610 -0.928841 0.328237 -0.171801 0.000000
151.80499268 219.14999390 386.39999390 0.961751 0.273924 0.001207 0.000000
42.04399872 200.17399597 353.60000610 -0.952296 -0.276815 -0.128474 0.000000
162.22300720 151.80499268 345.20001221 0.567650 0.447794 -0.690835 0.000000
41.67190170 231.05599976 363.20001221 -0.989954 0.082399 -0.114895 0.000000
132.45700073 151.80499268 412.39999390 0.291626 -0.478766 0.828093 0.000000
186.03500366 187.52400208 369.20001221 0.845095 0.376466 -0.379590 0.000000
133.94500732 161.85099792 372.79998779 -0.001380 -0.732842 -0.680398 0.000000
94.87799835 182.31500244 296.79998779 0.624368 -0.091690 -0.775730 0.000000
188.26800537 154.40899658 370.39999390 0.760911 -0.041092 -0.647554 0.000000
119.80699921 258.21701050 389.20001221 0.229583 0.485014 0.843833 0.000000
212.08000183 143.61900330 408.39999390 -0.199313 0.130759 -0.971173 0.000000
142.87500000 136.17799377 408.39999390 0.061215 0.186044 -0.980633 0.000000
68.46099854 215.05700684 409.20001221 -0.402398 0.094763 0.910547 0.000000
122.78299713 206.12699890 318.79998779 0.471891 0.001322 -0.881656 0.000000
86.32039642 286.12200928 341.60000610 -0.338690 0.931054 -0.135750 0.000000
197.94099426 116.45800018 406.39999390 0.533074 0.746304 0.398575 0.000000
42.41600037 200.54600525 351.00000000 -0.952296 -0.276815 -0.128474 0.000000
71.06549835 236.63699341 279.20001221 0.665420 0.213495 -0.715287 0.000000
139.15400696 173.38499451 377.20001221 -0.428441 0.325615 0.842860 0.000000
74.78620148 132.45700073 336.79998779 -0.517923 -0.776078 -0.359803 0.000000
159.24600220 156.27000427 414.00000000 -0.436415 -0.047290 -0.898502 0.000000
46.88090134 223.98599243 325.20001221 -0.983012 0.022051 -0.182211 0.000000
125.38800049 263.42599487 344.00000000 0.722065 0.143207 -0.676841 0.000000
51.71780014 240.35800171 386.39999390 -0.778448 0.430666 0.456668 0.000000
154.78100586 117.20200348 354.39999390 0.039338 0.950456 0.308359 0.000000
200.17399597 165.19900513 406.79998779 -0.084597 -0.194942 -0.977160 0.000000
188.26800537 189.01199341 374.79998779 0.912354 0.332161 -0.239330 0.000000
209.10400391 158.13000488 398.39999390 0.467878 -0.319795 -0.823906 0.000000
183.43099976 150.31599426 366.39999390 0.695899 -0.337356 -0.633968 0.000000
190.50000000 165.19900513 372.39999390 0.631801 0.178985 -0.754183 0.000000
141.75900269 210.59199524 398.39999390 0.275330 -0.453756 0.847525 0.000000
48.74119949 224.73100281 297.60000610 -0.894688 0.446689 -0.001310 0.000000
116.83000183 283.14599609 346.39999390 0.649216 0.588824 -0.481460 0.000000
42.78810120 192.73300171 297.60000610 -0.999999 0.000978 0.000978 0.000000
207.61500549 157.75799561 407.60000610 -0.200952 0.122593 -0.971900 0.000000
154.03700256 197.94099426 341.00000000 0.143425 -0.465046 -0.873591 0.000000
145.10699463 125.38800049 331.00000000 -0.304249 0.940034 0.154171 0.000000
164.45500183 202.40600586 398.00000000 0.317525 0.481817 0.816719 0.000000
104.18000031 255.24000549 396.39999390 -0.231203 0.460894 0.856809 0.000000
94.50589752 157.01400757 416.39999390 -0.452084 -0.073274 0.888961 0.000000
136.92199707 122.03900146 405.20001221 0.105635 0.192628 -0.975569 0.000000
175.61700439 136.55000305 347.20001221 0.596203 0.784318 -0.171427 0.000000
125.76000214 155.15299988 369.60000610 -0.765590 0.538988 0.351232 0.000000
202.03399658 151.80499268 392.79998779 0.278860 0.092089 -0.955906 0.000000
109.38899994 137.66600037 408.39999390 -0.147559 -0.145079 0.978355 0.000000
86.69239807 171.15199280 292.79998779 0.732842 0.001380 -0.680398 0.000000
47.25299835 224.73100281 303.20001221 -0.820979 0.527445 -0.218622 0.000000
71.43750000 220.26600647 278.00000000 0.732842 0.001380 -0.680398 0.000000
88.55280304 119.43499756 351.00000000 -0.265696 -0.905714 -0.330285 0.000000
68.83300018 232.17199707 271.00000000 0.440382 0.243648 -0.864118 0.000000
136.92199707 218.40499878 342.39999390 0.852243 0.497757 -0.160996 0.000000
226.96299744 157.01400757 403.60000610 -0.124164 -0.009889 -0.992212 0.000000
131.34100342 206.12699890 399.20001221 0.107611 0.983007 -0.148721 0.000000
117.57399750 272.72799683 337.60000610 0.633865 0.443204 -0.633865 0.000000
143.99099731 229.19500732 384.79998779 0.913876 0.380431 0.141784 0.000000
46.50880051 224.73100281 328.00000000 -0.983012 0.022051 -0.182211 0.000000
76.64649963 253.00799561 289.20001221 0.857638 -0.077455 -0.508387 0.000000
63.25199890 149.94400024 316.79998779 -0.660589 -0.704945 -0.258216 0.000000
121.66699982 258.96099854 339.20001221 0.814099 0.170043 -0.555273 0.000000
136.17799377 171.15199280 345.20001221 0.680257 0.699022 0.220497 0.000000
42.04399872 204.63900757 358.39999390 -0.998254 -0.057491 0.013589 0.000000
135.80599976 168.17599487 345.60000610 -0.514538 0.732927 0.445050 0.000000
113.10900116 109.01699829 376.79998779 -0.360694 0.723020 0.589188 0.000000
56.18259811 260.44900513 367.20001221 -0.630666 0.750940 0.195830 0.000000
208.35899353 131.34100342 397.60000610 0.712821 0.092213 -0.695257 0.000000
71.43750000 213.56799316 278.00000000 0.671372 -0.089224 -0.735730 0.000000
90.78520203 144.36300659 299.60000610 0.076857 -0.685911 -0.723615 0.000000
196.08099365 139.89799500 410.39999390 -0.274483 -0.023386 -0.961307 0.000000
131.71299744 205.01100159 411.20001221 0.475484 0.326994 0.816695 0.000000
163.33900452 113.10900116 391.00000000 -0.083463 0.909888 -0.406371 0.000000
46.88090134 203.52299500 268.79998779 -0.914524 0.268125 -0.302909 0.000000
143.61900330 111.24900055 391.00000000 -0.127313 0.983341 -0.129738 0.000000
117.57399750 217.28900146 411.60000610 0.485092 0.131771 0.864478 0.000000
122.03900146 182.68699646 331.00000000 -0.007385 0.997002 -0.077017 0.000000
115.71399689 201.66200256 312.79998779 0.821701 0.078598 -0.564473 0.000000
68.83300018 270.12298584 370.39999390 -0.628826 0.715672 0.303959 0.000000
93.01760101 133.20100403 321.00000000 -0.411457 -0.849310 -0.330719 0.000000
107.90000153 121.29499817 400.39999390 0.208808 -0.525830 0.824562 0.000000
209.47599792 151.80499268 398.39999390 0.644552 -0.182189 -0.742536 0.000000
124.27200317 196.08099365 354.39999390 -0.223730 -0.655544 -0.721254 0.000000
164.08299255 114.59799957 399.20001221 -0.037702 0.932145 -0.360117 0.000000
81.85549927 274.21600342 311.00000000 -0.085510 0.789882 -0.607267 0.000000
168.91999817 117.94599915 351.00000000 -0.207999 0.926797 0.312705 0.000000
84.83209991 149.57200623 410.79998779 -0.213072 -0.330334 0.919500 0.000000
52.08990097 169.29200745 356.79998779 -0.968431 -0.196773 0.153045 0.000000
107.90000153 274.58801270 327.60000610 0.773528 0.350429 -0.528066 0.000000
158.87399292 200.17399597 376.79998779 0.472104 0.879138 -0.065070 0.000000
159.24600220 191.98800659 401.20001221 0.164459 -0.192948 0.967329 0.000000
85.57620239 266.02999878 388.00000000 -0.254552 0.624523 0.738360 0.000000
57.29890060 165.94299316 389.20001221 -0.711827 -0.401332 0.576398 0.000000
46.13669968 205.01100159 271.00000000 -0.990702 0.089013 -0.102885 0.000000
90.78520203 166.31599426 307.20001221 0.874633 0.464061 -0.140230 0.000000
129.48100281 122.78299713 336.39999390 0.031733 0.945636 0.323674 0.000000
106.41200256 169.66400146 314.00000000 0.127957 0.563307 -0.816280 0.000000
131.34100342 201.66200256 323.20001221 0.516071 -0.001340 -0.856545 0.000000
132.45700073 225.10299683 340.00000000 0.911072 0.412244 -0.001292 0.000000
143.61900330 218.40499878 366.39999390 0.417224 0.459433 -0.784121 0.000000
126.87599945 160.73399353 339.20001221 0.031959 0.942154 -0.333653 0.000000
57.29890060 242.96200562 300.00000000 -0.749466 0.606862 -0.264611 0.000000
93.01760101 288.35501099 342.39999390 -0.188869 0.972234 -0.138166 0.000000
144.36300659 121.66699982 339.20001221 -0.027207 0.928935 0.369242 0.000000
55.06639862 225.84700012 274.39999390 -0.686555 0.566283 -0.456033 0.000000
147.33999634 197.19700623 338.00000000 -0.073838 -0.716664 -0.693499 0.000000
42.78810120 188.26800537 293.60000610 -0.961167 -0.193816 -0.196453 0.000000
168.17599487 149.57200623 351.60000610 0.802574 0.160515 -0.574553 0.000000
183.05900574 132.82899475 356.79998779 0.640861 0.767655 0.001378 0.000000
144.36300659 123.89900208 333.60000610 -0.970549 0.240543 0.013164 0.000000
50.22949982 235.14900208 310.39999390 -0.876878 0.412208 -0.247325 0.000000
84.83209991 237.38099670 295.60000610 0.667208 0.117393 -0.735563 0.000000
175.61700439 205.01100159 389.60000610 -0.553762 0.832674 -0.001354 0.000000
78.50689697 171.89700317 284.79998779 0.732842 0.001380 -0.680398 0.000000
167.43200684 165.19900513 413.20001221 -0.541234 -0.001350 -0.840871 0.000000
138.78199768 230.68400574 360.00000000 0.870998 0.245203 -0.425721 0.000000
111.62100220 186.77900696 310.79998779 0.573878 -0.248628 -0.780287 0.000000
181.94200134 169.66400146 363.20001221 0.681301 0.431435 -0.591349 0.000000
182.31500244 119.43499756 352.79998779 -0.092732 0.952139 0.291258 0.000000
75.90239716 128.73599243 344.39999390 -0.386192 -0.876883 -0.286237 0.000000
166.68800354 199.42999268 374.00000000 0.088873 0.648336 0.756149 0.000000
172.64100647 114.59799957 368.39999390 -0.104516 0.991175 0.081545 0.000000
123.89900208 260.44900513 385.60000610 0.694392 0.372641 0.615596 0.000000
54.32229996 163.33900452 297.60000610 -0.718266 -0.658802 -0.223773 0.000000
42.78810120 197.94099426 308.79998779 -0.999999 0.000978 0.000978 0.000000
55.06639862 162.96699524 297.20001221 -0.728652 -0.650970 -0.212847 0.000000
173.38499451 174.87300110 358.00000000 0.565057 -0.060896 -0.822802 0.000000
101.94699860 269.00698853 385.60000610 0.164446 0.786021 0.595927 0.000000
133.94500732 161.47900391 373.20001221 -0.001380 -0.732842 -0.680398 0.000000
149.57200623 203.14999390 348.39999390 0.378442 0.341370 -0.860377 0.000000
101.20300293 216.54499817 304.39999390 0.634516 0.212540 -0.743113 0.000000
214.31300354 180.08200073 401.00000000 -0.464341 0.816163 -0.343898 0.000000
103.43599701 229.56700134 411.00000000 -0.471891 0.001322 0.881656 0.000000
95.25000000 162.22300720 305.20001221 0.272237 0.708452 -0.651139 0.000000
194.22099304 162.96699524 407.60000610 -0.591338 0.141504 -0.793912 0.000000
129.48100281 269.37899780 371.60000610 0.677043 0.644256 0.355734 0.000000
135.06199646 249.28700256 360.00000000 0.683787 0.408948 -0.604315 0.000000
134.31700134 219.52200317 404.00000000 0.359716 0.387746 0.848680 0.000000
80.36720276 157.38600159 409.60000610 -0.409342 -0.106845 0.906103 0.000000
141.75900269 222.49800110 367.20001221 0.381904 0.282277 -0.880039 0.000000
46.50880051 226.21899414 313.60000610 -0.963566 0.263017 -0.048615 0.000000
161.10699463 203.89500427 399.20001221 0.183437 0.568504 0.801969 0.000000
43.53219986 222.49800110 384.00000000 -0.956849 0.016050 0.290141 0.000000
171.52400208 160.73399353 411.20001221 -0.338631 0.001250 -0.940919 0.000000
94.50589752 111.24900055 379.20001221 -0.270243 -0.960441 0.067244 0.000000
145.47999573 192.73300171 354.39999390 -0.969960 -0.110309 -0.216815 0.000000
120.17900085 211.33599854 412.79998779 0.120678 0.530692 0.838930 0.000000
67.34480286 165.19900513 398.39999390 -0.692485 -0.241344 0.679866 0.000000
210.22000122 135.43400574 399.20001221 0.475632 0.106485 -0.873175 0.000000
61.76369858 219.52200317 268.39999390 0.649520 0.006925 -0.760313 0.000000
50.97370148 177.10600281 380.00000000 -0.963362 -0.001203 -0.268202 0.000000
128.73599243 119.06300354 403.60000610 0.156144 0.124178 -0.979897 0.000000
166.68800354 137.29400635 326.39999390 0.848837 0.406507 -0.337977 0.000000
189.01199341 158.50199890 409.20001221 -0.072342 -0.267793 -0.960757 0.000000
103.43599701 272.35598755 381.00000000 0.261858 0.687178 0.677656 0.000000
84.08789825 233.66000366 410.79998779 -0.295229 0.380012 0.876602 0.000000
44.27640152 208.35899353 289.60000610 -0.948635 0.208237 -0.238179 0.000000
114.59799957 204.63900757 414.79998779 0.119517 0.077744 0.989784 0.000000
78.87889862 176.36099243 285.20001221 0.718256 -0.136454 -0.682268 0.000000
68.46099854 139.89799500 330.00000000 -0.595992 -0.757242 -0.267169 0.000000
129.48100281 194.59300232 353.60000610 -0.301855 -0.846742 -0.438077 0.000000
194.96499634 165.19900513 407.60000610 -0.613793 0.205628 -0.762217 0.000000
101.94699860 284.26199341 366.79998779 0.054993 0.824888 0.562616 0.000000
89.66899872 142.13099670 301.60000610 0.076857 -0.685911 -0.723615 0.000000
126.87599945 217.28900146 323.20001221 0.535530 0.439367 -0.721224 0.000000
97.85449982 165.19900513 309.60000610 0.035312 0.755684 -0.653984 0.000000
49.11330032 174.12899780 283.60000610 -0.759282 -0.620671 -0.195596 0.000000
116.83000183 111.24900055 371.20001221 0.051818 0.920772 0.386644 0.000000
91.15730286 238.12500000 303.20001221 0.819933 0.001360 -0.572458 0.000000
114.59799957 155.52499390 414.79998779 -0.048718 -0.375259 0.925639 0.000000
122.03900146 155.15299988 333.60000610 -0.425578 0.343917 -0.837021 0.000000
52.08990097 255.61199951 351.00000000 -0.734952 0.637794 -0.230358 0.000000
210.59199524 144.36300659 408.39999390 -0.122202 0.227681 -0.966037 0.000000
43.53219986 188.26800537 290.39999390 -0.961167 -0.193816 -0.196453 0.000000
188.63999939 177.85000610 382.39999390 0.594100 0.718485 -0.361697 0.000000
145.85200500 203.52299500 344.00000000 0.734487 0.543882 -0.405858 0.000000
107.90000153 218.03300476 310.79998779 0.558817 0.143780 -0.816732 0.000000
86.32039642 241.47399902 298.39999390 0.698400 0.089313 -0.710113 0.000000
45.39260101 243.70599365 351.20001221 -0.920552 0.376154 -0.105323 0.000000
199.05799866 147.33999634 388.79998779 0.867137 -0.062634 -0.494115 0.000000
108.64499664 187.15100098 356.79998779 0.091938 0.404800 -0.909772 0.000000
101.20300293 181.57000732 418.00000000 -0.407378 0.066317 0.910849 0.000000
94.87799835 285.75000000 364.00000000 -0.422278 0.787928 0.448164 0.000000
140.64300537 111.24900055 395.20001221 -0.136835 0.980037 -0.144232 0.000000
129.10800171 271.61099243 365.60000610 0.748389 0.649799 0.132947 0.000000
199.80200195 154.78100586 388.79998779 0.923038 0.073897 -0.377545 0.000000
162.22300720 200.54600525 401.60000610 0.169598 0.682976 0.710479 0.000000
135.06199646 259.70498657 368.79998779 0.999999 0.000978 0.000978 0.000000
127.24800110 148.08399963 411.60000610 0.254879 -0.637988 0.726642 0.000000
107.90000153 260.44900513 325.20001221 0.908734 -0.077658 -0.410088 0.000000
59.53129959 218.77699280 402.79998779 -0.712607 0.012551 0.701451 0.000000
163.33900452 142.87500000 324.79998779 0.302512 0.910458 0.282052 0.000000
101.94699860 166.31599426 311.20001221 0.035312 0.755684 -0.653984 0.000000
112.36499786 186.77900696 419.60000610 -0.108483 0.127557 0.985881 0.000000
122.78299713 147.33999634 412.39999390 0.104817 -0.431846 0.895836 0.000000
62.13579941 267.14700317 363.20001221 -0.722525 0.663984 0.192571 0.000000
72.55370331 174.12899780 404.79998779 -0.447728 -0.264358 0.854198 0.000000
42.78810120 200.17399597 348.79998779 -0.952296 -0.276815 -0.128474 0.000000
58.78710175 150.68899536 362.39999390 0.000978 0.000978 -0.999999 0.000000
159.99000549 117.57399750 354.00000000 -0.108121 0.894456 0.433888 0.000000
123.52700043 125.38800049 329.60000610 0.202888 0.949078 0.241014 0.000000
184.54699707 111.99299622 390.39999390 0.072215 0.961599 -0.264788 0.000000
175.61700439 114.97000122 367.20001221 -0.001273 0.927860 0.372926 0.000000
215.05700684 159.99000549 401.00000000 -0.961812 0.267799 0.056577 0.000000
209.10400391 138.41000366 398.79998779 0.482654 -0.012033 -0.875729 0.000000
65.11229706 266.40200806 371.00000000 -0.559663 0.721453 0.407778 0.000000
49.48540115 237.38099670 317.60000610 -0.904504 0.379401 -0.194750 0.000000
76.64649963 270.49499512 311.00000000 -0.191948 0.964963 -0.178890 0.000000
97.11039734 281.28500366 370.39999390 -0.300752 0.699611 0.648145 0.000000
69.94920349 191.61599731 407.20001221 -0.408065 -0.210662 0.888315 0.000000
171.15199280 117.20200348 358.39999390 -0.731555 -0.004149 0.681770 0.000000
116.45800018 253.00799561 331.00000000 0.732842 -0.001380 -0.680398 0.000000
75.53029633 270.86700439 315.20001221 -0.191948 0.964963 -0.178890 0.000000
114.59799957 189.75599670 358.00000000 -0.098865 0.172098 -0.980106 0.000000
229.94000244 159.99000549 402.79998779 -0.139993 -0.078820 -0.987010 0.000000
122.78299713 232.17199707 403.60000610 -0.280217 0.558850 0.780490 0.000000
153.29299927 210.22000122 372.79998779 0.999999 -0.000978 -0.000978 0.000000
100.45899963 175.98899841 305.60000610 0.429084 -0.751308 -0.501420 0.000000
108.27300262 183.05900574 347.20001221 0.195528 0.980010 0.036736 0.000000
113.48100281 218.77699280 314.39999390 0.560553 0.213471 -0.800132 0.000000
120.55100250 143.24699402 343.20001221 -0.573247 0.819121 0.020720 0.000000
149.57200623 193.84899902 348.00000000 -0.026490 -0.798882 -0.600904 0.000000
52.46189880 172.64100647 385.60000610 -0.601029 -0.343678 0.721561 0.000000
145.47999573 226.21899414 383.20001221 0.835152 0.549978 -0.006790 0.000000
190.12800598 127.99199677 360.79998779 0.590570 0.590570 -0.549958 0.000000
81.11139679 140.64300537 404.39999390 -0.423643 -0.404459 0.810518 0.000000
113.85399628 197.94099426 354.79998779 -0.261715 -0.705838 -0.658254 0.000000
100.83100128 224.73100281 307.20001221 0.641255 0.202420 -0.740147 0.000000
103.43599701 184.54699707 303.60000610 0.637599 -0.070524 -0.767134 0.000000
191.61599731 127.24800110 361.60000610 0.590570 0.590570 -0.549958 0.000000
168.91999817 121.66699982 343.20001221 -0.233309 0.840217 0.489491 0.000000
182.31500244 113.48100281 395.20001221 0.088959 0.971032 -0.221771 0.000000
136.55000305 222.49800110 348.79998779 -0.196558 0.980491 -0.001149 0.000000
97.48249817 177.85000610 299.60000610 0.672959 -0.413745 -0.613140 0.000000
42.78810120 193.47700500 289.60000610 -0.979013 -0.159259 -0.127161 0.000000
74.78620148 250.77600098 397.60000610 -0.363042 0.645590 0.671874 0.000000
114.59799957 173.38499451 420.39999390 -0.117542 -0.112793 0.986642 0.000000
104.18000031 199.42999268 303.60000610 0.429722 0.138482 -0.892279 0.000000
60.64749908 146.59599304 371.20001221 -0.901442 -0.420858 0.101395 0.000000
155.89799500 202.40600586 371.00000000 0.793850 0.545477 -0.268808 0.000000
147.71200562 203.14999390 399.20001221 -0.116304 0.605075 0.787628 0.000000
150.31599426 190.50000000 405.20001221 0.446826 0.367319 0.815735 0.000000
143.61900330 167.80400085 356.79998779 -0.463461 0.792890 0.395638 0.000000
123.52700043 196.82499695 351.00000000 -0.350836 -0.915038 -0.199046 0.000000
105.66799927 196.08099365 347.20001221 0.865023 0.470089 0.175362 0.000000
183.05900574 146.59599304 411.60000610 -0.112005 -0.336015 -0.935173 0.000000
125.76000214 235.89300537 338.00000000 0.659141 0.467940 -0.588698 0.000000
142.87500000 129.85299683 311.20001221 0.000978 0.999999 0.000978 0.000000
80.73930359 284.26199341 351.00000000 -0.493626 0.800345 0.340266 0.000000
153.66499329 214.31300354 385.60000610 0.798937 0.397057 -0.451713 0.000000
139.15400696 195.70899963 328.39999390 0.352774 -0.211665 -0.911454 0.000000
134.31700134 253.00799561 361.60000610 0.839985 0.243274 -0.485019 0.000000
186.03500366 127.99199677 411.60000610 -0.472119 0.059187 -0.879546 0.000000
102.69100189 247.42700195 316.79998779 0.686627 0.247817 -0.683470 0.000000
226.21899414 153.29299927 403.60000610 0.374503 -0.233514 -0.897340 0.000000
139.15400696 244.07800293 384.39999390 0.872491 0.427986 0.235768 0.000000
54.69440079 151.80499268 335.20001221 -0.845944 -0.509338 0.157969 0.000000
69.94920349 271.61099243 369.20001221 -0.613797 0.720685 0.322284 0.000000
121.29499817 198.31399536 344.00000000 -0.416203 -0.864423 0.282043 0.000000
65.11229706 139.15400696 382.39999390 -0.825411 -0.500202 0.261716 0.000000
197.94099426 184.54699707 400.39999390 0.243912 -0.643614 -0.725443 0.000000
88.55280304 122.03900146 349.20001221 -0.225691 -0.904220 -0.362561 0.000000
209.84800720 145.85200500 409.20001221 -0.140975 0.160936 -0.976845 0.000000
69.94920349 181.94200134 405.60000610 -0.358442 -0.202973 0.911220 0.000000
61.01959991 149.19999695 322.39999390 -0.630765 -0.731940 -0.257681 0.000000
59.15919876 216.54499817 402.39999390 -0.689044 0.130036 0.712958 0.000000
174.12899780 130.96899414 412.39999390 0.001250 0.338631 -0.940919 0.000000
151.43299866 171.15199280 411.00000000 0.040883 0.169374 0.984704 0.000000
130.96899414 241.84599304 394.79998779 0.510692 0.340995 0.789251 0.000000
90.78520203 161.47900391 300.39999390 0.520970 0.477695 -0.707388 0.000000
134.31700134 255.24000549 360.79998779 0.821525 0.215708 -0.527795 0.000000
82.59960175 138.03799438 318.39999390 -0.329680 -0.824988 -0.459028 0.000000
43.53219986 186.03500366 292.79998779 -0.961167 -0.193816 -0.196453 0.000000
137.66600037 215.42900085 339.20001221 0.868505 0.412197 -0.275305 0.000000
91.52929688 145.10699463 411.60000610 -0.373353 -0.745076 0.552693 0.000000
118.31800079 151.43299866 346.39999390 -0.938369 -0.230061 -0.257947 0.000000
117.20200348 264.17001343 333.60000610 0.760658 0.067582 -0.645625 0.000000
101.20300293 270.12298584 318.79998779 0.695507 0.213164 -0.686171 0.000000
126.50399780 162.22300720 327.60000610 0.836742 -0.297612 -0.459663 0.000000
157.75799561 149.57200623 414.00000000 0.275163 0.089137 -0.957256 0.000000
65.11229706 137.66600037 368.00000000 -0.902207 -0.430569 -0.025172 0.000000
139.89799500 203.89500427 330.79998779 0.782951 0.352087 -0.512857 0.000000
63.25199890 255.61199951 309.60000610 -0.871390 0.475173 -0.122023 0.000000
50.60160065 243.70599365 331.00000000 -0.937505 0.306995 -0.163823 0.000000
60.27539825 155.15299988 385.60000610 -0.590570 -0.590570 0.549958 0.000000
139.89799500 113.48100281 370.39999390 -0.066782 0.977446 0.200346 0.000000
124.27200317 225.47500610 326.79998779 0.527595 0.302614 -0.793769 0.000000
49.11330032 176.36099243 276.39999390 -0.786402 -0.527990 -0.320622 0.000000
55.06639862 155.52499390 323.60000610 -0.629140 -0.700670 -0.336517 0.000000
102.69100189 221.00999451 414.79998779 -0.000978 -0.000978 0.999999 0.000000
139.52600098 201.66200256 329.60000610 0.707386 0.182601 -0.682834 0.000000
45.76470184 218.77699280 307.20001221 -0.982148 0.122921 0.142393 0.000000
71.43750000 215.05700684 410.00000000 -0.397192 0.118461 0.910058 0.000000
209.47599792 158.50199890 398.39999390 0.467878 -0.319795 -0.823906 0.000000
154.03700256 127.62000275 327.20001221 -0.105994 0.880454 0.462132 0.000000
54.69440079 159.24600220 311.20001221 -0.920643 -0.185260 -0.343650 0.000000
93.01760101 192.73300171 414.00000000 -0.405021 -0.049458 0.912969 0.000000
184.54699707 154.78100586 361.00000000 0.711600 -0.237200 -0.661333 0.000000
155.52499390 146.59599304 412.39999390 0.309332 0.133729 -0.941504 0.000000
130.96899414 264.17001343 377.20001221 0.736611 0.563483 0.374022 0.000000
98.22660065 237.38099670 309.20001221 0.622897 0.410281 -0.666084 0.000000
54.69440079 165.94299316 383.20001221 -0.700075 0.522968 0.486210 0.000000
42.78810120 230.68400574 375.20001221 -0.989041 0.058995 0.135342 0.000000
50.22949982 176.36099243 360.00000000 -0.903788 -0.413598 0.110014 0.000000
55.81060028 229.19500732 277.20001221 -0.785710 0.498530 -0.366234 0.000000
216.54499817 145.10699463 401.00000000 -0.746835 0.205650 -0.632413 0.000000
209.10400391 116.45800018 404.00000000 0.419077 0.278877 -0.864061 0.000000
108.64499664 257.47299194 394.00000000 0.333262 0.651893 0.681155 0.000000
162.22300720 188.26800537 355.60000610 -0.209712 -0.678844 -0.703699 0.000000
140.64300537 184.54699707 415.60000610 0.406906 0.109712 0.906858 0.000000
139.15400696 165.19900513 378.00000000 -0.233646 -0.060575 0.970433 0.000000
49.48540115 226.21899414 291.00000000 -0.930596 0.352519 -0.098597 0.000000
214.31300354 153.29299927 401.00000000 -0.481959 -0.875171 -0.042325 0.000000
41.29980087 206.87100220 365.60000610 -0.999999 -0.000978 -0.000978 0.000000
92.27349854 276.82000732 316.39999390 0.377469 0.677467 -0.631313 0.000000
95.99420166 216.54499817 415.60000610 -0.001098 0.132811 0.991141 0.000000
102.69100189 289.09899902 351.20001221 -0.705724 0.708486 -0.001381 0.000000
87.80860138 206.87100220 292.39999390 0.648710 0.067604 -0.758027 0.000000
134.69000244 165.94299316 416.39999390 0.226067 -0.133056 0.964982 0.000000
221.75399780 159.99000549 405.20001221 0.593664 -0.253528 -0.763732 0.000000
209.10400391 151.06100464 398.00000000 0.644552 -0.182189 -0.742536 0.000000
46.50880051 247.79899597 365.60000610 -0.917750 0.392556 0.060290 0.000000
192.73300171 115.71399689 404.00000000 -0.169946 0.884589 -0.434305 0.000000
139.89799500 193.84899902 353.60000610 -0.016597 0.933283 0.358759 0.000000
60.27539825 183.80299377 398.00000000 -0.412971 -0.118992 0.902937 0.000000
133.94500732 167.43200684 330.79998779 0.671925 0.445171 -0.591894 0.000000
131.71299744 199.42999268 413.20001221 0.448498 0.196866 0.871833 0.000000
146.59599304 145.10699463 410.00000000 -0.166063 0.333522 -0.928001 0.000000
205.38299561 148.82800293 409.20001221 -0.318533 -0.318533 -0.892790 0.000000
114.22599792 157.75799561 312.79998779 0.533080 0.096270 -0.840570 0.000000
109.01699829 131.71299744 310.39999390 -0.415124 -0.847350 -0.331166 0.000000
42.78810120 206.87100220 310.39999390 -0.966517 0.256374 0.010833 0.000000
146.59599304 208.35899353 395.60000610 0.040939 0.394864 0.917827 0.000000
119.06300354 225.47500610 319.60000610 0.704094 0.092220 -0.704094 0.000000
85.57620239 197.19700623 289.20001221 0.687593 0.073826 -0.722334 0.000000
57.67089844 197.94099426 400.79998779 -0.705693 -0.110958 0.699775 0.000000
79.62310028 248.54299927 291.60000610 -0.003962 0.888805 0.458269 0.000000
107.15599823 122.78299713 401.20001221 -0.107989 -0.436164 0.893364 0.000000
61.39160156 251.52000427 387.20001221 -0.702406 0.535563 0.468827 0.000000
190.12800598 179.33799744 392.79998779 0.972399 -0.078239 -0.219814 0.000000
94.50589752 277.93701172 372.79998779 -0.213330 0.727189 0.652446 0.000000
193.84899902 128.73599243 379.20001221 0.731997 0.510581 -0.451095 0.000000
51.71780014 164.45500183 316.79998779 -0.904043 -0.368314 -0.216912 0.000000
156.27000427 148.82800293 336.39999390 0.567225 0.641284 -0.516730 0.000000
140.64300537 226.21899414 396.39999390 0.446815 0.389162 0.805549 0.000000
148.82800293 212.45199585 356.79998779 -0.265366 0.691223 -0.672155 0.000000
175.61700439 119.43499756 352.79998779 -0.062060 0.958757 0.277368 0.000000
80.73930359 241.10200500 291.20001221 0.785522 0.197529 -0.586462 0.000000
43.53219986 192.73300171 284.79998779 -0.987570 0.021592 -0.155693 0.000000
153.29299927 209.47599792 373.60000610 0.910458 0.302512 0.282052 0.000000
148.08399963 195.70899963 336.39999390 0.297640 -0.807880 -0.508665 0.000000
51.34569931 211.33599854 395.60000610 -0.850895 0.012214 0.525194 0.000000
148.08399963 117.94599915 351.00000000 -0.050833 0.965824 0.254164 0.000000
107.15599823 178.96600342 309.60000610 0.864700 -0.472860 -0.169405 0.000000
128.36399841 112.36499786 368.00000000 -0.121509 0.980662 0.153420 0.000000
57.67089844 160.73399353 291.00000000 -0.766875 -0.641614 -0.015310 0.000000
108.64499664 135.06199646 408.00000000 -0.169154 -0.136576 0.976081 0.000000
57.67089844 261.93798828 347.20001221 -0.872073 0.484175 -0.071161 0.000000
43.53219986 210.59199524 304.00000000 -0.959428 0.275028 0.062103 0.000000
125.01599884 117.94599915 351.20001221 0.001297 0.906778 0.421606 0.000000
107.90000153 288.35501099 356.79998779 -0.072948 0.996236 0.046818 0.000000
56.55469894 155.89799500 355.20001221 -0.977553 -0.209222 0.024823 0.000000
137.66600037 193.47700500 411.60000610 0.588396 0.445048 0.675072 0.000000
46.13669968 216.54499817 314.00000000 -0.845944 0.509338 0.157969 0.000000
93.01760101 122.41100311 345.60000610 -0.411457 -0.849310 -0.330719 0.000000
119.80699921 268.26300049 380.00000000 0.284699 0.590074 0.755486 0.000000
160.73399353 118.69000244 351.20001221 -0.108121 0.894456 0.433888 0.000000
133.94500732 188.26800537 359.60000610 -0.237200 0.711600 0.661333 0.000000
125.38800049 117.57399750 351.00000000 0.001297 0.906778 0.421606 0.000000
106.41200256 287.23800659 339.60000610 0.239677 0.928927 -0.282224 0.000000
194.22099304 174.50100708 392.79998779 0.001350 0.541234 -0.840871 0.000000
72.18170166 246.31100464 283.60000610 0.082694 0.642689 -0.761651 0.000000
193.47700500 132.45700073 382.79998779 0.342804 0.826206 -0.447067 0.000000
93.01760101 199.42999268 415.60000610 -0.289885 -0.089695 0.952849 0.000000
169.66400146 120.17900085 408.00000000 0.049101 0.556941 -0.829099 0.000000
204.63900757 160.73399353 394.00000000 0.353142 0.048215 -0.934327 0.000000
148.82800293 202.40600586 399.60000610 0.004134 0.624185 0.781265 0.000000
139.52600098 245.56700134 378.39999390 0.871548 0.490162 0.012086 0.000000
108.64499664 196.45300293 358.79998779 -0.444379 -0.374297 -0.813898 0.000000
66.97270203 270.49499512 332.79998779 -0.415215 0.577331 -0.703054 0.000000
102.31900024 125.76000214 403.20001221 0.001344 -0.850780 0.525521 0.000000
184.91900635 193.47700500 391.20001221 0.949754 0.197016 0.243213 0.000000
156.27000427 200.17399597 402.79998779 0.496205 0.300873 0.814406 0.000000
61.39160156 241.10200500 284.79998779 -0.766755 0.635311 -0.092011 0.000000
117.57399750 185.66299438 317.60000610 0.836359 -0.398491 -0.376441 0.000000
51.71780014 158.50199890 337.60000610 -0.949363 -0.311371 0.041940 0.000000
86.69239807 132.45700073 328.79998779 -0.300878 -0.837157 -0.456773 0.000000
49.11330032 238.49699402 327.20001221 -0.941493 0.332825 -0.053097 0.000000
84.08789825 243.70599365 406.39999390 -0.001250 0.338631 0.940919 0.000000
66.22850037 272.72799683 353.60000610 -0.677706 0.725368 0.120647 0.000000
136.17799377 164.45500183 332.39999390 0.649240 0.240518 -0.721553 0.000000
219.14999390 157.01400757 402.39999390 0.811270 -0.213169 -0.544425 0.000000
42.78810120 186.03500366 331.20001221 -0.987213 -0.159082 0.010154 0.000000
90.41310120 135.43400574 315.20001221 -0.579627 -0.656911 -0.482183 0.000000
55.06639862 257.10101318 344.79998779 -0.809792 0.563399 -0.163761 0.000000
93.76180267 159.24600220 416.39999390 -0.456422 -0.076302 0.886486 0.000000
