91.51200104 182.28599548 448.50000000 -0.058591 0.624493 0.778830 0.000000
67.89600372 236.52900696 333.00000000 -0.525142 0.786915 -0.324024 0.000000
64.94400024 205.16400146 433.50000000 -0.315284 -0.945853 0.077186 0.000000
135.79200745 143.91000366 382.50000000 -0.259121 -0.777362 0.573206 0.000000
142.43400574 232.47000122 421.50000000 0.095475 0.724140 0.683012 0.000000
196.30799866 109.96199799 391.50000000 -0.667022 0.223382 0.710761 0.000000
177.11999512 149.44500732 384.00000000 0.195849 0.882055 0.428511 0.000000
84.87000275 242.06399536 424.50000000 -0.355364 0.437493 0.826024 0.000000
126.93599701 260.88299561 381.00000000 0.402756 0.884279 -0.236303 0.000000
138.74400330 219.18600464 427.50000000 0.792251 0.317219 0.521259 0.000000
40.22100067 152.02799988 396.00000000 -0.988187 -0.109537 0.107181 0.000000
126.93599701 242.80200195 424.50000000 0.849163 0.423805 0.315137 0.000000
130.62600708 170.47799683 445.50000000 0.000978 0.000978 0.999999 0.000000
56.45700073 180.07200623 435.00000000 -0.537462 -0.090294 0.838440 0.000000
216.23399353 140.22000122 421.50000000 0.000978 0.000978 0.999999 0.000000
213.28199768 86.34600067 412.50000000 -0.582967 0.572829 0.576208 0.000000
66.78900146 238.37399292 417.00000000 -0.602501 0.357582 0.713531 0.000000
38.74499893 197.04600525 375.00000000 -0.929758 0.367519 -0.021922 0.000000
53.13600159 228.41099548 408.00000000 -0.764109 0.558202 0.323339 0.000000
67.15799713 125.09100342 426.00000000 -0.586610 -0.666830 0.459594 0.000000
124.72200012 174.90600586 445.50000000 0.000978 0.000978 0.999999 0.000000
145.38600159 166.05000305 442.50000000 0.000978 0.000978 0.999999 0.000000
228.77999878 144.64799500 412.50000000 -0.947395 -0.008715 0.319948 0.000000
183.02400208 120.29399872 424.50000000 0.000978 0.000978 0.999999 0.000000
180.80999756 153.50399780 430.50000000 0.214379 -0.258638 0.941885 0.000000
40.59000015 151.65899658 399.00000000 -0.959428 -0.275028 0.062103 0.000000
173.42999268 140.22000122 430.50000000 0.000978 0.000978 0.999999 0.000000
60.51599884 222.87600708 319.50000000 -0.572584 0.663257 -0.481911 0.000000
49.81499863 222.13800049 411.00000000 -0.860896 0.415870 0.293104 0.000000
153.50399780 192.98699951 387.00000000 0.923783 0.308877 -0.226320 0.000000
156.45599365 164.20500183 378.00000000 0.162159 0.622874 0.765332 0.000000
112.54499817 256.82400513 417.00000000 0.209367 0.811487 0.545576 0.000000
207.00900269 93.72599792 408.00000000 -0.528267 0.037241 0.848261 0.000000
119.55599976 150.92100525 342.00000000 -0.830309 0.165466 0.532173 0.000000
73.06199646 235.42199707 325.50000000 -0.316659 0.797218 -0.513975 0.000000
59.04000092 160.88400269 301.50000000 0.001238 -0.320681 -0.947186 0.000000
114.75900269 138.00599670 342.00000000 -0.741950 0.514923 0.429377 0.000000
126.93599701 263.09698486 393.00000000 0.196078 0.977952 0.071855 0.000000
55.71900177 123.24600220 366.00000000 -0.915124 -0.306008 -0.262500 0.000000
38.00699997 186.71400452 354.00000000 -0.913250 -0.129668 -0.386214 0.000000
40.59000015 190.40400696 340.50000000 -0.953220 0.161767 -0.255351 0.000000
82.65599823 114.38999939 421.50000000 -0.274714 -0.744746 0.608182 0.000000
174.90600586 133.57800293 400.50000000 0.000978 0.000978 0.999999 0.000000
185.60699463 168.26400757 381.00000000 -0.402571 0.503621 -0.764396 0.000000
69.74099731 229.51800537 318.00000000 -0.462992 0.749684 -0.472877 0.000000
120.29399872 165.68099976 336.00000000 0.827602 -0.288336 -0.481599 0.000000
38.37599945 173.42999268 367.50000000 -0.967773 -0.097665 -0.232113 0.000000
185.97599792 148.33799744 379.50000000 0.152533 -0.875977 -0.457600 0.000000
94.09500122 140.95799255 297.00000000 -0.875341 0.219208 0.430960 0.000000
225.82800293 101.84400177 415.50000000 0.000978 0.000978 0.999999 0.000000
115.12799835 97.41600037 370.50000000 0.000978 0.000978 0.999999 0.000000
184.50000000 124.72200012 424.50000000 0.000978 0.000978 0.999999 0.000000
110.33100128 138.00599670 333.00000000 -0.913410 0.229435 0.336216 0.000000
130.62600708 260.51400757 400.50000000 0.505584 0.673552 0.539178 0.000000
56.08800125 232.10099792 354.00000000 -0.781846 0.604768 -0.151567 0.000000
67.89600372 131.36399841 433.50000000 0.001381 -0.713977 0.700167 0.000000
113.65200043 132.10200500 442.50000000 0.094393 -0.270248 0.958152 0.000000
104.05799866 225.08999634 352.50000000 0.486634 0.543491 -0.683963 0.000000
139.48199463 80.44200134 394.50000000 0.519471 -0.853906 0.031525 0.000000
40.95899963 165.31199646 357.00000000 -0.991271 -0.034880 -0.127144 0.000000
71.58599854 163.09800720 442.50000000 -0.353451 0.016588 0.935306 0.000000
73.80000305 168.26400757 445.50000000 -0.586934 -0.147854 0.796020 0.000000
140.22000122 109.22399902 367.50000000 -0.276165 -0.137416 0.951236 0.000000
45.38700104 193.35600281 327.00000000 -0.855684 0.215049 -0.470701 0.000000
137.26800537 219.18600464 382.50000000 0.789659 0.238300 -0.565377 0.000000
87.08399963 234.68400574 328.50000000 0.626041 0.626041 -0.464915 0.000000
61.99200058 218.44799805 313.50000000 -0.769804 0.493130 -0.405246 0.000000
172.69200134 133.57800293 430.50000000 0.290796 -0.067895 0.954373 0.000000
130.62600708 247.96800232 376.50000000 0.662914 -0.038164 -0.747722 0.000000
81.18000031 238.37399292 427.50000000 -0.217389 0.571995 0.790926 0.000000
109.96199799 120.29399872 436.50000000 -0.439792 -0.555964 0.705327 0.000000
126.93599701 177.11999512 445.50000000 0.000978 0.000978 0.999999 0.000000
89.29799652 223.61399841 325.50000000 0.908012 0.182176 -0.377262 0.000000
129.14999390 209.59199524 436.50000000 0.205790 0.171710 0.963414 0.000000
204.42599487 138.74400330 388.50000000 -0.787135 0.097844 0.608971 0.000000
80.44200134 140.58900452 285.00000000 -0.613932 -0.717604 -0.328834 0.000000
127.30500031 202.94999695 363.00000000 0.610660 0.553146 -0.566679 0.000000
132.10200500 95.94000244 364.50000000 -0.525285 0.277539 0.804392 0.000000
105.53399658 218.81700134 438.00000000 0.022945 0.481844 0.875957 0.000000
51.29100037 173.42999268 312.00000000 -0.877048 -0.091506 -0.471607 0.000000
102.95099640 147.60000610 312.00000000 -0.822423 0.326759 0.465671 0.000000
67.89600372 149.07600403 439.50000000 -0.756048 -0.316224 0.573056 0.000000
46.49399948 199.25999451 328.50000000 -0.913250 0.129668 -0.386214 0.000000
156.45599365 201.47399902 400.50000000 0.769704 0.576883 -0.273427 0.000000
115.49700165 137.26800537 348.00000000 -0.850745 0.515038 0.104729 0.000000
115.86599731 245.75399780 364.50000000 0.792599 -0.337855 -0.507583 0.000000
225.08999634 165.31199646 415.50000000 -0.555471 -0.403829 0.726893 0.000000
161.25300598 171.95399475 417.00000000 0.541402 0.311426 0.780960 0.000000
117.34200287 230.25599670 430.50000000 0.326043 0.653708 0.682906 0.000000
202.21200562 151.28999329 424.50000000 0.612205 0.097894 0.784616 0.000000
80.07299805 99.62999725 393.00000000 -0.457582 -0.828679 0.322351 0.000000
141.69599915 164.57400513 442.50000000 0.000978 0.000978 0.999999 0.000000
56.08800125 173.42999268 301.50000000 -0.970765 0.001182 -0.240031 0.000000
103.68900299 248.70599365 351.00000000 0.510149 -0.135942 -0.849275 0.000000
205.16400146 133.57800293 424.50000000 0.458183 0.279230 0.843859 0.000000
232.10099792 138.00599670 417.00000000 -0.337190 0.091961 0.936934 0.000000
45.38700104 138.74400330 396.00000000 -0.945853 -0.315284 0.077186 0.000000
95.20200348 163.83599854 448.50000000 0.000978 0.000978 0.999999 0.000000
101.84400177 157.19400024 307.50000000 -0.830979 0.130436 0.540796 0.000000
182.28599548 148.70700073 387.00000000 0.940595 -0.337485 -0.037213 0.000000
107.01000214 137.26800537 325.50000000 -0.792753 0.374668 0.480797 0.000000
75.27600098 130.62600708 436.50000000 -0.593182 -0.456165 0.663361 0.000000
189.66600037 114.02100372 384.00000000 -0.386548 0.192550 0.901945 0.000000
113.65200043 179.33399963 445.50000000 0.348867 0.312621 0.883493 0.000000
99.62999725 156.45599365 304.50000000 -0.812881 0.124946 0.568870 0.000000
54.61199951 123.24600220 373.50000000 -0.797034 -0.579249 -0.170901 0.000000
119.55599976 163.83599854 337.50000000 0.891119 -0.440632 -0.108398 0.000000
194.09399414 95.20200348 397.50000000 -0.649923 0.209403 0.730582 0.000000
64.94400024 148.70700073 303.00000000 -0.000978 -0.000978 -0.999999 0.000000
161.62199402 110.33100128 396.00000000 0.395713 -0.918106 0.022202 0.000000
141.69599915 188.19000244 361.50000000 0.676535 0.676535 -0.290862 0.000000
122.50800323 141.32699585 375.00000000 -0.789843 -0.610527 -0.058349 0.000000
79.33499908 245.75399780 420.00000000 -0.103993 0.604917 0.789468 0.000000
145.38600159 154.97999573 442.50000000 0.000978 0.000978 0.999999 0.000000
53.13600159 135.05400085 346.50000000 -0.854434 -0.409449 -0.319834 0.000000
121.03199768 248.70599365 421.50000000 0.342730 0.596123 0.726068 0.000000
215.12699890 146.12399292 399.00000000 -0.143207 0.722065 0.676841 0.000000
191.88000488 165.68099976 381.00000000 0.286171 0.634692 -0.717825 0.000000
148.33799744 151.28999329 442.50000000 0.000978 0.000978 0.999999 0.000000
115.12799835 242.43299866 363.00000000 0.794699 0.058287 -0.604199 0.000000
115.12799835 180.07200623 445.50000000 0.000978 0.000978 0.999999 0.000000
175.64399719 144.64799500 430.50000000 0.278831 -0.120254 0.952781 0.000000
60.51599884 147.60000610 313.50000000 -0.758162 -0.489612 -0.430662 0.000000
146.12399292 171.21600342 355.50000000 0.000978 0.000978 -0.999999 0.000000
57.56399918 215.49600220 424.50000000 -0.615952 0.142373 0.774811 0.000000
195.57000732 133.57800293 424.50000000 0.000978 0.000978 0.999999 0.000000
58.67100143 242.06399536 396.00000000 -0.727650 0.685427 0.026741 0.000000
116.60399628 101.47499847 414.00000000 -0.201238 -0.866070 0.457631 0.000000
76.01399994 147.23100281 285.00000000 -0.671728 -0.487463 -0.557819 0.000000
161.62199402 144.27900696 438.00000000 0.516215 -0.502850 0.693299 0.000000
143.17199707 178.59599304 439.50000000 0.000978 0.000978 0.999999 0.000000
180.07200623 116.60399628 379.50000000 0.000978 0.000978 0.999999 0.000000
208.11599731 117.34200287 424.50000000 0.333036 0.345202 0.877452 0.000000
219.92399597 118.81800079 412.50000000 -0.717947 0.691840 0.076871 0.000000
115.86599731 257.93099976 414.00000000 0.324233 0.740412 0.588781 0.000000
152.76600647 171.58500671 363.00000000 0.824476 -0.245031 0.510097 0.000000
174.16799927 119.55599976 424.50000000 0.000978 0.000978 0.999999 0.000000
221.39999390 98.15399933 415.50000000 0.000978 0.000978 0.999999 0.000000
207.37800598 109.22399902 403.50000000 -0.623448 0.325489 0.710893 0.000000
49.44599915 145.01699829 417.00000000 -0.792643 -0.282074 0.540510 0.000000
49.44599915 150.55200195 421.50000000 -0.745711 -0.299888 0.594965 0.000000
95.94000244 264.20401001 382.50000000 -0.154488 0.987580 0.028609 0.000000
78.96600342 254.61000061 367.50000000 -0.598995 0.789247 -0.135257 0.000000
90.03600311 212.54400635 439.50000000 0.000978 0.000978 0.999999 0.000000
57.56399918 153.50399780 430.50000000 -0.617981 -0.091607 0.780838 0.000000
177.48899841 169.00199890 420.00000000 -0.405555 0.793337 0.454028 0.000000
170.47799683 81.18000031 406.50000000 -0.320040 -0.797711 0.511108 0.000000
60.51599884 221.39999390 424.50000000 -0.619675 0.376407 0.688710 0.000000
38.37599945 166.78799438 370.50000000 -0.975922 -0.064574 -0.208343 0.000000
46.12500000 136.52999878 396.00000000 -0.945853 -0.315284 0.077186 0.000000
67.15799713 235.42199707 418.50000000 -0.556483 0.499322 0.664081 0.000000
96.67800140 132.83999634 442.50000000 0.877075 -0.415299 -0.241383 0.000000
138.00599670 180.07200623 352.50000000 0.451261 0.313853 -0.835380 0.000000
190.40400696 94.46399689 421.50000000 -0.490141 -0.209630 0.846060 0.000000
119.55599976 117.71099854 432.00000000 0.076838 -0.679939 0.729231 0.000000
222.87600708 132.83999634 409.50000000 -0.545956 0.048871 0.836387 0.000000
120.29399872 120.66300201 435.00000000 0.269408 -0.699823 0.661564 0.000000
185.23800659 126.19799805 424.50000000 0.000978 0.000978 0.999999 0.000000
100.36799622 134.31599426 313.50000000 -0.872809 0.130849 0.470195 0.000000
95.57099915 169.74000549 300.00000000 -0.909394 -0.272964 0.313836 0.000000
185.97599792 143.17199707 385.50000000 0.000978 0.000978 0.999999 0.000000
60.14699936 118.08000183 360.00000000 0.000978 0.000978 -0.999999 0.000000
83.39399719 225.45899963 315.00000000 0.694494 0.513758 -0.503717 0.000000
134.31599426 211.06799316 433.50000000 0.349593 0.224842 0.909522 0.000000
102.58200073 101.10600281 358.50000000 -0.936894 -0.348939 -0.021729 0.000000
211.06799316 125.45999908 421.50000000 0.000978 0.000978 0.999999 0.000000
93.72599792 205.16400146 442.50000000 0.166838 0.557631 0.813150 0.000000
209.59199524 95.94000244 409.50000000 -0.367871 0.087588 0.925742 0.000000
139.48199463 228.04200745 385.50000000 0.557639 0.150191 -0.816383 0.000000
60.88499832 216.23399353 312.00000000 -0.746625 0.530022 -0.402029 0.000000
59.04000092 202.21200562 430.50000000 0.000978 0.000978 0.999999 0.000000
40.22100067 205.16400146 384.00000000 -0.982336 0.156253 0.102958 0.000000
42.43500137 208.11599731 405.00000000 -0.933331 0.287719 0.214736 0.000000
205.90199280 115.12799835 424.50000000 0.000978 0.000978 0.999999 0.000000
134.31599426 178.59599304 442.50000000 0.000978 0.000978 0.999999 0.000000
104.05799866 97.41600037 406.50000000 -0.001307 -0.897798 0.440405 0.000000
98.89199829 204.42599487 442.50000000 0.085401 0.054346 0.994863 0.000000
151.65899658 208.11599731 402.00000000 0.810385 0.398000 -0.429968 0.000000
166.78799438 83.39399719 406.50000000 -0.516122 -0.653979 0.553108 0.000000
65.68199921 127.30500031 426.00000000 -0.702355 -0.398276 0.589978 0.000000
197.41499329 157.93200684 384.00000000 0.824914 -0.318967 -0.466666 0.000000
152.76600647 138.74400330 382.50000000 0.116961 -0.939724 0.321308 0.000000
93.72599792 187.45199585 307.50000000 -0.855307 -0.370995 0.361681 0.000000
186.34500122 177.11999512 390.00000000 -0.978090 0.171877 -0.117470 0.000000
124.72200012 90.03600311 364.50000000 0.000978 0.000978 0.999999 0.000000
76.75199890 211.06799316 436.50000000 0.000978 0.000978 0.999999 0.000000
143.17199707 149.81399536 442.50000000 0.000978 0.000978 0.999999 0.000000
74.90699768 250.91999817 360.00000000 -0.521304 0.833786 -0.181780 0.000000
211.06799316 160.88400269 406.50000000 -0.044429 -0.900696 0.432172 0.000000
107.74800110 185.23800659 445.50000000 0.000978 0.000978 0.999999 0.000000
140.95799255 134.31599426 370.50000000 0.000978 0.000978 0.999999 0.000000
109.96199799 138.00599670 445.50000000 0.158616 -0.192145 0.968463 0.000000
68.63400269 128.41200256 322.50000000 -0.771752 -0.381814 -0.508544 0.000000
227.30400085 140.95799255 421.50000000 0.000978 0.000978 0.999999 0.000000
68.63400269 228.04200745 427.50000000 -0.000978 -0.000978 0.999999 0.000000
54.98099899 236.16000366 381.00000000 -0.722145 0.683749 -0.104851 0.000000
92.98799896 97.41600037 400.50000000 -0.155998 -0.827533 0.539308 0.000000
98.15399933 186.71400452 316.50000000 0.814899 0.493353 -0.304208 0.000000
102.58200073 191.14199829 328.50000000 0.482728 0.539519 -0.689850 0.000000
134.31599426 164.57400513 445.50000000 0.000978 0.000978 0.999999 0.000000
132.83999634 234.68400574 379.50000000 0.836574 0.254208 -0.485306 0.000000
211.80599976 102.58200073 409.50000000 -0.471707 0.525045 0.708393 0.000000
71.58599854 157.93200684 283.50000000 -0.802401 -0.397181 -0.445421 0.000000
107.01000214 146.12399292 448.50000000 0.000978 0.000978 0.999999 0.000000
205.90199280 137.26800537 421.50000000 0.191397 0.341678 0.920121 0.000000
174.16799927 165.31199646 376.50000000 -0.132588 -0.106310 0.985454 0.000000
124.72200012 248.33700562 420.00000000 0.307580 0.629654 0.713393 0.000000
197.78399658 156.82499695 423.00000000 -0.001262 0.354578 0.935026 0.000000
72.32399750 141.69599915 298.50000000 -0.731652 -0.547506 -0.406108 0.000000
126.56700134 225.08999634 375.00000000 -0.308877 0.923783 -0.226320 0.000000
85.60800171 108.48600006 415.50000000 -0.366299 -0.779394 0.508301 0.000000
210.33000183 159.77699280 405.00000000 -0.027745 -0.907649 0.418813 0.000000
84.87000275 107.74800110 412.50000000 -0.304287 -0.854165 0.421677 0.000000
121.03199768 80.44200134 388.50000000 -0.161115 -0.796539 0.582724 0.000000
51.65999985 169.00199890 313.50000000 -0.913373 -0.153876 -0.376925 0.000000
43.54199982 145.38600159 367.50000000 -0.626041 -0.626041 0.464915 0.000000
89.66699982 249.44400024 342.00000000 0.082748 0.648918 -0.756345 0.000000
131.36399841 101.10600281 415.50000000 -0.009682 -0.781506 0.623822 0.000000
75.27600098 162.36000061 445.50000000 -0.330637 0.235344 0.913943 0.000000
114.38999939 169.00199890 328.50000000 0.842596 -0.108396 -0.527525 0.000000
98.15399933 188.19000244 319.50000000 0.845600 0.446761 -0.292173 0.000000
137.26800537 202.21200562 373.50000000 0.678744 0.394695 -0.619292 0.000000
135.79200745 179.33399963 442.50000000 0.169737 0.167185 0.971205 0.000000
45.38700104 222.13800049 372.00000000 -0.826124 0.552207 -0.112190 0.000000
52.76699829 233.94599915 393.00000000 -0.878517 0.471977 -0.073790 0.000000
151.28999329 178.59599304 367.50000000 0.678915 0.678915 -0.279553 0.000000
100.36799622 168.26400757 448.50000000 -0.205575 0.629092 0.749655 0.000000
194.83200073 148.33799744 424.50000000 0.000978 0.000978 0.999999 0.000000
92.98799896 86.71499634 375.00000000 -0.398833 -0.897736 0.187089 0.000000
58.30199814 129.88800049 340.50000000 -0.889425 -0.444008 -0.108535 0.000000
83.76300049 104.05799866 330.00000000 -0.588185 -0.697537 -0.409244 0.000000
88.55999756 104.79599762 409.50000000 -0.223382 -0.667022 0.710761 0.000000
121.76999664 191.88000488 442.50000000 0.000978 0.000978 0.999999 0.000000
74.53800201 253.50300598 390.00000000 -0.484175 0.872073 -0.071161 0.000000
57.56399918 157.93200684 433.50000000 -0.785589 -0.541183 0.299952 0.000000
58.67100143 150.55200195 312.00000000 -0.767485 -0.456564 -0.450018 0.000000
80.44200134 142.06500244 444.00000000 -0.432202 -0.290698 0.853637 0.000000
226.56599426 98.15399933 421.50000000 -0.226320 0.923783 0.308877 0.000000
133.57800293 122.50800323 370.50000000 0.000978 0.000978 0.999999 0.000000
97.41600037 263.83499146 372.00000000 -0.360947 0.910277 -0.202763 0.000000
115.86599731 247.96800232 361.50000000 0.626041 -0.626041 -0.464915 0.000000
68.26499939 128.41200256 324.00000000 -0.743864 -0.402311 -0.533678 0.000000
191.88000488 126.19799805 424.50000000 0.000978 0.000978 0.999999 0.000000
105.53399658 160.88400269 313.50000000 -0.853161 0.031599 0.520689 0.000000
99.62999725 155.71800232 448.50000000 0.000978 0.000978 0.999999 0.000000
138.37500000 219.92399597 384.00000000 0.675817 -0.046951 -0.735573 0.000000
119.55599976 240.58799744 424.50000000 0.327423 0.522280 0.787412 0.000000
120.29399872 130.62600708 442.50000000 0.115440 -0.211852 0.970460 0.000000
90.77400208 233.94599915 334.50000000 0.799441 0.012427 -0.600616 0.000000
83.39399719 245.01600647 424.50000000 -0.287136 0.460970 0.839679 0.000000
127.67400360 157.93200684 445.50000000 -0.000978 -0.000978 0.999999 0.000000
107.01000214 258.66900635 357.00000000 0.424048 0.686791 -0.590341 0.000000
68.63400269 162.36000061 442.50000000 -0.407290 -0.086395 0.909203 0.000000
165.31199646 139.48199463 433.50000000 0.452683 -0.488898 0.745692 0.000000
115.49700165 147.60000610 447.00000000 0.242465 -0.846340 0.474256 0.000000
104.79599762 264.94198608 376.50000000 0.001182 0.970765 -0.240031 0.000000
135.79200745 160.88400269 355.50000000 0.126643 -0.740487 -0.660031 0.000000
124.72200012 139.48199463 376.50000000 -0.208775 0.192817 0.958767 0.000000
107.37899780 210.33000183 351.00000000 0.755890 0.323953 -0.568932 0.000000
84.13200378 243.53999329 424.50000000 -0.309051 0.508746 0.803533 0.000000
128.41200256 72.32399750 376.50000000 -0.192865 -0.966914 0.166977 0.000000
107.74800110 126.19799805 364.50000000 -0.748767 0.549748 0.370305 0.000000
86.34600067 109.96199799 418.50000000 -0.219480 -0.754947 0.617967 0.000000
99.62999725 216.23399353 439.50000000 -0.075001 0.158335 0.984533 0.000000
39.85200119 155.34899902 396.00000000 -0.988187 -0.109537 0.107181 0.000000
118.08000183 184.50000000 445.50000000 0.101684 0.356573 0.928717 0.000000
135.42300415 192.61799622 360.00000000 0.522788 0.670715 -0.526150 0.000000
83.39399719 115.12799835 421.50000000 -0.250361 -0.757381 0.603070 0.000000
59.77799988 239.85000610 373.50000000 -0.696449 0.696449 -0.172964 0.000000
79.70400238 254.61000061 364.50000000 -0.606939 0.780778 -0.148363 0.000000
76.01399994 190.40400696 442.50000000 0.000978 0.000978 0.999999 0.000000
130.25700378 160.88400269 375.00000000 -0.970765 0.001182 -0.240031 0.000000
162.72900391 192.61799622 411.00000000 0.970179 0.152512 -0.188397 0.000000
80.07299805 199.99800110 441.00000000 -0.001238 0.320681 0.947186 0.000000
110.69999695 236.89799500 358.50000000 0.595731 -0.076081 -0.799572 0.000000
73.43099976 101.10600281 363.00000000 -0.749655 -0.629092 -0.205575 0.000000
63.83700180 109.22399902 375.00000000 -0.744371 -0.621620 -0.243927 0.000000
73.06199646 199.99800110 439.50000000 -0.299142 0.261569 0.917658 0.000000
114.38999939 130.62600708 442.50000000 0.000978 0.000978 0.999999 0.000000
210.33000183 85.60800171 412.50000000 -0.668452 0.484167 0.564583 0.000000
145.38600159 163.46699524 366.00000000 0.080005 0.737502 -0.670589 0.000000
208.85400391 85.60800171 409.50000000 -0.586961 0.157624 0.794123 0.000000
138.74400330 209.59199524 433.50000000 0.000978 0.000978 0.999999 0.000000
148.33799744 166.05000305 442.50000000 0.000978 0.000978 0.999999 0.000000
127.30500031 149.07600403 369.00000000 -0.742710 0.651951 0.152777 0.000000
95.20200348 163.83599854 295.50000000 -0.815389 -0.147037 0.559930 0.000000
120.29399872 156.08700562 342.00000000 -0.768629 0.435719 0.468358 0.000000
112.17600250 260.51400757 412.50000000 0.182010 0.750983 0.634741 0.000000
46.86299896 146.12399292 414.00000000 -0.788460 -0.129183 0.601368 0.000000
80.81099701 108.48600006 411.00000000 -0.397513 -0.812586 0.426248 0.000000
149.81399536 189.29699707 435.00000000 0.411062 0.003890 0.911599 0.000000
98.15399933 158.66999817 448.50000000 0.000978 0.000978 0.999999 0.000000
206.63999939 113.65200043 400.50000000 -0.646007 0.202942 0.735860 0.000000
100.73699951 109.96199799 330.00000000 -0.996710 0.001052 0.081042 0.000000
189.66600037 130.62600708 424.50000000 0.063994 -0.093184 0.993590 0.000000
129.14999390 134.31599426 373.50000000 0.380229 -0.679803 0.627131 0.000000
98.89199829 137.26800537 310.50000000 -0.720148 0.343005 0.603104 0.000000
199.62899780 163.09800720 396.00000000 0.883955 -0.382697 0.268638 0.000000
116.97299957 239.11199951 366.00000000 0.688264 -0.209742 -0.694479 0.000000
149.44500732 230.25599670 411.00000000 0.976309 0.194272 -0.095280 0.000000
153.50399780 113.65200043 370.50000000 0.000978 0.000978 0.999999 0.000000
159.40800476 123.98400116 391.50000000 -0.385241 -0.846906 0.366525 0.000000
101.84400177 256.08599854 418.50000000 0.118867 0.814457 0.567918 0.000000
67.15799713 171.21600342 283.50000000 -0.901939 -0.080996 -0.424200 0.000000
80.44200134 184.50000000 445.50000000 0.000978 0.000978 0.999999 0.000000
225.82800293 118.08000183 415.50000000 -0.143340 0.104795 0.984110 0.000000
213.28199768 121.76999664 403.50000000 -0.000978 -0.000978 0.999999 0.000000
88.19100189 213.28199768 318.00000000 -0.667564 0.667564 -0.329721 0.000000
106.27200317 101.10600281 412.50000000 -0.167558 -0.798541 0.578150 0.000000
127.67400360 173.42999268 445.50000000 0.000978 0.000978 0.999999 0.000000
97.41600037 164.57400513 448.50000000 0.000978 0.000978 0.999999 0.000000
185.23800659 132.83999634 382.50000000 -0.542305 -0.436166 0.718098 0.000000
96.67800140 260.14498901 360.00000000 -0.175018 0.948354 -0.264562 0.000000
68.63400269 219.92399597 430.50000000 -0.361016 0.348726 0.864903 0.000000
86.34600067 197.04600525 289.50000000 -0.678915 -0.678915 0.279553 0.000000
207.37800598 80.44200134 418.50000000 -0.209161 -0.742135 0.636779 0.000000
135.05400085 232.47000122 424.50000000 0.110895 -0.433755 0.894181 0.000000
133.57800293 109.96199799 424.50000000 -0.095008 -0.644592 0.758601 0.000000
107.01000214 122.50800323 337.50000000 -0.873648 0.436080 0.215807 0.000000
122.50800323 199.99800110 355.50000000 0.639616 0.555234 -0.531607 0.000000
180.07200623 164.57400513 376.50000000 0.229435 0.913410 -0.336216 0.000000
211.06799316 87.82199860 412.50000000 -0.668452 0.484167 0.564583 0.000000
152.76600647 95.94000244 391.50000000 -0.673918 0.247787 0.696014 0.000000
149.81399536 155.71800232 442.50000000 0.000978 0.000978 0.999999 0.000000
91.51200104 203.31900024 321.00000000 -0.908148 -0.329039 0.258844 0.000000
155.71800232 98.52300262 393.00000000 -0.760781 0.133025 0.635230 0.000000
193.35600281 114.38999939 385.50000000 -0.602596 0.318261 0.731839 0.000000
155.71800232 143.91000366 439.50000000 0.099786 0.029607 0.994568 0.000000
74.53800201 210.33000183 436.50000000 0.000978 0.000978 0.999999 0.000000
153.87300110 178.59599304 378.00000000 0.804402 -0.001366 -0.594083 0.000000
104.79599762 183.02400208 445.50000000 0.000978 0.000978 0.999999 0.000000
65.31300354 142.43400574 309.00000000 -0.838906 -0.503343 -0.207081 0.000000
169.00199890 115.12799835 421.50000000 0.894688 -0.446689 -0.001310 0.000000
64.57499695 239.11199951 345.00000000 -0.704008 0.595192 -0.387452 0.000000
94.46399689 128.78100586 306.00000000 -0.698335 0.333703 0.633222 0.000000
184.50000000 154.97999573 376.50000000 -0.000978 -0.000978 -0.999999 0.000000
160.88400269 118.81800079 427.50000000 0.059573 -0.868655 0.491822 0.000000
66.41999817 175.64399719 283.50000000 -0.908734 -0.077658 -0.410088 0.000000
99.99900055 162.36000061 303.00000000 -0.771901 -0.422669 0.474890 0.000000
227.30400085 113.65200043 421.50000000 -0.850494 -0.020477 -0.525586 0.000000
67.15799713 175.64399719 283.50000000 -0.901939 -0.080996 -0.424200 0.000000
187.45199585 142.43400574 427.50000000 0.433403 0.166693 0.885650 0.000000
217.71000671 132.10200500 406.50000000 -0.520965 0.467703 0.714038 0.000000
61.99200058 219.18600464 313.50000000 -0.755934 0.483732 -0.441098 0.000000
50.18399811 130.62600708 373.50000000 -0.918920 -0.393072 -0.032866 0.000000
79.70400238 247.96800232 343.50000000 -0.436080 0.873648 0.215807 0.000000
112.17600250 194.83200073 442.50000000 0.010040 0.143913 0.989539 0.000000
81.18000031 116.60399628 316.50000000 -0.223382 -0.667022 -0.710761 0.000000
135.05400085 248.70599365 415.50000000 0.551722 0.279813 0.785689 0.000000
81.91799927 99.62999725 340.50000000 -0.615810 -0.719253 -0.321643 0.000000
70.47899628 109.22399902 351.00000000 -0.809173 -0.506325 -0.298117 0.000000
61.25400162 207.37800598 304.50000000 -0.251383 0.276948 -0.927419 0.000000
166.78799438 110.69999695 418.50000000 -0.313330 -0.573636 0.756813 0.000000
177.11999512 129.88800049 379.50000000 -0.304555 -0.399442 0.864692 0.000000
105.53399658 110.69999695 367.50000000 -0.797446 -0.180754 0.575680 0.000000
126.19799805 156.45599365 445.50000000 0.000978 0.000978 0.999999 0.000000
107.01000214 212.54400635 439.50000000 0.000978 0.000978 0.999999 0.000000
98.89199829 155.71800232 448.50000000 0.000978 0.000978 0.999999 0.000000
208.85400391 115.12799835 424.50000000 0.000978 0.000978 0.999999 0.000000
188.19000244 101.84400177 421.50000000 0.043706 0.799405 0.599201 0.000000
86.34600067 200.36700439 294.00000000 -0.868135 -0.335312 0.365934 0.000000
181.54800415 146.49299622 390.00000000 0.907290 -0.420260 -0.014401 0.000000
39.48300171 188.92799377 345.00000000 -0.970765 -0.001182 -0.240031 0.000000
186.71400452 127.67400360 382.50000000 -0.299891 -0.308755 0.902627 0.000000
96.30899811 126.93599701 309.00000000 -0.737966 0.374710 0.561247 0.000000
101.84400177 240.58799744 430.50000000 -0.028052 0.252472 0.967198 0.000000
165.31199646 90.03600311 409.50000000 -0.644125 -0.427752 0.634138 0.000000
145.38600159 158.66999817 442.50000000 0.000978 0.000978 0.999999 0.000000
146.12399292 177.85800171 355.50000000 -0.000978 -0.000978 -0.999999 0.000000
174.16799927 152.76600647 382.50000000 0.297231 0.724602 0.621776 0.000000
211.06799316 105.53399658 406.50000000 -0.668186 0.216499 0.711797 0.000000
118.81800079 121.76999664 436.50000000 0.311448 -0.614827 0.724560 0.000000
80.07299805 242.06399536 423.00000000 -0.402584 0.537327 0.741084 0.000000
73.06199646 230.25599670 316.50000000 0.001307 0.897798 0.440405 0.000000
43.91099930 145.38600159 405.00000000 -0.534077 -0.534077 0.655381 0.000000
138.74400330 129.14999390 439.50000000 0.000978 0.000978 0.999999 0.000000
66.41999817 180.80999756 283.50000000 -0.840311 0.391098 -0.375391 0.000000
136.52999878 168.26400757 373.50000000 -0.296474 0.943573 0.147560 0.000000
56.08800125 226.19700623 336.00000000 -0.776405 0.550020 -0.307692 0.000000
206.27099609 153.50399780 393.00000000 -0.365386 -0.617715 0.696363 0.000000
121.76999664 113.28299713 429.00000000 0.037368 -0.541149 0.840096 0.000000
161.62199402 152.02799988 439.50000000 0.201456 0.416146 0.886700 0.000000
113.65200043 124.72200012 439.50000000 0.000978 0.000978 0.999999 0.000000
126.19799805 233.94599915 373.50000000 0.756281 -0.218964 -0.616517 0.000000
107.74800110 240.58799744 355.50000000 0.755666 -0.101245 -0.647085 0.000000
114.38999939 214.02000427 439.50000000 0.000978 0.000978 0.999999 0.000000
94.83300018 183.76199341 306.00000000 -0.853687 -0.395082 0.339306 0.000000
110.69999695 195.20100403 339.00000000 0.534077 0.534077 -0.655381 0.000000
224.35200500 162.36000061 412.50000000 -0.580454 -0.506425 0.637658 0.000000
141.69599915 168.26400757 352.50000000 -0.549065 -0.751094 -0.366586 0.000000
86.34600067 252.39599609 346.50000000 -0.271104 0.853136 -0.445714 0.000000
94.46399689 202.21200562 328.50000000 -0.752261 -0.472426 0.459258 0.000000
132.10200500 75.27600098 385.50000000 -0.000978 -0.000978 0.999999 0.000000
97.41600037 200.73599243 442.50000000 0.000978 0.000978 0.999999 0.000000
107.01000214 233.94599915 355.50000000 0.766490 0.192006 -0.612884 0.000000
158.66999817 174.16799927 394.50000000 0.704321 0.695272 -0.143277 0.000000
45.38700104 176.38200378 327.00000000 -0.913529 -0.106096 -0.392694 0.000000
61.62300110 124.72200012 339.00000000 -0.747416 -0.534803 -0.394151 0.000000
218.81700134 90.03600311 423.00000000 0.387591 -0.317120 0.865568 0.000000
138.00599670 98.52300262 414.00000000 0.114498 -0.938883 0.324635 0.000000
62.72999954 110.69999695 397.50000000 -0.527862 -0.704371 0.474576 0.000000
72.32399750 247.96800232 355.50000000 -0.485742 0.731100 -0.479111 0.000000
106.64099884 91.51200104 354.00000000 -0.696449 -0.696449 -0.172964 0.000000
125.09100342 146.12399292 372.00000000 -0.696449 0.696449 0.172964 0.000000
50.55300140 132.83999634 360.00000000 -0.795668 -0.597842 -0.097458 0.000000
67.89600372 183.76199341 283.50000000 -0.823052 0.212253 -0.526815 0.000000
64.94400024 188.92799377 439.50000000 -0.411705 0.187668 0.891785 0.000000
152.76600647 169.74000549 361.50000000 0.669740 0.196437 -0.716143 0.000000
189.66600037 115.86599731 424.50000000 0.000978 0.000978 0.999999 0.000000
48.70800018 200.73599243 322.50000000 -0.938459 0.189350 -0.288863 0.000000
47.97000122 141.69599915 352.50000000 -0.918433 -0.278269 -0.281153 0.000000
192.61799622 169.74000549 415.50000000 0.703063 0.489305 0.516025 0.000000
86.34600067 105.53399658 409.50000000 -0.277564 -0.832692 0.479147 0.000000
112.91400146 117.34200287 433.50000000 -0.061651 -0.769924 0.635151 0.000000
132.83999634 190.40400696 439.50000000 0.206138 0.156872 0.965867 0.000000
90.40499878 186.71400452 294.00000000 -0.914863 -0.256626 0.311720 0.000000
110.69999695 197.78399658 442.50000000 0.000978 0.000978 0.999999 0.000000
188.19000244 79.70400238 412.50000000 0.015266 -0.773001 0.634221 0.000000
191.14199829 149.07600403 385.50000000 0.000978 0.000978 0.999999 0.000000
206.63999939 82.28700256 420.00000000 -0.593979 -0.463471 0.657559 0.000000
60.51599884 122.50800323 415.50000000 -0.635457 -0.318537 0.703369 0.000000
233.94599915 158.66999817 418.50000000 0.965142 0.191465 0.178441 0.000000
50.18399811 132.10200500 406.50000000 -0.759395 -0.406644 0.507897 0.000000
165.31199646 133.94700623 432.00000000 0.297957 -0.342875 0.890875 0.000000
103.31999969 98.89199829 346.50000000 -0.937477 -0.311577 -0.155102 0.000000
132.10200500 83.39399719 367.50000000 -0.452062 0.210366 0.866825 0.000000
121.03199768 235.42199707 427.50000000 0.000978 0.000978 0.999999 0.000000
45.75600052 157.19400024 418.50000000 -0.777362 -0.259121 0.573206 0.000000
70.11000061 146.12399292 295.50000000 -0.765887 -0.498072 -0.406622 0.000000
74.53800201 99.26100159 381.00000000 -0.453556 -0.879754 0.142546 0.000000
49.81499863 131.36399841 375.00000000 -0.918920 -0.393072 -0.032866 0.000000
42.80400085 150.18299866 408.00000000 -0.534077 -0.534077 0.655381 0.000000
130.25700378 159.40800476 375.00000000 -0.972189 -0.153771 0.176646 0.000000
67.89600372 187.45199585 283.50000000 -0.946025 0.110436 -0.304697 0.000000
68.63400269 187.45199585 283.50000000 -0.946025 0.110436 -0.304697 0.000000
57.56399918 135.79200745 334.50000000 -0.713903 -0.464287 -0.524195 0.000000
199.99800110 99.62999725 424.50000000 0.000978 0.000978 0.999999 0.000000
193.35600281 80.44200134 415.50000000 -0.427619 -0.657236 0.620631 0.000000
219.92399597 119.55599976 412.50000000 -0.717947 0.691840 0.076871 0.000000
111.43800354 88.55999756 397.50000000 -0.465656 -0.559121 0.685966 0.000000
115.86599731 95.57099915 405.00000000 0.054220 -0.855002 0.515782 0.000000
114.38999939 150.92100525 333.00000000 -0.840419 0.517295 0.161562 0.000000
90.03600311 191.88000488 298.50000000 -0.918306 -0.335617 0.209939 0.000000
101.47499847 134.31599426 315.00000000 -0.918880 0.173613 0.354284 0.000000
45.01800156 162.36000061 418.50000000 -0.854099 -0.189303 0.484437 0.000000
115.86599731 109.22399902 373.50000000 -0.000978 -0.000978 0.999999 0.000000
91.51200104 169.00199890 448.50000000 0.000978 0.000978 0.999999 0.000000
99.62999725 255.34800720 349.50000000 0.090962 -0.460409 -0.883034 0.000000
132.10200500 127.67400360 370.50000000 -0.000978 -0.999999 -0.000978 0.000000
105.53399658 92.98799896 352.50000000 -0.912153 -0.400691 0.086155 0.000000
88.55999756 193.35600281 292.50000000 -0.962659 -0.263001 0.064177 0.000000
86.71499634 188.92799377 285.00000000 -0.916649 -0.103071 0.386174 0.000000
78.96600342 101.84400177 397.50000000 -0.498764 -0.748968 0.436212 0.000000
156.82499695 174.90600586 384.00000000 0.696449 0.696449 -0.172964 0.000000
60.14699936 129.14999390 420.00000000 -0.703107 -0.390249 0.594430 0.000000
129.51899719 118.81800079 372.00000000 0.573049 -0.049279 0.818038 0.000000
229.51800537 154.97999573 412.50000000 -0.449700 0.526033 0.721844 0.000000
142.43400574 128.41200256 370.50000000 -0.466593 -0.519728 0.715663 0.000000
140.22000122 104.05799866 367.50000000 -0.510720 0.524116 0.681518 0.000000
92.98799896 208.85400391 439.50000000 0.093350 0.363930 0.926737 0.000000
173.42999268 155.71800232 379.50000000 0.246227 0.760638 0.600668 0.000000
184.50000000 105.53399658 421.50000000 -0.138937 -0.388743 0.910810 0.000000
91.51200104 135.79200745 442.50000000 -0.211585 -0.941763 0.261370 0.000000
140.22000122 243.53999329 415.50000000 0.566187 0.488903 0.663631 0.000000
114.75900269 141.69599915 339.00000000 -0.658578 0.460837 0.594899 0.000000
95.94000244 86.34600067 379.50000000 -0.436080 -0.873648 0.215807 0.000000
167.52600098 129.88800049 430.50000000 0.150063 -0.165195 0.974778 0.000000
135.05400085 226.56599426 382.50000000 0.644589 0.294164 -0.705672 0.000000
205.90199280 102.58200073 403.50000000 -0.384105 0.275651 0.881181 0.000000
96.67800140 248.70599365 346.50000000 0.771859 0.283702 -0.568988 0.000000
149.07600403 154.97999573 385.50000000 0.000978 0.000978 0.999999 0.000000
136.52999878 127.67400360 439.50000000 0.000978 0.000978 0.999999 0.000000
124.72200012 200.73599243 358.50000000 0.615284 0.471103 -0.632050 0.000000
122.50800323 253.50300598 417.00000000 0.080074 0.720669 0.688639 0.000000
150.55200195 207.37800598 397.50000000 0.871738 0.401757 -0.280472 0.000000
210.69900513 138.00599670 396.00000000 -0.712082 0.140008 0.687995 0.000000
154.24200439 118.08000183 427.50000000 0.135853 -0.628505 0.765850 0.000000
141.69599915 92.61900330 405.00000000 0.353873 -0.883929 0.305686 0.000000
203.31900024 104.79599762 402.00000000 -0.524211 0.161867 0.836064 0.000000
209.59199524 159.40800476 403.50000000 -0.017228 -0.897191 0.441307 0.000000
76.01399994 102.58200073 394.50000000 -0.500913 -0.732357 0.461236 0.000000
144.27900696 122.50800323 369.00000000 -0.336767 -0.042580 0.940625 0.000000
38.37599945 197.41499329 360.00000000 -0.974674 0.193934 -0.111356 0.000000
39.48300171 159.40800476 402.00000000 -0.989199 -0.087385 -0.117679 0.000000
91.51200104 247.22999573 340.50000000 0.596123 0.726068 -0.342730 0.000000
88.92900085 136.52999878 444.00000000 -0.211585 -0.941763 0.261370 0.000000
70.11000061 192.61799622 283.50000000 0.535832 -0.616967 0.576399 0.000000
69.37200165 151.28999329 292.50000000 -0.830067 -0.433147 -0.351243 0.000000
56.08800125 202.21200562 307.50000000 -0.731652 0.547506 -0.406108 0.000000
193.35600281 144.64799500 385.50000000 -0.221859 -0.352364 0.909186 0.000000
71.21700287 248.70599365 366.00000000 -0.780894 0.617417 -0.094875 0.000000
205.16400146 98.89199829 424.50000000 0.000978 0.000978 0.999999 0.000000
142.80299377 224.35200500 423.00000000 0.814667 0.447987 0.368274 0.000000
133.57800293 209.59199524 373.50000000 0.716047 0.386830 -0.581068 0.000000
154.97999573 161.62199402 382.50000000 0.462701 0.728049 0.505820 0.000000
229.51800537 161.62199402 415.50000000 -0.563483 -0.473192 0.677183 0.000000
104.79599762 98.89199829 409.50000000 -0.569436 -0.579575 0.582954 0.000000
190.40400696 150.55200195 379.50000000 0.552445 -0.727249 -0.407325 0.000000
117.34200287 140.58900452 348.00000000 -0.857745 0.492436 0.147585 0.000000
135.05400085 257.56201172 400.50000000 0.446689 0.894688 -0.001310 0.000000
156.45599365 133.57800293 436.50000000 0.408299 -0.586827 0.699233 0.000000
173.79899597 150.55200195 399.00000000 -0.025476 0.457230 0.888984 0.000000
47.23199844 223.98300171 384.00000000 -0.823322 0.492118 0.282773 0.000000
60.51599884 208.85400391 304.50000000 -0.251383 0.276948 -0.927419 0.000000
114.75900269 219.18600464 363.00000000 0.632640 0.264789 -0.727773 0.000000
111.43800354 92.25000000 400.50000000 -0.089049 -0.734286 0.672974 0.000000
104.05799866 187.45199585 445.50000000 0.000978 0.000978 0.999999 0.000000
105.53399658 101.84400177 412.50000000 -0.154694 -0.794496 0.587236 0.000000
191.14199829 177.48899841 393.00000000 0.738745 0.642724 -0.202884 0.000000
53.87400055 139.85099792 339.00000000 -0.898771 -0.180331 -0.399614 0.000000
42.06600189 197.78399658 340.50000000 -0.894564 0.224743 -0.386323 0.000000
77.48999786 118.08000183 424.50000000 -0.225699 -0.770491 0.596157 0.000000
158.66999817 201.10499573 408.00000000 0.790926 0.571995 -0.217389 0.000000
170.47799683 98.89199829 415.50000000 -0.439635 -0.413869 0.797141 0.000000
67.15799713 151.28999329 439.50000000 -0.762537 -0.242697 0.599696 0.000000
199.99800110 146.86199951 424.50000000 0.060016 0.062198 0.996258 0.000000
176.38200378 121.03199768 424.50000000 0.000978 0.000978 0.999999 0.000000
191.88000488 153.50399780 427.50000000 0.518615 0.363515 0.773883 0.000000
114.02100372 253.87199402 360.00000000 0.211283 0.421088 -0.882068 0.000000
148.70700073 234.68400574 402.00000000 0.999999 0.000978 0.000978 0.000000
129.88800049 153.13499451 360.00000000 -0.884025 0.465777 -0.039381 0.000000
93.72599792 261.98999023 370.50000000 -0.278744 0.924857 -0.258731 0.000000
46.86299896 135.79200745 387.00000000 -0.923783 -0.308877 -0.226320 0.000000
188.92799377 154.24200439 427.50000000 0.181896 0.243875 0.952596 0.000000
124.72200012 234.68400574 373.50000000 0.741102 -0.168917 -0.649796 0.000000
87.08399963 260.51400757 406.50000000 -0.588818 0.784581 0.194233 0.000000
47.60100174 224.35200500 366.00000000 -0.779890 0.624758 0.038078 0.000000
78.96600342 177.85800171 445.50000000 0.000978 0.000978 0.999999 0.000000
128.41200256 145.38600159 379.50000000 -0.828861 -0.348911 0.437323 0.000000
178.59599304 121.76999664 379.50000000 0.000978 0.000978 0.999999 0.000000
62.72999954 173.42999268 292.50000000 -0.897798 -0.001307 -0.440405 0.000000
84.87000275 215.49600220 310.50000000 -0.921083 -0.230629 0.313713 0.000000
208.85400391 108.48600006 424.50000000 0.000978 0.000978 0.999999 0.000000
222.13800049 146.12399292 421.50000000 0.000978 0.000978 0.999999 0.000000
98.89199829 207.37800598 442.50000000 0.494697 0.151198 0.855812 0.000000
112.91400146 242.80200195 361.50000000 0.594441 0.288455 -0.750622 0.000000
198.89100647 159.40800476 393.00000000 -0.303897 -0.489699 0.817215 0.000000
149.81399536 112.91400146 370.50000000 0.000978 0.000978 0.999999 0.000000
63.09899902 216.97200012 309.00000000 -0.769771 0.506129 -0.388954 0.000000
146.86199951 88.55999756 382.50000000 -0.952067 0.162483 0.259166 0.000000
54.61199951 186.71400452 433.50000000 -0.220452 0.803184 0.553441 0.000000
141.69599915 245.75399780 391.50000000 0.973172 0.188071 -0.132533 0.000000
215.49600220 164.20500183 417.00000000 -0.336934 0.672240 0.659218 0.000000
221.76899719 126.93599701 411.00000000 -0.533447 0.460327 0.709601 0.000000
123.98400116 195.57000732 352.50000000 0.405953 0.598159 -0.690948 0.000000
209.59199524 139.48199463 421.50000000 0.000978 0.000978 0.999999 0.000000
108.48600006 84.13200378 388.50000000 -0.308877 -0.923783 0.226320 0.000000
189.66600037 164.20500183 423.00000000 0.296820 0.884434 0.360102 0.000000
146.86199951 85.60800171 397.50000000 0.117436 -0.729890 0.673401 0.000000
91.51200104 86.71499634 360.00000000 -0.442856 -0.895192 -0.050109 0.000000
157.19400024 199.99800110 400.50000000 0.840013 0.403520 -0.362697 0.000000
104.79599762 193.35600281 331.50000000 0.397617 0.575802 -0.714390 0.000000
205.90199280 82.65599823 409.50000000 -0.562950 0.430100 0.705763 0.000000
66.41999817 119.18699646 417.00000000 -0.300640 -0.705781 0.641473 0.000000
167.52600098 138.00599670 433.50000000 0.404142 -0.305795 0.862067 0.000000
149.81399536 141.69599915 385.50000000 -0.261437 -0.799967 0.540095 0.000000
227.30400085 127.67400360 421.50000000 0.000978 0.000978 0.999999 0.000000
227.30400085 146.86199951 409.50000000 -0.929061 -0.233326 0.287062 0.000000
89.29799652 90.03600311 352.50000000 -0.549162 -0.815422 -0.183054 0.000000
72.32399750 118.81800079 328.50000000 -0.613358 -0.748959 -0.250704 0.000000
149.07600403 90.77400208 385.50000000 -0.848528 0.170894 0.500795 0.000000
103.31999969 169.74000549 313.50000000 -0.798865 -0.319228 0.509812 0.000000
138.74400330 180.80999756 352.50000000 0.486877 0.367970 -0.792180 0.000000
139.48199463 169.74000549 352.50000000 0.038596 -0.277639 -0.959910 0.000000
101.10600281 140.22000122 310.50000000 -0.697046 0.434198 0.570613 0.000000
96.67800140 185.23800659 445.50000000 0.041039 0.395823 0.917409 0.000000
141.69599915 101.84400177 370.50000000 -0.297731 0.237900 0.924532 0.000000
122.87699890 96.67800140 408.00000000 -0.332032 -0.584701 0.740189 0.000000
205.16400146 91.51200104 424.50000000 0.000978 0.000978 0.999999 0.000000
44.27999878 209.59199524 346.50000000 -0.873648 0.436080 -0.215807 0.000000
116.60399628 120.29399872 436.50000000 0.313553 -0.520466 0.794229 0.000000
215.49600220 145.38600159 421.50000000 0.000978 0.000978 0.999999 0.000000
104.79599762 105.53399658 367.50000000 -0.773639 0.116859 0.622757 0.000000
123.24600220 169.00199890 445.50000000 0.000978 0.000978 0.999999 0.000000
143.91000366 145.38600159 385.50000000 -0.269517 -0.053903 0.961486 0.000000
96.67800140 252.39599609 346.50000000 0.445050 0.514538 -0.732927 0.000000
62.72999954 235.42199707 415.50000000 -0.521428 0.568677 0.636176 0.000000
92.98799896 88.55999756 349.50000000 -0.541524 -0.817595 -0.195677 0.000000
222.87600708 101.84400177 415.50000000 0.000978 0.000978 0.999999 0.000000
147.96899414 184.50000000 369.00000000 0.801573 0.438536 -0.406409 0.000000
77.48999786 199.25999451 283.50000000 -0.284397 -0.570383 0.770573 0.000000
129.88800049 109.22399902 367.50000000 0.641433 -0.377605 0.667816 0.000000
193.35600281 163.83599854 415.50000000 0.579506 0.814628 0.023512 0.000000
123.98400116 199.25999451 439.50000000 0.000978 0.000978 0.999999 0.000000
66.41999817 121.03199768 334.50000000 -0.751986 -0.582028 -0.309453 0.000000
137.26800537 187.45199585 439.50000000 0.104916 0.312091 0.944241 0.000000
58.30199814 117.34200287 373.50000000 -0.847256 -0.501802 -0.174216 0.000000
129.14999390 78.22799683 388.50000000 -0.626041 -0.626041 0.464915 0.000000
181.54800415 92.25000000 418.50000000 -0.000978 -0.000978 0.999999 0.000000
161.99099731 112.91400146 420.00000000 -0.536082 -0.801779 -0.264134 0.000000
47.23199844 133.20899963 396.00000000 -0.945853 -0.315284 0.077186 0.000000
112.54499817 218.44799805 360.00000000 0.698029 0.376115 -0.609338 0.000000
69.37200165 231.73199463 322.50000000 -0.796635 0.492086 -0.351032 0.000000
109.96199799 214.75799561 355.50000000 0.614940 0.368964 -0.696932 0.000000
76.01399994 199.99800110 283.50000000 -0.284397 -0.570383 0.770573 0.000000
73.06199646 128.41200256 313.50000000 -0.269430 -0.962250 0.038490 0.000000
76.01399994 217.71000671 301.50000000 -0.035328 -0.719269 0.693833 0.000000
123.24600220 183.76199341 340.50000000 0.488539 0.357194 -0.796079 0.000000
38.74499893 181.54800415 354.00000000 -0.988523 -0.141877 -0.051906 0.000000
78.96600342 204.42599487 439.50000000 0.166211 0.303575 0.938198 0.000000
123.24600220 239.11199951 424.50000000 0.201667 0.344693 0.916797 0.000000
130.25700378 152.76600647 369.00000000 -0.000978 -0.000978 -0.999999 0.000000
117.34200287 234.68400574 367.50000000 0.711203 -0.133257 -0.690241 0.000000
138.37500000 202.94999695 375.00000000 0.687340 0.412404 -0.597903 0.000000
60.51599884 139.48199463 427.50000000 -0.802590 -0.483469 0.349438 0.000000
181.54800415 143.17199707 427.50000000 0.430426 -0.312331 0.846867 0.000000
138.00599670 203.68800354 373.50000000 0.666212 0.439132 -0.602763 0.000000
118.08000183 236.16000366 427.50000000 0.000978 0.000978 0.999999 0.000000
157.19400024 140.22000122 439.50000000 0.415225 -0.101376 0.904052 0.000000
186.71400452 90.03600311 418.50000000 -0.294280 -0.276884 0.914732 0.000000
59.40900040 145.38600159 318.00000000 -0.696449 -0.696449 -0.172964 0.000000
132.10200500 220.66200256 430.50000000 0.435516 0.344325 0.831725 0.000000
115.12799835 193.35600281 442.50000000 0.094552 0.080882 0.992229 0.000000
205.16400146 119.55599976 424.50000000 0.386271 0.324714 0.863339 0.000000
205.90199280 129.14999390 424.50000000 -0.000978 -0.000978 0.999999 0.000000
45.75600052 213.28199768 412.50000000 -0.816462 0.450407 0.361280 0.000000
203.68800354 121.03199768 394.50000000 -0.733836 0.155846 0.661209 0.000000
199.99800110 126.19799805 424.50000000 0.000978 0.000978 0.999999 0.000000
46.12500000 202.21200562 333.00000000 -0.970072 0.242814 -0.001184 0.000000
130.62600708 92.98799896 364.50000000 -0.204408 0.145271 0.968046 0.000000
128.78100586 250.91999817 375.00000000 0.402107 -0.200323 -0.893409 0.000000
144.64799500 174.90600586 355.50000000 -0.000978 -0.000978 -0.999999 0.000000
142.43400574 244.27799988 412.50000000 0.527907 0.588625 0.612237 0.000000
118.81800079 255.34800720 415.50000000 0.238300 0.789659 0.565377 0.000000
121.76999664 183.76199341 445.50000000 0.215920 0.398057 0.891588 0.000000
45.01800156 166.05000305 421.50000000 -0.837839 -0.168163 0.519371 0.000000
156.45599365 186.71400452 433.50000000 0.000978 0.000978 0.999999 0.000000
93.72599792 238.37399292 340.50000000 0.630526 0.380291 -0.676621 0.000000
83.02500153 114.38999939 318.00000000 -0.536550 -0.731359 -0.420985 0.000000
94.83300018 215.49600220 336.00000000 0.000978 0.000978 -0.999999 0.000000
140.22000122 251.65800476 406.50000000 0.666405 0.515331 0.538831 0.000000
119.55599976 180.07200623 445.50000000 0.000978 0.000978 0.999999 0.000000
88.19100189 214.75799561 321.00000000 0.937067 0.152291 -0.314185 0.000000
