157.02799988 149.62500000 150.00000000 0.684625 -0.728884 0.004149 0.000000
188.58999634 192.87600708 165.00000000 0.647355 0.647355 0.402321 0.000000
116.11499786 171.44500732 128.75000000 0.763199 -0.485375 0.426542 0.000000
167.54899597 158.19700623 203.75000000 0.285263 -0.170612 0.943142 0.000000
187.03100586 160.53500366 153.75000000 -0.587835 -0.431301 0.684419 0.000000
156.24899292 147.28700256 137.50000000 0.302356 -0.523979 0.796258 0.000000
69.74710083 117.67400360 110.00000000 -0.727309 -0.680480 -0.089267 0.000000
185.08299255 196.38299561 175.00000000 0.000978 0.000978 0.999999 0.000000
90.39849854 157.02799988 95.00000000 0.391586 -0.885908 -0.248650 0.000000
153.52200317 123.12899780 133.75000000 0.000978 0.000978 0.999999 0.000000
63.90240097 254.05099487 161.25000000 -0.630343 0.492508 0.600086 0.000000
70.91600037 158.97700500 186.25000000 -0.852727 -0.484061 0.196322 0.000000
96.24320221 165.21099854 87.50000000 0.503271 -0.617727 -0.604262 0.000000
122.73899841 247.81599426 180.00000000 0.120407 0.437716 0.891014 0.000000
56.10940170 257.94699097 96.25000000 -0.123863 0.720794 -0.681993 0.000000
188.58999634 178.45899963 161.25000000 0.825207 -0.413396 0.384886 0.000000
51.43360138 193.65499878 165.00000000 -0.583356 0.082102 0.808056 0.000000
54.16109848 144.94900513 122.50000000 -0.927253 -0.364710 0.084785 0.000000
179.23800659 179.62800598 187.50000000 -0.055494 0.621822 0.781190 0.000000
128.58399963 240.02299500 158.75000000 0.327968 0.847120 -0.418120 0.000000
165.21099854 96.63279724 123.75000000 0.678165 0.431559 -0.594852 0.000000
50.26470184 242.36099243 77.50000000 -0.863996 0.414412 -0.285960 0.000000
83.38480377 236.12699890 181.25000000 -0.410366 0.498652 0.763509 0.000000
146.50799561 84.55370331 137.50000000 -0.094074 -0.942064 -0.321971 0.000000
40.91310120 178.45899963 112.50000000 -0.978536 -0.196673 -0.061536 0.000000
106.76399994 111.43900299 101.25000000 0.412975 0.668389 -0.618633 0.000000
120.01200104 233.00999451 146.25000000 0.630964 0.503088 -0.590582 0.000000
47.53710175 217.81399536 42.50000000 -0.796673 0.554410 -0.240710 0.000000
47.53710175 229.11300659 63.75000000 -0.871635 0.435070 -0.225758 0.000000
52.21289825 226.77499390 163.75000000 -0.692714 0.023887 0.720816 0.000000
154.30099487 141.05299377 151.25000000 0.589472 0.017946 -0.807590 0.000000
141.44200134 139.49400330 147.50000000 -0.951860 -0.148186 0.268336 0.000000
127.80500031 83.77439880 167.50000000 0.000978 -0.999999 0.000978 0.000000
123.12899780 148.06599426 211.25000000 0.166150 -0.666125 0.727098 0.000000
112.21900177 165.99000549 131.25000000 0.894688 -0.446689 0.001310 0.000000
49.09569931 218.98199463 41.25000000 -0.796673 0.554410 -0.240710 0.000000
81.04689789 153.52200317 198.75000000 -0.564205 -0.170014 0.807941 0.000000
183.91400146 86.50199890 166.25000000 -0.726259 -0.336321 0.599529 0.000000
121.56999969 148.06599426 128.75000000 -0.001350 0.541234 -0.840871 0.000000
173.00399780 92.73629761 193.75000000 0.032430 -0.655659 0.754360 0.000000
190.92799377 120.40100098 157.50000000 -0.604600 0.362105 0.709463 0.000000
93.51560211 122.73899841 190.00000000 -0.354786 -0.632729 0.688317 0.000000
62.34379959 131.31199646 127.50000000 -0.880157 -0.410939 0.237598 0.000000
60.00590134 262.62298584 98.75000000 -0.398107 0.685537 -0.609549 0.000000
56.10940170 146.50799561 136.25000000 -0.797199 -0.436446 0.417120 0.000000
97.02249908 243.14100647 125.00000000 0.853969 0.462630 -0.238141 0.000000
89.61920166 245.47900391 116.25000000 0.545592 0.699092 -0.462168 0.000000
47.53710175 240.80299377 83.75000000 -0.874399 0.462576 -0.146458 0.000000
119.23200226 136.37699890 123.75000000 0.389944 0.781505 -0.487025 0.000000
192.87600708 155.85899353 157.50000000 -0.783297 -0.334783 0.523800 0.000000
44.80960083 251.71299744 132.50000000 -0.875205 0.469726 0.115647 0.000000
104.42600250 95.46389771 122.50000000 -0.356290 -0.901722 -0.244858 0.000000
91.95700073 103.64600372 111.25000000 -0.373822 -0.909489 -0.181898 0.000000
93.51560211 111.43900299 178.75000000 -0.226650 -0.723718 0.651815 0.000000
147.67700195 210.41000366 190.00000000 0.756920 0.129886 0.640470 0.000000
136.37699890 155.08000183 211.25000000 0.063390 -0.178210 0.981948 0.000000
118.45300293 241.58200073 183.75000000 0.000978 0.000978 0.999999 0.000000
102.47799683 161.31399536 102.50000000 0.464661 -0.884617 -0.039286 0.000000
132.47999573 83.77439880 157.50000000 -0.139596 -0.974656 -0.174809 0.000000
123.90799713 133.25999451 201.25000000 0.000978 0.000978 0.999999 0.000000
153.52200317 84.16410065 136.25000000 -0.124689 -0.945225 -0.301667 0.000000
54.55080032 155.47000122 152.50000000 0.000978 0.000978 0.999999 0.000000
222.87899780 133.25999451 176.25000000 -0.369495 0.128700 0.920277 0.000000
116.11499786 243.91999817 151.25000000 0.587182 0.316917 -0.744836 0.000000
144.94900513 236.12699890 173.75000000 0.616909 0.296437 0.729074 0.000000
109.10199738 126.24600220 116.25000000 -0.000978 -0.000978 -0.999999 0.000000
79.09860229 130.14300537 105.00000000 0.953234 0.273675 -0.128244 0.000000
100.52899933 223.65800476 191.25000000 -0.256187 0.586244 0.768561 0.000000
190.53799438 132.47999573 155.00000000 -0.687083 0.101518 0.719451 0.000000
74.81250000 268.07800293 113.75000000 0.846581 0.145254 -0.512057 0.000000
44.80960083 158.97700500 80.00000000 -0.919808 -0.391213 -0.030093 0.000000
162.09399414 153.52200317 143.75000000 0.067047 -0.803137 0.592010 0.000000
182.35499573 202.22799683 172.50000000 0.464710 0.753717 0.464710 0.000000
122.34999847 120.40100098 192.50000000 -0.145646 -0.617118 0.773274 0.000000
86.50199890 234.56799316 101.25000000 0.284648 0.850867 -0.441589 0.000000
151.18400574 164.43200684 146.25000000 0.624527 0.001373 0.781002 0.000000
224.43800354 129.36300659 178.75000000 -0.478724 0.271122 0.835055 0.000000
143.39100647 83.38480377 143.75000000 -0.663904 -0.663904 -0.344186 0.000000
127.80500031 239.24400330 156.25000000 0.396861 0.713033 -0.578001 0.000000
50.65430069 236.90600586 158.75000000 -0.744737 0.126859 0.655190 0.000000
83.38480377 228.72399902 92.50000000 0.568976 0.682438 -0.458852 0.000000
61.56449890 159.75599670 68.75000000 -0.005296 0.081554 -0.996655 0.000000
162.87300110 195.99299622 137.50000000 0.045862 0.843574 0.535051 0.000000
211.18899536 174.56300354 193.75000000 0.272618 0.719011 0.639298 0.000000
167.54899597 97.41210175 126.25000000 0.712706 0.421671 -0.560574 0.000000
102.86699677 124.68800354 193.75000000 0.226899 -0.702604 0.674437 0.000000
121.56999969 189.75900269 90.00000000 -0.140959 -0.989006 0.044694 0.000000
39.35449982 178.45899963 67.50000000 -0.152511 0.403370 -0.902238 0.000000
154.30099487 109.10199738 136.25000000 0.000978 0.000978 0.999999 0.000000
55.71969986 142.61099243 125.00000000 -0.877282 -0.458152 0.143082 0.000000
79.48829651 253.27200317 113.75000000 0.348503 0.675737 -0.649558 0.000000
80.26760101 222.10000610 183.75000000 -0.732797 0.367214 0.572855 0.000000
94.68460083 250.93400574 127.50000000 0.769917 0.459335 -0.442989 0.000000
96.63279724 259.50601196 173.75000000 -0.271969 0.539221 0.797041 0.000000
151.96299744 155.08000183 153.75000000 -0.388868 0.566074 0.726871 0.000000
153.52200317 176.12100220 203.75000000 0.305964 0.515225 0.800580 0.000000
166.77000427 162.87300110 153.75000000 0.387088 -0.756210 0.527550 0.000000
151.96299744 215.08599854 183.75000000 0.700511 0.230369 0.675437 0.000000
87.67089844 108.32199860 100.00000000 -0.373772 -0.898519 -0.230126 0.000000
112.99800110 186.25199890 208.75000000 -0.426823 0.426823 0.797273 0.000000
227.16499329 166.77000427 190.00000000 -0.644789 -0.347696 0.680701 0.000000
116.89499664 195.60400391 203.75000000 -0.602359 0.722506 0.339334 0.000000
101.69799805 106.76399994 180.00000000 -0.477127 -0.787664 0.389789 0.000000
44.03030014 173.00399780 45.00000000 -0.490874 -0.504186 -0.710520 0.000000
180.79699707 122.73899841 147.50000000 -0.323549 0.123192 0.938157 0.000000
110.66000366 267.29901123 168.75000000 0.388183 0.542146 0.745246 0.000000
75.59179688 164.43200684 71.25000000 0.354844 -0.788364 -0.502562 0.000000
46.75780106 173.00399780 43.75000000 -0.214798 -0.857691 -0.467149 0.000000
41.69240189 170.66600037 62.50000000 -0.954848 0.001223 -0.297091 0.000000
97.41210175 184.69299316 203.75000000 -0.612149 0.271890 0.742529 0.000000
226.77499390 144.16999817 178.75000000 -0.883081 0.148381 0.445142 0.000000
91.95700073 251.71299744 123.75000000 0.732638 0.484566 -0.477951 0.000000
70.13670349 257.16799927 166.25000000 -0.481759 0.569046 0.666405 0.000000
134.03900146 204.17599487 198.75000000 0.050532 0.460247 0.886352 0.000000
113.38800049 169.10699463 140.00000000 0.962792 0.210897 -0.168980 0.000000
86.11229706 223.65800476 87.50000000 0.594358 0.654631 -0.467115 0.000000
137.93600464 100.52899933 188.75000000 -0.363069 -0.648925 0.668639 0.000000
208.85200500 99.75000000 181.25000000 -0.416203 0.403446 0.814866 0.000000
81.04689789 120.01200104 176.25000000 -0.680892 -0.463408 0.567132 0.000000
96.63279724 124.29799652 192.50000000 -0.133164 -0.752600 0.644872 0.000000
40.13380051 180.79699707 52.50000000 -0.474177 0.474177 0.741831 0.000000
127.02500153 113.38800049 190.00000000 -0.303049 -0.410731 0.859920 0.000000
153.52200317 82.60549927 141.25000000 0.001223 -0.954848 -0.297091 0.000000
235.34800720 144.16999817 188.75000000 -0.557074 0.352435 0.751969 0.000000
149.62500000 141.83200073 203.75000000 0.331403 -0.334430 0.882229 0.000000
62.73339844 140.27299500 165.00000000 -0.930608 -0.350841 0.104304 0.000000
151.96299744 181.18699646 137.50000000 -0.139814 -0.738157 -0.659982 0.000000
194.82400513 175.34199524 171.25000000 -0.433157 -0.786820 0.439646 0.000000
120.79100037 260.28500366 171.25000000 0.365394 0.594789 0.716040 0.000000
96.63279724 176.51100159 80.00000000 0.640274 -0.319326 -0.698628 0.000000
82.21579742 231.45100403 95.00000000 0.525540 0.599892 -0.603272 0.000000
235.34800720 150.40400696 186.25000000 -0.916106 -0.150112 0.371774 0.000000
71.69529724 247.81599426 171.25000000 -0.677368 0.294438 0.674150 0.000000
180.79699707 130.92199707 146.25000000 -0.553709 0.049063 0.831264 0.000000
143.39100647 203.39700317 126.25000000 0.579503 0.814097 -0.037703 0.000000
64.68160248 150.01499939 175.00000000 -0.870237 -0.131329 0.474806 0.000000
143.77999878 124.68800354 152.50000000 0.546923 -0.709836 -0.443855 0.000000
86.11229706 235.34800720 102.50000000 0.284648 0.850867 -0.441589 0.000000
52.21289825 175.34199524 43.75000000 0.373457 -0.873432 -0.312484 0.000000
141.83200073 104.42600250 191.25000000 0.088348 -0.259921 0.961580 0.000000
231.84100342 142.61099243 182.50000000 -0.375096 -0.019335 0.926784 0.000000
87.28130341 264.18200684 128.75000000 0.644166 0.362241 -0.673670 0.000000
62.34379959 178.45899963 173.75000000 -0.453578 -0.120859 0.882984 0.000000
101.30899811 191.70700073 76.25000000 0.741819 -0.324849 -0.586667 0.000000
173.00399780 132.47999573 198.75000000 0.000978 0.000978 0.999999 0.000000
181.57600403 133.25999451 198.75000000 0.000978 0.000978 0.999999 0.000000
91.95700073 270.41598511 133.75000000 0.689862 0.136770 -0.710904 0.000000
137.15600586 154.30099487 148.75000000 -0.126787 0.648850 0.750279 0.000000
202.61700439 141.05299377 196.25000000 0.000978 0.000978 0.999999 0.000000
197.55200195 141.83200073 160.00000000 -0.684094 -0.206314 0.699607 0.000000
42.86130142 176.89999390 43.75000000 -0.563083 -0.617193 -0.549555 0.000000
64.29199982 124.68800354 105.00000000 -0.793779 -0.595704 -0.122688 0.000000
62.34379959 254.83000183 91.25000000 0.780406 0.352389 -0.516516 0.000000
96.63279724 205.73399353 198.75000000 -0.264485 0.296281 0.917750 0.000000
109.10199738 142.61099243 208.75000000 -0.089324 -0.506170 0.857795 0.000000
39.35449982 197.16200256 70.00000000 -0.995910 0.083809 -0.033741 0.000000
56.10940170 249.37500000 83.75000000 0.064914 0.722713 -0.688092 0.000000
46.75780106 181.57600403 156.25000000 -0.962503 -0.058980 -0.264782 0.000000
140.66299438 236.12699890 162.50000000 0.476154 0.312722 -0.821877 0.000000
174.56300354 138.71499634 141.25000000 -0.578947 -0.173835 0.796619 0.000000
70.91600037 135.20799255 177.50000000 -0.473690 -0.554033 0.684591 0.000000
86.50199890 193.26600647 63.75000000 0.718256 -0.179181 -0.672312 0.000000
95.46389771 166.77000427 85.00000000 0.577026 -0.553336 -0.600716 0.000000
234.56799316 150.40400696 191.25000000 -0.405006 -0.811614 -0.421015 0.000000
141.05299377 218.59300232 152.50000000 0.657029 0.004150 -0.753854 0.000000
93.51560211 256.77801514 175.00000000 0.001314 0.456129 0.889912 0.000000
169.10699463 189.36900330 131.25000000 0.553336 -0.600716 -0.577026 0.000000
112.21900177 197.16200256 81.25000000 0.396721 -0.441694 -0.804686 0.000000
199.50000000 174.95199585 195.00000000 0.207052 0.409698 0.888413 0.000000
141.05299377 145.72900391 153.75000000 -0.660037 -0.244167 0.710446 0.000000
229.11300659 154.69000244 185.00000000 -0.263933 -0.371295 0.890213 0.000000
145.72900391 123.90799713 196.25000000 0.549932 -0.733790 0.398906 0.000000
98.58110046 252.49200439 135.00000000 0.147999 0.928104 -0.341642 0.000000
170.66600037 182.35499573 186.25000000 0.004111 0.601528 0.798841 0.000000
54.16109848 261.06399536 145.00000000 -0.691244 0.588469 0.419388 0.000000
169.10699463 96.63279724 193.75000000 -0.260174 -0.373164 0.890538 0.000000
144.94900513 85.72270203 133.75000000 -0.105431 -0.921497 -0.373802 0.000000
94.29489899 118.84300232 102.50000000 0.220541 0.883644 -0.412959 0.000000
176.12100220 172.22500610 198.75000000 0.217742 0.455005 0.863458 0.000000
43.25099945 212.74800110 152.50000000 -0.774086 0.194671 0.602407 0.000000
141.05299377 153.91099548 150.00000000 -0.268662 0.257291 0.928236 0.000000
52.60250092 169.88699341 55.00000000 0.233557 -0.838057 -0.493064 0.000000
181.57600403 155.85899353 198.75000000 0.108521 -0.157295 0.981571 0.000000
96.24320221 281.32598877 150.00000000 0.301516 0.927198 0.222244 0.000000
69.74710083 247.81599426 97.50000000 0.589471 0.589471 -0.552312 0.000000
77.92970276 250.54400635 110.00000000 0.576143 0.566005 -0.589659 0.000000
189.36900330 174.95199585 142.50000000 0.633680 0.251259 -0.731655 0.000000
190.53799438 176.89999390 147.50000000 0.924375 0.309074 -0.223616 0.000000
111.43900299 87.67089844 155.00000000 -0.702740 -0.702740 -0.110959 0.000000
61.56449890 247.03700256 163.75000000 -0.737536 0.359813 0.571468 0.000000
139.49400330 129.75300598 197.50000000 0.910458 -0.302512 0.282052 0.000000
95.07420349 191.70700073 71.25000000 0.000978 0.000978 -0.999999 0.000000
161.31399536 174.56300354 141.25000000 0.226259 -0.613240 -0.756798 0.000000
181.57600403 170.66600037 153.75000000 0.079917 -0.944596 0.318359 0.000000
182.35499573 199.88999939 175.00000000 0.690081 0.533016 0.489573 0.000000
165.99000549 133.25999451 198.75000000 0.000978 0.000978 0.999999 0.000000
70.91600037 267.29901123 108.75000000 0.888422 -0.042047 -0.457097 0.000000
176.89999390 190.14799500 141.25000000 0.828989 -0.275293 -0.486817 0.000000
61.17480087 181.57600403 45.00000000 0.567068 -0.594152 -0.570454 0.000000
70.13670349 195.99299622 182.50000000 -0.514705 0.048557 0.855991 0.000000
120.79100037 222.10000610 193.75000000 0.055568 0.429638 0.901290 0.000000
58.05759811 270.41598511 137.50000000 -0.669515 0.726945 0.152643 0.000000
60.78519821 182.35499573 43.75000000 0.581945 -0.632549 -0.511099 0.000000
197.16200256 90.00879669 180.00000000 -0.348622 0.240681 0.905834 0.000000
88.06060028 106.76399994 173.75000000 -0.530328 -0.427897 0.731886 0.000000
37.79589844 208.85200500 140.00000000 -0.929492 0.186459 0.318242 0.000000
48.31639862 229.11300659 58.75000000 -0.825280 0.514840 -0.232062 0.000000
199.50000000 164.82099915 167.50000000 -0.640705 -0.402303 0.653949 0.000000
137.15600586 234.56799316 181.25000000 0.571334 0.371613 0.731766 0.000000
182.35499573 165.21099854 143.75000000 -0.008134 -0.979553 -0.201023 0.000000
171.44500732 162.48300171 150.00000000 0.798695 -0.569624 -0.193947 0.000000
72.08499908 121.56999969 165.00000000 -0.754504 -0.323359 0.571106 0.000000
130.92199707 150.40400696 131.25000000 0.596329 0.609843 -0.521999 0.000000
134.03900146 90.39849854 183.75000000 -0.295808 -0.441389 0.847156 0.000000
189.36900330 117.67400360 198.75000000 -0.000978 -0.000978 0.999999 0.000000
88.06060028 118.06300354 97.50000000 0.394460 0.825356 -0.403965 0.000000
81.82620239 247.81599426 111.25000000 0.565618 0.555487 -0.609516 0.000000
149.62500000 91.95700073 188.75000000 -0.213162 -0.642599 0.735954 0.000000
121.18099976 174.56300354 127.50000000 0.462849 -0.673387 0.576473 0.000000
180.79699707 93.51560211 196.25000000 -0.303236 -0.210150 0.929454 0.000000
112.21900177 163.65199280 213.75000000 -0.028680 0.290546 0.956431 0.000000
182.35499573 176.12100220 138.75000000 0.224647 0.091616 -0.970124 0.000000
45.58890152 243.91999817 97.50000000 -0.947750 0.256994 -0.189006 0.000000
156.63900757 118.45300293 198.75000000 -0.352909 -0.390221 0.850402 0.000000
63.51269913 184.69299316 45.00000000 0.650015 -0.475334 -0.592907 0.000000
134.81799316 238.46499634 181.25000000 0.566150 0.327432 0.756480 0.000000
62.34379959 245.47900391 166.25000000 -0.675065 0.344888 0.652181 0.000000
69.35739899 279.37799072 132.50000000 -0.484515 0.874782 0.001327 0.000000
93.51560211 271.97500610 136.25000000 0.740252 0.212609 -0.637827 0.000000
80.26760101 189.36900330 193.75000000 0.000978 0.000978 0.999999 0.000000
112.21900177 113.77700043 106.25000000 0.583396 0.640559 -0.499333 0.000000
64.68160248 153.13200378 77.50000000 0.719404 -0.169541 -0.673582 0.000000
125.07700348 189.36900330 92.50000000 0.528307 -0.518244 -0.672543 0.000000
111.43900299 137.93600464 203.75000000 0.044042 -0.654944 0.754393 0.000000
102.08799744 240.80299377 131.25000000 -0.000978 -0.000978 -0.999999 0.000000
186.25199890 81.04689789 166.25000000 -0.000978 -0.999999 -0.000978 0.000000
54.94039917 138.71499634 85.00000000 -0.973256 -0.224784 -0.047387 0.000000
156.24899292 102.86699677 130.00000000 0.316601 0.947241 -0.049990 0.000000
137.93600464 91.17769623 183.75000000 -0.289936 -0.424933 0.857536 0.000000
67.79879761 233.78900146 173.75000000 -0.640214 0.155891 0.752213 0.000000
126.24600220 222.10000610 141.25000000 0.590975 0.677541 -0.437821 0.000000
170.27600098 114.55699921 200.00000000 0.087814 -0.253260 0.963405 0.000000
153.52200317 93.51560211 191.25000000 -0.126175 -0.624938 0.770411 0.000000
148.84599304 132.09100342 155.00000000 0.147347 -0.222976 0.963624 0.000000
141.83200073 187.81100464 106.25000000 0.364920 -0.852514 -0.374237 0.000000
102.86699677 112.99800110 98.75000000 0.549748 0.376830 -0.745504 0.000000
116.89499664 105.20500183 183.75000000 -0.323663 -0.270940 0.906550 0.000000
97.41210175 141.44200134 127.50000000 0.689288 -0.283072 -0.666898 0.000000
61.56449890 143.77999878 77.50000000 0.557471 -0.279525 -0.781723 0.000000
157.41799927 84.94339752 186.25000000 -0.162014 -0.616257 0.770700 0.000000
180.01800537 141.05299377 146.25000000 -0.529997 0.215359 0.820197 0.000000
114.55699921 123.12899780 116.25000000 0.536020 0.401605 -0.742560 0.000000
203.39700317 109.88099670 173.75000000 -0.654519 0.220256 0.723251 0.000000
174.56300354 85.72270203 188.75000000 -0.220541 -0.883644 0.412959 0.000000
193.26600647 109.10199738 198.75000000 0.000978 0.000978 0.999999 0.000000
194.82400513 173.78300476 196.25000000 0.001380 0.730182 0.683251 0.000000
83.38480377 139.88400269 195.00000000 -0.703232 -0.350800 0.618388 0.000000
180.40699768 93.51560211 195.00000000 -0.303236 -0.210150 0.929454 0.000000
174.95199585 101.30899811 197.50000000 0.230195 -0.343121 0.910647 0.000000
146.89700317 190.14799500 197.50000000 0.335625 0.001248 0.941995 0.000000
127.02500153 179.23800659 123.75000000 -0.000978 -0.000978 0.999999 0.000000
190.14799500 87.28130341 178.75000000 -0.730182 0.001380 0.683251 0.000000
146.50799561 236.51699829 172.50000000 0.848675 0.508619 0.145110 0.000000
119.23200226 86.89160156 150.00000000 -0.175850 -0.983108 -0.050749 0.000000
97.02249908 278.20901489 142.50000000 0.944257 0.313869 0.099326 0.000000
163.65199280 155.08000183 203.75000000 0.085108 -0.082838 0.992922 0.000000
164.43200684 99.75000000 196.25000000 -0.140368 -0.473198 0.869701 0.000000
100.13999939 260.28500366 140.00000000 0.529016 -0.211911 -0.821728 0.000000
134.42900085 236.12699890 160.00000000 0.416885 0.335694 -0.844699 0.000000
160.53500366 84.16410065 136.25000000 0.589471 -0.589471 -0.552312 0.000000
120.79100037 227.55499268 191.25000000 0.069369 0.414855 0.907239 0.000000
60.00590134 263.40200806 101.25000000 -0.325393 0.713922 -0.620028 0.000000
189.36900330 141.05299377 153.75000000 0.000978 0.000978 0.999999 0.000000
96.63279724 102.08799744 173.75000000 -0.243677 -0.535470 0.808637 0.000000
152.74200439 146.50799561 203.75000000 0.096581 -0.020618 0.995112 0.000000
72.47460175 136.37699890 88.75000000 0.550310 -0.424713 -0.718873 0.000000
186.25199890 162.09399414 198.75000000 0.000978 0.000978 0.999999 0.000000
121.56999969 200.66900635 202.50000000 0.139814 0.659982 0.738157 0.000000
135.59800720 196.77200317 202.50000000 0.286660 0.389797 0.875148 0.000000
194.04499817 80.65720367 187.50000000 0.001380 -0.730182 0.683251 0.000000
137.15600586 103.64600372 191.25000000 -0.146200 -0.536066 0.831420 0.000000
173.78300476 141.83200073 141.25000000 -0.667033 -0.133407 0.732987 0.000000
114.55699921 225.21699524 191.25000000 0.674913 0.223927 0.703100 0.000000
125.46700287 208.85200500 96.25000000 0.434376 0.694003 -0.574175 0.000000
226.77499390 125.46700287 188.75000000 0.557503 0.009542 0.830120 0.000000
105.20500183 148.06599426 211.25000000 -0.188417 -0.416270 0.889504 0.000000
182.35499573 202.61700439 156.25000000 0.747860 0.549082 -0.373115 0.000000
40.91310120 194.04499817 45.00000000 -0.989175 0.124373 -0.077879 0.000000
128.97399902 256.38900757 170.00000000 0.323167 0.657701 0.680436 0.000000
140.27299500 240.80299377 163.75000000 0.458560 0.394201 -0.796447 0.000000
64.68160248 181.57600403 176.25000000 -0.646922 -0.243973 0.722475 0.000000
61.56449890 250.93400574 88.75000000 0.732534 0.254725 -0.631276 0.000000
69.35739899 197.16200256 181.25000000 -0.677093 0.189709 0.711024 0.000000
126.24600220 230.67199707 148.75000000 0.450449 0.627949 -0.634647 0.000000
134.03900146 109.10199738 121.25000000 -0.270784 0.960970 0.056676 0.000000
134.81799316 135.59800720 201.25000000 0.189764 -0.695800 0.692714 0.000000
91.17769623 253.27200317 126.25000000 0.747181 0.425318 -0.510710 0.000000
164.43200684 109.10199738 143.75000000 -0.564617 0.157254 0.810234 0.000000
92.73629761 275.09201050 158.75000000 -0.186301 0.715948 0.672837 0.000000
176.89999390 108.32199860 153.75000000 -0.983855 -0.177303 -0.024336 0.000000
41.30270004 196.38299561 43.75000000 -0.978536 0.196673 0.061536 0.000000
95.07420349 206.90299988 197.50000000 -0.335694 0.416885 0.844699 0.000000
93.51560211 240.80299377 183.75000000 0.046194 0.555722 0.830084 0.000000
198.72099304 85.72270203 181.25000000 -0.578461 0.069987 0.812702 0.000000
73.25389862 240.02299500 173.75000000 -0.312667 0.286244 0.905706 0.000000
118.45300293 253.27200317 156.25000000 0.613793 -0.205628 -0.762217 0.000000
180.79699707 93.12599945 195.00000000 -0.303236 -0.210150 0.929454 0.000000
151.18400574 123.12899780 133.75000000 0.169114 0.114800 0.978888 0.000000
168.32800293 194.82400513 128.75000000 0.086416 0.412875 -0.906679 0.000000
142.61099243 208.46200562 152.50000000 0.861665 -0.014880 -0.507260 0.000000
158.19700623 194.43499756 117.50000000 0.539651 0.264351 -0.799309 0.000000
126.24600220 108.32199860 118.75000000 -0.030570 -0.423997 -0.905147 0.000000
119.23200226 105.20500183 186.25000000 -0.300695 -0.291895 0.907954 0.000000
104.03600311 229.11300659 122.50000000 0.660152 0.549287 -0.512332 0.000000
171.44500732 185.47300720 141.25000000 0.000978 0.000978 -0.999999 0.000000
112.21900177 94.68460083 112.50000000 -0.999999 0.000978 0.000978 0.000000
159.75599670 186.64199829 180.00000000 0.297466 0.892399 0.339321 0.000000
73.64360046 198.72099304 45.00000000 0.878075 0.146105 -0.455673 0.000000
98.97070313 103.64600372 98.75000000 -0.270122 -0.519945 -0.810365 0.000000
227.55499268 127.80500031 188.75000000 0.477226 -0.250122 0.842434 0.000000
200.27900696 109.10199738 196.25000000 0.204289 0.204289 0.957357 0.000000
110.66000366 146.50799561 211.25000000 -0.163346 -0.487096 0.857937 0.000000
180.01800537 123.90799713 146.25000000 -0.341164 0.094991 0.935192 0.000000
42.08200073 200.27900696 43.75000000 -0.970509 0.195122 -0.141559 0.000000
190.92799377 168.32800293 196.25000000 0.572141 0.277354 0.771835 0.000000
224.04800415 151.96299744 180.00000000 -0.674325 -0.300952 0.674325 0.000000
127.02500153 216.64500427 193.75000000 0.848828 0.001345 0.528668 0.000000
100.91899872 124.68800354 122.50000000 -0.423663 0.606420 -0.672877 0.000000
120.79100037 202.61700439 86.25000000 0.505475 0.469014 -0.724238 0.000000
74.03320313 116.89499664 96.25000000 -0.595704 -0.793779 -0.122688 0.000000
182.35499573 183.91400146 183.75000000 0.346535 0.346535 0.871681 0.000000
168.32800293 102.47799683 147.50000000 -0.350740 0.106983 0.930342 0.000000
48.31639862 164.04200745 132.50000000 -0.953469 -0.219824 -0.206338 0.000000
197.16200256 148.06599426 196.25000000 0.000978 0.000978 0.999999 0.000000
78.70899963 229.50300598 90.00000000 0.502332 0.653536 -0.566174 0.000000
136.37699890 199.50000000 96.25000000 0.486386 0.453411 -0.746891 0.000000
93.90529633 218.98199463 87.50000000 0.391833 0.856457 -0.336078 0.000000
122.34999847 180.01800537 128.75000000 0.748959 -0.660511 0.052784 0.000000
177.67999268 194.82400513 186.25000000 0.161010 0.579334 0.799029 0.000000
83.38480377 209.63099670 188.75000000 -0.375944 0.194454 0.906010 0.000000
120.01200104 147.28700256 211.25000000 0.125804 -0.498879 0.857493 0.000000
175.73100281 152.74200439 200.00000000 0.247624 -0.250422 0.935934 0.000000
123.12899780 111.05000305 117.50000000 0.704883 0.582725 -0.404441 0.000000
96.63279724 185.47300720 76.25000000 0.708007 -0.258177 -0.657321 0.000000
44.80960083 234.56799316 82.50000000 -0.932373 0.358605 -0.045641 0.000000
131.70100403 117.67400360 193.75000000 0.059635 -0.495107 0.866783 0.000000
71.69529724 126.24600220 168.75000000 -0.810153 -0.455412 0.369123 0.000000
213.52699280 89.61920166 188.75000000 -0.894688 0.446689 0.001310 0.000000
103.64600372 115.33599854 186.25000000 -0.434378 -0.319166 0.842288 0.000000
72.47460175 204.17599487 43.75000000 0.881186 0.085186 -0.465032 0.000000
200.27900696 88.83989716 181.25000000 -0.499116 0.216941 0.838940 0.000000
109.88099670 111.43900299 101.25000000 0.482739 0.600480 -0.637485 0.000000
177.67999268 116.89499664 198.75000000 0.000978 0.000978 0.999999 0.000000
104.03600311 173.00399780 210.00000000 -0.392124 -0.032786 0.919328 0.000000
117.67400360 236.12699890 186.25000000 -0.029456 0.778473 0.626986 0.000000
145.72900391 127.02500153 151.25000000 0.690320 -0.690320 -0.216602 0.000000
47.92679977 166.77000427 150.00000000 -0.781505 -0.389944 0.487025 0.000000
147.28700256 187.03100586 123.75000000 0.108488 -0.993923 -0.018629 0.000000
81.43650055 118.45300293 175.00000000 -0.492711 -0.526115 0.693136 0.000000
206.51400757 177.67999268 191.25000000 0.084682 0.558326 0.825289 0.000000
140.27299500 118.45300293 193.75000000 -0.254124 -0.318017 0.913393 0.000000
95.85350037 195.60400391 71.25000000 0.698502 0.020997 -0.715300 0.000000
133.25999451 108.32199860 121.25000000 -0.270784 0.960970 0.056676 0.000000
159.75599670 154.30099487 153.75000000 0.745984 -0.222705 0.627623 0.000000
197.94099426 180.01800537 188.75000000 0.611230 0.667856 0.424696 0.000000
179.23800659 164.04200745 152.50000000 -0.593011 -0.682710 -0.426901 0.000000
66.24019623 144.16999817 176.25000000 -0.776230 -0.266091 0.571544 0.000000
141.05299377 126.24600220 128.75000000 0.519371 0.168163 -0.837839 0.000000
58.05759811 139.49400330 127.50000000 -0.861761 -0.498317 0.095120 0.000000
151.18400574 128.58399963 198.75000000 -0.000978 -0.000978 0.999999 0.000000
121.56999969 242.36099243 183.75000000 0.185146 0.522323 0.832406 0.000000
153.52200317 187.42100525 185.00000000 0.671719 0.671719 0.312390 0.000000
86.89160156 98.97070313 160.00000000 -0.570987 -0.785691 0.238041 0.000000
147.28700256 224.43800354 161.25000000 0.558768 0.294507 -0.775270 0.000000
96.63279724 112.21900177 181.25000000 -0.360857 -0.446699 0.818683 0.000000
90.39849854 256.38900757 126.25000000 0.685586 0.413344 -0.599265 0.000000
89.61920166 254.83000183 176.25000000 -0.081207 0.430810 0.898782 0.000000
109.10199738 225.21699524 126.25000000 0.560658 0.641473 -0.523617 0.000000
198.33099365 105.20500183 197.50000000 0.391820 -0.103110 0.914246 0.000000
182.35499573 140.27299500 146.25000000 -0.249886 -0.523053 0.814845 0.000000
94.29489899 217.42399597 191.25000000 -0.207497 0.183708 0.960831 0.000000
118.45300293 111.43900299 186.25000000 -0.246067 -0.306505 0.919514 0.000000
211.96899414 176.12100220 188.75000000 -0.362561 0.904220 0.225691 0.000000
98.97070313 191.70700073 203.75000000 0.000978 0.000978 0.999999 0.000000
127.02500153 127.02500153 196.25000000 0.188839 -0.314732 0.930206 0.000000
97.80180359 100.52899933 115.00000000 -0.563791 -0.788682 -0.245194 0.000000
148.84599304 87.28130341 186.25000000 -0.113073 -0.600607 0.791509 0.000000
148.84599304 180.79699707 206.25000000 0.284413 0.406087 0.868448 0.000000
104.42600250 198.33099365 202.50000000 -0.110159 0.303932 0.946304 0.000000
139.49400330 81.43650055 165.00000000 -0.150949 -0.985329 0.079635 0.000000
159.75599670 101.69799805 130.00000000 0.421606 0.906778 0.001297 0.000000
217.42399597 136.37699890 193.75000000 0.036190 -0.435626 0.899400 0.000000
79.09860229 264.96099854 120.00000000 0.954848 0.001223 -0.297091 0.000000
67.79879761 244.69900513 91.25000000 0.650499 0.482412 -0.586626 0.000000
182.74499512 190.92799377 145.00000000 0.570530 0.224192 -0.790084 0.000000
119.62200165 165.21099854 145.00000000 0.530727 -0.111351 -0.840197 0.000000
68.57810211 211.96899414 43.75000000 0.721613 0.628811 -0.289605 0.000000
72.47460175 179.23800659 56.25000000 0.455084 -0.419455 -0.785466 0.000000
201.05900574 91.17769623 181.25000000 -0.387014 0.396492 0.832475 0.000000
84.16410065 200.27900696 193.75000000 -0.582438 0.164046 0.796150 0.000000
147.28700256 80.65720367 157.50000000 -0.174507 -0.979925 -0.096406 0.000000
60.00590134 245.86799622 82.50000000 0.436163 0.055709 -0.898142 0.000000
131.70100403 133.25999451 201.25000000 -0.000978 -0.000978 0.999999 0.000000
149.62500000 117.67400360 196.25000000 -0.096039 -0.435656 0.894975 0.000000
182.35499573 169.88699341 151.25000000 0.150670 -0.813021 0.562402 0.000000
144.55999756 236.12699890 165.00000000 0.631920 0.311919 -0.709495 0.000000
100.91899872 235.34800720 125.00000000 0.779550 0.522379 -0.345574 0.000000
36.62699890 218.20300293 133.75000000 -0.954848 0.001223 0.297091 0.000000
212.74800110 173.78300476 183.75000000 -0.766853 -0.625788 0.142566 0.000000
96.24320221 91.95700073 150.00000000 -0.384678 -0.913435 -0.132889 0.000000
137.93600464 123.90799713 196.25000000 -0.280411 -0.562406 0.777862 0.000000
46.36819839 169.10699463 120.00000000 -0.906363 -0.407933 0.109989 0.000000
179.23800659 100.52899933 158.75000000 -0.822382 0.150200 0.548751 0.000000
129.36300659 209.63099670 108.75000000 0.447738 0.894164 0.001313 0.000000
108.32199860 150.40400696 133.75000000 0.798915 -0.112874 -0.590757 0.000000
122.34999847 210.02099609 95.00000000 0.354045 0.835547 -0.420134 0.000000
181.57600403 190.14799500 186.25000000 0.359034 0.098904 0.928069 0.000000
89.61920166 165.21099854 81.25000000 0.541234 0.001350 -0.840871 0.000000
132.47999573 189.36900330 206.25000000 0.283517 0.774523 0.565449 0.000000
188.58999634 174.56300354 196.25000000 0.017865 0.567546 0.823148 0.000000
81.04689789 131.70100403 188.75000000 -0.392127 -0.235276 0.889315 0.000000
58.05759811 138.71499634 125.00000000 -0.861761 -0.498317 0.095120 0.000000
141.83200073 158.97700500 148.75000000 -0.808080 0.291413 0.511942 0.000000
95.85350037 150.79400635 120.00000000 0.715356 -0.326047 -0.618029 0.000000
65.46089935 126.63600159 150.00000000 -0.917750 -0.392556 0.060290 0.000000
101.30899811 123.12899780 191.25000000 -0.060616 -0.830303 0.554005 0.000000
205.73399353 169.49699402 175.00000000 0.203706 -0.408877 0.889564 0.000000
58.44729996 232.61999512 167.50000000 -0.662266 0.104724 0.741915 0.000000
62.73339844 134.81799316 152.50000000 -0.956215 -0.286482 0.059843 0.000000
146.11799622 198.72099304 162.50000000 0.211257 0.313341 -0.925844 0.000000
45.97850037 199.50000000 153.75000000 -0.834976 -0.084211 0.543805 0.000000
111.43900299 93.12599945 125.00000000 -0.313869 -0.944257 -0.099326 0.000000
215.86500549 167.54899597 181.25000000 -0.634192 -0.482794 0.603913 0.000000
114.55699921 192.48599243 206.25000000 -0.690320 0.690320 0.216602 0.000000
153.52200317 215.08599854 181.25000000 0.726917 0.417029 0.545600 0.000000
152.74200439 196.77200317 142.50000000 0.312831 0.938494 0.146170 0.000000
166.77000427 193.65499878 165.00000000 -0.585296 0.770457 0.252635 0.000000
217.42399597 162.09399414 193.75000000 0.278277 0.041180 0.959618 0.000000
152.74200439 79.87789917 172.50000000 -0.001223 -0.954848 0.297091 0.000000
47.14749908 218.20300293 45.00000000 -0.690783 0.690783 -0.213628 0.000000
93.51560211 279.37799072 155.00000000 -0.191858 0.964510 0.181417 0.000000
172.22500610 190.92799377 181.25000000 -0.535888 0.162707 0.828462 0.000000
65.46089935 215.86500549 176.25000000 -0.502889 0.370295 0.781015 0.000000
37.01660156 217.42399597 110.00000000 -0.993022 0.100317 -0.061993 0.000000
176.89999390 200.66900635 145.00000000 0.353456 0.822618 -0.445386 0.000000
90.39849854 135.59800720 121.25000000 0.654976 -0.261673 -0.708896 0.000000
56.49900055 231.45100403 57.50000000 0.502416 0.769071 -0.395104 0.000000
37.40629959 199.50000000 136.25000000 -0.987728 -0.143436 0.061806 0.000000
62.34379959 193.26600647 178.75000000 -0.608436 -0.188508 0.770890 0.000000
130.92199707 256.38900757 168.75000000 0.294347 0.657856 0.693242 0.000000
96.63279724 97.02249908 170.00000000 -0.548171 -0.554918 0.625759 0.000000
159.36599731 100.52899933 195.00000000 -0.280801 -0.321966 0.904151 0.000000
147.28700256 136.37699890 138.75000000 0.637449 -0.673687 0.373904 0.000000
144.55999756 84.16410065 140.00000000 -0.137068 -0.951489 -0.275466 0.000000
61.56449890 171.44500732 173.75000000 -0.508455 -0.101691 0.855063 0.000000
67.40920258 124.68800354 137.50000000 -0.805227 -0.537337 -0.250757 0.000000
217.81399536 98.97070313 187.50000000 -0.702201 0.667486 0.247743 0.000000
88.06060028 272.75399780 161.25000000 -0.449792 0.462876 0.763828 0.000000
180.79699707 91.17769623 161.25000000 -0.912969 0.049458 0.405021 0.000000
56.10940170 173.00399780 168.75000000 -0.661664 -0.608331 0.438332 0.000000
83.77439880 201.83799744 60.00000000 0.730182 0.001380 -0.683251 0.000000
212.74800110 158.19700623 193.75000000 0.353031 -0.441684 0.824794 0.000000
165.60099792 155.08000183 202.50000000 0.330719 -0.411457 0.849310 0.000000
99.75000000 125.46700287 123.75000000 -0.324331 0.576050 -0.750317 0.000000
176.89999390 107.54299927 198.75000000 0.000978 0.000978 0.999999 0.000000
144.94900513 196.38299561 198.75000000 0.605973 0.164716 0.778245 0.000000
134.81799316 202.61700439 198.75000000 0.050532 0.460247 0.886352 0.000000
187.03100586 156.63900757 198.75000000 0.000978 0.000978 0.999999 0.000000
182.35499573 127.80500031 198.75000000 0.000978 0.000978 0.999999 0.000000
206.51400757 90.39849854 193.75000000 0.191380 -0.097542 0.976657 0.000000
70.91600037 182.35499573 183.75000000 -0.848828 0.001345 0.528668 0.000000
63.12310028 231.06199646 65.00000000 0.651066 0.543396 -0.529937 0.000000
119.23200226 152.74200439 213.75000000 0.273709 -0.291087 0.916707 0.000000
134.03900146 137.93600464 126.25000000 0.350836 -0.199046 -0.915038 0.000000
36.62699890 202.22799683 132.50000000 -0.989082 -0.101835 0.106517 0.000000
99.75000000 158.97700500 211.25000000 -0.500992 0.223848 0.836002 0.000000
70.13670349 137.15600586 178.75000000 -0.589471 -0.589471 0.552312 0.000000
142.61099243 121.56999969 196.25000000 -0.132681 -0.290826 0.947531 0.000000
229.89300537 146.50799561 191.25000000 0.000978 0.000978 0.999999 0.000000
82.60549927 215.08599854 188.75000000 -0.573443 -0.060884 0.816980 0.000000
186.25199890 152.35299683 150.00000000 -0.583826 -0.242609 0.774783 0.000000
90.78810120 257.94699097 127.50000000 0.665343 0.344932 -0.662073 0.000000
157.41799927 111.43900299 196.25000000 -0.545934 -0.436415 0.715190 0.000000
90.00879669 280.54699707 137.50000000 0.456808 0.761347 -0.460083 0.000000
189.36900330 169.10699463 163.75000000 -0.296534 -0.742137 0.601083 0.000000
169.49699402 198.72099304 162.50000000 -0.936863 0.255508 0.238753 0.000000
64.68160248 134.81799316 166.25000000 -0.887452 -0.319843 0.331856 0.000000
153.52200317 186.25199890 131.25000000 0.155142 -0.948392 -0.276558 0.000000
127.02500153 183.13499451 133.75000000 0.409554 -0.654955 -0.635058 0.000000
41.69240189 195.60400391 145.00000000 -0.875886 -0.222329 0.428244 0.000000
42.08200073 173.00399780 108.75000000 -0.978536 -0.196673 0.061536 0.000000
154.30099487 99.75000000 193.75000000 -0.254097 0.063837 0.965070 0.000000
58.05759811 146.50799561 140.00000000 -0.783724 -0.468937 0.407277 0.000000
207.29299927 146.50799561 168.75000000 0.000978 0.000978 0.999999 0.000000
141.83200073 137.15600586 153.75000000 -0.781407 0.113311 0.613648 0.000000
84.94339752 201.05900574 61.25000000 0.685999 0.130026 -0.715890 0.000000
88.06060028 280.15701294 152.50000000 -0.313718 0.815037 0.487130 0.000000
197.16200256 84.16410065 191.25000000 0.001380 -0.730182 0.683251 0.000000
49.87500000 249.37500000 91.25000000 -0.715617 0.685612 -0.133522 0.000000
210.41000366 120.79100037 168.75000000 -0.479063 -0.137495 0.866945 0.000000
119.23200226 239.24400330 151.25000000 0.597031 0.299316 -0.744288 0.000000
74.03320313 209.63099670 183.75000000 -0.598060 0.129110 0.790983 0.000000
41.69240189 169.88699341 62.50000000 -0.954848 0.001223 -0.297091 0.000000
112.21900177 240.80299377 143.75000000 -0.278588 0.600158 -0.749799 0.000000
56.88869858 139.49400330 118.75000000 -0.897297 -0.432749 0.087103 0.000000
132.86999512 211.96899414 130.00000000 0.551288 0.752939 -0.359394 0.000000
37.01660156 196.38299561 122.50000000 -0.998341 -0.055405 0.015681 0.000000
82.60549927 207.29299927 188.75000000 -0.310102 0.182168 0.933087 0.000000
123.90799713 177.67999268 211.25000000 -0.122652 0.858563 0.497822 0.000000
93.51560211 215.86500549 191.25000000 -0.255652 0.127171 0.958368 0.000000
152.74200439 177.67999268 141.25000000 -0.064799 -0.712784 -0.698384 0.000000
209.63099670 123.90799713 168.75000000 -0.566867 0.084671 0.819446 0.000000
150.40400696 100.13999939 117.50000000 0.206063 0.852830 -0.479811 0.000000
158.19700623 172.22500610 203.75000000 0.353137 0.484165 0.800549 0.000000
172.22500610 107.54299927 198.75000000 0.000978 0.000978 0.999999 0.000000
166.77000427 106.76399994 143.75000000 0.500768 0.615422 0.608677 0.000000
100.91899872 190.14799500 77.50000000 0.741819 -0.324849 -0.586667 0.000000
163.65199280 189.36900330 171.25000000 0.114752 0.978476 0.171511 0.000000
226.38600159 110.66000366 187.50000000 0.979580 -0.199217 0.027112 0.000000
65.46089935 229.11300659 173.75000000 -0.631743 0.199254 0.749132 0.000000
169.10699463 121.56999969 138.75000000 -0.607005 0.232503 0.759926 0.000000
151.18400574 167.54899597 146.25000000 -0.206508 -0.139809 0.968405 0.000000
79.87789917 197.94099426 190.00000000 -0.658593 0.185757 0.729212 0.000000
151.96299744 180.79699707 138.75000000 -0.139814 -0.738157 -0.659982 0.000000
44.41989899 172.22500610 46.25000000 -0.214798 -0.857691 -0.467149 0.000000
156.63900757 144.16999817 136.25000000 0.244468 0.020473 0.969441 0.000000
207.29299927 86.89160156 192.50000000 0.099671 -0.113742 0.988498 0.000000
71.69529724 218.98199463 61.25000000 0.703424 0.574325 -0.418744 0.000000
118.45300293 180.79699707 96.25000000 0.463834 -0.611190 -0.641331 0.000000
79.48829651 144.94900513 91.25000000 0.686383 -0.344007 -0.640733 0.000000
212.74800110 158.19700623 173.75000000 -0.538895 -0.420239 0.730063 0.000000
127.02500153 261.06399536 166.25000000 0.798454 0.588100 0.128878 0.000000
59.22660065 147.67700195 150.00000000 -0.930833 -0.309345 -0.194565 0.000000
47.92679977 190.92799377 160.00000000 -0.942525 0.322963 0.085684 0.000000
176.12100220 165.21099854 201.25000000 0.356919 0.140268 0.923544 0.000000
90.39849854 211.18899536 71.25000000 0.554247 0.697386 -0.454383 0.000000
110.66000366 236.90600586 141.25000000 0.205183 0.521316 -0.828330 0.000000
218.98199463 109.10199738 183.75000000 -0.000978 -0.000978 0.999999 0.000000
217.81399536 149.62500000 175.00000000 -0.525493 -0.211720 0.824034 0.000000
72.47460175 260.28500366 163.75000000 -0.442961 0.610116 0.656920 0.000000
112.99800110 224.43800354 128.75000000 0.416825 0.632710 -0.652638 0.000000
141.05299377 176.12100220 208.75000000 0.625770 0.406668 0.665607 0.000000
158.19700623 187.42100525 130.00000000 0.154599 -0.882805 -0.443570 0.000000
65.85060120 233.78900146 75.00000000 0.647355 0.647355 -0.402321 0.000000
179.23800659 145.72900391 198.75000000 0.000978 0.000978 0.999999 0.000000
148.06599426 83.77439880 140.00000000 -0.062851 -0.953026 -0.296297 0.000000
115.33599854 248.59599304 181.25000000 0.069634 0.555647 0.828497 0.000000
106.76399994 167.54899597 211.25000000 -0.404134 0.329810 0.853171 0.000000
87.28130341 196.38299561 63.75000000 -0.000978 -0.000978 -0.999999 0.000000
145.72900391 159.75599670 208.75000000 0.096217 -0.171728 0.980434 0.000000
148.06599426 136.76699829 157.50000000 -0.205813 -0.322203 0.924027 0.000000
207.29299927 93.51560211 193.75000000 0.172256 -0.080707 0.981740 0.000000
61.56449890 270.80599976 117.50000000 -0.522193 0.812127 -0.260317 0.000000
212.74800110 114.94599915 175.00000000 -0.429892 0.559357 0.708740 0.000000
91.56739807 197.16200256 67.50000000 0.691199 0.026747 -0.722169 0.000000
143.39100647 113.77700043 193.75000000 -0.411336 -0.389101 0.824259 0.000000
80.26760101 157.41799927 88.75000000 0.847215 -0.507146 -0.158206 0.000000
49.09569931 242.75100708 82.50000000 -0.833415 0.498821 -0.237899 0.000000
167.54899597 161.31399536 203.75000000 0.224658 -0.241197 0.944115 0.000000
141.44200134 120.01200104 195.00000000 -0.399166 -0.322107 0.858437 0.000000
222.10000610 172.22500610 188.75000000 0.312831 -0.938494 0.146170 0.000000
114.55699921 87.67089844 150.00000000 0.000978 0.000978 -0.999999 0.000000
160.14599609 99.75000000 122.50000000 0.313824 0.791728 -0.524101 0.000000
122.34999847 87.28130341 176.25000000 -0.367214 -0.732797 0.572855 0.000000
212.74800110 101.30899811 193.75000000 0.426015 -0.125964 0.895904 0.000000
197.16200256 119.23200226 163.75000000 -0.558960 0.606243 0.565715 0.000000
175.34199524 173.00399780 198.75000000 0.352975 0.523821 0.775255 0.000000
205.73399353 174.56300354 178.75000000 -0.411061 -0.758252 0.506047 0.000000
209.63099670 150.40400696 196.25000000 0.008104 -0.195664 0.980637 0.000000
76.76080322 187.03100586 55.00000000 0.648789 -0.513976 -0.561161 0.000000
208.07200623 122.34999847 196.25000000 0.378047 -0.185430 0.907026 0.000000
65.07129669 243.91999817 87.50000000 0.690849 0.415835 -0.591446 0.000000
131.70100403 120.01200104 193.75000000 0.000978 0.000978 0.999999 0.000000
79.48829651 164.43200684 196.25000000 -0.707649 -0.050036 0.704790 0.000000
59.61619949 250.93400574 160.00000000 -0.610296 0.492608 0.620384 0.000000
215.86500549 124.68800354 193.75000000 0.382997 0.126737 0.915014 0.000000
144.16999817 81.82620239 151.25000000 -0.158222 -0.973381 -0.165817 0.000000
47.92679977 190.14799500 160.00000000 -0.942525 0.322963 0.085684 0.000000
161.31399536 194.04499817 121.25000000 0.576414 0.729906 -0.367402 0.000000
72.47460175 157.41799927 188.75000000 -0.807250 0.226894 0.544855 0.000000
113.38800049 105.98400116 100.00000000 0.468316 0.409979 -0.782686 0.000000
176.89999390 195.60400391 138.75000000 0.828621 0.345653 -0.440353 0.000000
236.12699890 146.50799561 188.75000000 -0.999123 -0.003055 -0.041757 0.000000
144.94900513 239.63400269 167.50000000 0.698843 0.394855 -0.596412 0.000000
58.44729996 178.45899963 46.25000000 0.534661 -0.675449 -0.507844 0.000000
203.39700317 118.45300293 196.25000000 0.000978 0.000978 0.999999 0.000000
137.15600586 147.28700256 208.75000000 0.163196 -0.055182 0.985049 0.000000
77.15039825 236.90600586 96.25000000 -0.426823 0.426823 -0.797273 0.000000
187.42100525 134.81799316 152.50000000 -0.611489 0.032184 0.790598 0.000000
39.35449982 206.51400757 92.50000000 -0.954848 0.001223 0.297091 0.000000
92.73629761 252.10299683 177.50000000 -0.118896 0.474150 0.872379 0.000000
156.63900757 144.16999817 158.75000000 0.919196 -0.387807 0.068437 0.000000
162.09399414 159.75599670 203.75000000 0.924519 0.187727 0.331698 0.000000
175.34199524 86.11229706 190.00000000 -0.220541 -0.883644 0.412959 0.000000
56.88869858 229.11300659 166.25000000 -0.624527 0.001373 0.781002 0.000000
144.94900513 80.65720367 170.00000000 0.001174 -0.973432 0.228974 0.000000
158.19700623 144.94900513 158.75000000 0.962058 -0.115240 0.247312 0.000000
153.13200378 137.15600586 157.50000000 0.256613 -0.267955 0.928628 0.000000
65.85060120 248.59599304 167.50000000 -0.599710 0.401459 0.692227 0.000000
42.86130142 192.48599243 146.25000000 -0.882993 -0.221119 0.414042 0.000000
160.53500366 95.07420349 191.25000000 -0.041847 -0.444120 0.894990 0.000000
145.72900391 201.44799805 135.00000000 0.595275 0.767140 0.239048 0.000000
161.31399536 108.32199860 198.75000000 -0.408877 0.203706 0.889564 0.000000
206.51400757 170.66600037 196.25000000 -0.174963 0.328931 0.928005 0.000000
76.37110138 174.56300354 193.75000000 -0.554795 0.282929 0.782403 0.000000
84.94339752 190.92799377 196.25000000 -0.550919 0.223762 0.804002 0.000000
197.16200256 146.50799561 161.25000000 -0.681717 -0.046966 0.730107 0.000000
65.46089935 237.29600525 80.00000000 0.699950 0.604427 -0.380443 0.000000
80.26760101 247.03700256 108.75000000 0.613958 0.556453 -0.559835 0.000000
79.48829651 111.05000305 102.50000000 -0.599234 -0.789561 -0.132337 0.000000
122.34999847 210.80000305 102.50000000 0.374576 0.922139 -0.096709 0.000000
210.41000366 176.12100220 186.25000000 -0.489229 -0.816430 0.306751 0.000000
117.67400360 233.00999451 143.75000000 0.493524 0.737810 -0.460512 0.000000
156.63900757 93.51560211 191.25000000 0.138920 -0.619912 0.772276 0.000000
166.77000427 141.83200073 136.25000000 -0.319326 -0.640274 0.698628 0.000000
120.01200104 127.41500092 120.00000000 0.862175 0.279253 -0.422695 0.000000
54.55080032 169.49699402 57.50000000 0.247309 -0.834092 -0.493082 0.000000
63.90240097 181.96600342 47.50000000 0.645280 -0.457563 -0.611759 0.000000
199.50000000 127.02500153 196.25000000 0.000978 0.000978 0.999999 0.000000
175.34199524 133.25999451 141.25000000 -0.594493 0.073058 0.800775 0.000000
115.33599854 173.78300476 101.25000000 0.481704 -0.639475 -0.599193 0.000000
77.92970276 151.96299744 88.75000000 0.570343 -0.144447 -0.808606 0.000000
134.03900146 190.14799500 206.25000000 0.205894 0.623876 0.753914 0.000000
153.52200317 141.83200073 151.25000000 0.589472 0.017946 -0.807590 0.000000
191.70700073 167.15899658 162.50000000 -0.603598 -0.479180 0.637225 0.000000
133.25999451 171.83500671 212.50000000 0.300416 0.312255 0.901248 0.000000
96.63279724 230.28199768 110.00000000 0.999999 0.000978 0.000978 0.000000
155.08000183 102.86699677 193.75000000 -0.159960 -0.069909 0.984645 0.000000
211.18899536 170.27600098 180.00000000 -0.666698 -0.352187 0.656870 0.000000
207.29299927 95.07420349 193.75000000 0.258100 -0.127085 0.957723 0.000000
43.25099945 165.99000549 97.50000000 -0.914710 -0.395514 0.082908 0.000000
193.26600647 130.92199707 158.75000000 -0.530932 0.371814 0.761489 0.000000
99.75000000 133.25999451 201.25000000 -0.001294 -0.415362 0.909655 0.000000
145.72900391 220.54100037 186.25000000 0.337085 0.405434 0.849704 0.000000
