139.34399414 225.09399414 133.75000000 -0.374992 -0.347214 0.859548 0.000000
133.21899414 242.70300293 173.75000000 0.189715 -0.491466 -0.849982 0.000000
150.82800293 120.20300293 111.25000000 -0.852716 -0.001343 0.522373 0.000000
239.64100647 101.82800293 168.75000000 -0.589722 0.673252 -0.446050 0.000000
170.73399353 166.90600586 193.75000000 -0.000978 -0.000978 -0.999999 0.000000
88.81250000 205.95300293 166.25000000 0.558947 -0.046229 -0.827914 0.000000
177.62500000 172.26600647 118.75000000 0.000978 0.000978 0.999999 0.000000
136.28100586 122.50000000 111.25000000 -0.242091 -0.193402 0.950782 0.000000
134.75000000 93.78910065 135.00000000 0.376925 0.913373 -0.153876 0.000000
107.95300293 202.89100647 103.75000000 -0.411946 -0.743472 0.526831 0.000000
261.07800293 105.65599823 153.75000000 -0.603192 0.689126 -0.401577 0.000000
66.60939789 194.46899414 116.25000000 0.995025 -0.078759 0.061010 0.000000
126.71099854 164.60899353 182.50000000 0.445098 0.313911 -0.838658 0.000000
169.20300293 169.58599854 122.50000000 0.584653 0.409091 0.700589 0.000000
128.62500000 154.65600586 183.75000000 0.695605 0.241332 -0.676677 0.000000
98.76560211 256.10198975 147.50000000 0.188204 -0.906539 0.377844 0.000000
146.23399353 143.17199707 188.75000000 0.054368 0.204183 -0.977422 0.000000
127.09400177 119.43800354 168.75000000 0.488964 0.603223 -0.630108 0.000000
87.28119659 201.35899353 166.25000000 0.657695 -0.169383 -0.733994 0.000000
203.27299500 170.73399353 132.50000000 -0.841760 -0.355828 0.405989 0.000000
254.95300293 101.44499969 150.00000000 -0.442636 0.883830 0.151390 0.000000
81.92189789 145.46899414 146.25000000 0.560284 0.189798 -0.806262 0.000000
245.00000000 148.53100586 156.25000000 -0.594028 0.034943 0.803685 0.000000
169.96899414 191.78900146 127.50000000 -0.697224 -0.489896 0.523336 0.000000
173.79699707 101.06199646 173.75000000 0.410336 0.626302 -0.662850 0.000000
183.75000000 153.12500000 191.25000000 -0.238880 0.089738 -0.966894 0.000000
195.23399353 155.42199707 188.75000000 -0.357376 -0.070412 -0.931303 0.000000
72.73439789 223.17999268 127.50000000 0.879327 -0.470919 0.070846 0.000000
148.53100586 256.48400879 158.75000000 -0.339556 -0.922858 0.181754 0.000000
145.46899414 157.71899414 118.75000000 -0.132183 -0.592594 0.794581 0.000000
154.65600586 184.51600647 111.25000000 -0.043476 0.582015 0.812015 0.000000
166.90600586 187.57800293 118.75000000 -0.804107 -0.468396 0.366084 0.000000
141.64100647 166.90600586 188.75000000 0.477476 -0.356111 -0.803245 0.000000
94.17189789 176.09399414 86.25000000 -0.623740 -0.178429 0.760994 0.000000
215.14100647 153.12500000 183.75000000 -0.344547 -0.185743 -0.920210 0.000000
249.59399414 127.09400177 153.75000000 -0.271730 -0.379822 0.884250 0.000000
231.21899414 104.89099884 123.75000000 -0.600218 -0.799835 -0.001367 0.000000
217.43800354 103.35900116 186.25000000 -0.214904 0.513637 -0.830658 0.000000
210.54699707 94.93750000 136.25000000 0.001221 0.955752 0.294171 0.000000
132.45300293 106.80500031 157.50000000 0.487638 0.782489 -0.387194 0.000000
120.96900177 232.75000000 176.25000000 0.198797 -0.320049 -0.926309 0.000000
135.51600647 105.65599823 158.75000000 0.400546 0.723620 -0.562083 0.000000
196.00000000 108.71900177 188.75000000 -0.211128 0.514908 -0.830840 0.000000
172.26600647 183.75000000 118.75000000 -0.310721 -0.726088 0.613391 0.000000
215.90600586 167.67199707 173.75000000 0.076106 -0.969420 -0.233310 0.000000
140.87500000 150.06199646 188.75000000 0.431846 0.319597 -0.843425 0.000000
197.53100586 173.03100586 176.25000000 -0.669919 -0.251813 -0.698426 0.000000
222.79699707 95.32029724 177.50000000 -0.392158 0.730169 -0.559523 0.000000
93.40619659 177.62500000 86.25000000 -0.762770 -0.188774 0.618504 0.000000
233.51600647 113.31199646 141.25000000 -0.374297 -0.444379 0.813898 0.000000
98.76560211 182.98399353 173.75000000 0.497874 0.262121 -0.826689 0.000000
112.54699707 182.98399353 96.25000000 0.000978 0.000978 0.999999 0.000000
155.42199707 222.41400146 137.50000000 -0.453036 -0.616865 0.643612 0.000000
180.30499268 99.53119659 175.00000000 0.268522 0.738834 -0.618078 0.000000
130.92199707 95.32029724 135.00000000 0.371474 0.926702 -0.056845 0.000000
176.09399414 208.25000000 151.25000000 -0.860718 -0.302249 0.409647 0.000000
114.07800293 222.03100586 123.75000000 -0.485300 -0.511983 0.708772 0.000000
91.10939789 248.82800293 136.25000000 0.083059 -0.868602 0.488500 0.000000
136.28100586 173.79699707 111.25000000 -0.392211 0.660304 0.640445 0.000000
251.89100647 109.48400116 168.75000000 -0.585773 0.452263 -0.672554 0.000000
121.73400116 151.59399414 178.75000000 0.564152 0.043396 -0.824530 0.000000
70.82029724 169.20300293 125.00000000 0.944262 0.264503 -0.195979 0.000000
243.08599854 112.54699707 145.00000000 -0.482076 -0.382113 0.788411 0.000000
258.78100586 139.34399414 166.25000000 -0.168292 -0.231898 -0.958071 0.000000
159.25000000 218.20300293 136.25000000 -0.478523 -0.518539 0.708614 0.000000
103.35900116 172.26600647 173.75000000 0.524841 0.205372 -0.826054 0.000000
145.46899414 181.45300293 183.75000000 -0.093919 -0.318796 -0.943159 0.000000
133.21899414 164.22700500 117.50000000 -0.382305 0.394891 0.835407 0.000000
160.78100586 143.17199707 121.25000000 -0.464052 -0.399376 0.790667 0.000000
154.65600586 235.04699707 176.25000000 -0.443434 -0.463070 -0.767419 0.000000
166.14100647 153.89100647 136.25000000 -0.592336 -0.448840 0.669089 0.000000
116.37500000 157.71899414 111.25000000 -0.360948 0.532519 0.765598 0.000000
123.26599884 156.18800354 181.25000000 0.392028 0.163939 -0.905228 0.000000
212.07800293 111.01599884 106.25000000 -0.588841 -0.448721 0.672247 0.000000
197.14799500 91.10939789 162.50000000 0.090153 0.995927 -0.001061 0.000000
179.15600586 195.23399353 136.25000000 0.044202 -0.201894 0.978409 0.000000
251.89100647 112.54699707 168.75000000 -0.559203 0.363563 -0.745060 0.000000
173.41400146 220.50000000 172.50000000 -0.478312 -0.478312 -0.736502 0.000000
167.67199707 124.03099823 188.75000000 0.037546 0.552061 -0.832958 0.000000
120.96900177 124.03099823 168.75000000 0.574218 0.634839 -0.516965 0.000000
124.79699707 228.15600586 131.25000000 -0.366909 -0.336205 0.867378 0.000000
90.34380341 133.21899414 141.25000000 0.546018 0.465868 -0.696298 0.000000
114.84400177 245.76600647 166.25000000 0.368098 -0.763762 -0.530255 0.000000
142.02299500 107.95300293 165.00000000 0.460289 0.637710 -0.617624 0.000000
100.29699707 178.39100647 173.75000000 0.512009 0.177636 -0.840412 0.000000
149.29699707 230.45300293 178.75000000 -0.000978 -0.000978 -0.999999 0.000000
209.78100586 100.68000031 117.50000000 0.446689 0.894688 -0.001310 0.000000
126.32800293 189.87500000 183.75000000 0.062870 0.117738 -0.991053 0.000000
130.15600586 188.34399414 183.75000000 -0.000978 -0.000978 -0.999999 0.000000
142.40600586 215.52299500 127.50000000 -0.551683 -0.555057 0.622541 0.000000
185.28100586 180.30499268 175.00000000 -0.369562 -0.291124 -0.882423 0.000000
70.82029724 205.18800354 105.00000000 0.977700 0.029699 0.207895 0.000000
153.89100647 175.32800293 126.25000000 0.672870 -0.217005 0.707216 0.000000
127.85900116 215.90600586 181.25000000 0.051244 -0.366594 -0.928969 0.000000
77.32810211 232.36700439 135.00000000 0.891633 -0.450552 -0.044649 0.000000
92.64060211 181.45300293 86.25000000 -0.459309 0.033674 0.887638 0.000000
245.76600647 150.06199646 171.25000000 -0.524415 -0.273948 -0.806190 0.000000
74.26560211 200.59399414 153.75000000 -0.113139 0.797851 -0.592143 0.000000
196.76600647 145.46899414 123.75000000 -0.364989 -0.451056 0.814451 0.000000
186.04699707 195.23399353 141.25000000 -0.111370 -0.993509 -0.023156 0.000000
108.71900177 231.98399353 128.75000000 -0.146408 -0.668648 0.729023 0.000000
207.48399353 161.54699707 138.75000000 -0.545375 -0.585899 0.599406 0.000000
95.70310211 248.06199646 136.25000000 0.028504 -0.487288 0.872776 0.000000
119.43800354 196.00000000 181.25000000 0.225836 0.025093 -0.973842 0.000000
179.15600586 115.60900116 98.75000000 0.311845 -0.924142 0.220712 0.000000
210.54699707 152.35899353 131.25000000 -0.359776 -0.276176 0.891228 0.000000
114.84400177 229.68800354 128.75000000 -0.546136 -0.333481 0.768457 0.000000
152.35899353 131.68800354 188.75000000 0.642686 0.046818 -0.764697 0.000000
100.29699707 181.45300293 173.75000000 0.497874 0.262121 -0.826689 0.000000
245.00000000 129.39100647 153.75000000 -0.417545 -0.339353 0.842909 0.000000
110.25000000 122.50000000 116.25000000 -0.216457 -0.143873 0.965633 0.000000
236.57800293 95.32029724 162.50000000 -0.369569 0.838213 -0.401021 0.000000
159.63299561 191.40600586 180.00000000 -0.716101 -0.237651 -0.656294 0.000000
106.42199707 251.12500000 141.25000000 -0.066432 -0.541348 0.838170 0.000000
204.42199707 146.23399353 126.25000000 -0.487897 -0.264859 0.831749 0.000000
232.75000000 119.43800354 143.75000000 -0.607312 -0.346803 0.714772 0.000000
111.01599884 116.37500000 151.25000000 0.696986 0.584409 -0.415543 0.000000
176.09399414 113.69499969 185.00000000 0.205568 0.392182 -0.896624 0.000000
104.89099884 235.04699707 168.75000000 -0.000978 -0.000978 -0.999999 0.000000
188.34399414 101.06199646 181.25000000 0.392010 0.499365 -0.772634 0.000000
121.73400116 126.32800293 171.25000000 0.518287 0.381810 -0.765245 0.000000
236.57800293 151.97700500 155.00000000 -0.214029 -0.456495 0.863599 0.000000
154.65600586 222.79699707 178.75000000 0.148996 -0.621569 -0.769060 0.000000
110.25000000 128.62500000 116.25000000 0.000978 0.000978 0.999999 0.000000
179.15600586 193.70300293 136.25000000 -0.012232 -0.134557 0.990830 0.000000
104.12500000 170.73399353 91.25000000 -0.745288 0.117053 0.656387 0.000000
164.60899353 206.71899414 131.25000000 -0.379162 -0.710724 0.592543 0.000000
254.95300293 152.35899353 158.75000000 0.000978 0.000978 0.999999 0.000000
159.25000000 156.18800354 193.75000000 -0.000978 -0.000978 -0.999999 0.000000
238.10899353 109.86699677 142.50000000 -0.298213 -0.370874 0.879501 0.000000
174.56199646 157.33599854 135.00000000 0.893026 0.448533 0.036368 0.000000
151.59399414 240.40600586 148.75000000 -0.297404 -0.398064 0.867811 0.000000
75.79689789 169.20300293 148.75000000 0.870237 0.131329 -0.474806 0.000000
187.57800293 97.61720276 177.50000000 0.427619 0.620631 -0.657236 0.000000
119.43800354 237.34399414 173.75000000 0.258484 -0.549866 -0.794250 0.000000
224.32800293 154.65600586 151.25000000 -0.588486 -0.477831 0.652197 0.000000
176.85899353 193.70300293 136.25000000 0.059255 -0.092796 0.993920 0.000000
169.20300293 168.43800354 193.75000000 -0.000978 -0.000978 -0.999999 0.000000
125.56199646 181.45300293 181.25000000 0.344063 0.006302 -0.938926 0.000000
107.18800354 252.65600586 141.25000000 -0.066432 -0.541348 0.838170 0.000000
205.18800354 171.11700439 170.00000000 -0.603474 -0.772386 0.198087 0.000000
111.78099823 242.70300293 136.25000000 -0.297508 -0.297508 0.907181 0.000000
73.11720276 222.79699707 122.50000000 0.944502 -0.313951 0.096702 0.000000
153.89100647 195.23399353 111.25000000 -0.383722 -0.105902 0.917356 0.000000
98.76560211 253.42199707 153.75000000 0.495982 -0.593497 -0.633848 0.000000
158.48399353 210.54699707 178.75000000 -0.000978 -0.000978 -0.999999 0.000000
94.93750000 186.04699707 86.25000000 -0.547704 0.108960 0.829547 0.000000
202.12500000 181.45300293 136.25000000 -0.865145 -0.141040 0.481282 0.000000
77.32810211 150.82800293 91.25000000 0.920461 0.367907 0.131891 0.000000
146.23399353 139.34399414 188.75000000 -0.000978 -0.000978 -0.999999 0.000000
176.47700500 220.50000000 160.00000000 -0.849732 -0.425640 -0.311104 0.000000
154.27299500 225.85899353 140.00000000 -0.400501 -0.511660 0.760134 0.000000
203.27299500 186.81199646 160.00000000 -0.568658 -0.720300 -0.397236 0.000000
192.93800354 147.00000000 123.75000000 -0.214266 -0.502994 0.837310 0.000000
169.20300293 205.18800354 131.25000000 -0.548770 -0.698890 0.458699 0.000000
187.57800293 172.26600647 181.25000000 -0.098152 -0.754452 -0.648975 0.000000
197.53100586 179.15600586 171.25000000 -0.529418 -0.398293 -0.749053 0.000000
224.71099854 126.32800293 140.00000000 -0.625429 -0.303871 0.718680 0.000000
199.06199646 156.95300293 186.25000000 -0.406019 -0.001289 -0.913864 0.000000
220.50000000 121.73400116 188.75000000 -0.127557 -0.108483 -0.985881 0.000000
187.57800293 99.91410065 117.50000000 -0.001222 0.956436 0.291939 0.000000
68.52339935 205.95300293 130.00000000 0.999999 0.000978 0.000978 0.000000
94.17189789 187.57800293 86.25000000 -0.716165 -0.127086 0.686263 0.000000
104.89099884 205.95300293 176.25000000 0.397123 -0.170605 -0.901769 0.000000
191.40600586 117.90599823 103.75000000 0.220498 -0.886433 0.406960 0.000000
146.23399353 173.79699707 126.25000000 0.000978 0.000978 0.999999 0.000000
235.81199646 166.52299500 167.50000000 0.239999 -0.968699 -0.063419 0.000000
150.06199646 239.64100647 146.25000000 -0.191778 -0.530033 0.826006 0.000000
190.64100647 163.84399414 121.25000000 -0.522782 -0.313033 0.792912 0.000000
189.87500000 194.85200500 147.50000000 -0.174474 -0.971708 -0.159192 0.000000
156.18800354 196.76600647 113.75000000 -0.441130 -0.399423 0.803658 0.000000
190.64100647 92.64060211 148.75000000 0.008001 0.984148 0.177169 0.000000
259.54699707 109.48400116 146.25000000 0.000978 0.000978 0.999999 0.000000
124.79699707 205.95300293 111.25000000 -0.289321 -0.730495 0.618603 0.000000
160.01600647 218.96899414 178.75000000 -0.715617 -0.133522 -0.685612 0.000000
166.90600586 213.99200439 175.00000000 -0.416390 0.261947 -0.870634 0.000000
84.60160065 134.75000000 92.50000000 0.803483 0.484006 0.346632 0.000000
116.37500000 247.29699707 138.75000000 -0.223762 -0.550919 0.804002 0.000000
232.75000000 147.76600647 151.25000000 -0.285505 -0.326925 0.900893 0.000000
156.95300293 170.73399353 126.25000000 -0.179477 0.310258 0.933557 0.000000
126.71099854 97.23439789 120.00000000 0.483960 0.870564 0.088891 0.000000
119.05500031 148.53100586 177.50000000 0.480763 -0.073856 -0.873735 0.000000
175.32800293 147.76600647 126.25000000 -0.498387 0.662838 -0.558798 0.000000
242.70300293 154.65600586 156.25000000 -0.524851 -0.422842 0.738740 0.000000
170.73399353 159.63299561 195.00000000 0.029427 0.194220 -0.980516 0.000000
124.79699707 231.60200500 177.50000000 0.369489 -0.314750 -0.874306 0.000000
94.17189789 189.87500000 86.25000000 0.000978 0.000978 0.999999 0.000000
206.71899414 98.76560211 183.75000000 0.129961 0.673706 -0.727483 0.000000
182.21899414 179.92199707 121.25000000 -0.506207 -0.644111 0.573477 0.000000
235.04699707 155.42199707 156.25000000 -0.267785 -0.613212 0.743143 0.000000
160.78100586 186.04699707 181.25000000 -0.004157 -0.732935 -0.680286 0.000000
123.26599884 111.01599884 101.25000000 -0.280936 -0.470296 0.836599 0.000000
83.07029724 160.01600647 155.00000000 0.650495 0.064619 -0.756757 0.000000
88.04689789 226.62500000 111.25000000 -0.569727 -0.660480 0.489058 0.000000
155.80499268 130.92199707 115.00000000 -0.076814 -0.481835 0.872889 0.000000
259.54699707 124.79699707 168.75000000 0.000978 0.000978 -0.999999 0.000000
229.68800354 117.90599823 186.25000000 -0.000978 -0.000978 -0.999999 0.000000
231.21899414 132.45300293 148.75000000 -0.403736 -0.196766 0.893466 0.000000
173.79699707 108.71900177 181.25000000 0.251493 0.560782 -0.788844 0.000000
107.56999969 148.53100586 110.00000000 -0.674752 0.333311 0.658493 0.000000
171.50000000 149.29699707 193.75000000 -0.000978 -0.000978 -0.999999 0.000000
175.32800293 171.50000000 191.25000000 -0.030651 -0.435774 -0.899534 0.000000
218.20300293 146.23399353 183.75000000 -0.287729 -0.323141 -0.901550 0.000000
79.24220276 143.17199707 120.00000000 0.947359 0.316641 0.047432 0.000000
73.11720276 161.54699707 100.00000000 0.961078 0.245797 -0.126150 0.000000
198.29699707 98.76560211 121.25000000 -0.001221 0.955752 0.294171 0.000000
107.18800354 119.43800354 101.25000000 -0.652173 -0.732346 -0.195806 0.000000
160.01600647 212.84399414 178.75000000 -0.251302 0.025494 -0.967573 0.000000
170.73399353 157.71899414 193.75000000 0.159437 0.151904 -0.975451 0.000000
231.21899414 138.57800293 148.75000000 -0.438072 -0.219783 0.871658 0.000000
90.34380341 192.93800354 86.25000000 -0.555950 -0.469135 0.686172 0.000000
145.46899414 120.20300293 178.75000000 0.148957 0.401476 -0.903675 0.000000
165.37500000 166.90600586 193.75000000 -0.000978 -0.000978 -0.999999 0.000000
150.82800293 221.64799500 180.00000000 -0.255405 -0.457281 -0.851858 0.000000
139.72700500 100.29699707 155.00000000 0.420931 0.607272 -0.673823 0.000000
251.89100647 148.53100586 158.75000000 -0.158505 -0.218763 0.962818 0.000000
204.03900146 176.85899353 145.00000000 -0.962222 -0.161464 0.219224 0.000000
130.92199707 97.23439789 141.25000000 0.490011 0.814583 -0.310393 0.000000
94.93750000 194.46899414 88.75000000 -0.317187 -0.478147 0.819004 0.000000
165.37500000 205.95300293 173.75000000 -0.460240 0.238474 -0.855166 0.000000
86.51560211 238.10899353 123.75000000 -0.018148 -0.735699 0.677066 0.000000
235.81199646 114.07800293 143.75000000 -0.469934 -0.348866 0.810835 0.000000
77.32810211 170.73399353 151.25000000 0.880263 0.124121 -0.457965 0.000000
120.96900177 245.76600647 138.75000000 -0.297288 -0.545292 0.783758 0.000000
149.29699707 204.42199707 181.25000000 -0.240179 0.109172 -0.964570 0.000000
112.93000031 144.70300293 115.00000000 -0.309252 0.116471 0.943821 0.000000
156.95300293 150.82800293 193.75000000 0.348065 0.251135 -0.903206 0.000000
196.00000000 118.67199707 108.75000000 -0.097789 -0.966456 0.237487 0.000000
122.50000000 154.65600586 118.75000000 -0.162361 -0.012489 0.986652 0.000000
199.06199646 98.76560211 121.25000000 -0.001221 0.955752 0.294171 0.000000
110.25000000 248.82800293 163.75000000 0.168358 -0.605177 -0.778085 0.000000
150.82800293 95.70310211 156.25000000 0.367701 0.737035 -0.567076 0.000000
81.92189789 156.95300293 153.75000000 0.699131 0.175930 -0.693011 0.000000
182.21899414 174.56199646 181.25000000 -0.646824 -0.650132 -0.398682 0.000000
241.17199707 160.01600647 171.25000000 -0.000978 -0.000978 -0.999999 0.000000
72.35160065 213.60899353 145.00000000 0.955525 -0.183087 -0.231197 0.000000
92.64060211 240.02299500 127.50000000 -0.361697 -0.718485 0.594100 0.000000
194.46899414 150.82800293 126.25000000 -0.212463 -0.539564 0.814696 0.000000
209.78100586 90.72660065 155.00000000 0.064364 0.977602 0.200378 0.000000
75.79689789 154.65600586 91.25000000 0.921057 0.360898 0.146310 0.000000
212.07800293 112.54699707 191.25000000 -0.067194 0.206468 -0.976143 0.000000
255.71899414 145.46899414 156.25000000 -0.317753 -0.234361 0.918753 0.000000
79.62500000 179.15600586 158.75000000 0.646975 -0.319434 -0.692377 0.000000
127.85900116 103.35900116 146.25000000 0.446336 0.742795 -0.499040 0.000000
70.05470276 196.76600647 87.50000000 0.949181 -0.098736 0.298841 0.000000
111.01599884 109.86699677 135.00000000 0.603104 0.720148 -0.343005 0.000000
85.75000000 217.43800354 96.25000000 -0.592464 -0.538450 0.599215 0.000000
114.07800293 119.43800354 116.25000000 0.109287 0.052954 0.992599 0.000000
127.09400177 148.53100586 116.25000000 0.566665 -0.128052 0.813937 0.000000
240.40600586 129.00799561 180.00000000 -0.549804 -0.823969 -0.137082 0.000000
98.76560211 123.64800262 142.50000000 0.638039 0.614594 -0.463876 0.000000
159.25000000 246.53100586 156.25000000 -0.810506 -0.358279 0.463374 0.000000
130.92199707 111.78099823 163.75000000 0.486439 0.607628 -0.627826 0.000000
74.26560211 170.73399353 146.25000000 0.913365 0.063223 -0.402203 0.000000
133.98399353 230.45300293 178.75000000 -0.326447 -0.435783 -0.838765 0.000000
104.12500000 239.64100647 166.25000000 0.376562 -0.456682 -0.806004 0.000000
147.38299561 196.00000000 182.50000000 -0.613013 -0.116694 -0.781407 0.000000
109.10199738 107.95300293 112.50000000 0.754703 0.448875 0.478472 0.000000
124.79699707 124.03099823 171.25000000 0.427705 0.650710 -0.627411 0.000000
184.51600647 139.34399414 118.75000000 -0.027440 -0.388086 0.921215 0.000000
181.45300293 141.64100647 121.25000000 0.166903 -0.431044 0.886761 0.000000
136.28100586 94.93750000 121.25000000 0.149709 0.825626 0.543994 0.000000
260.31201172 143.93800354 158.75000000 -0.099088 -0.524160 0.845836 0.000000
254.18800354 120.96900177 171.25000000 -0.072228 -0.206891 -0.975694 0.000000
235.81199646 165.37500000 171.25000000 -0.999999 -0.000978 -0.000978 0.000000
225.09399414 106.42199707 186.25000000 -0.234579 0.385063 -0.892580 0.000000
99.53119659 221.26600647 116.25000000 -0.365633 -0.627971 0.686997 0.000000
249.59399414 101.06199646 158.75000000 -0.514438 0.707560 -0.484471 0.000000
138.96099854 117.14099884 172.50000000 0.322020 0.629477 -0.707150 0.000000
126.32800293 209.78100586 183.75000000 0.173953 -0.112268 -0.978333 0.000000
70.82029724 199.82800293 87.50000000 0.947991 -0.157774 0.276441 0.000000
188.34399414 107.18800354 183.75000000 0.009725 0.748829 -0.662692 0.000000
80.39060211 215.90600586 158.75000000 0.736030 -0.250597 -0.628857 0.000000
211.31199646 118.28900146 117.50000000 -0.325455 -0.932048 0.159265 0.000000
181.07000732 171.50000000 187.50000000 -0.728884 -0.444603 -0.520631 0.000000
174.94500732 204.42199707 145.00000000 -0.284670 -0.854009 0.435468 0.000000
176.09399414 132.45300293 191.25000000 0.180631 0.572252 -0.799938 0.000000
153.12500000 141.64100647 116.25000000 -0.043198 -0.553217 0.831916 0.000000
162.31199646 124.03099823 113.75000000 0.348112 -0.625948 0.697859 0.000000
257.25000000 124.03099823 151.25000000 0.184891 -0.465926 0.865291 0.000000
184.51600647 123.26599884 111.25000000 -0.029598 -0.675109 0.737124 0.000000
125.94499969 248.82800293 167.50000000 0.520924 -0.595101 -0.611959 0.000000
140.87500000 182.98399353 183.75000000 -0.000978 -0.000978 -0.999999 0.000000
76.56250000 148.53100586 136.25000000 0.735490 -0.001380 -0.677534 0.000000
108.71900177 112.93000031 137.50000000 0.589187 0.757526 -0.281094 0.000000
75.79689789 148.14799500 127.50000000 0.913250 0.386214 -0.129668 0.000000
152.35899353 207.48399353 181.25000000 -0.354352 0.143130 -0.924093 0.000000
117.90599823 248.06199646 166.25000000 0.402850 -0.738284 -0.540970 0.000000
141.64100647 145.46899414 113.75000000 -0.403656 -0.369102 0.837154 0.000000
105.65599823 248.82800293 138.75000000 -0.066432 -0.541348 0.838170 0.000000
201.35899353 174.56199646 171.25000000 -0.689567 -0.230903 -0.686426 0.000000
153.12500000 242.70300293 148.75000000 -0.287502 -0.428947 0.856357 0.000000
130.15600586 133.98399353 111.25000000 -0.257022 -0.074701 0.963514 0.000000
137.81199646 157.33599854 117.50000000 0.185147 -0.374600 0.908513 0.000000
235.81199646 109.86699677 180.00000000 -0.438792 0.455104 -0.774818 0.000000
87.66410065 202.12500000 87.50000000 -0.666982 -0.380427 0.640632 0.000000
71.20310211 202.89100647 86.25000000 0.951775 -0.111896 0.285664 0.000000
236.57800293 126.32800293 183.75000000 -0.350147 -0.347089 -0.870015 0.000000
68.90619659 180.68800354 88.75000000 0.967980 0.194627 0.158537 0.000000
185.28100586 156.18800354 191.25000000 -0.171728 0.096217 -0.980434 0.000000
139.34399414 204.42199707 183.75000000 -0.000978 -0.000978 -0.999999 0.000000
178.39100647 150.06199646 126.25000000 -0.284748 0.577450 -0.765161 0.000000
103.35900116 189.10899353 176.25000000 0.091911 0.076025 -0.992861 0.000000
219.35200500 161.54699707 150.00000000 -0.710145 -0.612194 0.347726 0.000000
71.58589935 203.65600586 87.50000000 0.960040 -0.175633 0.217891 0.000000
248.82800293 132.45300293 156.25000000 -0.133583 -0.199738 0.970701 0.000000
73.50000000 222.03100586 106.25000000 0.944502 -0.313951 0.096702 0.000000
189.87500000 186.04699707 168.75000000 0.004048 -0.846091 -0.533024 0.000000
71.20310211 192.93800354 146.25000000 0.937349 0.056215 -0.343826 0.000000
182.98399353 180.68800354 131.25000000 -0.155732 -0.898671 -0.410046 0.000000
88.81250000 166.14100647 163.75000000 -0.322625 0.322625 -0.889846 0.000000
235.04699707 153.89100647 156.25000000 -0.290698 -0.432202 0.853637 0.000000
114.84400177 189.10899353 98.75000000 -0.216130 -0.642170 0.735463 0.000000
76.17970276 187.57800293 155.00000000 0.821454 0.109043 -0.559752 0.000000
143.93800354 258.39801025 160.00000000 -0.209887 -0.810440 0.546932 0.000000
212.84399414 153.89100647 133.75000000 -0.735490 0.001380 0.677534 0.000000
104.12500000 152.35899353 166.25000000 0.449279 0.482193 -0.752089 0.000000
214.75799561 113.31199646 112.50000000 -0.757970 0.540480 -0.365189 0.000000
99.53119659 206.71899414 173.75000000 0.612423 0.070278 -0.787400 0.000000
148.53100586 256.10198975 172.50000000 -0.174058 -0.585743 -0.791586 0.000000
133.98399353 241.55499268 175.00000000 0.343394 -0.727474 -0.594022 0.000000
224.32800293 120.96900177 188.75000000 0.000978 0.000978 -0.999999 0.000000
107.95300293 258.01599121 156.25000000 0.392780 -0.570271 -0.721467 0.000000
267.20300293 137.81199646 161.25000000 -0.438885 -0.138671 -0.887778 0.000000
110.25000000 114.07800293 103.75000000 0.808904 0.587665 -0.017976 0.000000
231.21899414 143.55499268 150.00000000 -0.403362 -0.165077 0.900027 0.000000
107.95300293 107.56999969 117.50000000 0.428653 0.901929 0.052736 0.000000
153.89100647 166.90600586 193.75000000 0.242251 -0.464696 -0.851688 0.000000
188.34399414 169.58599854 185.00000000 -0.202997 -0.732958 -0.649280 0.000000
166.52299500 112.54699707 100.00000000 0.519173 -0.452825 0.724851 0.000000
132.45300293 97.23439789 116.25000000 0.130566 0.908347 0.397314 0.000000
236.19500732 125.56199646 150.00000000 -0.588100 -0.128878 0.798454 0.000000
71.20310211 210.54699707 101.25000000 0.482029 0.478716 0.733811 0.000000
208.25000000 160.01600647 183.75000000 -0.614164 -0.222343 -0.757210 0.000000
90.72660065 214.37500000 167.50000000 0.638295 -0.079606 -0.765665 0.000000
114.07800293 130.92199707 166.25000000 0.613215 0.391730 -0.685941 0.000000
188.72700500 153.89100647 127.50000000 -0.015008 0.982460 0.185871 0.000000
184.51600647 122.11699677 110.00000000 -0.050013 -0.684462 0.727331 0.000000
164.60899353 228.15600586 148.75000000 -0.620374 -0.443125 0.647129 0.000000
84.60160065 206.71899414 87.50000000 -0.703149 -0.326404 0.631697 0.000000
97.23439789 232.75000000 123.75000000 -0.230349 -0.703583 0.672243 0.000000
152.35899353 215.14100647 131.25000000 -0.258278 -0.632226 0.730467 0.000000
170.73399353 91.49220276 150.00000000 -0.052210 0.987357 0.149670 0.000000
241.93800354 158.48399353 158.75000000 -0.109058 -0.463144 0.879548 0.000000
213.60899353 134.75000000 131.25000000 -0.626962 -0.198718 0.753279 0.000000
119.43800354 114.84400177 158.75000000 0.416503 0.695278 -0.585759 0.000000
109.48400116 145.46899414 168.75000000 0.696681 0.402122 -0.594082 0.000000
78.85939789 146.23399353 138.75000000 0.847350 0.415124 -0.331166 0.000000
195.23399353 99.53119659 118.75000000 -0.001221 0.955752 0.294171 0.000000
157.71899414 243.46899414 173.75000000 -0.412816 -0.827214 -0.381183 0.000000
170.73399353 115.99199677 102.50000000 0.109977 -0.790371 0.602676 0.000000
203.27299500 176.85899353 137.50000000 -0.917310 -0.144249 0.371126 0.000000
135.51600647 102.97699738 155.00000000 0.459961 0.722321 -0.516418 0.000000
157.71899414 189.10899353 111.25000000 -0.108886 -0.332036 0.936961 0.000000
245.00000000 102.59400177 138.75000000 -0.077062 -0.867295 0.491794 0.000000
132.45300293 136.28100586 111.25000000 -0.299354 0.287672 0.909743 0.000000
251.89100647 104.12500000 161.25000000 -0.410717 0.760890 -0.502351 0.000000
229.68800354 166.52299500 172.50000000 0.145417 -0.941810 -0.303064 0.000000
199.06199646 192.55499268 157.50000000 -0.709244 -0.576984 -0.405046 0.000000
131.68800354 204.42199707 183.75000000 -0.000978 -0.000978 -0.999999 0.000000
71.20310211 166.52299500 95.00000000 0.957067 0.287246 0.038885 0.000000
115.99199677 106.42199707 135.00000000 0.784216 0.392916 0.480231 0.000000
180.68800354 193.70300293 168.75000000 -0.428289 -0.668264 -0.608270 0.000000
130.92199707 133.21899414 181.25000000 0.462081 0.204871 -0.862850 0.000000
204.42199707 94.17189789 138.75000000 0.110720 0.943117 0.313483 0.000000
119.43800354 169.20300293 178.75000000 0.322625 -0.322625 -0.889846 0.000000
194.46899414 173.03100586 178.75000000 -0.392180 -0.663563 -0.637086 0.000000
164.60899353 117.90599823 183.75000000 -0.000978 -0.000978 -0.999999 0.000000
143.17199707 198.29699707 111.25000000 -0.203332 -0.551901 0.808741 0.000000
115.60900116 118.67199707 116.25000000 0.686113 -0.290835 0.666831 0.000000
168.43800354 235.42999268 167.50000000 -0.878605 -0.416181 -0.234195 0.000000
208.25000000 148.53100586 186.25000000 -0.127108 -0.298369 -0.945949 0.000000
245.00000000 146.23399353 173.75000000 -0.458152 -0.143082 -0.877282 0.000000
105.65599823 239.64100647 168.75000000 0.562499 -0.410740 -0.717557 0.000000
224.32800293 93.40619659 141.25000000 -0.446689 0.894688 -0.001310 0.000000
107.95300293 158.86700439 97.50000000 -0.818308 0.081687 0.568946 0.000000
184.51600647 181.45300293 131.25000000 -0.224152 -0.970490 -0.088909 0.000000
174.56199646 162.31199646 193.75000000 -0.271256 -0.048751 -0.961272 0.000000
103.35900116 169.20300293 173.75000000 0.672846 0.455799 -0.582688 0.000000
204.42199707 99.91410065 120.00000000 0.000978 0.000978 0.999999 0.000000
149.29699707 107.56999969 120.00000000 -0.525830 0.208808 0.824562 0.000000
159.25000000 247.29699707 156.25000000 -0.810506 -0.358279 0.463374 0.000000
146.23399353 201.35899353 113.75000000 -0.327394 -0.578988 0.746717 0.000000
247.29699707 133.21899414 173.75000000 -0.611237 0.506838 -0.607869 0.000000
84.21880341 193.70300293 163.75000000 0.566934 0.020691 -0.823503 0.000000
203.65600586 174.56199646 168.75000000 -0.806776 -0.290943 -0.514261 0.000000
160.01600647 224.32800293 178.75000000 -0.845944 -0.157969 -0.509338 0.000000
93.40619659 179.15600586 168.75000000 0.822468 -0.006820 -0.568771 0.000000
197.53100586 100.29699707 183.75000000 0.035291 0.647941 -0.760872 0.000000
125.56199646 242.32000732 172.50000000 0.200439 -0.573776 -0.794106 0.000000
217.43800354 132.07000732 135.00000000 -0.233711 -0.806379 0.543261 0.000000
177.62500000 192.93800354 136.25000000 0.059255 -0.092796 0.993920 0.000000
268.35198975 120.20300293 160.00000000 -0.903824 0.066598 -0.422691 0.000000
187.57800293 141.64100647 121.25000000 -0.102763 -0.274469 0.956089 0.000000
250.35899353 158.10200500 170.00000000 -0.345308 -0.040092 -0.937633 0.000000
185.28100586 99.14839935 120.00000000 -0.001221 0.955752 0.294171 0.000000
181.45300293 147.76600647 121.25000000 0.000978 0.000978 0.999999 0.000000
243.08599854 95.70310211 145.00000000 -0.917072 0.355773 0.180013 0.000000
83.83589935 133.98399353 130.00000000 0.735447 0.617393 -0.279183 0.000000
212.84399414 125.56199646 126.25000000 -0.690081 -0.489573 0.533016 0.000000
164.60899353 235.04699707 153.75000000 -0.724302 -0.442537 0.528724 0.000000
75.41410065 211.31199646 87.50000000 0.394975 -0.662699 0.636258 0.000000
75.79689789 214.37500000 91.25000000 0.528449 -0.633125 0.565592 0.000000
145.46899414 218.96899414 181.25000000 -0.000978 -0.000978 -0.999999 0.000000
172.26600647 176.09399414 118.75000000 0.085757 0.626462 0.774720 0.000000
127.09400177 180.68800354 183.75000000 0.317703 0.011213 -0.948124 0.000000
223.56199646 142.40600586 143.75000000 -0.638246 -0.209643 0.740738 0.000000
171.50000000 114.84400177 183.75000000 0.330699 0.559768 -0.759801 0.000000
198.29699707 134.75000000 121.25000000 -0.422019 -0.365118 0.829813 0.000000
189.10899353 187.57800293 166.25000000 -0.004000 -0.870606 -0.491965 0.000000
149.29699707 163.07800293 193.75000000 0.696903 -0.169270 -0.696903 0.000000
83.07029724 137.04699707 92.50000000 0.795068 0.503916 0.337544 0.000000
147.76600647 237.72700500 145.00000000 -0.226597 -0.726673 0.648536 0.000000
176.85899353 197.14799500 145.00000000 -0.506518 -0.822511 0.258680 0.000000
145.46899414 194.46899414 108.75000000 0.287149 -0.399578 0.870564 0.000000
149.29699707 258.39801025 165.00000000 -0.388179 -0.849628 0.357000 0.000000
252.65600586 142.40600586 156.25000000 -0.128893 0.121666 0.984167 0.000000
95.70310211 222.03100586 168.75000000 0.461681 -0.194470 -0.865466 0.000000
93.78910065 127.09400177 90.00000000 -0.197045 0.218493 0.955737 0.000000
233.51600647 98.00000000 171.25000000 -0.464599 0.732446 -0.497666 0.000000
231.98399353 155.42199707 176.25000000 -0.541524 -0.195677 -0.817595 0.000000
75.03119659 215.52299500 92.50000000 0.478716 -0.482029 0.733811 0.000000
107.18800354 158.48399353 96.25000000 -0.596689 0.382998 0.705177 0.000000
100.29699707 199.82800293 176.25000000 0.364569 -0.131688 -0.921818 0.000000
185.28100586 196.38299561 137.50000000 -0.863893 -0.503147 0.023055 0.000000
151.59399414 219.73399353 181.25000000 -0.339036 -0.210288 -0.916970 0.000000
82.30470276 148.53100586 147.50000000 0.589007 0.184160 -0.786865 0.000000
115.60900116 178.39100647 178.75000000 0.331328 0.024120 -0.943207 0.000000
136.28100586 128.62500000 111.25000000 0.000978 0.000978 0.999999 0.000000
174.56199646 131.68800354 191.25000000 -0.123397 0.326799 -0.937004 0.000000
162.31199646 124.03099823 188.75000000 0.199566 0.552997 -0.808930 0.000000
153.89100647 124.79699707 186.25000000 0.386910 0.328334 -0.861683 0.000000
130.15600586 245.00000000 171.25000000 0.243110 -0.336278 -0.909843 0.000000
88.81250000 125.18000031 120.00000000 0.819241 0.571072 -0.052172 0.000000
76.56250000 210.54699707 153.75000000 0.838029 -0.060563 -0.542254 0.000000
124.79699707 145.46899414 116.25000000 0.562206 -0.143889 0.814383 0.000000
74.26560211 182.98399353 151.25000000 0.568598 -0.363316 -0.738037 0.000000
176.47700500 211.31199646 162.50000000 -0.939253 0.339067 -0.053263 0.000000
89.57810211 129.39100647 88.75000000 -0.186642 0.186642 0.964536 0.000000
82.68750000 138.57800293 91.25000000 0.816230 0.499765 0.289832 0.000000
163.07800293 164.99200439 130.00000000 0.351193 0.635415 0.687685 0.000000
94.17189789 160.01600647 163.75000000 0.446547 0.303403 -0.841749 0.000000
158.48399353 211.31199646 178.75000000 -0.000978 -0.000978 -0.999999 0.000000
115.22699738 221.26600647 122.50000000 -0.343660 -0.623799 0.701978 0.000000
161.54699707 164.60899353 193.75000000 -0.000978 -0.000978 -0.999999 0.000000
93.40619659 248.06199646 153.75000000 0.634955 -0.570954 -0.520427 0.000000
68.14060211 180.68800354 93.75000000 0.974910 0.179424 0.131745 0.000000
200.59399414 114.07800293 191.25000000 0.212646 0.297141 -0.930854 0.000000
95.32029724 129.39100647 90.00000000 -0.293142 0.103849 0.950412 0.000000
204.03900146 166.90600586 180.00000000 -0.320502 -0.819413 -0.475228 0.000000
99.53119659 113.69499969 120.00000000 -0.001221 0.955752 -0.294171 0.000000
212.07800293 138.19500732 187.50000000 -0.019298 -0.366659 -0.930155 0.000000
241.93800354 163.07800293 161.25000000 -0.138947 -0.513371 0.846843 0.000000
125.18000031 184.51600647 182.50000000 0.437003 0.132382 -0.889665 0.000000
136.28100586 151.59399414 186.25000000 0.066439 0.321775 -0.944482 0.000000
248.82800293 143.93800354 171.25000000 -0.413388 -0.194278 -0.889588 0.000000
120.20300293 178.39100647 181.25000000 0.273258 0.067361 -0.959579 0.000000
87.28119659 215.14100647 96.25000000 -0.607648 -0.503288 0.614381 0.000000
122.88300323 116.37500000 162.50000000 0.488782 0.592921 -0.639951 0.000000
221.64799500 137.04699707 140.00000000 -0.629226 0.432280 0.645917 0.000000
216.67199707 90.34380341 168.75000000 -0.565021 0.740878 -0.363112 0.000000
222.79699707 91.87500000 168.75000000 -0.435362 0.872220 -0.222917 0.000000
259.54699707 106.80500031 157.50000000 -0.495044 0.777463 -0.387920 0.000000
136.28100586 218.20300293 126.25000000 -0.026475 -0.597781 0.801222 0.000000
228.53900146 148.53100586 180.00000000 -0.340398 0.092108 -0.935759 0.000000
225.09399414 146.23399353 146.25000000 -0.704945 -0.258216 0.660589 0.000000
76.56250000 192.17199707 156.25000000 0.782573 -0.055593 -0.620072 0.000000
111.78099823 132.07000732 165.00000000 0.570108 0.430490 -0.699754 0.000000
176.09399414 119.43800354 106.25000000 0.001380 -0.735490 0.677534 0.000000
228.92199707 132.45300293 146.25000000 -0.630732 -0.265320 0.729234 0.000000
86.51560211 206.71899414 166.25000000 0.541149 -0.037368 -0.840096 0.000000
184.51600647 134.75000000 116.25000000 -0.193526 -0.441711 0.876036 0.000000
138.57800293 217.43800354 181.25000000 -0.051810 -0.080471 -0.995410 0.000000
111.78099823 211.69500732 112.50000000 -0.263604 -0.479421 0.837059 0.000000
84.98439789 204.42199707 163.75000000 0.601086 -0.006877 -0.799155 0.000000
127.09400177 120.20300293 168.75000000 0.485477 0.616506 -0.619865 0.000000
121.73400116 164.22700500 110.00000000 -0.355275 0.751106 0.556435 0.000000
110.25000000 169.96899414 176.25000000 0.229797 0.404739 -0.885088 0.000000
190.64100647 188.72700500 165.00000000 0.164538 -0.843442 -0.511402 0.000000
94.93750000 201.35899353 171.25000000 0.659786 -0.061810 -0.748907 0.000000
137.04699707 128.62500000 181.25000000 0.330052 0.632465 -0.700752 0.000000
91.87500000 131.68800354 88.75000000 -0.194822 0.339872 0.920071 0.000000
127.85900116 207.48399353 183.75000000 -0.000978 -0.000978 -0.999999 0.000000
176.47700500 186.81199646 135.00000000 0.914774 0.338538 0.220410 0.000000
156.18800354 160.01600647 128.75000000 -0.670352 -0.213082 0.710791 0.000000
122.88300323 212.07800293 117.50000000 -0.176049 -0.733281 0.656738 0.000000
150.44500732 245.76600647 150.00000000 -0.433001 -0.565722 0.701761 0.000000
119.43800354 109.10199738 150.00000000 0.552852 0.705592 -0.443278 0.000000
110.25000000 225.85899353 123.75000000 -0.360404 -0.515556 0.777374 0.000000
111.78099823 253.42199707 161.25000000 0.182010 -0.634741 -0.750983 0.000000
183.75000000 165.37500000 118.75000000 0.000978 0.000978 0.999999 0.000000
71.58589935 189.10899353 147.50000000 0.908982 0.178934 -0.376476 0.000000
231.60200500 134.75000000 182.50000000 -0.478876 -0.202659 -0.854171 0.000000
98.76560211 224.71099854 117.50000000 -0.699302 -0.398420 0.593497 0.000000
119.43800354 207.48399353 181.25000000 0.382055 -0.221036 -0.897317 0.000000
93.40619659 240.40600586 128.75000000 -0.326601 -0.641827 0.693823 0.000000
178.39100647 176.85899353 118.75000000 -0.237466 0.040186 0.970564 0.000000
167.28900146 215.14100647 175.00000000 -0.416390 0.261947 -0.870634 0.000000
134.75000000 222.79699707 131.25000000 -0.141144 -0.577946 0.803776 0.000000
137.81199646 112.93000031 167.50000000 0.424946 0.715959 -0.553917 0.000000
106.42199707 189.87500000 96.25000000 -0.338271 -0.276230 0.899594 0.000000
149.29699707 153.89100647 118.75000000 -0.561086 -0.140642 0.815722 0.000000
238.49200439 142.40600586 175.00000000 -0.367193 -0.093492 -0.925434 0.000000
83.45310211 136.66400146 110.00000000 0.944502 0.313951 -0.096702 0.000000
116.37500000 185.28100586 181.25000000 0.596911 0.270748 -0.755243 0.000000
147.00000000 111.01599884 111.25000000 -0.687246 0.466525 0.556820 0.000000
121.73400116 154.65600586 178.75000000 0.588118 0.263313 -0.764711 0.000000
88.04689789 235.04699707 121.25000000 -0.230698 -0.717205 0.657568 0.000000
98.76560211 157.71899414 166.25000000 0.531613 0.320884 -0.783850 0.000000
239.64100647 160.01600647 158.75000000 -0.164296 -0.446363 0.879640 0.000000
142.40600586 249.59399414 148.75000000 -0.309281 -0.578500 0.754774 0.000000
146.23399353 164.60899353 123.75000000 -0.417813 -0.414611 0.808412 0.000000
259.54699707 105.65599823 156.25000000 -0.495044 0.777463 -0.387920 0.000000
101.82800293 124.79699707 93.75000000 -0.729608 -0.067904 0.680486 0.000000
120.20300293 248.82800293 141.25000000 -0.381927 -0.472171 0.794472 0.000000
120.96900177 179.92199707 181.25000000 0.172003 -0.159262 -0.972137 0.000000
198.29699707 176.85899353 173.75000000 -0.667554 -0.453401 -0.590593 0.000000
104.12500000 169.20300293 91.25000000 -0.743559 0.123678 0.657133 0.000000
115.60900116 104.50800323 130.00000000 0.627164 0.763175 -0.155658 0.000000
82.68750000 237.34399414 123.75000000 0.296364 -0.931228 0.212090 0.000000
99.91410065 214.37500000 107.50000000 -0.088175 -0.880346 0.466065 0.000000
215.14100647 107.18800354 188.75000000 -0.249205 0.309706 -0.917594 0.000000
99.53119659 213.60899353 173.75000000 0.549932 -0.398906 -0.733790 0.000000
137.04699707 141.64100647 113.75000000 0.000978 0.000978 0.999999 0.000000
165.37500000 237.34399414 171.25000000 -0.692695 0.230898 -0.683271 0.000000
121.73400116 217.82000732 122.50000000 -0.137633 -0.818396 0.557930 0.000000
85.75000000 134.36700439 90.00000000 0.793418 0.484420 0.368545 0.000000
138.57800293 258.39801025 157.50000000 0.039462 -0.877679 0.477621 0.000000
113.31199646 133.21899414 166.25000000 0.553651 0.392649 -0.734368 0.000000
159.25000000 225.09399414 178.75000000 -0.299022 -0.130068 -0.945340 0.000000
127.09400177 246.53100586 141.25000000 -0.183541 -0.394540 0.900361 0.000000
133.21899414 130.15600586 111.25000000 -0.115407 -0.117786 0.986310 0.000000
80.39060211 168.43800354 156.25000000 0.402409 0.340261 -0.849876 0.000000
124.41400146 112.54699707 160.00000000 0.405770 0.667450 -0.624389 0.000000
84.98439789 135.13299561 90.00000000 0.783729 0.506930 0.358874 0.000000
187.19500732 186.04699707 170.00000000 -0.323241 -0.841675 -0.432549 0.000000
168.43800354 138.57800293 193.75000000 -0.000978 -0.000978 -0.999999 0.000000
96.08589935 253.42199707 152.50000000 0.507599 -0.585172 -0.632390 0.000000
192.17199707 131.68800354 118.75000000 -0.200894 -0.409120 0.890092 0.000000
146.23399353 209.39799500 122.50000000 -0.852716 -0.001343 0.522373 0.000000
85.75000000 144.70300293 148.75000000 0.525000 0.568891 -0.633039 0.000000
76.94529724 156.95300293 145.00000000 0.955752 0.001221 -0.294171 0.000000
202.12500000 144.70300293 126.25000000 -0.387153 -0.356056 0.850492 0.000000
149.29699707 92.25779724 150.00000000 0.461412 0.771194 -0.438586 0.000000
98.76560211 118.28900146 135.00000000 0.372246 0.848845 -0.375361 0.000000
75.41410065 150.06199646 110.00000000 0.928947 0.316207 0.192535 0.000000
120.20300293 250.35899353 141.25000000 -0.565377 -0.238300 0.789659 0.000000
205.95300293 132.45300293 123.75000000 -0.087550 -0.244887 0.965591 0.000000
207.48399353 126.32800293 191.25000000 -0.000978 -0.000978 -0.999999 0.000000
109.48400116 156.18800354 173.75000000 -0.220232 0.409425 -0.885364 0.000000
127.85900116 144.70300293 181.25000000 0.440494 0.180003 -0.879525 0.000000
125.56199646 199.06199646 108.75000000 -0.215535 -0.138097 0.966682 0.000000
84.98439789 137.04699707 88.75000000 0.776308 0.545817 0.315325 0.000000
231.21899414 165.75799561 165.00000000 0.146170 -0.938494 0.312831 0.000000
146.23399353 224.32800293 136.25000000 -0.548139 -0.265431 0.793152 0.000000
130.15600586 220.50000000 126.25000000 -0.297231 -0.621776 0.724602 0.000000
147.00000000 227.00799561 137.50000000 -0.335651 -0.276505 0.900491 0.000000
267.20300293 116.37500000 161.25000000 -0.673271 0.133455 -0.727252 0.000000
167.67199707 115.60900116 183.75000000 0.394614 0.615861 -0.681905 0.000000
157.33599854 140.87500000 117.50000000 -0.379330 -0.522597 0.763545 0.000000
107.56999969 120.20300293 115.00000000 -0.564946 0.224431 0.794020 0.000000
173.03100586 98.00000000 171.25000000 0.329499 0.693084 -0.641143 0.000000
227.39100647 106.03900146 120.00000000 -0.601029 -0.721561 0.343678 0.000000
145.46899414 150.06199646 191.25000000 0.378995 0.285379 -0.880296 0.000000
216.67199707 167.67199707 173.75000000 0.076106 -0.969420 -0.233310 0.000000
244.23399353 153.12500000 171.25000000 -0.579095 -0.154126 -0.800558 0.000000
168.82000732 91.87500000 147.50000000 -0.013777 0.997228 0.073123 0.000000
176.47700500 156.95300293 140.00000000 0.374272 0.409015 0.832242 0.000000
207.48399353 119.43800354 116.25000000 -0.354885 -0.864936 0.354885 0.000000
183.75000000 147.76600647 193.75000000 -0.461343 -0.347196 -0.816466 0.000000
176.47700500 210.54699707 157.50000000 -0.442483 0.886398 -0.136039 0.000000
176.85899353 163.07800293 193.75000000 -0.181910 -0.129219 -0.974788 0.000000
170.73399353 123.26599884 188.75000000 -0.000978 -0.000978 -0.999999 0.000000
100.29699707 191.40600586 176.25000000 0.122829 0.110904 -0.986212 0.000000
172.26600647 213.60899353 171.25000000 -0.633537 0.001374 -0.773712 0.000000
82.68750000 138.96099854 90.00000000 0.817274 0.494129 0.296478 0.000000
245.76600647 154.65600586 158.75000000 -0.430672 -0.373461 0.821614 0.000000
75.79689789 227.00799561 110.00000000 0.348027 -0.700955 0.622527 0.000000
159.25000000 167.67199707 128.75000000 0.038154 0.659924 0.750363 0.000000
124.79699707 153.12500000 118.75000000 0.216669 -0.126924 0.967959 0.000000
132.45300293 120.96900177 173.75000000 0.294707 0.562334 -0.772611 0.000000
104.89099884 182.98399353 93.75000000 -0.422315 0.095540 0.901400 0.000000
166.14100647 180.30499268 190.00000000 -0.173387 -0.812659 -0.556347 0.000000
106.42199707 186.81199646 93.75000000 -0.317305 -0.273438 0.908047 0.000000
183.75000000 117.90599823 103.75000000 -0.122821 -0.963176 0.239178 0.000000
156.18800354 166.90600586 193.75000000 -0.000978 -0.000978 -0.999999 0.000000
121.73400116 239.64100647 173.75000000 0.256235 -0.474112 -0.842355 0.000000
111.78099823 205.95300293 178.75000000 0.542724 -0.026106 -0.839505 0.000000
209.78100586 116.37500000 111.25000000 -0.226015 -0.749746 0.621931 0.000000
229.68800354 120.20300293 141.25000000 -0.582725 -0.404441 0.704883 0.000000
96.46880341 127.47699738 145.00000000 0.708260 0.528278 -0.468285 0.000000
102.59400177 149.29699707 163.75000000 0.512772 0.295041 -0.806235 0.000000
154.65600586 133.98399353 188.75000000 -0.327408 0.268680 -0.905878 0.000000
133.60200500 169.96899414 112.50000000 -0.401507 0.579955 0.708833 0.000000
86.51560211 234.28100586 118.75000000 -0.263697 -0.840438 0.473421 0.000000
102.59400177 127.09400177 96.25000000 -0.762245 -0.165178 0.625859 0.000000
182.98399353 191.40600586 136.25000000 0.000978 0.000978 0.999999 0.000000
81.92189789 141.64100647 88.75000000 0.916579 0.361248 0.171416 0.000000
150.06199646 164.60899353 126.25000000 -0.524935 -0.372168 0.765463 0.000000
189.87500000 108.71900177 186.25000000 0.273083 0.569844 -0.775051 0.000000
256.48400879 124.41400146 152.50000000 0.335188 -0.390796 0.857279 0.000000
142.40600586 115.22699738 172.50000000 0.486136 0.644256 -0.590428 0.000000
168.43800354 169.20300293 193.75000000 -0.000978 -0.000978 -0.999999 0.000000
156.95300293 212.84399414 178.75000000 -0.205483 0.003483 -0.978655 0.000000
107.95300293 247.29699707 163.75000000 0.551989 -0.750640 -0.363108 0.000000
258.01599121 144.70300293 158.75000000 -0.189210 -0.232151 0.954099 0.000000
76.17970276 171.50000000 150.00000000 0.870237 0.131329 -0.474806 0.000000
100.29699707 195.23399353 176.25000000 -0.000978 -0.000978 -0.999999 0.000000
202.89100647 176.85899353 136.25000000 -0.917310 -0.144249 0.371126 0.000000
116.75800323 179.15600586 180.00000000 0.334293 -0.016399 -0.942327 0.000000
190.64100647 110.63300323 187.50000000 0.050192 0.320459 -0.945932 0.000000
257.25000000 103.35900116 146.25000000 -0.206461 0.874859 0.438172 0.000000
216.28900146 143.93800354 135.00000000 -0.568759 -0.255393 0.781848 0.000000
87.28119659 155.42199707 158.75000000 0.632538 0.384808 -0.672175 0.000000
238.10899353 130.92199707 181.25000000 -0.382266 -0.443045 -0.810916 0.000000
126.32800293 147.00000000 181.25000000 -0.000978 -0.000978 -0.999999 0.000000
81.15619659 199.06199646 161.25000000 0.515404 -0.034360 -0.856258 0.000000
163.84399414 128.62500000 191.25000000 0.106663 0.170415 -0.979582 0.000000
153.50799561 162.31199646 127.50000000 -0.490129 -0.289693 0.822102 0.000000
162.31199646 156.18800354 133.75000000 -0.616944 -0.343470 0.708102 0.000000
100.68000031 149.29699707 92.50000000 -0.620627 0.094919 0.778339 0.000000
107.18800354 146.23399353 166.25000000 0.774521 0.425579 -0.467974 0.000000
189.10899353 129.39100647 191.25000000 -0.140404 0.245378 -0.959206 0.000000
150.82800293 121.73400116 183.75000000 0.312185 0.565134 -0.763652 0.000000
122.50000000 230.07000732 177.50000000 0.369489 -0.314750 -0.874306 0.000000
155.42199707 144.32000732 120.00000000 -0.476882 -0.500144 0.722800 0.000000
87.28119659 128.24200439 115.00000000 0.856721 0.515126 0.025961 0.000000
184.51600647 169.96899414 118.75000000 0.000978 0.000978 0.999999 0.000000
