208.86300659 199.93800354 343.50000000 0.209671 -0.709775 0.672501 0.000000
210.20199585 232.96299744 360.00000000 0.309465 -0.841310 0.443204 0.000000
207.97099304 188.33399963 406.50000000 -0.281778 0.606538 -0.743447 0.000000
156.20100403 278.48400879 424.50000000 0.006800 -0.556256 -0.830983 0.000000
265.09600830 178.51600647 331.50000000 -0.379580 -0.718079 0.583337 0.000000
244.56599426 182.08599854 319.50000000 -0.404097 -0.710881 0.575633 0.000000
222.25199890 243.22799683 378.00000000 -0.546897 -0.766301 0.337173 0.000000
123.17600250 216.89599609 406.50000000 0.898890 0.233154 -0.370994 0.000000
222.25199890 172.26800537 388.50000000 -0.473961 0.581147 -0.661536 0.000000
119.60500336 254.38499451 295.50000000 -0.775646 0.020888 0.630822 0.000000
122.28299713 302.13800049 387.00000000 0.705724 -0.708486 0.001381 0.000000
170.48199463 272.23599243 424.50000000 -0.256245 -0.394107 -0.882620 0.000000
304.36898804 206.63200378 369.00000000 0.177395 -0.444221 0.878179 0.000000
157.09399414 195.47500610 325.50000000 -0.785254 0.138574 0.603468 0.000000
186.10299683 168.69700623 321.00000000 -0.892470 -0.078869 0.444159 0.000000
268.66598511 172.26800537 376.50000000 -0.252825 0.867478 -0.428440 0.000000
181.19299316 310.61700439 394.50000000 -0.660225 -0.679691 -0.319568 0.000000
198.15199280 168.25100708 393.00000000 -0.358279 0.810506 -0.463374 0.000000
112.91100311 289.19500732 369.00000000 0.916566 -0.352087 -0.189585 0.000000
165.12699890 180.30099487 409.50000000 0.274333 0.753226 -0.597823 0.000000
199.04499817 169.58999634 394.50000000 -0.334335 0.812863 -0.476943 0.000000
209.75599670 158.87899780 304.50000000 -0.001215 0.958392 0.285453 0.000000
133.88699341 278.48400879 322.50000000 -0.790926 -0.217389 0.571995 0.000000
193.68899536 261.07901001 378.00000000 -0.878013 0.467991 0.100385 0.000000
132.99400330 285.62500000 325.50000000 -0.722019 -0.329371 0.608443 0.000000
259.73999023 179.40800476 328.50000000 -0.463564 -0.654345 0.597445 0.000000
197.25999451 268.66598511 409.50000000 -0.813875 -0.209195 -0.542074 0.000000
162.89599609 252.60000610 435.00000000 0.014845 -0.506079 -0.862359 0.000000
259.73999023 204.39999390 352.50000000 -0.405556 -0.614128 0.677031 0.000000
112.01899719 212.43400574 324.00000000 0.944239 0.315627 0.093764 0.000000
120.49800110 257.06201172 295.50000000 -0.775646 0.020888 0.630822 0.000000
263.31100464 193.68899536 388.50000000 -0.502005 0.167335 -0.848522 0.000000
142.81199646 194.13600159 309.00000000 -0.698890 0.458699 0.548770 0.000000
202.61500549 206.18600464 415.50000000 -0.615289 0.520888 -0.591689 0.000000
166.02000427 159.32499695 336.00000000 0.295504 0.923627 -0.244112 0.000000
141.02699280 319.98901367 360.00000000 0.001215 -0.958392 0.285453 0.000000
120.49800110 257.95498657 295.50000000 -0.754595 0.123533 0.644457 0.000000
227.60699463 199.04499817 397.50000000 -0.176495 0.283213 -0.942677 0.000000
222.25199890 183.87100220 316.50000000 0.049233 -0.814454 0.578136 0.000000
107.10900116 258.84799194 295.50000000 0.680649 -0.570273 0.459898 0.000000
193.24299622 254.38499451 411.00000000 -0.914414 0.404527 -0.014308 0.000000
141.91999817 320.88198853 390.00000000 0.001215 -0.958392 -0.285453 0.000000
147.27499390 321.77398682 363.00000000 -0.073333 -0.616856 0.783652 0.000000
184.76400757 278.93099976 366.00000000 -0.712706 -0.560574 0.421671 0.000000
128.97799683 257.95498657 423.00000000 0.633892 -0.018111 -0.773209 0.000000
116.48100281 294.55099487 378.00000000 0.897461 -0.428492 -0.104681 0.000000
163.78799438 256.17001343 330.00000000 -0.450761 -0.506900 0.734757 0.000000
166.91200256 288.30300903 418.50000000 -0.265738 -0.564497 -0.781490 0.000000
160.21800232 169.58999634 390.00000000 0.439089 0.799367 -0.410138 0.000000
277.59201050 212.43400574 388.50000000 -0.686771 0.086029 -0.721765 0.000000
105.77100372 226.71499634 336.00000000 0.894435 0.396713 -0.206408 0.000000
154.41600037 318.64999390 397.50000000 0.201071 -0.781260 -0.590934 0.000000
279.37701416 170.48199463 355.50000000 -0.306832 0.905815 -0.292151 0.000000
108.89499664 260.63299561 295.50000000 0.680649 -0.570273 0.459898 0.000000
165.12699890 161.11000061 363.00000000 0.139093 0.976155 -0.166661 0.000000
156.64700317 170.48199463 384.00000000 0.539786 0.760240 -0.361479 0.000000
240.10400391 170.48199463 385.50000000 0.207593 0.887792 -0.410769 0.000000
119.60500336 221.35899353 403.50000000 0.803410 0.447408 -0.392885 0.000000
147.27499390 170.03599548 366.00000000 0.520372 0.851391 -0.065923 0.000000
191.90400696 284.73199463 406.50000000 -0.445806 -0.646169 -0.619454 0.000000
194.58200073 240.99600220 424.50000000 -0.740189 -0.332032 -0.584701 0.000000
151.73800659 167.35800171 366.00000000 0.460345 0.886741 -0.042096 0.000000
176.72999573 288.30300903 364.50000000 -0.440486 -0.446988 0.778572 0.000000
177.17700195 164.23399353 387.00000000 0.190766 0.922741 -0.334900 0.000000
152.63099670 324.00601196 385.50000000 -0.183747 -0.965647 -0.183747 0.000000
116.48100281 199.04499817 324.00000000 0.868424 0.492889 0.053845 0.000000
112.91100311 288.30300903 330.00000000 0.989041 0.001110 0.147635 0.000000
149.95300293 299.01400757 415.50000000 0.332075 -0.870740 -0.362681 0.000000
145.49000549 164.68099976 318.00000000 0.466846 0.883332 0.042193 0.000000
143.25900269 249.92199707 312.00000000 -0.580326 -0.389624 0.715133 0.000000
184.76400757 239.21099854 343.50000000 -0.867796 -0.140528 0.476636 0.000000
189.22700500 216.89599609 427.50000000 -0.466862 0.188227 -0.864066 0.000000
211.54100037 169.58999634 388.50000000 -0.189662 0.717017 -0.670757 0.000000
236.53300476 194.13600159 333.00000000 -0.034635 -0.552768 0.832615 0.000000
301.69100952 202.61500549 367.50000000 0.395105 -0.603403 0.692674 0.000000
104.87799835 249.92199707 363.00000000 0.912037 0.229816 -0.339665 0.000000
168.69700623 274.02099609 424.50000000 -0.250608 -0.188295 -0.949600 0.000000
192.79699707 191.90400696 331.50000000 -0.745961 -0.001379 0.665988 0.000000
105.32399750 246.35200500 361.50000000 0.965718 0.193664 -0.172867 0.000000
201.72300720 158.43299866 351.00000000 0.001215 0.958392 -0.285453 0.000000
217.78900146 196.36700439 331.50000000 0.128732 -0.593349 0.794585 0.000000
169.58999634 287.41000366 418.50000000 -0.278584 -0.484020 -0.829527 0.000000
169.58999634 164.68099976 384.00000000 0.152769 0.955135 -0.253729 0.000000
141.02699280 230.28500366 304.50000000 -0.791786 -0.264974 0.550330 0.000000
188.33399963 174.05299377 325.50000000 -0.779716 -0.224769 0.584399 0.000000
167.35800171 227.60699463 348.00000000 -0.764137 0.399176 -0.506709 0.000000
123.62200165 303.47698975 387.00000000 0.705724 -0.708486 0.001381 0.000000
141.91999817 169.14399719 333.00000000 0.315627 0.944239 -0.093764 0.000000
265.98800659 159.77099609 328.50000000 -0.208726 0.974467 -0.082749 0.000000
170.48199463 317.75799561 394.50000000 -0.424444 -0.731630 -0.533446 0.000000
182.53199768 242.78100586 432.00000000 -0.422752 -0.218051 -0.879622 0.000000
252.15299988 218.68200684 393.00000000 -0.344149 -0.172777 -0.922881 0.000000
170.48199463 315.97299194 376.50000000 -0.563353 -0.757056 0.330909 0.000000
179.40800476 170.48199463 310.50000000 0.000978 0.000978 0.999999 0.000000
159.77099609 313.29501343 361.50000000 -0.412902 -0.671588 0.615208 0.000000
247.24400330 157.98599243 334.50000000 -0.180569 0.980403 -0.078772 0.000000
172.71400452 196.36700439 426.00000000 -0.193609 0.571682 -0.797305 0.000000
161.55700684 159.32499695 309.00000000 -0.966167 0.250580 -0.061087 0.000000
153.97000122 236.53300476 312.00000000 -0.414997 -0.244204 0.876437 0.000000
270.45098877 162.44900513 337.50000000 -0.508118 0.814553 -0.279856 0.000000
190.56500244 273.12899780 414.00000000 -0.524352 -0.191910 -0.829594 0.000000
167.80499268 249.92199707 433.50000000 -0.371694 -0.371694 -0.850698 0.000000
148.16799927 182.97900391 403.50000000 0.489365 0.743109 -0.456411 0.000000
111.57199860 265.98800659 295.50000000 0.688701 -0.413221 0.595768 0.000000
242.78100586 206.18600464 394.50000000 -0.000978 -0.000978 -0.999999 0.000000
198.59899902 156.20100403 336.00000000 -0.080234 0.989554 -0.119770 0.000000
129.42399597 294.55099487 325.50000000 -0.730819 -0.462355 0.502127 0.000000
197.25999451 269.55899048 406.50000000 -0.967488 -0.151130 -0.202798 0.000000
195.47500610 218.68200684 424.50000000 -0.644685 0.076783 -0.760583 0.000000
123.17600250 273.57501221 414.00000000 0.839527 -0.158429 -0.519707 0.000000
214.21899414 221.35899353 409.50000000 -0.700639 -0.209726 -0.681997 0.000000
270.00500488 195.47500610 351.00000000 -0.594998 -0.320880 0.736895 0.000000
118.71299744 265.54199219 297.00000000 -0.721457 -0.361546 0.590580 0.000000
261.52499390 174.05299377 322.50000000 -0.539354 -0.660331 0.522552 0.000000
161.55700684 177.62300110 403.50000000 0.454601 0.777220 -0.435048 0.000000
238.31799316 167.80499268 379.50000000 0.185371 0.888905 -0.418909 0.000000
172.26800537 284.73199463 418.50000000 -0.234440 -0.557376 -0.796473 0.000000
199.93800354 273.57501221 396.00000000 -0.958757 -0.238700 0.154298 0.000000
213.32600403 205.29299927 406.50000000 -0.668875 -0.061853 -0.740797 0.000000
257.95498657 224.03700256 391.50000000 -0.443386 0.433641 -0.784452 0.000000
124.51499939 196.36700439 375.00000000 0.841803 0.492948 -0.219931 0.000000
157.98599243 315.07998657 400.50000000 0.009478 -0.851667 -0.523998 0.000000
177.62300110 282.94699097 361.50000000 -0.513424 -0.287329 0.808603 0.000000
284.73199463 178.06900024 345.00000000 0.291102 -0.891220 0.347830 0.000000
161.55700684 211.54100037 325.50000000 -0.837835 0.436927 0.327304 0.000000
304.36898804 182.97900391 361.50000000 -0.798466 0.599205 0.058355 0.000000
166.46600342 214.21899414 333.00000000 -0.914710 0.082908 0.395514 0.000000
113.35700226 267.77301025 295.50000000 0.653484 -0.478774 0.586288 0.000000
112.46499634 288.74899292 333.00000000 0.945071 -0.317638 0.077122 0.000000
140.13499451 178.96200562 360.00000000 0.604668 0.785920 -0.129253 0.000000
197.70599365 182.97900391 408.00000000 -0.338007 0.412773 -0.845795 0.000000
166.02000427 259.73999023 430.50000000 -0.486985 -0.186156 -0.853341 0.000000
174.05299377 273.12899780 352.50000000 0.000978 0.000978 0.999999 0.000000
215.11099243 175.83799744 391.50000000 -0.282121 0.616841 -0.734789 0.000000
113.35700226 286.51800537 319.50000000 0.804726 -0.561331 0.193195 0.000000
151.29200745 299.90600586 414.00000000 -0.001338 -0.860313 -0.509765 0.000000
113.35700226 268.66598511 295.50000000 0.100513 -0.595795 0.796822 0.000000
174.05299377 166.91200256 307.50000000 -0.514261 -0.290943 0.806776 0.000000
126.30000305 207.07800293 402.00000000 0.584915 0.731551 -0.350297 0.000000
200.83000183 157.53999329 348.00000000 -0.168760 0.973223 -0.156071 0.000000
178.51600647 166.46600342 393.00000000 0.232659 0.932045 -0.277780 0.000000
141.02699280 307.04699707 406.50000000 0.422448 -0.700766 -0.574860 0.000000
140.58099365 239.21099854 306.00000000 -0.424697 -0.092686 0.900579 0.000000
239.21099854 191.90400696 331.50000000 -0.140425 -0.554310 0.820379 0.000000
145.49000549 191.90400696 313.50000000 -0.739743 -0.032408 0.672109 0.000000
189.22700500 262.41799927 421.50000000 -0.512750 -0.269623 -0.815102 0.000000
267.77301025 171.37500000 376.50000000 -0.242987 0.896843 -0.369635 0.000000
194.58200073 261.52499390 415.50000000 -0.821714 -0.084609 -0.563584 0.000000
114.25000000 222.25199890 379.50000000 0.944239 0.315627 -0.093764 0.000000
185.65600586 174.05299377 406.50000000 0.177281 0.396359 -0.900817 0.000000
199.93800354 239.21099854 379.50000000 -0.525351 -0.809072 0.263455 0.000000
172.26800537 271.34399414 346.50000000 -0.247554 -0.185327 0.950984 0.000000
292.76599121 202.61500549 367.50000000 -0.218786 -0.469258 0.855529 0.000000
102.19999695 253.49200439 336.00000000 0.000978 0.000978 -0.999999 0.000000
191.90400696 257.95498657 379.50000000 -0.914940 0.376905 0.144317 0.000000
172.26800537 240.99600220 325.50000000 -0.583790 -0.012363 0.811811 0.000000
174.94500732 163.78799438 384.00000000 0.187352 0.936760 -0.295600 0.000000
185.21000671 298.12100220 405.00000000 -0.595217 -0.409523 -0.691381 0.000000
124.06800079 280.26998901 310.50000000 -0.426001 -0.471702 0.772024 0.000000
216.89599609 242.78100586 373.50000000 -0.101293 -0.962926 0.250027 0.000000
182.97900391 301.69100952 403.50000000 -0.555614 -0.538726 -0.633299 0.000000
183.42500305 273.12899780 420.00000000 -0.671529 -0.333325 -0.661773 0.000000
183.42500305 245.45899963 345.00000000 -0.900780 -0.143274 0.409961 0.000000
112.01899719 276.69900513 393.00000000 0.898795 0.038961 -0.436634 0.000000
185.65600586 263.31100464 421.50000000 -0.237634 -0.416980 -0.877302 0.000000
166.91200256 210.64799500 334.50000000 -0.902717 -0.130971 0.409814 0.000000
155.30900574 219.57400513 310.50000000 -0.703767 -0.133551 0.697765 0.000000
147.27499390 251.70700073 433.50000000 0.581141 -0.263010 -0.770130 0.000000
149.06100464 224.92999268 436.50000000 0.205110 0.210473 -0.955840 0.000000
177.62300110 182.08599854 412.50000000 -0.003996 0.488802 -0.872386 0.000000
159.77099609 314.18798828 403.50000000 0.170901 -0.797034 -0.579249 0.000000
116.03500366 199.49099731 336.00000000 0.867195 0.497660 -0.017533 0.000000
143.70500183 304.36898804 346.50000000 0.000978 0.000978 0.999999 0.000000
157.09399414 268.66598511 430.50000000 -0.278457 -0.490023 -0.826038 0.000000
132.10200500 217.78900146 421.50000000 0.748426 0.313856 -0.584255 0.000000
113.80400085 269.55899048 396.00000000 0.958392 -0.001215 -0.285453 0.000000
165.12699890 211.09500122 435.00000000 0.004000 0.491965 -0.870606 0.000000
200.83000183 192.79699707 412.50000000 -0.532913 0.376462 -0.757813 0.000000
161.55700684 260.63299561 331.50000000 -0.456573 -0.610437 0.647231 0.000000
185.65600586 214.66499329 429.00000000 -0.466862 0.188227 -0.864066 0.000000
251.70700073 184.76400757 328.50000000 -0.414048 -0.730769 0.542716 0.000000
156.20100403 161.11000061 330.00000000 0.330558 0.938143 -0.103049 0.000000
175.83799744 284.73199463 361.50000000 -0.525709 -0.456057 0.718082 0.000000
198.15199280 184.76400757 409.50000000 -0.258304 0.450885 -0.854390 0.000000
128.53100586 241.88900757 301.50000000 -0.633675 -0.424113 0.646981 0.000000
262.41799927 231.62399292 384.00000000 -0.229075 -0.771373 0.593724 0.000000
257.95498657 201.72300720 391.50000000 -0.000978 -0.000978 -0.999999 0.000000
117.81999969 292.31900024 396.00000000 0.701189 -0.554622 -0.448028 0.000000
159.77099609 230.28500366 316.50000000 -0.723348 -0.541270 0.428712 0.000000
165.12699890 301.24499512 411.00000000 -0.421372 -0.092564 -0.902151 0.000000
255.27699280 184.31700134 330.00000000 -0.302093 -0.798728 0.520359 0.000000
145.04400635 190.11900330 312.00000000 -0.273210 -0.069891 0.959412 0.000000
214.21899414 224.03700256 406.50000000 -0.545196 -0.028985 -0.837807 0.000000
223.14500427 240.10400391 394.50000000 -0.524093 -0.628574 -0.574648 0.000000
168.69700623 204.84700012 333.00000000 -0.154860 -0.780315 0.605910 0.000000
145.49000549 192.79699707 415.50000000 0.477928 0.648975 -0.591959 0.000000
300.79901123 188.33399963 355.50000000 -0.410393 -0.472033 0.780233 0.000000
211.54100037 195.92100525 333.00000000 0.173853 -0.851432 0.494811 0.000000
238.31799316 213.77200317 396.00000000 -0.419128 0.296307 -0.858215 0.000000
116.92800140 294.10400391 330.00000000 0.691826 -0.691826 0.206770 0.000000
290.08801270 181.19299316 373.50000000 -0.395698 0.440554 -0.805813 0.000000
129.42399597 298.12100220 328.50000000 -0.402863 -0.728442 0.554142 0.000000
139.24200439 282.94699097 421.50000000 -0.000978 -0.000978 -0.999999 0.000000
135.67199707 186.54899597 304.50000000 -0.605263 -0.271654 0.748239 0.000000
227.60699463 155.75500488 327.00000000 -0.161666 0.976265 -0.144121 0.000000
127.63899994 220.46699524 418.50000000 0.486534 0.486534 -0.725650 0.000000
102.19999695 245.45899963 312.00000000 0.595724 -0.599099 0.534970 0.000000
169.58999634 207.07800293 337.50000000 -0.689388 -0.472390 0.549174 0.000000
161.55700684 189.22700500 319.50000000 -0.212356 -0.850932 0.480437 0.000000
124.96099854 310.61700439 358.50000000 0.690755 -0.708814 0.142967 0.000000
269.55899048 168.69700623 364.50000000 -0.343455 0.864027 -0.368097 0.000000
173.16000366 176.72999573 313.50000000 -0.390230 -0.520851 0.759234 0.000000
209.75599670 180.30099487 400.50000000 -0.302946 0.597877 -0.742137 0.000000
128.53100586 259.73999023 304.50000000 -0.738170 -0.327896 0.589567 0.000000
228.50000000 190.11900330 325.50000000 -0.096756 -0.827479 0.553097 0.000000
103.98500061 247.24400330 303.00000000 0.958392 0.001215 0.285453 0.000000
238.31799316 207.07800293 394.50000000 -0.292836 -0.953331 -0.073532 0.000000
200.83000183 178.51600647 403.50000000 -0.446379 0.663717 -0.600188 0.000000
178.51600647 239.21099854 433.50000000 -0.357709 -0.235066 -0.903763 0.000000
130.76300049 185.65600586 366.00000000 0.691826 0.691826 -0.206770 0.000000
181.19299316 235.64100647 433.50000000 -0.486818 -0.236541 -0.840867 0.000000
139.24200439 309.27801514 402.00000000 0.384436 -0.799433 -0.461645 0.000000
239.21099854 197.25999451 337.50000000 -0.017768 -0.537144 0.843303 0.000000
122.28299713 191.45799255 336.00000000 0.833809 0.551766 0.017799 0.000000
246.35200500 193.68899536 337.50000000 -0.617760 -0.300055 0.726870 0.000000
133.88699341 186.10299683 384.00000000 0.596799 0.600180 -0.532555 0.000000
170.48199463 224.92999268 334.50000000 -0.921292 0.383760 0.062846 0.000000
298.12100220 214.66499329 378.00000000 0.001215 -0.958392 -0.285453 0.000000
170.48199463 224.92999268 436.50000000 -0.125189 0.267509 -0.955388 0.000000
276.69900513 190.11900330 352.50000000 -0.469135 -0.555950 0.686172 0.000000
121.39099884 228.94599915 411.00000000 0.873700 0.238282 -0.424112 0.000000
172.26800537 315.07998657 376.50000000 -0.627344 -0.753737 0.195756 0.000000
259.73999023 231.17799377 394.50000000 0.160554 -0.956692 -0.242822 0.000000
136.11799622 292.76599121 414.00000000 0.358041 -0.616353 -0.701367 0.000000
191.90400696 249.02900696 424.50000000 -0.693319 -0.315145 -0.648068 0.000000
141.47399902 223.14500427 432.00000000 0.553450 0.237193 -0.798394 0.000000
264.20300293 173.16000366 325.50000000 -0.503242 -0.600861 0.621058 0.000000
153.52299500 274.46798706 339.00000000 -0.461262 -0.491020 0.739011 0.000000
217.78900146 242.78100586 373.50000000 -0.101293 -0.962926 0.250027 0.000000
118.26699829 199.93800354 354.00000000 0.876195 0.471362 -0.100501 0.000000
243.67399597 181.63999939 318.00000000 -0.404097 -0.710881 0.575633 0.000000
131.65499878 296.33599854 408.00000000 0.701856 -0.404600 -0.586257 0.000000
119.15899658 224.03700256 405.00000000 0.861397 0.349798 -0.368289 0.000000
182.97900391 295.89001465 408.00000000 -0.599311 -0.391286 -0.698371 0.000000
233.85499573 208.86300659 397.50000000 -0.000978 -0.000978 -0.999999 0.000000
299.01400757 203.06199646 381.00000000 -0.301821 0.473843 -0.827271 0.000000
233.85499573 212.43400574 397.50000000 -0.170123 -0.012559 -0.985343 0.000000
190.11900330 197.70599365 351.00000000 -0.652048 -0.642093 0.403175 0.000000
127.63899994 259.73999023 304.50000000 -0.738170 -0.327896 0.589567 0.000000
224.03700256 162.00300598 360.00000000 -0.028914 0.997003 -0.071750 0.000000
162.44900513 174.94500732 400.50000000 0.294830 0.802505 -0.518711 0.000000
187.44099426 225.82200623 355.50000000 0.190467 0.793865 0.577495 0.000000
167.80499268 180.30099487 313.50000000 -0.129807 -0.514854 0.847394 0.000000
144.59800720 324.45199585 375.00000000 0.350710 -0.936483 -0.001257 0.000000
239.65699768 177.62300110 312.00000000 -0.285529 -0.751309 0.594986 0.000000
279.37701416 173.60600281 336.00000000 -0.406644 -0.759395 0.507897 0.000000
198.15199280 268.66598511 385.50000000 -0.912640 0.227075 -0.339890 0.000000
276.25299072 205.29299927 387.00000000 -0.528066 0.350429 -0.773528 0.000000
188.33399963 249.02900696 364.50000000 -0.958767 -0.208775 0.192817 0.000000
230.28500366 162.00300598 357.00000000 -0.042489 0.988731 -0.143544 0.000000
179.40800476 163.34199524 385.50000000 0.116011 0.958069 -0.262003 0.000000
182.08599854 281.16198730 364.50000000 -0.668034 -0.175798 0.723067 0.000000
290.98001099 182.97900391 373.50000000 -0.410888 0.417283 -0.810584 0.000000
203.50799561 157.53999329 342.00000000 -0.152086 0.981869 -0.113152 0.000000
245.45899963 218.68200684 358.50000000 -0.176049 -0.733281 0.656738 0.000000
168.69700623 203.50799561 331.50000000 -0.113731 -0.508190 0.853702 0.000000
180.74699402 182.97900391 321.00000000 -0.850809 -0.323896 0.413781 0.000000
111.12599945 269.55899048 390.00000000 0.726522 -0.400328 -0.558483 0.000000
194.58200073 230.28500366 427.50000000 -0.736769 -0.058884 -0.673576 0.000000
227.60699463 198.15199280 397.50000000 -0.176495 0.283213 -0.942677 0.000000
165.12699890 181.19299316 313.50000000 -0.194943 -0.518336 0.832662 0.000000
180.30099487 204.39999390 427.50000000 -0.265323 0.665691 -0.697466 0.000000
257.06201172 162.00300598 348.00000000 -0.242309 0.957319 -0.157567 0.000000
274.02099609 179.40800476 379.50000000 -0.508544 0.381814 -0.771752 0.000000
107.10900116 268.22000122 306.00000000 0.397099 -0.397099 0.827421 0.000000
275.80700684 186.54899597 346.50000000 -0.480984 -0.574835 0.661982 0.000000
161.55700684 176.72999573 403.50000000 0.454601 0.777220 -0.435048 0.000000
115.58899689 217.78900146 378.00000000 0.955082 0.288448 -0.067945 0.000000
193.68899536 269.55899048 412.50000000 -0.702398 -0.279999 -0.654398 0.000000
140.13499451 315.07998657 394.50000000 0.531595 -0.445480 -0.720385 0.000000
267.77301025 208.86300659 388.50000000 -0.381328 0.019390 -0.924236 0.000000
166.02000427 286.51800537 355.50000000 -0.557500 -0.203144 0.804939 0.000000
244.56599426 229.83900452 375.00000000 0.095292 -0.932783 0.347613 0.000000
254.38499451 196.36700439 391.50000000 -0.000978 -0.000978 -0.999999 0.000000
208.41700745 182.08599854 402.00000000 -0.301855 0.438077 -0.846742 0.000000
143.70500183 240.99600220 307.50000000 -0.423491 -0.300293 0.854681 0.000000
154.86199951 324.00601196 375.00000000 -0.276649 -0.908988 0.311779 0.000000
192.79699707 251.70700073 397.50000000 -0.958392 0.001215 -0.285453 0.000000
130.31599426 291.42700195 411.00000000 0.511616 -0.521681 -0.682714 0.000000
153.07699585 243.67399597 315.00000000 -0.523384 -0.466891 0.712799 0.000000
178.51600647 186.54899597 415.50000000 0.085703 0.637686 -0.765514 0.000000
148.16799927 266.88101196 328.50000000 -0.444961 -0.425545 0.787986 0.000000
224.03700256 188.33399963 322.50000000 -0.307467 -0.779023 0.546431 0.000000
181.19299316 183.87100220 322.50000000 -0.850809 -0.323896 0.413781 0.000000
169.58999634 160.21800232 351.00000000 0.205589 0.978031 -0.034463 0.000000
119.15899658 217.78900146 396.00000000 0.931403 0.200287 -0.303931 0.000000
250.81399536 226.71499634 367.50000000 -0.199788 -0.720167 0.664412 0.000000
131.20899963 213.32600403 418.50000000 0.784936 0.224489 -0.577478 0.000000
125.40699768 231.17799377 420.00000000 0.727769 0.186173 -0.660070 0.000000
157.09399414 212.43400574 433.50000000 0.475130 0.656452 -0.585938 0.000000
207.97099304 173.16000366 394.50000000 -0.312229 0.648726 -0.694023 0.000000
191.01199341 187.44099426 415.50000000 0.515546 0.542415 -0.663324 0.000000
154.41600037 298.12100220 349.50000000 -0.778804 -0.582937 0.231620 0.000000
215.11099243 166.91200256 379.50000000 -0.431112 0.776002 -0.460395 0.000000
112.01899719 280.26998901 393.00000000 0.958392 -0.001215 -0.285453 0.000000
297.22900391 180.30099487 364.50000000 -0.382998 0.705177 -0.596689 0.000000
314.63400269 201.72300720 372.00000000 -0.920252 0.361677 -0.149419 0.000000
315.07998657 207.07800293 370.50000000 -0.331376 -0.526679 0.782815 0.000000
158.87899780 213.32600403 316.50000000 -0.818632 0.275996 0.503654 0.000000
173.16000366 156.64700317 315.00000000 -0.001215 0.958392 0.285453 0.000000
248.13699341 157.53999329 330.00000000 -0.165207 0.980227 -0.108914 0.000000
182.97900391 273.57501221 420.00000000 -0.430591 -0.529577 -0.730849 0.000000
172.26800537 207.97099304 337.50000000 0.162986 -0.817922 0.551761 0.000000
153.52299500 270.45098877 334.50000000 -0.501947 -0.748806 0.432826 0.000000
259.73999023 217.34300232 363.00000000 0.001215 -0.958392 0.285453 0.000000
193.68899536 186.10299683 339.00000000 -0.495238 -0.569104 0.656400 0.000000
154.41600037 323.55999756 387.00000000 0.001215 -0.958392 -0.285453 0.000000
178.96200562 270.45098877 423.00000000 -0.448369 -0.111739 -0.886837 0.000000
244.56599426 225.82200623 367.50000000 0.076854 -0.752592 0.653987 0.000000
151.73800659 218.68200684 307.50000000 -0.579051 -0.163939 0.798639 0.000000
236.53300476 183.87100220 319.50000000 -0.214970 -0.824815 0.522942 0.000000
131.20899963 280.26998901 418.50000000 0.479109 -0.525852 -0.702805 0.000000
178.51600647 216.89599609 361.50000000 -0.217277 -0.052195 0.974713 0.000000
122.72899628 272.23599243 414.00000000 0.854712 -0.166809 -0.491570 0.000000
137.90299988 251.70700073 309.00000000 -0.233632 -0.628768 0.741665 0.000000
174.94500732 180.30099487 412.50000000 -0.082748 0.648918 -0.756345 0.000000
203.50799561 239.65699768 396.00000000 -0.304283 -0.912848 -0.272253 0.000000
252.60000610 223.14500427 364.50000000 0.067726 -0.739218 0.670052 0.000000
120.94400024 214.21899414 399.00000000 0.935151 0.208277 -0.286556 0.000000
224.03700256 191.45799255 327.00000000 -0.179936 -0.805932 0.564001 0.000000
182.97900391 241.88900757 433.50000000 -0.402075 -0.083141 -0.911824 0.000000
283.83999634 183.42500305 378.00000000 -0.546656 0.509651 -0.664397 0.000000
168.69700623 255.27699280 433.50000000 -0.451170 -0.296129 -0.841875 0.000000
171.37500000 180.30099487 412.50000000 0.012516 0.652228 -0.757919 0.000000
200.83000183 222.25199890 421.50000000 -0.607029 0.205432 -0.767668 0.000000
113.80400085 258.84799194 402.00000000 0.958392 -0.001215 -0.285453 0.000000
174.94500732 198.15199280 325.50000000 0.076023 -0.451991 0.888777 0.000000
151.73800659 182.97900391 406.50000000 0.373854 0.816115 -0.440670 0.000000
285.62500000 216.89599609 376.50000000 -0.223054 -0.750271 0.622366 0.000000
108.44799805 235.64100647 375.00000000 0.999999 0.000978 0.000978 0.000000
174.94500732 175.83799744 406.50000000 -0.018033 0.786527 -0.617292 0.000000
281.16198730 202.61500549 364.50000000 -0.356963 -0.528176 0.770459 0.000000
141.02699280 197.25999451 304.50000000 -0.632040 0.344601 0.694101 0.000000
112.01899719 293.65798950 354.00000000 0.926499 -0.363837 0.096031 0.000000
126.30000305 280.26998901 414.00000000 0.603653 -0.446469 -0.660506 0.000000
152.63099670 166.46600342 348.00000000 0.467544 0.865768 -0.178463 0.000000
199.93800354 177.62300110 316.50000000 0.552835 -0.753866 0.355047 0.000000
266.88101196 218.68200684 391.50000000 -0.100963 0.161783 -0.981648 0.000000
275.35998535 217.78900146 372.00000000 -0.262302 -0.704241 0.659729 0.000000
299.90600586 188.33399963 355.50000000 -0.110349 -0.610599 0.784215 0.000000
194.58200073 228.05400085 351.00000000 -0.009644 -0.599311 0.800459 0.000000
113.80400085 274.02099609 396.00000000 0.881541 -0.009307 -0.472016 0.000000
199.04499817 277.59201050 394.50000000 -0.933947 -0.294563 0.202425 0.000000
185.65600586 288.30300903 370.50000000 -0.778674 -0.241873 0.578934 0.000000
270.45098877 185.65600586 382.50000000 -0.139293 0.389739 -0.910330 0.000000
132.10200500 219.12800598 423.00000000 0.754491 0.397703 -0.522088 0.000000
174.05299377 239.21099854 436.50000000 -0.531293 -0.232537 -0.814650 0.000000
139.24200439 219.12800598 429.00000000 0.569295 0.204087 -0.796399 0.000000
203.50799561 227.60699463 352.50000000 -0.107811 -0.704461 0.701507 0.000000
109.78700256 249.02900696 376.50000000 0.958392 0.001215 -0.285453 0.000000
216.44999695 243.67399597 378.00000000 0.442817 -0.862964 0.243323 0.000000
183.87100220 308.38598633 393.00000000 -0.635186 -0.771995 0.023732 0.000000
231.17799377 157.53999329 342.00000000 -0.001215 0.958392 -0.285453 0.000000
119.15899658 280.26998901 405.00000000 0.852672 -0.267895 -0.448533 0.000000
129.42399597 276.69900513 418.50000000 0.538373 -0.354065 -0.764717 0.000000
191.90400696 174.94500732 403.50000000 -0.240461 0.724525 -0.645943 0.000000
289.19500732 186.10299683 354.00000000 -0.073597 -0.627741 0.774935 0.000000
152.63099670 314.18798828 358.50000000 -0.683470 -0.199926 0.702067 0.000000
142.81199646 207.97099304 427.50000000 0.552846 0.512517 -0.657030 0.000000
147.27499390 191.01199341 313.50000000 -0.633186 -0.136217 0.761919 0.000000
166.02000427 224.03700256 355.50000000 -0.206846 0.204177 0.956831 0.000000
261.07901001 177.62300110 327.00000000 -0.412234 -0.740708 0.530485 0.000000
181.19299316 180.30099487 412.50000000 -0.082973 0.717648 -0.691446 0.000000
168.69700623 319.54299927 391.50000000 -0.369635 -0.896843 -0.242987 0.000000
123.17600250 270.45098877 304.50000000 -0.590874 -0.274052 0.758791 0.000000
131.20899963 245.45899963 427.50000000 0.710193 -0.227324 -0.666296 0.000000
291.87298584 173.60600281 357.00000000 -0.385346 0.855808 -0.345109 0.000000
211.54100037 238.76499939 387.00000000 0.765647 -0.642920 -0.020919 0.000000
147.27499390 282.94699097 421.50000000 0.155088 -0.185849 -0.970262 0.000000
232.96299744 187.44099426 322.50000000 -0.020941 -0.772043 0.635225 0.000000
217.34300232 231.17799377 405.00000000 -0.267225 -0.441303 -0.856646 0.000000
232.07000732 183.87100220 316.50000000 -0.201292 -0.946207 0.253326 0.000000
265.09600830 165.57299805 357.00000000 -0.153420 0.980662 -0.121509 0.000000
127.19200134 264.20300293 306.00000000 -0.764987 -0.236223 0.599161 0.000000
251.70700073 186.54899597 331.50000000 -0.313189 -0.823106 0.473719 0.000000
245.45899963 184.76400757 325.50000000 -0.294267 -0.699488 0.651247 0.000000
153.07699585 166.91200256 351.00000000 0.476715 0.856294 -0.198756 0.000000
162.00300598 271.34399414 342.00000000 -0.397099 -0.397099 0.827421 0.000000
167.80499268 315.07998657 397.50000000 -0.510206 -0.557354 -0.655017 0.000000
214.21899414 156.64700317 333.00000000 -0.086882 0.995295 -0.042891 0.000000
160.66400146 200.83000183 328.50000000 -0.787490 0.214210 0.577904 0.000000
174.94500732 207.97099304 433.50000000 -0.157092 0.299157 -0.941184 0.000000
130.76300049 222.25199890 423.00000000 0.691702 0.301511 -0.656231 0.000000
191.45799255 246.35200500 378.00000000 -0.753157 -0.510309 0.415139 0.000000
188.33399963 244.56599426 361.50000000 -0.934793 -0.213787 0.283652 0.000000
121.83699799 218.68200684 405.00000000 0.875821 0.333574 -0.348805 0.000000
131.20899963 261.52499390 424.50000000 0.588844 -0.113070 -0.800299 0.000000
154.86199951 298.12100220 351.00000000 -0.778804 -0.582937 0.231620 0.000000
236.53300476 175.83799744 307.50000000 -0.199343 -0.662932 0.721653 0.000000
139.24200439 249.92199707 430.50000000 0.553449 -0.075406 -0.829462 0.000000
189.22700500 168.69700623 397.50000000 -0.596799 0.600180 -0.532555 0.000000
127.63899994 230.28500366 421.50000000 0.730897 0.070919 -0.678793 0.000000
270.45098877 161.11000061 333.00000000 -0.538081 0.807898 -0.240353 0.000000
197.70599365 208.86300659 363.00000000 -0.254990 -0.174041 0.951152 0.000000
249.02900696 220.46699524 361.50000000 -0.129971 -0.751444 0.646869 0.000000
230.28500366 157.53999329 309.00000000 0.001215 0.958392 -0.285453 0.000000
150.84599304 286.51800537 343.50000000 -0.843341 0.184247 0.504806 0.000000
176.72999573 188.33399963 319.50000000 -0.435787 -0.439027 0.785713 0.000000
191.45799255 295.44299316 390.00000000 -0.910684 -0.358231 0.205731 0.000000
264.20300293 161.11000061 336.00000000 -0.212530 0.973162 -0.088243 0.000000
147.27499390 316.86499023 355.50000000 -0.337421 -0.692772 0.637350 0.000000
123.17600250 235.64100647 418.50000000 0.831701 0.081316 -0.549237 0.000000
143.70500183 212.43400574 430.50000000 0.399757 0.250035 -0.881860 0.000000
191.45799255 254.38499451 381.00000000 -0.974588 0.090631 0.204850 0.000000
196.81300354 242.78100586 417.00000000 -0.786888 -0.564745 -0.248738 0.000000
174.94500732 242.78100586 328.50000000 -0.745176 0.155686 0.648440 0.000000
162.44900513 200.83000183 430.50000000 0.814443 0.471519 -0.338160 0.000000
166.02000427 320.43600464 391.50000000 -0.296214 -0.935926 -0.190523 0.000000
148.16799927 232.96299744 436.50000000 0.434129 0.001304 -0.900850 0.000000
151.73800659 179.85400391 402.00000000 0.398172 0.844749 -0.357574 0.000000
168.25100708 211.54100037 336.00000000 -0.857594 -0.224572 0.462709 0.000000
166.91200256 223.14500427 349.50000000 -0.841291 0.006774 -0.540540 0.000000
169.58999634 199.04499817 325.50000000 0.182010 -0.750983 0.634741 0.000000
186.54899597 167.80499268 322.50000000 -0.892470 -0.078869 0.444159 0.000000
128.53100586 276.69900513 313.50000000 -0.680044 -0.265966 0.683229 0.000000
111.12599945 284.73199463 387.00000000 0.899854 -0.436174 0.003929 0.000000
176.72999573 174.05299377 403.50000000 0.015061 0.828358 -0.559997 0.000000
157.09399414 281.16198730 346.50000000 -0.498330 -0.268570 0.824340 0.000000
152.63099670 270.45098877 430.50000000 0.154797 -0.390542 -0.907477 0.000000
181.19299316 156.20100403 340.50000000 0.001215 0.958392 -0.285453 0.000000
296.33599854 176.72999573 361.50000000 -0.432053 0.788052 -0.438526 0.000000
117.81999969 269.55899048 406.50000000 0.563205 -0.385869 -0.730688 0.000000
171.37500000 271.34399414 424.50000000 -0.000978 -0.000978 -0.999999 0.000000
226.26899719 199.04499817 399.00000000 -0.284479 0.296150 -0.911793 0.000000
133.88699341 309.72500610 343.50000000 0.651781 -0.651781 0.387768 0.000000
174.94500732 197.25999451 325.50000000 0.093718 -0.258047 0.961576 0.000000
114.25000000 257.95498657 403.50000000 0.958392 -0.001215 -0.285453 0.000000
257.06201172 189.67300415 390.00000000 -0.520636 0.418808 -0.744001 0.000000
226.71499634 222.25199890 355.50000000 -0.381023 -0.296014 0.875898 0.000000
184.76400757 201.72300720 424.50000000 0.756244 0.333779 -0.562749 0.000000
202.61500549 156.64700317 339.00000000 -0.128358 0.984878 -0.116362 0.000000
150.84599304 299.01400757 415.50000000 0.373731 -0.871023 -0.318816 0.000000
216.89599609 229.39300537 406.50000000 -0.303581 -0.486044 -0.819512 0.000000
216.89599609 245.01300049 390.00000000 0.201407 -0.601147 -0.773342 0.000000
130.31599426 177.62300110 328.50000000 0.731138 0.679427 -0.061766 0.000000
132.10200500 176.72999573 310.50000000 0.726913 0.641765 0.244407 0.000000
145.49000549 238.31799316 436.50000000 -0.483003 0.874848 -0.036735 0.000000
196.81300354 234.74800110 363.00000000 -0.371559 -0.830078 0.415830 0.000000
228.50000000 177.62300110 307.50000000 -0.186244 -0.721888 0.666477 0.000000
207.07800293 234.74800110 406.50000000 -0.398079 -0.797770 -0.452875 0.000000
231.17799377 158.43299866 345.00000000 0.001215 0.958392 -0.285453 0.000000
283.83999634 212.88000488 372.00000000 -0.120698 -0.713757 0.689915 0.000000
130.31599426 268.22000122 312.00000000 -0.771244 -0.441875 0.458181 0.000000
186.99499512 217.78900146 429.00000000 -0.469690 0.182246 -0.863816 0.000000
168.69700623 318.20401001 378.00000000 -0.549065 -0.751094 0.366586 0.000000
177.62300110 169.58999634 310.50000000 -0.275996 -0.503654 0.818632 0.000000
168.25100708 319.54299927 393.00000000 -0.308480 -0.901825 -0.302576 0.000000
191.90400696 216.89599609 361.50000000 0.000978 0.000978 0.999999 0.000000
129.42399597 271.34399414 313.50000000 -0.650394 -0.290670 0.701783 0.000000
143.70500183 286.51800537 337.50000000 -0.696104 -0.462400 0.549204 0.000000
127.19200134 182.97900391 312.00000000 0.766533 0.382453 0.515904 0.000000
106.21700287 266.43499756 360.00000000 0.965969 -0.218539 -0.138365 0.000000
114.69599915 243.67399597 399.00000000 0.944432 0.198756 -0.261809 0.000000
165.12699890 166.46600342 387.00000000 0.238179 0.948635 -0.208237 0.000000
127.63899994 276.69900513 418.50000000 0.557999 -0.311776 -0.769047 0.000000
128.53100586 302.58401489 400.50000000 0.655158 -0.326766 -0.681169 0.000000
147.27499390 248.13699341 436.50000000 0.244163 -0.489862 -0.836911 0.000000
182.97900391 171.37500000 316.50000000 -0.644483 -0.516596 0.563712 0.000000
175.83799744 241.44200134 435.00000000 -0.426137 -0.332480 -0.841347 0.000000
169.58999634 173.60600281 402.00000000 0.339395 0.735627 -0.586228 0.000000
160.21800232 276.69900513 345.00000000 -0.609489 -0.552085 0.568969 0.000000
132.10200500 266.88101196 424.50000000 0.529314 -0.185486 -0.827902 0.000000
228.50000000 237.42599487 376.50000000 -0.691826 -0.691826 0.206770 0.000000
116.92800140 290.98001099 397.50000000 0.703107 -0.594430 -0.390249 0.000000
173.16000366 229.39300537 349.50000000 0.274076 0.922675 -0.271206 0.000000
217.78900146 157.53999329 342.00000000 0.001215 0.958392 -0.285453 0.000000
190.11900330 199.04499817 352.50000000 -0.743303 -0.469715 0.476307 0.000000
236.53300476 194.58200073 334.50000000 -0.165958 -0.650127 0.741480 0.000000
240.10400391 230.28500366 376.50000000 -0.001215 -0.958392 0.285453 0.000000
302.58401489 181.19299316 355.50000000 -0.997190 -0.039802 -0.063467 0.000000
138.35000610 181.19299316 382.50000000 0.565880 0.656555 -0.498713 0.000000
191.45799255 293.65798950 387.00000000 -0.902934 -0.390263 0.180011 0.000000
171.37500000 224.03700256 436.50000000 -0.125189 0.267509 -0.955388 0.000000
235.64100647 195.47500610 334.50000000 -0.076883 -0.700649 0.709352 0.000000
216.89599609 236.97900391 399.00000000 0.172038 0.765798 0.619642 0.000000
241.88900757 163.78799438 366.00000000 0.232659 0.932045 -0.277780 0.000000
223.14500427 170.48199463 298.50000000 -0.163998 -0.804946 0.570233 0.000000
191.90400696 290.98001099 382.50000000 -0.868135 -0.335312 0.365934 0.000000
138.35000610 222.25199890 301.50000000 -0.523036 -0.529764 0.667670 0.000000
108.89499664 284.73199463 337.50000000 0.894688 -0.446689 0.001310 0.000000
162.44900513 226.71499634 439.50000000 -0.033754 0.460409 -0.887065 0.000000
226.71499634 170.03599548 300.00000000 -0.143213 -0.921848 0.360119 0.000000
107.55599976 270.45098877 363.00000000 0.965420 -0.221000 -0.138286 0.000000
244.56599426 233.40899658 390.00000000 0.194297 -0.973991 -0.116578 0.000000
170.48199463 295.44299316 412.50000000 -0.733083 0.026734 -0.679614 0.000000
180.30099487 232.07000732 436.50000000 -0.492436 -0.147585 -0.857745 0.000000
141.91999817 262.41799927 427.50000000 0.471165 -0.422255 -0.774406 0.000000
249.02900696 207.97099304 349.50000000 -0.185512 -0.642394 0.743583 0.000000
248.13699341 200.83000183 394.50000000 -0.000978 -0.000978 -0.999999 0.000000
114.69599915 264.20300293 399.00000000 0.958392 0.001215 -0.285453 0.000000
295.44299316 184.76400757 370.50000000 -0.453920 0.611368 -0.648218 0.000000
296.33599854 193.68899536 376.50000000 -0.504209 0.259086 -0.823801 0.000000
264.64898682 162.44900513 345.00000000 -0.224962 0.918475 -0.325263 0.000000
179.40800476 188.33399963 418.50000000 -0.086230 0.700075 -0.708844 0.000000
181.19299316 182.53199768 321.00000000 -0.850809 -0.323896 0.413781 0.000000
179.85400391 211.54100037 360.00000000 -0.245416 -0.507811 0.825772 0.000000
117.37400055 229.39300537 402.00000000 0.917676 0.231214 -0.323125 0.000000
156.20100403 215.11099243 310.50000000 -0.753874 0.152588 0.639055 0.000000
220.46699524 170.92900085 300.00000000 -0.109304 -0.820505 0.561092 0.000000
115.58899689 226.71499634 387.00000000 0.928213 0.372047 0.001270 0.000000
232.96299744 186.54899597 322.50000000 -0.106694 -0.805319 0.583162 0.000000
277.59201050 171.37500000 361.50000000 -0.205401 0.954512 -0.216141 0.000000
155.30900574 257.95498657 325.50000000 -0.514678 -0.582177 0.629426 0.000000
257.95498657 174.05299377 319.50000000 -0.488755 -0.698936 0.522117 0.000000
212.43400574 220.46699524 409.50000000 -0.700639 -0.209726 -0.681997 0.000000
177.62300110 201.72300720 325.50000000 0.683825 -0.483192 0.546726 0.000000
133.88699341 307.93899536 340.50000000 -0.126800 -0.720524 0.681738 0.000000
236.53300476 176.28399658 309.00000000 -0.210324 -0.796775 0.566493 0.000000
294.55099487 202.61500549 367.50000000 -0.218064 -0.576864 0.787195 0.000000
253.49200439 181.19299316 325.50000000 -0.366586 -0.751094 0.549065 0.000000
216.89599609 171.82099915 300.00000000 -0.227962 -0.352833 0.907492 0.000000
121.83699799 190.11900330 318.00000000 0.667564 0.667564 0.329721 0.000000
158.87899780 244.56599426 436.50000000 -0.000978 -0.000978 -0.999999 0.000000
135.67199707 235.64100647 301.50000000 -0.341118 -0.308058 0.888110 0.000000
170.92900085 307.93899536 405.00000000 -0.174582 -0.590543 -0.787896 0.000000
186.99499512 289.19500732 375.00000000 -0.853842 -0.268263 0.446082 0.000000
178.51600647 160.66400146 373.50000000 0.001215 0.958392 -0.285453 0.000000
283.83999634 182.08599854 376.50000000 -0.505740 0.495726 -0.706033 0.000000
127.19200134 192.79699707 378.00000000 0.864160 0.432839 -0.256666 0.000000
199.93800354 156.64700317 339.00000000 -0.056352 0.979572 -0.193037 0.000000
181.19299316 154.86199951 324.00000000 -0.289759 0.887292 0.358820 0.000000
161.55700684 322.22100830 376.50000000 -0.444998 -0.811841 0.378009 0.000000
169.58999634 201.72300720 430.50000000 -0.391913 0.542775 -0.742832 0.000000
139.24200439 189.22700500 397.50000000 0.691826 0.691826 -0.206770 0.000000
157.09399414 178.51600647 310.50000000 -0.041224 -0.703657 0.709343 0.000000
142.81199646 169.58999634 340.50000000 0.999999 0.000978 0.000978 0.000000
107.55599976 282.05499268 339.00000000 0.894688 -0.446689 0.001310 0.000000
221.35899353 194.58200073 400.50000000 -0.677359 0.070769 -0.732241 0.000000
115.14299774 204.84700012 351.00000000 0.871079 0.466805 -0.152693 0.000000
216.89599609 199.04499817 406.50000000 -0.587694 0.122252 -0.799794 0.000000
131.20899963 314.18798828 355.50000000 0.443828 -0.886229 0.132720 0.000000
152.18499756 279.37701416 342.00000000 0.012482 -0.764168 0.644897 0.000000
274.91400146 192.79699707 352.50000000 -0.514122 -0.564691 0.645602 0.000000
143.70500183 270.45098877 427.50000000 0.264182 -0.349783 -0.898810 0.000000
141.91999817 323.55999756 378.00000000 0.364074 -0.931264 0.014052 0.000000
121.39099884 207.52400208 387.00000000 0.823781 0.493646 -0.278746 0.000000
249.02900696 162.89599609 366.00000000 -0.486534 0.486534 -0.725650 0.000000
174.05299377 232.07000732 328.50000000 -0.747793 -0.041150 0.662655 0.000000
225.37600708 227.60699463 357.00000000 -0.677043 -0.644256 0.355734 0.000000
186.54899597 192.79699707 328.50000000 -0.701962 -0.136785 0.698956 0.000000
258.84799194 210.64799500 391.50000000 0.000978 0.000978 -0.999999 0.000000
180.30099487 224.92999268 433.50000000 -0.471618 0.232018 -0.850732 0.000000
149.06100464 319.54299927 361.50000000 0.001355 -0.556887 0.830587 0.000000
189.67300415 172.26800537 402.00000000 -0.511154 0.707623 -0.487844 0.000000
116.92800140 300.35299683 366.00000000 0.823135 -0.503802 -0.261977 0.000000
134.33299255 179.40800476 351.00000000 0.516392 0.817233 -0.255870 0.000000
112.01899719 216.00399780 303.00000000 0.902407 0.380952 0.201340 0.000000
246.79800415 157.09399414 324.00000000 -0.310749 0.932248 -0.185335 0.000000
106.66300201 270.45098877 375.00000000 0.411955 0.418366 0.809483 0.000000
287.41000366 216.00399780 385.50000000 -0.000978 -0.000978 -0.999999 0.000000
265.09600830 166.91200256 364.50000000 -0.364192 0.893385 -0.263110 0.000000
286.51800537 200.83000183 364.50000000 -0.347526 -0.538261 0.767790 0.000000
129.86999512 183.87100220 354.00000000 0.657596 0.741481 -0.133317 0.000000
138.79600525 191.90400696 306.00000000 -0.791739 0.340688 0.507033 0.000000
159.77099609 257.06201172 328.50000000 -0.491467 -0.464990 0.736373 0.000000
107.55599976 232.07000732 357.00000000 0.929343 0.297559 -0.218586 0.000000
195.02799988 236.53300476 363.00000000 -0.494848 -0.762686 0.416456 0.000000
208.86300659 156.64700317 315.00000000 -0.033715 0.984711 0.170900 0.000000
120.94400024 274.02099609 303.00000000 -0.631389 -0.149183 0.760982 0.000000
171.37500000 211.09500122 342.00000000 -0.335551 -0.809456 0.481857 0.000000
201.72300720 233.40899658 363.00000000 -0.220514 -0.686566 0.692821 0.000000
103.53900146 264.20300293 343.50000000 0.995047 0.001069 -0.099398 0.000000
141.02699280 320.43600464 361.50000000 0.001215 -0.958392 0.285453 0.000000
196.81300354 282.94699097 393.00000000 -0.912859 -0.349330 0.211323 0.000000
214.21899414 190.11900330 403.50000000 -0.532933 0.275113 -0.800185 0.000000
184.76400757 207.97099304 361.50000000 -0.596929 -0.596929 0.536052 0.000000
133.88699341 269.55899048 424.50000000 0.314735 -0.240003 -0.918336 0.000000
221.35899353 225.82200623 403.50000000 -0.480829 -0.250400 -0.840299 0.000000
118.71299744 303.02999878 351.00000000 -0.000978 -0.000978 0.999999 0.000000
249.92199707 158.43299866 333.00000000 -0.165207 0.980227 -0.108914 0.000000
202.61500549 157.98599243 349.50000000 -0.168760 0.973223 -0.156071 0.000000
263.75698853 191.90400696 345.00000000 -0.417849 -0.509612 0.752129 0.000000
168.69700623 300.79901123 409.50000000 -0.233055 -0.608446 -0.758603 0.000000
251.70700073 211.54100037 391.50000000 -0.000978 -0.000978 -0.999999 0.000000
180.30099487 293.65798950 367.50000000 -0.393609 -0.001282 0.919277 0.000000
203.06199646 170.48199463 393.00000000 -0.338886 0.809825 -0.478895 0.000000
175.83799744 301.69100952 406.50000000 -0.208939 -0.626816 -0.750631 0.000000
178.51600647 178.51600647 316.50000000 -0.228961 -0.273910 0.934104 0.000000
237.42599487 194.58200073 394.50000000 -0.320082 0.760797 -0.564566 0.000000
148.16799927 246.35200500 436.50000000 0.344966 -0.148238 -0.926836 0.000000
121.39099884 298.12100220 328.50000000 0.195450 -0.749480 0.632518 0.000000
149.06100464 197.25999451 421.50000000 0.421393 0.644582 -0.637920 0.000000
157.53999329 244.56599426 318.00000000 -0.395451 -0.385998 0.833441 0.000000
276.69900513 215.11099243 370.50000000 -0.311705 -0.667015 0.676706 0.000000
169.14399719 230.28500366 351.00000000 -0.472577 0.842018 -0.260148 0.000000
235.64100647 171.37500000 304.50000000 -0.293121 -0.626285 0.722390 0.000000
168.69700623 303.47698975 409.50000000 -0.178639 -0.633634 -0.752726 0.000000
282.94699097 179.40800476 376.50000000 -0.493726 0.540588 -0.681175 0.000000
141.91999817 291.87298584 415.50000000 0.665757 0.330437 -0.669013 0.000000
236.53300476 188.33399963 394.50000000 -0.000978 -0.000978 -0.999999 0.000000
112.01899719 254.38499451 396.00000000 0.911718 -0.331929 0.242062 0.000000
211.54100037 196.36700439 409.50000000 -0.483774 0.199201 -0.852221 0.000000
208.86300659 195.92100525 336.00000000 0.287559 -0.868762 0.403191 0.000000
114.69599915 207.07800293 318.00000000 0.791409 0.564403 0.234779 0.000000
136.56399536 188.33399963 304.50000000 -0.772387 0.273257 0.573367 0.000000
173.16000366 188.33399963 418.50000000 -0.120322 0.666972 -0.735303 0.000000
265.98800659 173.16000366 379.50000000 -0.101329 0.765109 -0.635878 0.000000
206.18600464 176.72999573 397.50000000 -0.315972 0.662730 -0.678934 0.000000
108.44799805 220.46699524 312.00000000 0.928352 0.371596 -0.008939 0.000000
172.26800537 243.67399597 325.50000000 -0.351070 -0.170600 0.920677 0.000000
195.47500610 243.67399597 382.50000000 -0.521280 -0.840251 0.149148 0.000000
170.48199463 227.60699463 328.50000000 -0.723348 0.541270 0.428712 0.000000
140.13499451 311.51000977 400.50000000 0.416396 -0.742271 -0.525021 0.000000
265.98800659 170.03599548 372.00000000 -0.937822 0.271731 0.215992 0.000000
166.91200256 208.86300659 433.50000000 -0.036641 0.105481 -0.993746 0.000000
165.12699890 273.57501221 426.00000000 -0.334759 -0.275771 -0.901048 0.000000
209.30999756 231.17799377 357.00000000 0.097190 -0.813783 0.572985 0.000000
249.02900696 223.14500427 364.50000000 0.067726 -0.739218 0.670052 0.000000
165.12699890 225.82200623 319.50000000 -0.874622 0.009347 0.484714 0.000000
232.96299744 162.00300598 357.00000000 -0.024790 0.978611 -0.204222 0.000000
200.83000183 203.50799561 415.50000000 -0.578216 0.507414 -0.638903 0.000000
282.94699097 205.29299927 385.50000000 -0.000978 -0.000978 -0.999999 0.000000
151.73800659 182.08599854 406.50000000 0.373854 0.816115 -0.440670 0.000000
200.83000183 206.18600464 418.50000000 -0.585785 0.541893 -0.602667 0.000000
175.83799744 209.75599670 433.50000000 -0.101784 0.425264 -0.899328 0.000000
