97.11910248 137.10899353 110.00000000 -0.701680 -0.701680 -0.123651 0.000000
129.63900757 184.57000732 92.50000000 0.311426 -0.780960 -0.541402 0.000000
160.83999634 111.62100220 186.25000000 -0.535990 -0.188729 0.822858 0.000000
148.97500610 188.96499634 122.50000000 0.883861 0.448377 -0.133224 0.000000
152.05099487 242.57800293 186.25000000 -0.000978 -0.000978 0.999999 0.000000
137.98800659 235.54699707 98.75000000 -0.443742 0.443742 -0.778580 0.000000
215.33200073 196.87500000 136.25000000 0.579884 0.228534 -0.781989 0.000000
177.53900146 98.87689972 135.00000000 -0.000978 -0.999999 -0.000978 0.000000
134.47300720 195.11700439 208.75000000 -0.502061 0.495389 0.708890 0.000000
111.62100220 132.27499390 102.50000000 -0.223012 -0.256257 -0.940531 0.000000
176.66000366 128.32000732 193.75000000 -0.213471 -0.560553 0.800132 0.000000
259.27700806 140.62500000 191.25000000 0.269322 -0.337020 0.902155 0.000000
225.00000000 170.50799561 133.75000000 0.627199 -0.006892 -0.778829 0.000000
130.95700073 263.67199707 126.25000000 0.305041 0.695622 -0.650431 0.000000
180.17599487 128.75999451 195.00000000 -0.046626 -0.406315 0.912543 0.000000
172.26600647 263.67199707 168.75000000 0.728631 0.560865 0.393099 0.000000
160.83999634 255.32200623 127.50000000 0.365936 0.651465 -0.664593 0.000000
136.22999573 251.36700439 186.25000000 0.000978 0.000978 0.999999 0.000000
238.18400574 111.18199921 187.50000000 -0.999999 0.000978 0.000978 0.000000
94.92189789 234.66799927 173.75000000 -0.738771 -0.111038 0.664746 0.000000
208.30099487 214.01400757 142.50000000 0.006932 0.702918 -0.711237 0.000000
211.81599426 173.14399719 198.75000000 -0.000978 -0.000978 0.999999 0.000000
108.98400116 193.79899597 80.00000000 -0.038613 -0.414096 -0.909414 0.000000
184.13099670 225.87899780 132.50000000 0.917636 0.377850 -0.123182 0.000000
109.86299896 193.79899597 80.00000000 0.001246 -0.943059 0.332624 0.000000
96.67970276 192.47999573 186.25000000 -0.493986 0.001331 0.869469 0.000000
103.27100372 126.56199646 125.00000000 -0.851552 -0.510353 0.119998 0.000000
161.71899414 258.39801025 178.75000000 0.513995 0.415465 0.750465 0.000000
162.59800720 182.81199646 211.25000000 0.208833 -0.034607 0.977339 0.000000
151.61099243 116.89499664 125.00000000 0.556773 -0.818085 -0.144019 0.000000
189.84399414 178.41799927 133.75000000 0.417918 -0.867750 0.268987 0.000000
229.39399719 188.96499634 193.75000000 0.256863 0.153053 0.954252 0.000000
164.35499573 187.20700073 133.75000000 0.252341 -0.260800 -0.931830 0.000000
202.14799500 129.19900513 201.25000000 0.000978 0.000978 0.999999 0.000000
101.51399994 177.53900146 192.50000000 -0.853274 -0.132279 0.504406 0.000000
126.56199646 139.74600220 193.75000000 -0.440670 -0.373854 0.816115 0.000000
108.54499817 119.53099823 115.00000000 -0.648126 -0.732056 -0.209825 0.000000
197.75399780 203.90600586 126.25000000 0.605870 0.376001 -0.701102 0.000000
157.32400513 207.42199707 208.75000000 0.113427 0.492473 0.862905 0.000000
115.13700104 268.94500732 121.25000000 0.241408 0.499731 -0.831860 0.000000
205.66400146 139.74600220 201.25000000 0.000978 0.000978 0.999999 0.000000
186.32800293 183.69099426 206.25000000 0.378796 0.217918 0.899458 0.000000
214.45300293 220.60499573 171.25000000 0.638083 0.687041 0.347600 0.000000
142.82200623 142.38299561 107.50000000 0.129988 -0.258662 -0.957182 0.000000
220.60499573 173.14399719 128.75000000 0.671878 0.203270 -0.712222 0.000000
257.51901245 139.74600220 191.25000000 0.269322 -0.337020 0.902155 0.000000
204.78500366 167.87100220 121.25000000 0.384273 0.467880 -0.795879 0.000000
102.83200073 277.73400879 173.75000000 -0.448079 0.281782 0.848425 0.000000
261.47500610 183.69099426 175.00000000 0.850543 -0.042873 -0.524156 0.000000
119.53099823 146.77699280 196.25000000 -0.690814 -0.476712 0.543619 0.000000
227.63699341 195.99600220 191.25000000 -0.300166 0.601937 0.739981 0.000000
101.95300293 288.28100586 168.75000000 -0.384537 0.438787 0.812156 0.000000
190.72300720 148.53500366 121.25000000 0.398053 -0.423630 -0.813690 0.000000
163.47700500 97.99800110 152.50000000 0.024772 -0.996247 -0.082931 0.000000
167.87100220 180.17599487 211.25000000 0.261791 0.072087 0.962429 0.000000
269.38500977 188.96499634 187.50000000 0.891014 -0.437716 0.120407 0.000000
145.01899719 271.58200073 136.25000000 0.406349 0.551122 -0.728797 0.000000
229.83399963 150.29299927 197.50000000 0.723920 0.339998 0.600284 0.000000
263.67199707 195.11700439 183.75000000 0.653159 0.262217 -0.710370 0.000000
166.99200439 236.42599487 108.75000000 0.380427 0.640632 -0.666982 0.000000
81.73829651 188.08599854 163.75000000 -0.889069 -0.132718 0.438113 0.000000
156.00599670 146.77699280 135.00000000 0.630998 -0.766950 -0.116742 0.000000
176.66000366 207.42199707 201.25000000 0.000000 0.000000 0.000000 0.000000
130.07800293 252.24600220 186.25000000 -0.011016 0.285196 0.958406 0.000000
111.18199921 298.82800293 165.00000000 -0.126062 0.505696 0.853452 0.000000
158.20300293 266.30899048 138.75000000 -0.000978 -0.000978 -0.999999 0.000000
245.21499634 198.63299561 173.75000000 0.290619 0.647068 -0.704871 0.000000
219.72700500 204.34599304 145.00000000 0.739873 0.314325 -0.594800 0.000000
87.89060211 266.30899048 166.25000000 -0.626303 0.229593 0.745004 0.000000
233.78900146 192.47999573 153.75000000 0.231749 0.852777 -0.468043 0.000000
241.25999451 120.41000366 170.00000000 0.444432 -0.099541 -0.890265 0.000000
108.98400116 293.55499268 168.75000000 -0.083288 0.503962 0.859701 0.000000
163.91600037 164.35499573 142.50000000 0.996417 0.082588 0.018234 0.000000
80.41989899 180.17599487 112.50000000 -0.942821 -0.314274 0.110999 0.000000
139.74600220 278.61300659 138.75000000 -0.000978 -0.000978 -0.999999 0.000000
198.63299561 177.10000610 125.00000000 0.300938 -0.899850 -0.315763 0.000000
138.86700439 244.33599854 111.25000000 0.222025 0.892513 -0.392588 0.000000
222.36300659 173.14399719 131.25000000 0.731741 0.189482 -0.654715 0.000000
94.92189789 213.57400513 176.25000000 -0.744251 0.307024 0.593150 0.000000
106.34799957 279.49200439 176.25000000 -0.488343 0.271302 0.829408 0.000000
193.35899353 180.17599487 203.75000000 0.288448 0.067945 0.955082 0.000000
108.98400116 267.62701416 120.00000000 0.231147 0.500563 -0.834271 0.000000
267.62701416 166.99200439 190.00000000 0.573173 -0.006840 0.819406 0.000000
212.69500732 127.44100189 201.25000000 0.557076 -0.506585 0.658056 0.000000
116.45500183 195.99600220 80.00000000 0.019705 -0.419060 -0.907745 0.000000
76.46479797 240.82000732 158.75000000 -0.635056 -0.199324 0.746307 0.000000
226.75799561 168.75000000 196.25000000 0.000978 0.000978 0.999999 0.000000
132.71499634 279.49200439 178.75000000 -0.129486 0.333937 0.933659 0.000000
99.31639862 258.83801270 110.00000000 0.230835 0.705066 -0.670520 0.000000
180.17599487 164.35499573 116.25000000 -0.000978 -0.000978 -0.999999 0.000000
205.66400146 143.26199341 131.25000000 0.521119 -0.284962 -0.804507 0.000000
130.95700073 261.91400146 123.75000000 0.502929 0.637492 -0.583667 0.000000
137.98800659 192.91999817 87.50000000 0.370285 -0.673095 -0.640181 0.000000
175.34199524 216.21099854 197.50000000 0.460395 0.431112 0.776002 0.000000
255.76199341 166.11300659 193.75000000 0.288796 0.011060 0.957327 0.000000
223.24200439 95.36129761 170.00000000 -0.001246 -0.943059 0.332624 0.000000
94.04290009 252.24600220 173.75000000 -0.567016 -0.567016 0.597483 0.000000
209.17999268 135.35200500 201.25000000 0.000978 0.000978 0.999999 0.000000
89.64839935 275.09799194 126.25000000 -0.363513 0.735176 -0.572166 0.000000
90.96679688 151.17199707 135.00000000 -0.934379 -0.350885 -0.061766 0.000000
232.03100586 188.08599854 193.75000000 0.082452 0.312794 0.946235 0.000000
137.10899353 148.09599304 202.50000000 0.434883 -0.061347 0.898395 0.000000
178.41799927 165.23399353 206.25000000 0.000978 0.000978 0.999999 0.000000
217.08999634 211.37699890 145.00000000 0.915492 0.214142 -0.340615 0.000000
166.99200439 152.92999268 203.75000000 -0.001331 -0.493986 0.869469 0.000000
167.43200684 154.68699646 115.00000000 0.458421 0.191380 -0.867885 0.000000
85.25389862 272.46099854 126.25000000 -0.450811 0.892258 0.025417 0.000000
183.69099426 212.25599670 190.00000000 0.689271 0.582974 0.430171 0.000000
99.31639862 183.69099426 188.75000000 -0.592041 -0.023571 0.805563 0.000000
160.83999634 249.16999817 120.00000000 0.173597 0.850179 -0.497051 0.000000
125.68399811 231.15199280 191.25000000 -0.142517 0.308109 0.940615 0.000000
221.48399353 142.82200623 140.00000000 0.348483 -0.192021 -0.917435 0.000000
150.73199463 108.10500336 180.00000000 -0.409060 -0.537199 0.737622 0.000000
157.32400513 250.48800659 121.25000000 0.241160 0.714022 -0.657278 0.000000
242.13900757 161.71899414 152.50000000 0.751784 -0.250595 -0.609938 0.000000
125.68399811 135.35200500 188.75000000 -0.545301 -0.606077 0.579066 0.000000
129.19900513 112.93900299 172.50000000 -0.606140 -0.548734 0.575748 0.000000
84.37500000 263.67199707 161.25000000 -0.516247 0.775179 0.364124 0.000000
133.59399414 166.99200439 103.75000000 -0.000978 -0.000978 -0.999999 0.000000
192.47999573 132.71499634 128.75000000 0.688446 -0.287254 -0.665979 0.000000
181.05499268 161.71899414 206.25000000 0.143599 -0.007792 0.989605 0.000000
195.99600220 176.66000366 203.75000000 0.319720 -0.047509 0.946320 0.000000
256.64099121 181.93400574 171.25000000 0.279525 0.557471 -0.781723 0.000000
248.29100037 173.14399719 157.50000000 0.772129 0.188063 -0.607000 0.000000
133.59399414 219.28700256 197.50000000 -0.349133 0.895860 0.274849 0.000000
175.78100586 216.21099854 101.25000000 0.000978 0.000978 -0.999999 0.000000
130.07800293 295.31201172 168.75000000 0.060408 0.844312 0.532436 0.000000
159.96099854 221.92399597 92.50000000 0.465122 0.535141 -0.705185 0.000000
96.67970276 254.44299316 105.00000000 -0.055850 0.703133 -0.708861 0.000000
228.51600647 163.47700500 136.25000000 0.624077 -0.175474 -0.761404 0.000000
200.39100647 166.99200439 201.25000000 0.309332 0.133729 0.941504 0.000000
134.47300720 294.87298584 170.00000000 -0.006943 0.726264 0.687381 0.000000
72.94920349 213.13499451 140.00000000 -0.816191 -0.262736 0.514589 0.000000
244.33599854 201.26899719 188.75000000 0.000978 0.000978 -0.999999 0.000000
211.37699890 207.42199707 137.50000000 0.379728 0.459840 -0.802717 0.000000
150.29299927 246.97300720 113.75000000 0.129088 0.609831 -0.781948 0.000000
111.62100220 300.58599854 163.75000000 -0.180375 0.565378 0.804868 0.000000
96.67970276 272.46099854 171.25000000 -0.721561 0.343678 0.601029 0.000000
178.41799927 174.90199280 208.75000000 -0.916671 -0.398496 0.030249 0.000000
193.35899353 134.47300720 198.75000000 -0.515212 0.092767 0.852027 0.000000
131.83599854 152.92999268 103.75000000 -0.000978 -0.000978 -0.999999 0.000000
153.80900574 175.78100586 213.75000000 0.000978 0.000978 0.999999 0.000000
146.77699280 191.60200500 213.75000000 0.000978 0.000978 0.999999 0.000000
109.42400360 177.53900146 200.00000000 -0.483563 -0.331359 0.810166 0.000000
184.57000732 101.95300293 183.75000000 -0.025172 -0.902207 0.430569 0.000000
129.19900513 289.16000366 173.75000000 0.145154 0.344221 0.927600 0.000000
182.81199646 199.51199341 123.75000000 -0.345672 -0.566383 -0.748145 0.000000
229.83399963 123.92600250 157.50000000 0.598698 -0.387587 -0.700955 0.000000
109.86299896 236.42599487 88.75000000 0.070938 0.684766 -0.725302 0.000000
125.68399811 154.24800110 202.50000000 -0.513818 -0.557619 0.651960 0.000000
161.71899414 260.15600586 133.75000000 0.610027 0.623471 -0.489030 0.000000
128.32000732 125.68399811 183.75000000 -0.579066 -0.606077 0.545301 0.000000
222.36300659 171.38699341 131.25000000 0.757379 0.091936 -0.646472 0.000000
114.25800323 151.17199707 101.25000000 -0.000978 -0.000978 -0.999999 0.000000
131.39599609 101.95300293 147.50000000 -0.389061 -0.886939 0.248939 0.000000
125.68399811 112.50000000 101.25000000 -0.414997 -0.876437 -0.244204 0.000000
76.46479797 214.45300293 148.75000000 -0.949907 0.182935 0.253399 0.000000
116.89499664 198.63299561 78.75000000 -0.123966 -0.254457 -0.959106 0.000000
187.20700073 218.84800720 176.25000000 0.857689 0.471505 0.205067 0.000000
235.54699707 195.11700439 161.25000000 0.262518 0.778122 -0.570623 0.000000
268.94500732 190.72300720 188.75000000 0.943059 0.001246 0.332624 0.000000
268.06600952 187.20700073 183.75000000 0.749730 0.079758 -0.656920 0.000000
72.94920349 210.05900574 138.75000000 -0.788278 -0.293424 0.540851 0.000000
130.51800537 111.62100220 172.50000000 -0.582489 -0.545344 0.602749 0.000000
214.45300293 104.58999634 183.75000000 -0.012370 -0.809565 0.586900 0.000000
214.01400757 179.29699707 127.50000000 0.325620 0.537354 -0.777960 0.000000
180.17599487 199.51199341 203.75000000 0.575802 0.397617 0.714390 0.000000
190.72300720 158.20300293 203.75000000 0.000978 0.000978 0.999999 0.000000
86.13279724 254.00399780 166.25000000 -0.814042 0.012355 0.580674 0.000000
161.71899414 238.18400574 186.25000000 0.000978 0.000978 0.999999 0.000000
105.46900177 199.51199341 78.75000000 0.403902 -0.867246 -0.291114 0.000000
173.58399963 225.87899780 105.00000000 0.703552 0.457392 -0.543881 0.000000
223.24200439 175.34199524 132.50000000 0.672149 0.156278 -0.723736 0.000000
94.04290009 143.70100403 155.00000000 -0.854605 -0.517733 0.040038 0.000000
163.47700500 221.48399353 198.75000000 0.011060 0.288796 0.957327 0.000000
154.68699646 253.56399536 122.50000000 0.227425 0.682275 -0.694823 0.000000
103.71099854 151.17199707 181.25000000 -0.744217 -0.338870 0.575593 0.000000
232.03100586 174.02299500 138.75000000 0.558262 0.384726 -0.735072 0.000000
224.12100220 97.99800110 175.00000000 0.104928 -0.846611 0.521766 0.000000
180.17599487 220.60499573 188.75000000 0.566873 0.604101 0.560105 0.000000
188.08599854 197.75399780 201.25000000 0.491419 0.329203 0.806308 0.000000
116.01599884 199.51199341 78.75000000 -0.069661 -0.152309 -0.985875 0.000000
116.89499664 199.51199341 78.75000000 -0.069661 -0.152309 -0.985875 0.000000
129.19900513 173.14399719 103.75000000 0.112713 -0.179598 -0.977262 0.000000
131.83599854 158.20300293 103.75000000 -0.000978 -0.000978 -0.999999 0.000000
119.53099823 199.51199341 78.75000000 -0.033587 -0.165621 -0.985617 0.000000
226.31799316 193.35899353 150.00000000 0.771883 0.297613 -0.561804 0.000000
270.26400757 171.38699341 185.00000000 0.114045 -0.676863 -0.727221 0.000000
123.04699707 257.07998657 117.50000000 0.400007 0.719355 -0.567911 0.000000
79.10150146 200.39100647 78.75000000 -0.801600 0.200018 -0.563410 0.000000
124.80500031 231.15199280 191.25000000 -0.142517 0.308109 0.940615 0.000000
242.57800293 108.10500336 173.75000000 -0.000978 -0.000978 -0.999999 0.000000
110.74199677 184.57000732 201.25000000 -0.501575 0.501575 0.704872 0.000000
239.94099426 172.26600647 146.25000000 0.792441 0.262055 -0.550786 0.000000
197.75399780 213.13499451 142.50000000 -0.069524 0.986291 -0.149652 0.000000
149.41400146 178.41799927 106.25000000 0.152003 0.624567 -0.766036 0.000000
71.63079834 211.81599426 117.50000000 -0.999999 0.000978 0.000978 0.000000
98.43750000 135.79100037 132.50000000 -0.866681 -0.496234 0.051144 0.000000
143.26199341 225.00000000 88.75000000 -0.000978 -0.000978 -0.999999 0.000000
111.62100220 268.06600952 121.25000000 0.131282 0.559056 -0.818670 0.000000
174.02299500 239.06199646 178.75000000 -0.000978 -0.000978 0.999999 0.000000
159.08200073 122.16799927 188.75000000 0.000978 0.000978 0.999999 0.000000
264.55099487 146.77699280 188.75000000 0.560481 -0.237545 0.793368 0.000000
225.00000000 145.01899719 198.75000000 0.000978 0.000978 0.999999 0.000000
100.19499969 215.33200073 181.25000000 -0.636591 0.219460 0.739317 0.000000
163.47700500 262.79299927 138.75000000 0.391397 0.645722 -0.655631 0.000000
226.75799561 99.75579834 162.50000000 0.785180 -0.529317 -0.321428 0.000000
120.41000366 200.39100647 78.75000000 -0.000978 -0.000978 -0.999999 0.000000
84.37500000 203.90600586 171.25000000 -0.758719 -0.249765 0.601634 0.000000
122.16799927 200.39100647 78.75000000 -0.000978 -0.000978 -0.999999 0.000000
198.63299561 102.39299774 140.00000000 0.728486 0.437752 -0.526955 0.000000
108.10500336 246.97300720 101.25000000 0.262251 0.789894 -0.554339 0.000000
209.17999268 168.75000000 123.75000000 0.283846 0.100720 -0.953565 0.000000
87.89060211 204.78500366 176.25000000 -0.781116 0.123022 0.612146 0.000000
116.01599884 111.18199921 127.50000000 -0.515236 -0.831369 -0.208222 0.000000
267.18701172 175.78100586 181.25000000 0.798145 -0.131790 -0.587873 0.000000
229.83399963 145.01899719 145.00000000 0.596689 -0.382998 -0.705177 0.000000
204.78500366 180.17599487 198.75000000 0.308263 -0.076741 0.948201 0.000000
212.69500732 152.49000549 200.00000000 0.146086 0.730432 0.667179 0.000000
78.22260284 238.18400574 158.75000000 -0.625957 -0.416751 0.659164 0.000000
231.15199280 129.19900513 156.25000000 0.710605 -0.192680 -0.676694 0.000000
91.40619659 254.00399780 106.25000000 -0.178146 0.833844 -0.522463 0.000000
137.10899353 297.51000977 160.00000000 0.392592 0.915135 -0.091650 0.000000
81.73829651 181.05499268 96.25000000 -0.820140 -0.439417 -0.366446 0.000000
123.04699707 274.21899414 128.75000000 0.471304 0.356274 -0.806809 0.000000
257.51901245 160.83999634 173.75000000 0.270754 0.157603 -0.949660 0.000000
117.77300262 201.26899719 78.75000000 0.018266 -0.087032 -0.996038 0.000000
108.10500336 164.35499573 98.75000000 0.712579 0.701424 -0.015339 0.000000
135.35200500 203.90600586 206.25000000 -0.136427 0.398030 0.907171 0.000000
123.92600250 177.53900146 96.25000000 0.450045 -0.600618 -0.660847 0.000000
96.24019623 205.66400146 182.50000000 -0.653486 0.216789 0.725230 0.000000
196.43600464 174.90199280 202.50000000 0.320459 -0.050192 0.945932 0.000000
193.35899353 194.23800659 201.25000000 0.324864 0.277825 0.904034 0.000000
187.20700073 104.15000153 187.50000000 0.006835 -0.821582 0.570049 0.000000
188.96499634 216.64999390 172.50000000 0.849952 0.519653 0.086846 0.000000
156.44500732 201.70899963 110.00000000 0.126062 -0.618445 0.775651 0.000000
178.85699463 251.36700439 152.50000000 0.922077 0.381411 -0.065576 0.000000
110.74199677 261.91400146 116.25000000 0.276375 0.707712 -0.650200 0.000000
105.46900177 279.49200439 173.75000000 -0.501896 0.333004 0.798254 0.000000
73.38860321 216.21099854 107.50000000 -0.992769 0.096440 -0.071479 0.000000
118.65200043 286.96301270 175.00000000 -0.070434 0.454370 0.888024 0.000000
243.45700073 122.16799927 171.25000000 0.557240 -0.093593 -0.825060 0.000000
127.44100189 179.29699707 208.75000000 -0.528414 -0.222087 0.819424 0.000000
188.08599854 215.33200073 178.75000000 0.854844 0.481875 0.192452 0.000000
240.82000732 155.56599426 196.25000000 0.104581 -0.029723 0.994072 0.000000
196.87500000 112.50000000 141.25000000 0.486983 -0.343283 -0.803122 0.000000
115.13700104 202.14799500 78.75000000 -0.085259 -0.159710 -0.983475 0.000000
116.01599884 202.14799500 78.75000000 0.029317 -0.087951 -0.995693 0.000000
84.81439972 184.57000732 170.00000000 -0.916364 -0.159062 0.367390 0.000000
259.27700806 155.56599426 173.75000000 0.605955 -0.369485 -0.704485 0.000000
169.18899536 160.83999634 132.50000000 0.993261 0.001083 0.115898 0.000000
71.63079834 210.93699646 115.00000000 -0.979179 0.071411 -0.190026 0.000000
145.01899719 191.16200256 132.50000000 0.268290 0.199498 -0.942455 0.000000
250.04899597 139.74600220 170.00000000 0.344358 -0.703405 -0.621803 0.000000
186.32800293 177.97799683 137.50000000 0.432039 -0.865594 0.253160 0.000000
98.43750000 209.17999268 183.75000000 -0.566015 0.426586 0.705444 0.000000
171.82600403 175.78100586 210.00000000 0.405103 -0.103695 0.908371 0.000000
99.75579834 131.83599854 122.50000000 -0.851552 -0.510353 0.119998 0.000000
264.11099243 188.08599854 192.50000000 0.297885 -0.202786 0.932814 0.000000
181.05499268 214.45300293 191.25000000 0.692967 0.583289 0.423757 0.000000
179.73599243 228.51600647 117.50000000 0.803494 0.498007 -0.326171 0.000000
166.11300659 198.63299561 208.75000000 0.213937 0.169312 0.962062 0.000000
90.52729797 166.11300659 171.25000000 -0.801600 -0.200018 0.563410 0.000000
225.00000000 116.01599884 193.75000000 0.210987 -0.379777 0.900696 0.000000
175.78100586 162.59800720 206.25000000 0.000978 0.000978 0.999999 0.000000
206.98199463 220.60499573 170.00000000 -0.686203 0.686203 0.241354 0.000000
175.78100586 201.26899719 126.25000000 -0.393517 -0.722819 -0.568047 0.000000
138.42799377 122.16799927 100.00000000 0.304533 0.671907 -0.675130 0.000000
115.13700104 203.02699280 78.75000000 0.217841 -0.152619 -0.963978 0.000000
76.90429688 238.18400574 157.50000000 -0.772062 -0.385218 0.505497 0.000000
74.26760101 189.84399414 142.50000000 -0.975655 -0.108406 0.190645 0.000000
154.68699646 111.62100220 183.75000000 -0.289902 -0.709540 0.642270 0.000000
189.84399414 195.11700439 201.25000000 0.383449 0.460459 0.800590 0.000000
142.38299561 139.74600220 196.25000000 0.049582 -0.301309 0.952237 0.000000
194.23800659 150.29299927 121.25000000 0.380951 -0.470964 -0.795656 0.000000
160.39999390 277.73400879 172.50000000 0.686203 0.686203 0.241354 0.000000
195.55700684 130.95700073 200.00000000 -0.498800 0.020276 0.866480 0.000000
135.35200500 162.59800720 103.75000000 -0.000978 -0.000978 -0.999999 0.000000
123.92600250 203.02699280 78.75000000 0.114004 -0.005429 -0.993465 0.000000
173.58399963 238.18400574 117.50000000 0.584180 0.721634 -0.371453 0.000000
153.80900574 202.58799744 122.50000000 0.701680 -0.701680 0.123651 0.000000
235.54699707 171.38699341 196.25000000 0.000978 0.000978 0.999999 0.000000
126.56199646 293.11499023 147.50000000 0.101723 0.685525 -0.720907 0.000000
183.69099426 160.83999634 116.25000000 0.335416 0.320375 -0.885921 0.000000
125.68399811 233.78900146 191.25000000 -0.229011 0.300132 0.925999 0.000000
143.26199341 216.21099854 201.25000000 -0.168834 0.762033 0.625141 0.000000
250.48800659 129.19900513 191.25000000 0.553710 0.084416 0.828419 0.000000
84.37500000 270.70300293 158.75000000 -0.756880 0.379254 0.532258 0.000000
195.99600220 196.87500000 198.75000000 -0.092140 0.647903 0.756130 0.000000
197.75399780 151.17199707 201.25000000 0.000978 0.000978 0.999999 0.000000
188.96499634 202.14799500 196.25000000 0.203006 0.813549 0.544910 0.000000
130.95700073 233.78900146 96.25000000 0.423215 0.592501 -0.685442 0.000000
176.66000366 179.29699707 208.75000000 0.171291 0.153527 0.973185 0.000000
264.11099243 145.89799500 182.50000000 0.778522 -0.145504 -0.610518 0.000000
198.63299561 108.10500336 191.25000000 -0.136130 -0.522563 0.841663 0.000000
162.59800720 230.27299500 101.25000000 0.364924 0.584205 -0.724938 0.000000
186.32800293 209.17999268 113.75000000 0.858563 -0.122652 -0.497822 0.000000
240.38099670 146.77699280 160.00000000 0.649273 -0.330332 -0.685073 0.000000
79.98040009 184.57000732 158.75000000 -0.808313 -0.404957 0.427365 0.000000
126.56199646 251.36700439 113.75000000 0.108960 0.829547 -0.547704 0.000000
207.42199707 207.42199707 186.25000000 -0.107695 0.756816 0.644695 0.000000
159.08200073 126.12300110 120.00000000 -0.292738 0.126987 -0.947723 0.000000
159.08200073 199.07200623 97.50000000 0.518770 -0.829119 -0.208421 0.000000
177.53900146 116.01599884 191.25000000 -0.166703 0.043133 0.985063 0.000000
108.98400116 162.59800720 98.75000000 0.712579 0.701424 -0.015339 0.000000
201.26899719 192.47999573 198.75000000 0.273364 0.206757 0.939427 0.000000
124.80500031 265.42999268 181.25000000 0.000978 0.000978 0.999999 0.000000
83.49610138 170.94700623 107.50000000 -0.912300 -0.392970 -0.115253 0.000000
128.32000732 299.70700073 158.75000000 0.358406 0.881648 -0.306989 0.000000
71.63079834 224.12100220 95.00000000 -0.979228 0.163821 -0.119478 0.000000
177.97799683 229.39399719 115.00000000 0.811841 0.444998 -0.378009 0.000000
220.60499573 114.25800323 193.75000000 0.141450 -0.497263 0.855992 0.000000
137.10899353 166.99200439 208.75000000 0.163520 -0.979891 0.114341 0.000000
72.94920349 215.77099609 110.00000000 -0.992769 0.096440 -0.071479 0.000000
122.16799927 204.78500366 78.75000000 0.114004 -0.005429 -0.993465 0.000000
183.69099426 97.11910248 162.50000000 -0.154796 -0.975341 0.157313 0.000000
94.48239899 217.08999634 175.00000000 -0.770741 0.142176 0.621083 0.000000
191.60200500 203.02699280 126.25000000 0.404957 0.808313 -0.427365 0.000000
125.68399811 204.78500366 78.75000000 0.298341 -0.219160 -0.928957 0.000000
126.56199646 204.34599304 80.00000000 0.298341 -0.219160 -0.928957 0.000000
166.99200439 191.60200500 211.25000000 0.246221 0.079548 0.965944 0.000000
199.51199341 93.60350037 150.00000000 -0.071917 -0.325590 -0.942772 0.000000
253.12500000 182.81199646 193.75000000 0.000978 0.000978 0.999999 0.000000
122.16799927 262.79299927 121.25000000 0.423074 0.478613 -0.769375 0.000000
71.19139862 230.27299500 141.25000000 -0.968270 -0.171478 0.181792 0.000000
200.39100647 177.53900146 201.25000000 0.442573 0.114532 0.889388 0.000000
181.05499268 160.39999390 150.00000000 -0.883493 -0.312621 -0.348867 0.000000
253.12500000 152.05099487 168.75000000 0.686203 -0.686203 -0.241354 0.000000
174.90199280 263.23199463 162.50000000 0.857679 0.443312 0.260503 0.000000
122.16799927 109.42400360 120.00000000 -0.447484 -0.875895 -0.180461 0.000000
130.95700073 241.69900513 103.75000000 0.502179 -0.656696 -0.562642 0.000000
119.53099823 205.66400146 78.75000000 0.089174 -0.107703 -0.990176 0.000000
129.19900513 292.67599487 173.75000000 0.303515 0.229418 0.924795 0.000000
117.77300262 144.58000183 192.50000000 -0.724684 -0.449404 0.522369 0.000000
211.81599426 215.33200073 178.75000000 0.191264 0.601334 0.775767 0.000000
158.20300293 175.78100586 213.75000000 -0.122828 -0.788763 0.602301 0.000000
175.78100586 158.20300293 113.75000000 -0.199136 0.323420 -0.925065 0.000000
217.96899414 199.51199341 138.75000000 0.723009 0.282500 -0.630438 0.000000
150.29299927 135.35200500 196.25000000 -0.084679 -0.448382 0.889822 0.000000
129.19900513 178.41799927 98.75000000 0.376831 -0.663156 -0.646701 0.000000
144.14100647 116.89499664 183.75000000 -0.032441 -0.695361 0.717928 0.000000
105.46900177 255.76199341 178.75000000 -0.373929 0.172036 0.911362 0.000000
206.54299927 220.16600037 157.50000000 -0.816204 0.571487 0.084931 0.000000
87.01170349 220.60499573 163.75000000 -0.710961 -0.032509 0.702480 0.000000
162.59800720 263.67199707 176.25000000 0.000978 0.000978 0.999999 0.000000
137.98800659 247.85200500 186.25000000 0.000978 0.000978 0.999999 0.000000
166.99200439 102.83200073 181.25000000 -0.176287 -0.706680 0.685219 0.000000
145.89799500 202.58799744 210.00000000 0.753373 -0.281918 0.594097 0.000000
108.10500336 181.93400574 86.25000000 0.408882 -0.483817 -0.773781 0.000000
121.28900146 109.42400360 152.50000000 -0.640928 -0.734494 0.222999 0.000000
100.19499969 245.21499634 96.25000000 0.912361 0.362366 0.190493 0.000000
177.53900146 102.83200073 183.75000000 -0.100627 -0.800640 0.590636 0.000000
123.04699707 206.54299927 78.75000000 0.076492 -0.099325 -0.992111 0.000000
190.72300720 145.89799500 201.25000000 0.000978 0.000978 0.999999 0.000000
150.29299927 276.85501099 141.25000000 0.706151 0.332784 -0.624984 0.000000
79.54100037 207.42199707 160.00000000 -0.774406 0.422255 0.471165 0.000000
112.50000000 141.50399780 101.25000000 -0.000978 -0.000978 -0.999999 0.000000
152.05099487 136.22999573 113.75000000 0.442151 -0.838994 -0.317162 0.000000
74.70700073 202.58799744 90.00000000 -0.942348 -0.276514 -0.188470 0.000000
239.06199646 164.35499573 148.75000000 0.697260 -0.166305 -0.697260 0.000000
106.34799957 256.64099121 108.75000000 0.260030 0.594130 -0.761179 0.000000
174.90199280 204.34599304 112.50000000 -0.103879 -0.991987 -0.071916 0.000000
143.26199341 130.07800293 191.25000000 -0.309051 -0.803533 0.508746 0.000000
189.84399414 203.90600586 126.25000000 0.404957 0.808313 -0.427365 0.000000
239.94099426 195.55700684 162.50000000 0.223730 0.655544 -0.721254 0.000000
94.92189789 148.53500366 166.25000000 -0.799433 -0.413389 0.435908 0.000000
116.89499664 207.42199707 78.75000000 0.386185 -0.163879 -0.907747 0.000000
94.48239899 189.84399414 185.00000000 -0.668888 0.001379 0.743362 0.000000
95.36129761 287.40200806 142.50000000 -0.625189 0.721620 -0.297327 0.000000
108.98400116 297.94900513 153.75000000 -0.148752 0.879512 -0.452031 0.000000
89.20899963 282.12899780 145.00000000 -0.707106 0.707106 -0.001384 0.000000
231.15199280 179.29699707 196.25000000 0.000978 0.000978 0.999999 0.000000
89.64839935 267.18701172 166.25000000 -0.567184 0.190075 0.801357 0.000000
182.37300110 239.06199646 170.00000000 0.991858 -0.067187 0.108182 0.000000
115.13700104 235.54699707 91.25000000 -0.046546 0.602279 -0.796927 0.000000
264.55099487 198.63299561 191.25000000 0.047057 0.680189 0.731524 0.000000
181.05499268 205.66400146 198.75000000 0.560574 0.421671 0.712706 0.000000
127.44100189 207.42199707 78.75000000 0.430348 -0.129246 -0.893362 0.000000
94.04290009 234.66799927 173.75000000 -0.738771 -0.111038 0.664746 0.000000
216.64999390 105.46900177 155.00000000 0.578220 -0.157696 -0.800496 0.000000
109.86299896 117.33399963 132.50000000 -0.799006 -0.600304 0.034983 0.000000
178.41799927 115.13700104 191.25000000 -0.131320 -0.068565 0.988966 0.000000
219.72700500 111.62100220 191.25000000 -0.111818 -0.538760 0.835006 0.000000
192.47999573 203.46699524 192.50000000 0.396376 0.731897 0.554268 0.000000
125.68399811 272.89999390 130.00000000 0.382171 0.420229 -0.823015 0.000000
97.55860138 293.11499023 157.50000000 -0.686203 0.686203 0.241354 0.000000
146.77699280 253.12500000 118.75000000 0.321428 0.785180 -0.529317 0.000000
76.02539825 261.03500366 130.00000000 -0.858338 0.483092 0.172850 0.000000
202.14799500 181.93400574 128.75000000 0.001362 0.578659 -0.815569 0.000000
171.38699341 182.81199646 208.75000000 0.352134 0.124686 0.927607 0.000000
115.13700104 296.19100952 166.25000000 -0.059860 0.376451 0.924501 0.000000
191.16200256 214.45300293 132.50000000 0.762676 0.603590 -0.232390 0.000000
175.34199524 236.42599487 117.50000000 0.633039 0.568891 -0.525000 0.000000
137.98800659 120.41000366 98.75000000 0.304533 0.671907 -0.675130 0.000000
178.41799927 152.05099487 203.75000000 0.000978 0.000978 0.999999 0.000000
132.71499634 261.47500610 125.00000000 0.223141 0.747443 -0.625730 0.000000
233.35000610 135.35200500 155.00000000 0.374963 -0.524299 -0.764535 0.000000
215.33200073 111.62100220 151.25000000 0.425671 -0.293513 -0.855952 0.000000
160.83999634 134.47300720 196.25000000 -0.163080 -0.017106 0.986465 0.000000
136.22999573 226.75799561 196.25000000 -0.413804 0.089360 0.905970 0.000000
112.93900299 127.44100189 172.50000000 -0.567016 -0.567016 0.597483 0.000000
201.26899719 214.89300537 147.50000000 -0.300938 0.899850 -0.315763 0.000000
124.80500031 187.20700073 86.25000000 0.269041 -0.386277 -0.882274 0.000000
130.07800293 255.32200623 185.00000000 0.024710 0.386252 0.922062 0.000000
227.63699341 108.98400116 161.25000000 0.267489 -0.875007 -0.403501 0.000000
166.11300659 139.74600220 196.25000000 -0.051739 -0.200941 0.978236 0.000000
86.57219696 163.47700500 107.50000000 -0.894688 -0.446689 0.001310 0.000000
159.96099854 211.81599426 203.75000000 0.232349 0.469254 0.851947 0.000000
116.89499664 209.17999268 78.75000000 0.558331 0.406808 -0.723031 0.000000
98.43750000 181.05499268 86.25000000 0.321139 -0.535232 -0.781279 0.000000
147.65600586 130.07800293 121.25000000 0.951891 -0.212584 -0.220709 0.000000
203.90600586 217.08999634 151.25000000 -0.235198 0.891978 -0.386080 0.000000
229.39399719 138.86700439 146.25000000 0.635512 -0.155481 -0.756274 0.000000
120.84999847 177.53900146 95.00000000 0.270881 -0.600373 -0.752447 0.000000
122.16799927 205.22500610 200.00000000 -0.436219 0.126461 0.890910 0.000000
167.87100220 100.19499969 178.75000000 -0.935305 -0.351550 0.040214 0.000000
161.71899414 162.59800720 108.75000000 0.703243 -0.052994 -0.708972 0.000000
112.50000000 135.35200500 101.25000000 -0.110708 -0.154504 -0.981770 0.000000
123.04699707 212.69500732 196.25000000 0.000978 0.000978 0.999999 0.000000
126.56199646 209.17999268 78.75000000 0.323644 0.039656 -0.945348 0.000000
208.30099487 204.34599304 190.00000000 -0.261573 0.714967 0.648384 0.000000
191.60200500 211.37699890 175.00000000 0.966296 0.066253 0.248762 0.000000
239.94099426 187.20700073 151.25000000 0.358175 0.286240 -0.888694 0.000000
101.07399750 148.53500366 176.25000000 -0.587939 -0.441371 0.677879 0.000000
114.25800323 259.27700806 113.75000000 0.346605 0.733890 -0.584183 0.000000
169.62899780 155.12699890 140.00000000 0.720121 -0.487287 -0.493940 0.000000
167.87100220 152.92999268 203.75000000 -0.001331 -0.493986 0.869469 0.000000
134.47300720 191.16200256 87.50000000 0.370285 -0.673095 -0.640181 0.000000
99.31639862 196.87500000 188.75000000 -0.205929 0.216697 0.954272 0.000000
80.85939789 193.35899353 163.75000000 -0.869374 -0.088769 0.486117 0.000000
154.68699646 189.84399414 213.75000000 0.000978 0.000978 0.999999 0.000000
72.94920349 250.48800659 121.25000000 -0.960065 0.255931 -0.113025 0.000000
124.80500031 163.91600037 102.50000000 0.241968 0.047902 -0.969101 0.000000
100.19499969 256.64099121 176.25000000 -0.345513 0.297650 0.889958 0.000000
94.92189789 166.99200439 178.75000000 -0.699059 -0.436704 0.566221 0.000000
80.85939789 172.70500183 142.50000000 -0.942440 -0.332851 0.031882 0.000000
113.37899780 257.95901489 112.50000000 0.449556 0.769967 -0.452825 0.000000
121.28900146 143.26199341 101.25000000 0.000978 0.000978 -0.999999 0.000000
179.29699707 166.11300659 206.25000000 0.000978 0.000978 0.999999 0.000000
180.17599487 105.46900177 128.75000000 0.384804 0.279171 -0.879767 0.000000
108.10500336 163.47700500 193.75000000 0.300938 -0.899850 0.315763 0.000000
150.73199463 134.47300720 132.50000000 0.983140 -0.092658 -0.157639 0.000000
114.25800323 149.85299683 192.50000000 -0.377938 -0.567725 0.731335 0.000000
154.68699646 244.33599854 186.25000000 0.010925 0.270694 0.962603 0.000000
156.44500732 275.97698975 146.25000000 0.372818 0.622458 -0.688152 0.000000
199.51199341 148.53500366 201.25000000 0.000978 0.000978 0.999999 0.000000
143.26199341 158.20300293 103.75000000 -0.000978 -0.000978 -0.999999 0.000000
155.56599426 98.43750000 168.75000000 -0.260573 -0.888925 0.376714 0.000000
93.16400146 286.96301270 150.00000000 -0.701680 0.701680 -0.123651 0.000000
183.25199890 239.94099426 157.50000000 0.981308 0.184815 0.053656 0.000000
89.64839935 154.24800110 137.50000000 -0.961569 -0.274561 0.001210 0.000000
74.70700073 195.99600220 133.75000000 -0.611759 0.457563 -0.645280 0.000000
85.25389862 174.90199280 163.75000000 -0.942821 -0.314274 0.110999 0.000000
111.62100220 285.64401245 136.25000000 0.122391 0.898939 -0.420630 0.000000
251.36700439 131.83599854 191.25000000 0.553710 0.084416 0.828419 0.000000
108.54499817 203.02699280 192.50000000 -0.433016 0.445990 0.783320 0.000000
88.33010101 160.83999634 160.00000000 -0.964116 -0.240707 0.111987 0.000000
112.50000000 180.17599487 91.25000000 -0.213020 -0.663938 -0.716804 0.000000
157.32400513 283.44699097 170.00000000 0.573400 0.680390 0.456379 0.000000
89.64839935 261.91400146 113.75000000 -0.567016 0.567016 -0.597483 0.000000
237.30499268 105.46900177 183.75000000 0.114277 -0.843336 0.525096 0.000000
124.80500031 250.48800659 186.25000000 -0.000978 -0.000978 0.999999 0.000000
102.83200073 225.87899780 183.75000000 -0.660974 0.280074 0.696184 0.000000
247.85200500 130.07800293 193.75000000 0.635757 -0.035242 0.771084 0.000000
244.33599854 147.21699524 162.50000000 0.488374 -0.555504 -0.672983 0.000000
220.60499573 188.08599854 196.25000000 0.173889 0.357675 0.917514 0.000000
176.66000366 236.42599487 178.75000000 0.402000 0.024879 0.915302 0.000000
118.65200043 284.76599121 176.25000000 -0.151960 0.452985 0.878472 0.000000
136.66999817 123.04699707 100.00000000 0.276559 0.666618 -0.692196 0.000000
266.30899048 174.02299500 191.25000000 0.000978 0.000978 0.999999 0.000000
217.08999634 115.57599640 195.00000000 0.148381 -0.445142 0.883081 0.000000
152.92999268 229.39399719 193.75000000 0.216950 0.666457 0.713280 0.000000
227.19700623 137.10899353 145.00000000 0.556541 -0.395653 -0.730562 0.000000
82.61720276 184.57000732 88.75000000 -0.001361 -0.817758 -0.575560 0.000000
240.38099670 104.58999634 180.00000000 0.406349 -0.728797 0.551122 0.000000
79.98040009 181.49400330 105.00000000 -0.996132 -0.001059 0.087863 0.000000
213.57400513 108.10500336 151.25000000 0.487096 -0.163346 -0.857937 0.000000
108.98400116 235.54699707 88.75000000 0.070938 0.684766 -0.725302 0.000000
136.22999573 267.18701172 181.25000000 0.078989 0.296532 0.951751 0.000000
73.82810211 243.01800537 105.00000000 -0.804610 0.345744 -0.482766 0.000000
117.77300262 255.32200623 112.50000000 0.399535 0.644893 -0.651525 0.000000
181.05499268 114.69699860 130.00000000 0.403411 -0.390755 -0.827388 0.000000
150.29299927 187.64599609 125.00000000 0.300938 0.899850 0.315763 0.000000
94.92189789 145.89799500 163.75000000 -0.805813 -0.440554 0.395698 0.000000
129.19900513 109.86299896 106.25000000 -0.333036 -0.877452 -0.345202 0.000000
94.04290009 285.64401245 163.75000000 -0.799945 0.496573 0.336903 0.000000
90.96679688 151.17199707 105.00000000 -0.890139 -0.447159 0.087760 0.000000
159.08200073 134.03300476 195.00000000 -0.003501 -0.213591 0.976917 0.000000
166.55299377 152.92999268 137.50000000 0.498102 -0.468315 -0.729777 0.000000
130.07800293 134.03300476 192.50000000 -0.599359 -0.612865 0.514942 0.000000
79.98040009 252.24600220 108.75000000 -0.431909 0.716539 -0.547747 0.000000
246.09399414 113.37899780 173.75000000 0.752551 -0.215680 -0.622213 0.000000
222.36300659 124.80500031 198.75000000 -0.049203 -0.133877 0.989776 0.000000
73.38860321 216.21099854 105.00000000 -0.987087 0.137980 -0.081373 0.000000
130.07800293 281.25000000 176.25000000 -0.073277 0.363721 0.928621 0.000000
72.94920349 243.45700073 151.25000000 -0.945322 0.099160 0.310700 0.000000
205.66400146 217.08999634 178.75000000 0.162477 0.980972 -0.106282 0.000000
100.19499969 178.85699463 87.50000000 0.210291 -0.500764 -0.839650 0.000000
134.47300720 107.22699738 106.25000000 -0.394170 -0.877444 -0.273352 0.000000
111.62100220 217.96899414 191.25000000 0.000978 0.000978 0.999999 0.000000
215.33200073 175.78100586 126.25000000 0.635374 0.457671 -0.621963 0.000000
102.39299774 222.36300659 182.50000000 -0.721620 -0.297327 0.625189 0.000000
211.81599426 112.93900299 150.00000000 0.528695 -0.235832 -0.815393 0.000000
153.80900574 252.24600220 183.75000000 -0.001362 0.578659 0.815569 0.000000
72.50969696 217.96899414 92.50000000 -0.984919 -0.001131 -0.173011 0.000000
174.02299500 97.99800110 162.50000000 -0.000978 -0.999999 -0.000978 0.000000
192.47999573 201.26899719 123.75000000 0.629798 0.731327 -0.261755 0.000000
147.65600586 205.66400146 208.75000000 0.749042 -0.661583 -0.035266 0.000000
101.07399750 296.19100952 161.25000000 -0.567016 0.567016 0.597483 0.000000
237.30499268 178.41799927 196.25000000 -0.000978 -0.000978 0.999999 0.000000
212.69500732 135.35200500 136.25000000 0.569887 -0.334183 -0.750700 0.000000
103.71099854 145.89799500 98.75000000 0.700138 0.283580 -0.655278 0.000000
143.26199341 214.45300293 203.75000000 -0.168834 0.762033 0.625141 0.000000
105.46900177 181.05499268 86.25000000 0.300938 -0.899850 -0.315763 0.000000
185.44900513 97.55860138 168.75000000 -0.154796 -0.975341 0.157313 0.000000
80.85939789 245.21499634 163.75000000 -0.374759 -0.230734 0.897952 0.000000
149.41400146 227.19700623 92.50000000 0.146061 0.754399 -0.639959 0.000000
112.50000000 186.32800293 201.25000000 -0.461025 0.380707 0.801573 0.000000
116.89499664 113.37899780 113.75000000 -0.001381 -0.688930 -0.724826 0.000000
253.12500000 127.44100189 191.25000000 -0.036507 -0.300870 0.952966 0.000000
156.44500732 120.41000366 123.75000000 0.934712 0.306941 0.179165 0.000000
129.19900513 186.32800293 211.25000000 -0.119665 -0.107817 0.986943 0.000000
101.07399750 274.65798950 122.50000000 -0.246278 0.401507 0.882122 0.000000
85.69329834 191.60200500 175.00000000 -0.580759 -0.813063 0.040583 0.000000
198.63299561 215.77099609 155.00000000 -0.401085 0.915831 0.019597 0.000000
221.48399353 197.75399780 193.75000000 0.302146 0.353255 0.885392 0.000000
93.16400146 177.10000610 90.00000000 -0.001272 -0.375114 -0.926978 0.000000
116.89499664 226.75799561 188.75000000 -0.393887 0.393887 0.830485 0.000000
163.47700500 168.75000000 211.25000000 0.000978 0.000978 0.999999 0.000000
99.31639862 283.00799561 168.75000000 -0.395324 -0.030207 0.918045 0.000000
240.82000732 192.47999573 161.25000000 0.815076 0.543892 -0.199579 0.000000
142.38299561 290.03900146 171.25000000 -0.852726 0.427134 -0.300690 0.000000
222.36300659 210.49800110 157.50000000 0.835626 0.521706 -0.171909 0.000000
251.36700439 196.87500000 191.25000000 0.046014 0.547984 0.835222 0.000000
231.15199280 181.93400574 196.25000000 0.937868 -0.166640 0.304359 0.000000
160.39999390 144.14100647 132.50000000 0.879101 0.454707 -0.142908 0.000000
138.86700439 228.51600647 196.25000000 -0.352353 0.506809 0.786761 0.000000
210.05900574 222.36300659 173.75000000 -0.433370 0.846548 0.309106 0.000000
245.21499634 109.86299896 173.75000000 0.622046 -0.413039 -0.665175 0.000000
137.98800659 154.68699646 103.75000000 -0.000978 -0.000978 -0.999999 0.000000
98.43750000 280.37100220 131.25000000 0.000978 0.000978 -0.999999 0.000000
79.10150146 245.21499634 101.25000000 -0.532518 0.606901 -0.589996 0.000000
181.05499268 129.19900513 123.75000000 0.351274 -0.426885 -0.833292 0.000000
90.96679688 150.29299927 140.00000000 -0.959249 -0.282560 0.001213 0.000000
246.97300720 119.53099823 173.75000000 0.542351 -0.040226 -0.839188 0.000000
156.44500732 159.96099854 208.75000000 0.149992 -0.476187 0.866457 0.000000
97.55860138 232.91000366 176.25000000 -0.693257 -0.365476 0.621145 0.000000
134.47300720 229.39399719 193.75000000 -0.352353 0.506809 0.786761 0.000000
192.47999573 183.69099426 203.75000000 0.503393 0.290117 0.813897 0.000000
113.37899780 150.29299927 101.25000000 -0.000978 -0.000978 -0.999999 0.000000
151.17199707 181.49400330 110.00000000 -0.023660 0.789131 -0.613769 0.000000
91.84570313 284.76599121 145.00000000 -0.686203 0.686203 -0.241354 0.000000
112.50000000 175.78100586 201.25000000 -0.657235 -0.001378 0.753685 0.000000
214.45300293 180.17599487 128.75000000 0.243277 0.601130 -0.761222 0.000000
134.47300720 128.32000732 188.75000000 -0.299586 -0.603978 0.738552 0.000000
172.26600647 122.16799927 191.25000000 -0.417819 -0.208171 0.884359 0.000000
141.50399780 229.39399719 93.75000000 0.086078 0.745520 -0.660901 0.000000
191.60200500 164.79499817 117.50000000 0.030724 0.436821 -0.899023 0.000000
211.81599426 196.87500000 196.25000000 0.135408 0.186028 0.973169 0.000000
107.66600037 164.35499573 97.50000000 0.707614 0.695697 -0.123646 0.000000
94.92189789 217.96899414 176.25000000 -0.783405 -0.001372 0.621510 0.000000
89.64839935 265.42999268 168.75000000 -0.521428 0.568677 0.636176 0.000000
126.56199646 214.01400757 80.00000000 0.254559 0.348730 -0.901991 0.000000
78.22260284 246.09399414 101.25000000 -0.593766 0.630771 -0.499570 0.000000
234.66799927 180.17599487 143.75000000 0.626821 0.268184 -0.731555 0.000000
171.38699341 239.06199646 116.25000000 0.576210 0.708292 -0.407805 0.000000
227.63699341 101.51399994 180.00000000 0.303377 -0.792592 0.528924 0.000000
212.69500732 195.11700439 133.75000000 0.557471 0.279525 -0.781723 0.000000
225.87899780 109.86299896 158.75000000 -0.561321 -0.824129 0.075700 0.000000
251.36700439 202.14799500 183.75000000 0.263284 0.877110 -0.401695 0.000000
83.49610138 215.33200073 78.75000000 -0.164787 0.509208 -0.844720 0.000000
195.99600220 100.19499969 178.75000000 -0.044650 -0.894346 0.445143 0.000000
234.66799927 196.87500000 161.25000000 0.347360 0.719181 -0.601764 0.000000
252.24600220 192.47999573 193.75000000 0.015960 0.283592 0.958812 0.000000
220.16600037 104.58999634 157.50000000 0.443742 -0.443742 -0.778580 0.000000
115.13700104 215.33200073 78.75000000 0.348265 0.032128 -0.936845 0.000000
155.56599426 224.12100220 91.25000000 0.382113 0.521950 -0.762600 0.000000
120.84999847 237.30499268 95.00000000 0.343241 0.730404 -0.590505 0.000000
131.83599854 127.44100189 101.25000000 0.335714 0.491638 -0.803485 0.000000
217.52900696 195.11700439 137.50000000 0.610430 0.168133 -0.774019 0.000000
96.67970276 139.30700684 140.00000000 -0.870612 -0.491969 -0.001333 0.000000
206.54299927 181.93400574 128.75000000 0.357777 -0.133994 -0.924143 0.000000
83.05660248 172.26600647 105.00000000 -0.686203 -0.686203 -0.241354 0.000000
76.46479797 260.59600830 155.00000000 -0.753587 0.451495 0.477764 0.000000
98.43750000 155.56599426 96.25000000 0.000978 0.000978 -0.999999 0.000000
159.96099854 173.14399719 211.25000000 0.375895 -0.525602 0.763181 0.000000
258.83801270 137.10899353 190.00000000 0.269322 -0.337020 0.902155 0.000000
138.86700439 172.26600647 103.75000000 -0.000978 -0.000978 -0.999999 0.000000
213.57400513 164.35499573 123.75000000 0.549999 -0.043164 -0.834049 0.000000
188.96499634 179.73599243 140.00000000 0.308626 -0.908327 0.282298 0.000000
259.27700806 194.67799377 192.50000000 0.084249 0.429531 0.899114 0.000000
164.35499573 145.89799500 156.25000000 0.636057 -0.126616 -0.761183 0.000000
85.25389862 251.36700439 163.75000000 -0.747722 -0.038164 0.662914 0.000000
192.47999573 175.34199524 125.00000000 0.232271 -0.970071 -0.070799 0.000000
104.58999634 297.94900513 156.25000000 -0.120104 0.891596 -0.436614 0.000000
159.08200073 229.39399719 193.75000000 -0.076756 0.641566 0.763218 0.000000
184.57000732 118.21299744 130.00000000 0.655910 -0.384955 -0.649301 0.000000
207.42199707 172.26600647 123.75000000 -0.000978 -0.000978 -0.999999 0.000000
188.96499634 216.21099854 173.75000000 0.861494 0.467327 0.198577 0.000000
148.09599304 107.22699738 177.50000000 -0.441316 -0.514043 0.735527 0.000000
233.35000610 112.50000000 165.00000000 0.747891 -0.498046 -0.438872 0.000000
166.55299377 111.62100220 187.50000000 -0.189091 -0.351169 0.917020 0.000000
181.93400574 132.71499634 196.25000000 0.140686 -0.480074 0.865873 0.000000
161.71899414 199.95100403 105.00000000 0.261632 -0.964995 -0.018253 0.000000
183.69099426 230.27299500 166.25000000 0.925314 0.295131 0.238101 0.000000
219.72700500 212.25599670 175.00000000 0.791786 0.550330 0.264974 0.000000
171.38699341 124.80500031 121.25000000 0.114388 -0.444843 -0.888274 0.000000
114.25800323 238.18400574 186.25000000 -0.388419 -0.088587 0.917215 0.000000
151.61099243 259.27700806 182.50000000 0.147816 0.378690 0.913643 0.000000
160.83999634 174.02299500 111.25000000 0.629717 0.468509 -0.619641 0.000000
122.60700226 181.05499268 92.50000000 0.233667 -0.657089 -0.716682 0.000000
122.16799927 215.77099609 80.00000000 0.279038 0.329236 -0.902076 0.000000
195.99600220 179.29699707 131.25000000 0.956433 -0.238110 0.168939 0.000000
230.27299500 103.71099854 181.25000000 0.216977 -0.804814 0.552444 0.000000
79.54100037 217.08999634 80.00000000 -0.334913 -0.083397 -0.938551 0.000000
249.60899353 145.89799500 193.75000000 0.546960 0.355443 0.757954 0.000000
117.77300262 113.37899780 113.75000000 -0.001381 -0.688930 -0.724826 0.000000
158.20300293 146.77699280 151.25000000 0.694122 -0.240818 -0.678382 0.000000
110.74199677 188.08599854 198.75000000 -0.591893 0.375467 0.713223 0.000000
142.38299561 261.03500366 126.25000000 -0.194814 0.780790 -0.593646 0.000000
177.53900146 166.11300659 136.25000000 0.948041 -0.316014 -0.036805 0.000000
162.15800476 177.53900146 127.50000000 0.529997 0.820197 0.215359 0.000000
86.13279724 217.08999634 78.75000000 -0.344990 0.515078 -0.784651 0.000000
187.20700073 185.44900513 203.75000000 0.453017 0.482669 0.749537 0.000000
218.84800720 136.22999573 141.25000000 0.429519 -0.419867 -0.799516 0.000000
167.87100220 181.05499268 211.25000000 0.261791 0.072087 0.962429 0.000000
159.96099854 124.80500031 121.25000000 -0.292738 0.126987 -0.947723 0.000000
238.18400574 189.84399414 151.25000000 -0.316786 -0.149479 -0.936644 0.000000
130.07800293 253.12500000 116.25000000 0.213053 0.713805 -0.667151 0.000000
151.17199707 286.08401489 152.50000000 0.499040 0.742795 -0.446336 0.000000
