222.65600586 235.35200500 454.50000000 -0.488617 -0.056751 -0.870651 0.000000
196.28900146 248.04699707 379.50000000 0.695028 0.548355 0.465019 0.000000
144.53100586 303.71099854 403.50000000 -0.354352 -0.143130 0.924093 0.000000
261.71899414 142.08999634 371.00000000 -0.095214 0.966107 -0.239940 0.000000
158.20300293 171.87500000 433.50000000 0.063817 0.902944 -0.424994 0.000000
329.10198975 213.86700439 421.50000000 -0.372045 0.491229 -0.787576 0.000000
194.33599854 215.82000732 385.50000000 -0.268840 -0.698348 0.663351 0.000000
119.14099884 294.92199707 433.50000000 0.376562 -0.682415 -0.626507 0.000000
210.93800354 184.57000732 376.50000000 -0.364742 0.107920 0.924833 0.000000
142.08999634 157.22700500 393.00000000 0.565310 0.823416 -0.049096 0.000000
180.66400146 240.23399353 457.50000000 -0.009720 -0.102600 -0.994675 0.000000
243.16400146 145.99600220 420.00000000 -0.043023 0.967410 -0.249535 0.000000
228.02699280 153.32000732 429.00000000 0.129632 0.624318 -0.770340 0.000000
304.68798828 227.53900146 430.50000000 -0.097720 -0.121267 -0.987798 0.000000
151.36700439 320.31201172 427.50000000 0.017785 -0.548600 -0.835896 0.000000
303.71099854 158.20300293 406.50000000 -0.400454 0.753506 -0.521407 0.000000
228.51600647 267.08999634 401.00000000 0.558960 -0.606243 0.565715 0.000000
168.94500732 277.34399414 445.50000000 -0.105635 -0.382756 -0.917790 0.000000
331.05499268 272.46099854 442.50000000 0.001112 -0.150135 -0.988665 0.000000
195.31199646 287.10900879 418.50000000 -0.373156 -0.642749 0.669051 0.000000
130.85899353 279.29699707 442.50000000 0.315627 -0.093764 -0.944239 0.000000
186.52299500 278.32000732 442.50000000 -0.274196 -0.407507 -0.871065 0.000000
237.30499268 155.27299500 343.50000000 -0.012186 -0.523983 0.851642 0.000000
153.32000732 151.85499573 401.00000000 0.419740 0.876824 -0.234517 0.000000
239.25799561 155.27299500 343.50000000 -0.004052 -0.536172 0.844099 0.000000
124.02300262 250.97700500 376.50000000 -0.201187 -0.594345 0.778638 0.000000
325.68399048 199.21899414 417.00000000 -0.333413 0.303511 -0.892590 0.000000
229.49200439 154.29699707 430.50000000 0.082382 0.614252 -0.784798 0.000000
119.62899780 178.71099854 401.00000000 0.751113 0.627218 0.205975 0.000000
287.10900879 230.46899414 412.50000000 -0.084991 -0.574766 0.813892 0.000000
348.63299561 271.48400879 427.50000000 0.326588 -0.400883 0.855940 0.000000
279.29699707 240.23399353 430.50000000 0.277043 -0.518087 -0.809217 0.000000
247.07000732 155.27299500 343.50000000 -0.136487 -0.691433 0.709431 0.000000
167.47999573 222.65600586 372.00000000 -0.406617 0.097864 0.908342 0.000000
250.97700500 143.06599426 384.00000000 0.001120 0.987081 -0.160219 0.000000
222.65600586 263.18399048 401.00000000 0.554785 -0.831486 -0.029054 0.000000
250.00000000 183.59399414 361.50000000 -0.351797 -0.559309 0.750608 0.000000
138.67199707 265.62500000 385.50000000 -0.201176 -0.412631 0.888405 0.000000
314.45300293 244.14100647 436.50000000 0.366299 -0.011487 -0.930426 0.000000
197.26600647 234.37500000 394.50000000 -0.113025 0.487867 0.865570 0.000000
272.46099854 199.21899414 436.50000000 -0.155369 0.165474 -0.973899 0.000000
93.75000000 241.21099854 355.50000000 0.637879 -0.384046 0.667547 0.000000
235.35200500 156.25000000 343.50000000 0.082121 -0.455143 0.886624 0.000000
236.32800293 156.25000000 343.50000000 0.028554 -0.499009 0.866127 0.000000
325.19500732 165.52699280 390.00000000 -0.763073 0.640981 0.082848 0.000000
229.49200439 192.87100220 361.00000000 0.152980 -0.545082 0.824307 0.000000
188.47700500 290.03900146 415.50000000 -0.380802 -0.497474 0.779429 0.000000
240.23399353 156.25000000 343.50000000 -0.052345 -0.587113 0.807811 0.000000
192.38299561 187.50000000 373.50000000 0.305449 -0.378392 0.873797 0.000000
123.04699707 313.47698975 400.50000000 -0.326328 -0.282030 0.902202 0.000000
189.45300293 167.96899414 364.50000000 0.067123 -0.346145 0.935777 0.000000
204.10200500 161.13299561 430.50000000 0.034247 0.510967 -0.858918 0.000000
231.44500732 143.06599426 387.00000000 -0.019496 0.985100 -0.170873 0.000000
195.31199646 208.98399353 460.50000000 -0.102726 0.189363 -0.976519 0.000000
112.30500031 296.87500000 394.50000000 -0.142492 -0.270335 0.952164 0.000000
276.36700439 230.46899414 433.50000000 0.097713 -0.280111 -0.954982 0.000000
113.28099823 222.65600586 352.50000000 -0.508687 -0.488674 0.708827 0.000000
232.42199707 156.73800659 342.00000000 0.352415 -0.334107 0.874172 0.000000
205.07800293 273.43798828 424.50000000 -0.762246 0.602597 0.236343 0.000000
297.85198975 164.55099487 417.00000000 -0.502775 0.553221 -0.664201 0.000000
348.63299561 212.89100647 403.50000000 -0.315780 -0.857997 0.405122 0.000000
300.78100586 191.40600586 394.50000000 -0.043251 -0.258267 0.965105 0.000000
101.56199646 217.28500366 354.00000000 0.817921 0.572967 0.052088 0.000000
294.92199707 205.07800293 430.50000000 -0.051403 0.269552 -0.961613 0.000000
334.96099854 213.86700439 418.50000000 -0.440566 0.516469 -0.734276 0.000000
365.23400879 246.58200073 417.00000000 -0.373801 -0.006379 0.927487 0.000000
358.39801025 246.09399414 415.50000000 -0.283304 -0.638634 0.715462 0.000000
350.58599854 232.91000366 412.00000000 -0.084992 -0.452826 0.887539 0.000000
161.13299561 164.06199646 424.50000000 0.107758 0.680499 -0.724783 0.000000
141.60200500 300.78100586 403.50000000 0.127843 -0.403197 0.906139 0.000000
189.45300293 180.66400146 442.50000000 0.320040 0.511108 -0.797711 0.000000
110.35199738 310.54699707 397.50000000 0.000978 0.000978 0.999999 0.000000
336.91400146 192.38299561 403.50000000 -0.836196 0.311034 -0.451702 0.000000
158.20300293 312.50000000 412.50000000 -0.412043 -0.517106 0.750214 0.000000
163.08599854 313.47698975 415.50000000 -0.392597 -0.367570 0.843066 0.000000
117.18800354 274.90200806 438.00000000 0.412631 -0.201176 -0.888405 0.000000
180.66400146 181.64100647 373.50000000 0.399561 -0.319340 0.859287 0.000000
318.35900879 160.64500427 390.00000000 -0.549725 0.822365 -0.146692 0.000000
296.87500000 183.59399414 427.50000000 -0.000978 -0.000978 -0.999999 0.000000
122.00000000 251.95300293 376.50000000 -0.212388 -0.627863 0.748785 0.000000
182.61700439 203.12500000 460.50000000 -0.124291 0.345555 -0.930131 0.000000
241.21099854 157.71499634 342.00000000 -0.043547 -0.580155 0.813341 0.000000
107.42199707 195.31199646 403.50000000 0.845600 0.446761 0.292173 0.000000
196.28900146 209.96099854 460.50000000 -0.021797 0.168637 -0.985437 0.000000
254.88299561 198.24200439 439.50000000 -0.351550 -0.040214 -0.935305 0.000000
325.19500732 231.44500732 412.50000000 0.372037 -0.250495 0.893779 0.000000
163.08599854 161.13299561 364.50000000 0.331500 -0.574062 0.748706 0.000000
166.99200439 314.94100952 417.00000000 -0.336335 -0.373194 0.864642 0.000000
323.24200439 236.32800293 415.50000000 0.268279 -0.416818 0.868498 0.000000
153.32000732 273.43798828 448.50000000 0.071762 -0.399430 -0.913951 0.000000
103.02700043 201.17199707 408.00000000 0.769084 0.617391 0.165345 0.000000
101.56199646 281.25000000 388.50000000 -0.245906 -0.143335 0.958637 0.000000
116.69899750 193.35899353 372.00000000 0.849891 0.469796 0.238699 0.000000
242.18800354 136.22999573 348.00000000 -0.123096 0.992394 -0.001089 0.000000
146.48399353 185.54699707 361.50000000 -0.632167 0.043842 0.773591 0.000000
143.55499268 325.19500732 424.50000000 0.139572 -0.640830 -0.754889 0.000000
332.03100586 181.64100647 400.50000000 -0.833950 0.320750 -0.449050 0.000000
185.54699707 268.55499268 397.50000000 -0.004058 -0.542461 0.840071 0.000000
90.33200073 256.83599854 417.00000000 0.650739 -0.162306 -0.741752 0.000000
146.48399353 200.19500732 364.50000000 -0.444782 0.135866 0.885274 0.000000
156.25000000 315.42999268 430.50000000 0.108535 -0.444008 -0.889425 0.000000
286.13299561 244.14100647 427.50000000 0.088741 -0.941714 -0.324500 0.000000
318.35900879 169.43400574 378.00000000 -0.298866 -0.752758 0.586544 0.000000
132.81199646 266.60198975 385.50000000 -0.048067 -0.482047 0.874826 0.000000
259.27700806 209.96099854 387.00000000 -0.490102 -0.386582 0.781252 0.000000
253.90600586 136.22999573 348.00000000 -0.143967 0.957579 -0.249631 0.000000
241.21099854 147.46099854 424.50000000 -0.059778 0.866091 -0.496299 0.000000
86.42579651 267.57800293 402.00000000 0.976113 0.171226 -0.133731 0.000000
333.98400879 231.93400574 408.00000000 0.204503 -0.591983 0.779573 0.000000
227.53900146 235.83999634 391.00000000 0.193180 0.896179 0.399431 0.000000
324.70700073 173.82800293 402.00000000 -0.613958 0.559835 -0.556453 0.000000
259.76599121 136.71899414 346.50000000 -0.125993 0.976760 -0.173397 0.000000
182.61700439 300.78100586 433.50000000 -0.272944 -0.510015 -0.815712 0.000000
207.03100586 226.56199646 457.50000000 -0.393873 -0.167575 -0.903760 0.000000
184.57000732 235.35200500 457.50000000 0.001266 -0.360674 -0.932691 0.000000
300.78100586 203.12500000 430.50000000 -0.153509 0.226983 -0.961724 0.000000
142.08999634 188.47700500 447.00000000 0.384585 0.507911 -0.770792 0.000000
125.97699738 226.07400513 363.00000000 -0.249060 -0.330623 0.910306 0.000000
90.33200073 235.35200500 382.00000000 0.946675 0.316419 0.060701 0.000000
289.06201172 213.86700439 433.50000000 -0.090344 0.001063 -0.995910 0.000000
148.43800354 284.17999268 442.50000000 -0.000978 -0.000978 -0.999999 0.000000
228.51600647 137.20700073 348.00000000 -0.130369 0.991465 0.001096 0.000000
300.78100586 223.63299561 430.50000000 -0.371209 0.085041 -0.924647 0.000000
224.60899353 184.57000732 442.50000000 0.036686 0.309936 -0.950049 0.000000
302.73400879 211.91400146 430.50000000 -0.017808 0.055519 -0.998299 0.000000
233.39799500 224.60899353 448.50000000 -0.455404 0.184225 -0.871016 0.000000
145.50799561 240.72300720 372.00000000 -0.251091 -0.497560 0.830294 0.000000
327.14801025 260.25399780 429.00000000 0.022768 -0.459377 0.887950 0.000000
170.89799500 172.85200500 433.50000000 0.044027 0.734254 -0.677445 0.000000
260.74200439 193.35899353 439.50000000 -0.180128 -0.060838 -0.981760 0.000000
206.54299927 251.95300293 451.00000000 0.049474 -0.211167 -0.976197 0.000000
92.77339935 276.36700439 382.50000000 -0.104207 -0.498196 0.860780 0.000000
98.63279724 253.90600586 427.50000000 0.686174 0.202909 -0.698565 0.000000
172.36300659 179.68800354 382.00000000 0.232078 -0.853985 0.465672 0.000000
99.60939789 250.48800659 369.00000000 -0.146110 -0.643187 0.751640 0.000000
206.05499268 252.92999268 379.50000000 -0.561919 0.105995 0.820373 0.000000
276.36700439 232.42199707 409.50000000 -0.325912 -0.464464 0.823440 0.000000
120.60500336 189.45300293 357.00000000 0.937909 0.243884 0.246672 0.000000
247.07000732 174.80499268 355.50000000 -0.154280 -0.067130 0.985744 0.000000
229.49200439 266.60198975 424.50000000 0.702092 -0.077041 -0.707906 0.000000
137.69500732 267.57800293 445.50000000 0.239838 -0.366378 -0.899024 0.000000
331.05499268 260.74200439 442.50000000 0.239759 0.215098 -0.946704 0.000000
171.87500000 288.08599854 442.50000000 -0.201417 -0.165032 -0.965503 0.000000
284.17999268 175.78100586 430.50000000 -0.201095 0.085126 -0.975866 0.000000
129.88299561 248.04699707 376.50000000 -0.229212 -0.524571 0.819931 0.000000
232.42199707 162.10899353 433.50000000 0.012214 0.525194 -0.850895 0.000000
122.06999969 250.00000000 376.50000000 -0.132020 -0.585930 0.799535 0.000000
136.71899414 235.35200500 451.50000000 0.351522 -0.109936 -0.929702 0.000000
102.05100250 260.74200439 378.00000000 -0.184891 -0.417825 0.889515 0.000000
211.42599487 188.47700500 384.00000000 -0.890490 0.278931 0.359478 0.000000
254.88299561 165.03900146 436.50000000 -0.260630 0.292309 -0.920124 0.000000
326.17199707 188.47700500 412.50000000 -0.473784 0.355737 -0.805593 0.000000
241.21099854 251.95300293 394.50000000 -0.762483 -0.497981 0.413080 0.000000
262.69500732 230.46899414 400.50000000 -0.590830 -0.506666 0.627862 0.000000
125.97699738 187.01199341 438.00000000 0.514467 0.474508 -0.714259 0.000000
214.35499573 261.71899414 447.00000000 -0.650200 -0.707712 -0.276375 0.000000
265.62500000 145.99600220 391.00000000 -0.137829 0.967383 -0.212541 0.000000
171.87500000 293.94500732 409.50000000 -0.296441 -0.290600 0.909766 0.000000
160.15600586 194.33599854 454.50000000 -0.028987 0.553511 -0.832337 0.000000
144.53100586 265.62500000 448.50000000 0.200701 -0.203359 -0.958313 0.000000
170.89799500 202.14799500 460.50000000 0.105411 0.271987 -0.956510 0.000000
191.40600586 241.21099854 382.50000000 -0.123641 0.710562 0.692686 0.000000
121.09400177 255.85899353 442.50000000 0.409397 -0.162322 -0.897800 0.000000
260.74200439 139.64799500 364.50000000 -0.095077 0.936043 -0.338797 0.000000
135.25399780 161.13299561 361.00000000 0.817441 0.540394 -0.199413 0.000000
280.27301025 201.17199707 394.50000000 -0.410731 -0.303049 0.859920 0.000000
116.21099854 230.95700073 360.00000000 -0.432440 -0.541793 0.720733 0.000000
132.81199646 308.59399414 430.50000000 0.291929 -0.411146 -0.863560 0.000000
242.67599487 234.37500000 442.00000000 -0.575045 -0.400389 -0.713451 0.000000
243.65199280 213.86700439 444.00000000 -0.305541 -0.188347 -0.933365 0.000000
248.04699707 225.58599854 439.50000000 -0.455574 -0.335769 -0.824446 0.000000
237.30499268 257.81201172 394.50000000 -0.728884 -0.520631 0.444603 0.000000
153.80900574 281.25000000 391.00000000 -0.047900 -0.477631 0.877254 0.000000
118.16400146 198.24200439 439.50000000 0.574755 0.448142 -0.684708 0.000000
229.49200439 240.72300720 387.00000000 0.103636 0.597003 0.795517 0.000000
98.14450073 218.75000000 371.00000000 0.858829 0.405515 0.313002 0.000000
149.41400146 262.69500732 448.50000000 0.055309 -0.163575 -0.984979 0.000000
105.46900177 211.91400146 355.50000000 0.798533 0.597101 0.076256 0.000000
362.30499268 250.00000000 427.50000000 -0.732525 0.279285 -0.620811 0.000000
342.77301025 220.70300293 403.50000000 0.173351 -0.173351 0.969484 0.000000
334.96099854 217.77299500 403.50000000 0.062049 -0.148684 0.986936 0.000000
97.65619659 214.35499573 401.00000000 0.926184 0.372328 0.059626 0.000000
315.42999268 226.56199646 412.50000000 0.209813 -0.403487 0.890605 0.000000
163.08599854 200.68400574 387.00000000 -0.367846 0.516930 0.772964 0.000000
122.00000000 204.10200500 352.50000000 -0.609203 0.037987 0.792104 0.000000
229.49200439 270.50799561 424.50000000 0.631766 -0.110449 -0.767250 0.000000
131.83599854 178.71099854 352.50000000 -0.277660 0.194776 0.940727 0.000000
243.16400146 249.51199341 408.00000000 -0.950405 0.302107 -0.073906 0.000000
154.29699707 214.84399414 457.50000000 0.390823 -0.085790 -0.916459 0.000000
218.75000000 214.84399414 454.50000000 -0.457748 0.261789 -0.849666 0.000000
150.39100647 164.06199646 424.50000000 0.214047 0.839489 -0.499443 0.000000
173.82800293 175.29299927 438.00000000 0.085764 0.760243 -0.643953 0.000000
107.91000366 207.03100586 431.00000000 0.712543 0.117518 -0.691717 0.000000
341.79699707 274.41400146 442.50000000 -0.078093 -0.216924 -0.973060 0.000000
158.20300293 189.45300293 388.50000000 -0.679857 0.169582 0.713468 0.000000
113.28099823 207.03100586 436.50000000 0.732422 0.098341 -0.673711 0.000000
143.55499268 172.85200500 358.50000000 -0.768907 -0.129391 0.626131 0.000000
131.83599854 329.10198975 415.50000000 0.093150 -0.963397 -0.251376 0.000000
184.57000732 186.52299500 373.50000000 0.310657 -0.448034 0.838307 0.000000
202.14799500 229.97999573 459.00000000 -0.310618 -0.200988 -0.929043 0.000000
238.28100586 217.77299500 445.50000000 -0.421240 -0.159582 -0.892799 0.000000
240.23399353 250.97700500 427.50000000 -0.791509 -0.113073 -0.600607 0.000000
116.21099854 233.39799500 361.50000000 -0.435128 -0.541015 0.719699 0.000000
333.00799561 219.72700500 403.50000000 0.152930 -0.326526 0.932734 0.000000
141.60200500 307.61700439 433.50000000 0.008251 -0.222785 -0.974833 0.000000
119.14099884 180.66400146 397.50000000 0.753279 0.626962 0.198718 0.000000
140.62500000 305.66400146 433.50000000 -0.000978 -0.000978 -0.999999 0.000000
248.04699707 197.26600647 370.50000000 -0.372418 -0.452336 0.810368 0.000000
199.21899414 230.46899414 397.50000000 0.475484 0.816695 0.326994 0.000000
201.17199707 194.82400513 453.00000000 -0.192597 0.547461 -0.814367 0.000000
89.35549927 272.46099854 382.00000000 -0.001355 -0.548745 0.835989 0.000000
126.95300293 195.31199646 445.50000000 0.252085 0.361175 -0.897778 0.000000
194.33599854 285.15600586 433.50000000 -0.399117 -0.540368 -0.740748 0.000000
119.62899780 261.71899414 442.00000000 0.387341 -0.195847 -0.900895 0.000000
132.81199646 233.39799500 367.50000000 -0.306598 -0.449781 0.838865 0.000000
261.71899414 191.89500427 372.00000000 -0.347800 -0.658045 0.667842 0.000000
107.42199707 258.30099487 378.00000000 -0.129420 -0.377128 0.917074 0.000000
287.10900879 217.77299500 433.50000000 -0.219778 -0.020196 -0.975341 0.000000
293.45700073 186.52299500 390.00000000 -0.365975 -0.504627 0.781930 0.000000
239.25799561 233.88699341 402.00000000 0.011052 -0.956645 0.291046 0.000000
161.13299561 267.08999634 390.00000000 -0.148934 -0.455479 0.877700 0.000000
130.85899353 280.27301025 442.50000000 0.296828 -0.193705 -0.935078 0.000000
117.18800354 182.61700439 397.50000000 0.770415 0.592266 0.235969 0.000000
307.61700439 186.52299500 391.50000000 0.211720 -0.525493 0.824034 0.000000
223.63299561 263.67199707 406.50000000 0.549447 -0.830626 -0.090379 0.000000
141.60200500 256.83599854 382.50000000 -0.081513 -0.435195 0.896639 0.000000
178.71099854 162.10899353 427.50000000 0.023468 0.561853 -0.826904 0.000000
135.74200439 183.59399414 439.50000000 0.358685 0.656771 -0.663322 0.000000
90.33200073 237.30499268 360.00000000 0.881210 -0.121006 0.456976 0.000000
299.80499268 179.68800354 385.50000000 -0.283069 -0.628509 0.724464 0.000000
96.67970276 270.01998901 382.00000000 -0.224556 -0.420858 0.878893 0.000000
179.68800354 270.50799561 448.50000000 -0.143777 -0.286211 -0.947318 0.000000
340.82000732 269.53100586 430.50000000 0.134811 -0.424300 0.895430 0.000000
187.50000000 165.03900146 430.50000000 0.240760 0.668779 -0.703398 0.000000
104.00399780 245.11700439 431.00000000 0.684073 0.023879 -0.729022 0.000000
165.03900146 250.97700500 454.50000000 0.107695 -0.756816 -0.644695 0.000000
115.23400116 224.60899353 355.50000000 -0.445573 -0.422889 0.789069 0.000000
206.05499268 234.37500000 457.50000000 -0.066782 -0.100738 -0.992669 0.000000
127.93000031 307.61700439 400.50000000 -0.183120 -0.350625 0.918438 0.000000
339.84399414 256.83599854 442.50000000 0.273919 0.209958 -0.938555 0.000000
210.44900513 200.19500732 382.00000000 -0.809916 -0.274150 0.518534 0.000000
92.77339935 286.62100220 387.00000000 -0.091368 -0.324423 0.941489 0.000000
299.80499268 158.20300293 409.50000000 -0.371804 0.728867 -0.574904 0.000000
271.48400879 150.39100647 346.50000000 -0.097283 -0.588055 0.802949 0.000000
235.35200500 239.25799561 445.50000000 -0.633404 -0.488914 -0.599802 0.000000
265.62500000 231.93400574 402.00000000 -0.348380 -0.685311 0.639515 0.000000
274.41400146 150.39100647 346.50000000 0.143264 -0.689177 0.710289 0.000000
318.35900879 234.37500000 436.50000000 0.016494 0.117655 -0.992918 0.000000
260.74200439 190.42999268 439.50000000 -0.407667 -0.014327 -0.913018 0.000000
113.28099823 186.52299500 400.50000000 0.801740 0.539182 0.257869 0.000000
198.24200439 195.31199646 454.50000000 -0.113665 0.499263 -0.858963 0.000000
106.44499969 287.10900879 388.50000000 -0.104205 -0.353213 0.929721 0.000000
131.83599854 171.87500000 424.50000000 0.399376 0.790667 -0.464052 0.000000
262.69500732 222.65600586 394.50000000 -0.433491 -0.472751 0.767198 0.000000
363.28100586 261.71899414 427.50000000 -0.823861 0.112278 -0.555559 0.000000
130.85899353 196.28900146 445.50000000 0.304487 0.393232 -0.867558 0.000000
151.85499573 189.45300293 378.00000000 -0.943716 0.314572 0.102203 0.000000
151.36700439 287.10900879 442.50000000 0.016462 -0.115233 -0.993202 0.000000
134.27699280 162.10899353 363.00000000 0.707106 0.707106 -0.001384 0.000000
312.50000000 208.49600220 401.00000000 0.076876 -0.657069 0.749900 0.000000
110.35199738 193.35899353 427.50000000 0.652123 0.551018 -0.520687 0.000000
166.01600647 262.69500732 388.50000000 -0.041587 -0.427947 0.902847 0.000000
248.04699707 201.66000366 372.00000000 -0.460271 -0.520089 0.719485 0.000000
200.19500732 185.54699707 448.50000000 -0.037455 0.542410 -0.839279 0.000000
186.52299500 255.85899353 388.50000000 -0.240185 -0.632645 0.736255 0.000000
212.89100647 183.59399414 391.50000000 -0.178062 -0.454721 0.872653 0.000000
133.78900146 292.96899414 397.50000000 -0.168423 -0.517193 0.839134 0.000000
169.92199707 172.85200500 373.50000000 0.652652 -0.582186 0.484875 0.000000
134.76600647 284.17999268 442.50000000 0.271094 -0.351089 -0.896239 0.000000
174.80499268 273.43798828 394.50000000 -0.348429 -0.642876 0.682135 0.000000
333.00799561 224.60899353 406.50000000 0.274086 -0.472295 0.837743 0.000000
107.42199707 234.37500000 436.50000000 0.675591 -0.049991 -0.735580 0.000000
254.39500427 226.56199646 393.00000000 -0.439299 -0.609674 0.659784 0.000000
333.98400879 268.55499268 430.50000000 0.434399 -0.490133 0.755690 0.000000
279.29699707 184.57000732 433.50000000 -0.000978 -0.000978 -0.999999 0.000000
362.30499268 246.09399414 424.50000000 -0.465292 0.432640 -0.772222 0.000000
207.03100586 237.79299927 399.00000000 -0.475656 0.610117 0.633647 0.000000
230.46899414 156.25000000 430.50000000 0.048905 0.540746 -0.839763 0.000000
114.25800323 296.87500000 394.50000000 -0.117886 -0.290080 0.949714 0.000000
114.25800323 216.79699707 439.50000000 0.558479 0.037603 -0.828666 0.000000
225.58599854 209.96099854 379.50000000 0.548758 -0.439338 0.711230 0.000000
269.04299927 199.21899414 387.00000000 -0.219194 -0.538023 0.813932 0.000000
130.85899353 238.77000427 450.00000000 0.336413 -0.003752 -0.941707 0.000000
151.36700439 297.85198975 403.50000000 -0.265485 -0.423259 0.866239 0.000000
131.34800720 208.00799561 357.00000000 -0.570011 -0.234528 0.787454 0.000000
195.31199646 143.55499268 394.50000000 0.173999 0.964188 -0.200164 0.000000
140.62500000 328.12500000 412.50000000 -0.742996 -0.426687 0.515649 0.000000
173.82800293 207.03100586 388.50000000 0.000978 0.000978 0.999999 0.000000
178.71099854 291.01599121 412.50000000 -0.440699 -0.309891 0.842468 0.000000
227.53900146 167.96899414 436.50000000 0.147426 0.488988 -0.859742 0.000000
345.70300293 259.76599121 424.50000000 0.053887 -0.358810 0.931854 0.000000
208.98399353 151.36700439 424.50000000 0.382164 0.807502 0.449323 0.000000
268.55499268 207.03100586 439.50000000 -0.390542 0.154797 -0.907477 0.000000
320.31201172 235.35200500 415.50000000 0.311912 -0.432953 0.845732 0.000000
158.20300293 161.13299561 364.50000000 0.063551 -0.409704 0.910002 0.000000
159.17999268 188.47700500 451.50000000 -0.045439 0.502580 -0.863336 0.000000
147.46099854 212.89100647 457.50000000 0.256897 -0.088189 -0.962407 0.000000
156.25000000 161.62100220 423.00000000 0.012304 0.561893 -0.827118 0.000000
321.28900146 242.18800354 436.50000000 0.031742 0.095226 -0.994949 0.000000
227.53900146 152.34399414 346.50000000 0.447987 -0.368274 0.814667 0.000000
221.67999268 261.23001099 414.00000000 0.286496 -0.930054 -0.230044 0.000000
258.78900146 152.34399414 346.50000000 -0.152551 -0.660049 0.735570 0.000000
196.28900146 275.39099121 409.50000000 -0.357073 -0.394495 0.846683 0.000000
115.23400116 187.50000000 394.50000000 0.804507 0.521119 0.284962 0.000000
340.82000732 264.64801025 427.50000000 0.043934 -0.650513 0.758223 0.000000
157.22700500 236.32800293 457.50000000 -0.188695 -0.378831 -0.906025 0.000000
232.42199707 205.07800293 373.50000000 0.067484 -0.633201 0.771040 0.000000
263.67199707 186.52299500 436.50000000 -0.445626 0.006573 -0.895195 0.000000
352.53900146 225.58599854 409.50000000 -0.208307 -0.077653 0.974976 0.000000
166.99200439 186.52299500 451.50000000 -0.217675 0.578922 -0.785791 0.000000
310.54699707 206.05499268 400.50000000 0.046708 -0.624186 0.779878 0.000000
204.10200500 188.47700500 373.50000000 -0.198383 -0.258582 0.945399 0.000000
113.28099823 185.05900574 420.00000000 0.783368 0.614777 -0.091563 0.000000
205.56599426 243.16400146 387.00000000 -0.253005 0.941511 0.222589 0.000000
247.07000732 238.28100586 436.50000000 -0.590814 -0.570499 -0.570499 0.000000
122.00000000 326.17199707 415.50000000 0.139155 -0.848114 -0.511212 0.000000
321.28900146 200.19500732 394.50000000 0.086257 -0.138247 0.986634 0.000000
347.16799927 220.70300293 414.00000000 -0.557942 0.537715 -0.632110 0.000000
200.19500732 277.34399414 412.50000000 -0.535779 -0.318269 0.782078 0.000000
166.01600647 311.52301025 433.50000000 0.066317 -0.407378 -0.910849 0.000000
311.52301025 193.35899353 394.50000000 0.000978 0.000978 0.999999 0.000000
250.00000000 237.79299927 408.00000000 0.046223 -0.923142 0.381671 0.000000
196.28900146 176.75799561 370.50000000 -0.340732 -0.406078 0.847940 0.000000
346.67999268 227.53900146 406.50000000 -0.233871 -0.378018 0.895771 0.000000
207.03100586 205.07800293 454.50000000 -0.334098 0.249479 -0.908922 0.000000
132.81199646 166.50399780 372.00000000 0.813152 0.580823 0.037788 0.000000
153.32000732 244.14100647 454.50000000 -0.000978 -0.000978 -0.999999 0.000000
298.82800293 187.50000000 427.50000000 -0.353087 0.115878 -0.928387 0.000000
121.09400177 306.15200806 399.00000000 -0.313503 -0.195412 0.929263 0.000000
152.34399414 297.85198975 439.50000000 0.052003 -0.211640 -0.975963 0.000000
151.85499573 258.78900146 384.00000000 -0.075062 -0.335805 0.938936 0.000000
183.59399414 164.06199646 364.50000000 -0.040594 -0.375821 0.925803 0.000000
324.70700073 204.10200500 420.00000000 -0.361662 0.310212 -0.879187 0.000000
137.69500732 306.64099121 433.50000000 0.234631 -0.268351 -0.934310 0.000000
328.12500000 221.67999268 427.50000000 -0.202187 0.612734 -0.763988 0.000000
109.86299896 190.42999268 423.00000000 0.647425 0.630782 -0.427733 0.000000
351.56201172 239.25799561 412.50000000 -0.036345 -0.098020 0.994521 0.000000
310.54699707 236.32800293 433.50000000 0.522996 -0.114451 -0.844616 0.000000
194.33599854 273.43798828 409.50000000 -0.354042 -0.485406 0.799397 0.000000
327.14801025 177.73399353 406.50000000 -0.713319 0.503813 -0.487185 0.000000
90.82029724 250.97700500 367.50000000 0.061491 -0.616337 0.785078 0.000000
218.75000000 203.12500000 451.50000000 -0.000978 -0.000978 -0.999999 0.000000
133.78900146 193.35899353 445.50000000 0.344496 0.375392 -0.860467 0.000000
178.71099854 146.48399353 403.50000000 -0.098290 0.993072 -0.064397 0.000000
230.46899414 197.26600647 445.50000000 -0.000978 -0.000978 -0.999999 0.000000
298.82800293 197.26600647 427.50000000 -0.180721 0.291085 -0.939473 0.000000
233.39799500 236.81599426 401.00000000 -0.542800 -0.272187 0.794533 0.000000
220.70300293 168.45700073 438.00000000 0.049881 0.759618 -0.648454 0.000000
191.89500427 152.34399414 360.00000000 -0.669451 -0.293788 0.682294 0.000000
113.28099823 257.81201172 439.50000000 0.487310 -0.088987 -0.868683 0.000000
169.92199707 151.36700439 415.50000000 0.585284 0.438546 -0.681997 0.000000
301.75799561 168.45700073 369.00000000 -0.326564 -0.794906 0.511352 0.000000
273.43798828 153.32000732 346.50000000 -0.097283 -0.588055 0.802949 0.000000
144.53100586 309.57000732 433.50000000 -0.001175 -0.226747 -0.973953 0.000000
338.86700439 241.21099854 439.50000000 -0.008680 0.308766 -0.951098 0.000000
181.64100647 223.63299561 385.50000000 -0.606358 0.218661 0.764538 0.000000
326.17199707 192.38299561 415.50000000 -0.640203 0.276198 -0.716836 0.000000
260.74200439 194.33599854 376.50000000 -0.496330 -0.570359 0.654483 0.000000
116.69899750 189.45300293 431.00000000 0.593255 0.529028 -0.606777 0.000000
282.22698975 153.32000732 346.50000000 -0.171581 -0.514742 0.840000 0.000000
120.11699677 181.15199280 393.00000000 0.795673 0.544573 0.265224 0.000000
114.25800323 322.26599121 412.50000000 0.640370 -0.495825 -0.586586 0.000000
115.23400116 243.16400146 367.50000000 -0.057532 -0.543049 0.837727 0.000000
242.18800354 221.67999268 442.50000000 -0.531117 -0.162162 -0.831636 0.000000
345.70300293 270.01998901 429.00000000 0.300109 -0.391512 0.869858 0.000000
205.56599426 235.35200500 399.00000000 -0.449334 0.271441 0.851128 0.000000
190.42999268 166.01600647 430.50000000 0.262055 0.550786 -0.792441 0.000000
113.28099823 209.96099854 439.50000000 0.787520 0.055539 -0.613781 0.000000
168.94500732 214.35499573 382.00000000 -0.622244 0.575027 0.531184 0.000000
283.20300293 227.53900146 433.50000000 -0.000978 -0.000978 -0.999999 0.000000
100.58599854 218.75000000 358.50000000 0.890644 0.448774 0.073185 0.000000
248.04699707 167.96899414 436.50000000 -0.051721 0.283837 -0.957477 0.000000
331.05499268 276.85501099 442.00000000 0.180518 -0.848884 -0.496799 0.000000
165.03900146 315.42999268 415.50000000 -0.372123 -0.369009 0.851679 0.000000
155.27299500 211.91400146 367.50000000 -0.353305 -0.264609 0.897306 0.000000
94.72660065 253.90600586 370.50000000 -0.169516 -0.670428 0.722351 0.000000
118.16400146 297.85198975 394.50000000 -0.212155 -0.326063 0.921235 0.000000
334.96099854 210.93800354 415.50000000 -0.523712 0.540552 -0.658429 0.000000
259.76599121 154.29699707 346.50000000 -0.149301 -0.662050 0.734438 0.000000
166.99200439 166.01600647 430.50000000 0.208061 0.596442 -0.775221 0.000000
261.71899414 154.29699707 346.50000000 -0.018073 -0.618641 0.785466 0.000000
113.28099823 228.51600647 439.50000000 0.589620 0.058252 -0.805577 0.000000
185.54699707 226.56199646 460.50000000 -0.000978 -0.000978 -0.999999 0.000000
100.58599854 215.82000732 424.50000000 0.838844 -0.001351 -0.544370 0.000000
286.13299561 233.39799500 415.50000000 -0.200018 -0.563410 0.801600 0.000000
255.85899353 239.25799561 409.50000000 -0.081574 -0.828616 0.553842 0.000000
229.49200439 247.55900574 442.00000000 -0.783320 -0.433016 -0.445990 0.000000
165.03900146 316.40600586 415.50000000 -0.404246 -0.372788 0.835233 0.000000
286.13299561 165.03900146 358.50000000 -0.080093 -0.709190 0.700453 0.000000
183.59399414 225.58599854 385.50000000 -0.578118 0.259917 0.773449 0.000000
96.67970276 271.48400879 424.50000000 0.681516 -0.156339 -0.714909 0.000000
170.89799500 312.01199341 417.00000000 -0.389495 -0.370724 0.843124 0.000000
264.64801025 239.74600220 429.00000000 -0.041142 -0.707925 -0.705088 0.000000
136.71899414 182.61700439 352.50000000 -0.602047 0.088494 0.793542 0.000000
236.32800293 166.99200439 436.50000000 -0.060158 0.524631 -0.849202 0.000000
320.31201172 192.38299561 394.50000000 0.199745 -0.294729 0.934471 0.000000
94.72660065 274.41400146 382.50000000 -0.149820 -0.472734 0.868376 0.000000
181.15199280 197.26600647 384.00000000 0.698712 -0.419891 0.579217 0.000000
145.50799561 179.68800354 442.50000000 0.274413 0.585308 -0.762963 0.000000
227.05099487 214.84399414 450.00000000 -0.304858 0.085046 -0.948593 0.000000
210.93800354 262.69500732 403.50000000 -0.084890 -0.984003 0.156627 0.000000
143.55499268 155.27299500 385.50000000 0.689222 0.689222 -0.223489 0.000000
144.53100586 180.66400146 361.50000000 -0.757304 0.142463 0.637335 0.000000
224.60899353 257.32400513 431.00000000 -0.259126 -0.948319 -0.183152 0.000000
305.66400146 217.77299500 409.50000000 0.098529 -0.423257 0.900636 0.000000
202.14799500 173.82800293 370.50000000 -0.201718 -0.188534 0.961127 0.000000
331.05499268 270.50799561 442.50000000 0.937163 -0.224863 -0.266763 0.000000
207.03100586 206.05499268 379.50000000 -0.333754 -0.213430 0.918181 0.000000
154.29699707 180.17599487 444.00000000 0.104807 0.730700 -0.674606 0.000000
283.20300293 242.67599487 429.00000000 0.091965 -0.754698 -0.649595 0.000000
208.98399353 236.32800293 400.50000000 -0.449334 0.271441 0.851128 0.000000
346.67999268 228.51600647 427.50000000 -0.424112 0.238282 -0.873700 0.000000
323.73001099 169.92199707 382.00000000 -0.497250 -0.720097 0.483945 0.000000
149.41400146 188.47700500 451.50000000 0.176939 0.437230 -0.881772 0.000000
201.17199707 149.41400146 418.50000000 0.091280 0.877696 -0.470445 0.000000
315.42999268 220.70300293 409.50000000 0.366632 -0.465895 0.805309 0.000000
152.34399414 191.40600586 451.50000000 0.255015 0.496121 -0.829959 0.000000
269.53100586 177.24600220 361.00000000 -0.935289 -0.204899 0.288532 0.000000
121.09400177 230.46899414 445.50000000 0.323241 -0.432549 -0.841675 0.000000
159.17999268 176.75799561 388.50000000 -0.113948 -0.372047 0.921193 0.000000
212.89100647 267.57800293 436.50000000 -0.413621 -0.890089 0.191464 0.000000
208.98399353 155.27299500 370.50000000 -0.263912 -0.804229 0.532509 0.000000
157.22700500 177.24600220 442.00000000 0.181099 0.780704 -0.598083 0.000000
276.36700439 146.97300720 390.00000000 -0.160683 0.984332 -0.072605 0.000000
213.86700439 259.76599121 448.50000000 -0.803840 -0.434812 -0.405931 0.000000
299.80499268 159.66799927 412.00000000 -0.406622 0.765887 -0.498072 0.000000
260.74200439 154.78500366 348.00000000 -0.012454 -0.626838 0.779050 0.000000
110.35199738 272.46099854 385.50000000 -0.145556 -0.207386 0.967370 0.000000
188.47700500 226.56199646 394.50000000 -0.344052 -0.325864 0.880591 0.000000
303.71099854 168.94500732 370.50000000 -0.285497 -0.738465 0.610869 0.000000
262.69500732 174.80499268 436.50000000 -0.562351 0.034713 -0.826170 0.000000
297.85198975 168.94500732 421.50000000 -0.403232 0.501183 -0.765650 0.000000
343.75000000 212.89100647 400.50000000 -0.293104 -0.415870 0.860896 0.000000
347.65600586 215.82000732 409.50000000 -0.467398 0.716898 -0.517298 0.000000
267.08999634 155.27299500 348.00000000 -0.079003 -0.578878 0.811578 0.000000
117.18800354 326.17199707 412.50000000 0.559944 -0.804061 -0.199871 0.000000
226.56199646 222.65600586 451.50000000 -0.387039 0.144964 -0.910597 0.000000
286.13299561 201.17199707 433.50000000 -0.000978 -0.000978 -0.999999 0.000000
240.23399353 144.04299927 399.00000000 0.090497 0.995462 0.029439 0.000000
136.71899414 293.94500732 397.50000000 -0.148752 -0.452031 0.879512 0.000000
337.89099121 234.37500000 412.50000000 -0.078724 -0.562521 0.823027 0.000000
111.32800293 283.20300293 388.50000000 -0.260842 -0.208398 0.942620 0.000000
139.64799500 295.89801025 439.50000000 0.001098 -0.130653 -0.991428 0.000000
194.33599854 273.92599487 442.00000000 -0.260347 -0.531608 -0.805986 0.000000
119.14099884 276.36700439 388.50000000 -0.182420 -0.728148 0.660699 0.000000
231.44500732 174.80499268 439.50000000 0.059112 0.137928 -0.988677 0.000000
285.15600586 154.78500366 348.00000000 -0.034054 -0.486286 0.873136 0.000000
224.60899353 181.64100647 442.50000000 -0.000978 -0.000978 -0.999999 0.000000
253.90600586 138.67199707 361.50000000 0.001230 0.951115 -0.308835 0.000000
91.79689789 298.82800293 391.50000000 0.547549 -0.540810 0.638526 0.000000
177.24600220 310.54699707 431.00000000 -0.291374 -0.297230 -0.909261 0.000000
333.98400879 209.96099854 415.50000000 -0.478523 0.518539 -0.708614 0.000000
142.57800293 165.03900146 424.50000000 0.213144 0.701663 -0.679882 0.000000
222.65600586 215.33200073 401.00000000 0.340325 -0.821529 0.457460 0.000000
350.58599854 250.97700500 415.50000000 0.268867 -0.695237 0.666600 0.000000
163.08599854 297.85198975 406.50000000 -0.339875 -0.349019 0.873310 0.000000
147.94900513 228.51600647 451.00000000 0.328476 -0.241654 -0.913076 0.000000
250.97700500 213.86700439 382.50000000 -0.498229 -0.293908 0.815712 0.000000
120.60500336 188.47700500 369.00000000 0.827282 0.543135 0.143553 0.000000
194.33599854 227.53900146 460.50000000 -0.000978 -0.000978 -0.999999 0.000000
191.40600586 217.77299500 388.50000000 -0.120608 -0.671533 0.731093 0.000000
265.62500000 208.00799561 439.50000000 -0.074787 0.072555 -0.994557 0.000000
326.17199707 217.77299500 427.50000000 -0.193669 0.562707 -0.803650 0.000000
153.32000732 147.94900513 372.00000000 0.287090 0.955691 -0.065074 0.000000
197.26600647 203.12500000 457.50000000 -0.258025 0.489784 -0.832787 0.000000
286.13299561 147.46099854 376.50000000 -0.309345 0.930833 -0.194565 0.000000
262.69500732 205.56599426 387.00000000 -0.533517 -0.483343 0.694074 0.000000
94.72660065 250.00000000 367.50000000 -0.199668 -0.729019 0.654724 0.000000
143.55499268 217.77299500 364.50000000 -0.842235 0.282805 0.458979 0.000000
118.16400146 287.59799194 432.00000000 0.292123 -0.382938 -0.876369 0.000000
303.71099854 205.56599426 429.00000000 -0.397192 0.118461 -0.910058 0.000000
321.28900146 192.38299561 394.50000000 0.173780 -0.315584 0.932849 0.000000
128.90600586 265.62500000 445.50000000 0.319374 -0.164526 -0.933237 0.000000
244.14100647 241.21099854 418.50000000 0.191415 -0.974589 -0.116350 0.000000
351.56201172 240.23399353 412.50000000 0.000978 0.000978 0.999999 0.000000
192.38299561 222.65600586 391.50000000 -0.364384 -0.529571 0.766015 0.000000
328.12500000 272.46099854 436.50000000 0.073931 -0.674072 0.734956 0.000000
107.42199707 261.71899414 433.50000000 0.644295 -0.020964 -0.764489 0.000000
239.25799561 256.34799194 391.00000000 -0.785097 -0.494917 0.372397 0.000000
223.63299561 238.77000427 393.00000000 0.323750 0.789440 0.521509 0.000000
164.06199646 277.34399414 397.50000000 -0.061382 -0.618106 0.783695 0.000000
311.52301025 238.28100586 418.50000000 0.114498 -0.324635 0.938883 0.000000
135.74200439 253.90600586 448.50000000 0.413213 -0.207342 -0.886716 0.000000
100.09799957 218.75000000 363.00000000 0.850543 0.524156 0.042873 0.000000
150.39100647 164.55099487 429.00000000 0.203943 0.798904 -0.565826 0.000000
151.36700439 214.84399414 457.50000000 0.284229 -0.041320 -0.957865 0.000000
308.59399414 175.29299927 384.00000000 0.018079 -0.771844 0.635555 0.000000
286.13299561 187.50000000 385.50000000 -0.416916 -0.596307 0.686002 0.000000
250.97700500 157.22700500 346.50000000 -0.300755 -0.725351 0.619202 0.000000
103.51599884 262.69500732 430.50000000 0.515891 -0.249425 -0.819539 0.000000
322.26599121 250.00000000 439.50000000 0.193273 0.444085 -0.874891 0.000000
190.42999268 275.39099121 442.50000000 -0.321134 -0.452721 -0.831815 0.000000
330.07800293 219.72700500 427.50000000 -0.233667 0.657089 -0.716682 0.000000
304.68798828 171.87500000 379.50000000 0.115882 -0.868403 0.482128 0.000000
104.49199677 317.38299561 409.50000000 0.500751 -0.618773 -0.605284 0.000000
241.21099854 196.28900146 442.50000000 -0.826246 -0.031939 -0.562403 0.000000
244.14100647 173.82800293 439.50000000 -0.000978 -0.000978 -0.999999 0.000000
103.51599884 207.52000427 390.00000000 0.871170 0.461208 -0.168377 0.000000
177.73399353 291.01599121 439.50000000 -0.264485 -0.296281 -0.917750 0.000000
159.17999268 223.14500427 459.00000000 0.218903 -0.389324 -0.894711 0.000000
142.57800293 251.95300293 451.50000000 0.023156 -0.111370 -0.993509 0.000000
159.17999268 264.64801025 388.50000000 -0.208477 -0.427304 0.879744 0.000000
222.65600586 175.78100586 442.50000000 -0.139273 0.266609 -0.953689 0.000000
303.22299194 174.80499268 384.00000000 -0.255217 -0.708583 0.657856 0.000000
246.09399414 151.85499573 429.00000000 -0.162306 0.741752 -0.650739 0.000000
135.25399780 318.35900879 421.00000000 0.265259 -0.703651 -0.659176 0.000000
142.57800293 200.19500732 454.50000000 0.296976 0.394446 -0.869608 0.000000
350.09799194 231.44500732 421.00000000 -0.659393 0.491609 -0.568790 0.000000
121.09400177 186.52299500 433.50000000 0.589491 0.521927 -0.616516 0.000000
243.16400146 158.20300293 346.50000000 -0.035331 -0.713696 0.699564 0.000000
99.60939789 299.80499268 418.50000000 0.654786 -0.341272 -0.674380 0.000000
261.71899414 162.10899353 430.50000000 -0.263647 0.519494 -0.812783 0.000000
143.55499268 290.03900146 439.50000000 0.061918 -0.351749 -0.934044 0.000000
200.19500732 281.25000000 433.50000000 -0.350767 -0.595488 -0.722743 0.000000
93.26170349 274.41400146 420.00000000 0.751998 -0.240200 -0.613844 0.000000
249.02299500 158.20300293 346.50000000 -0.152891 -0.734179 0.661518 0.000000
228.51600647 164.06199646 436.50000000 0.031387 0.498097 -0.866553 0.000000
199.21899414 169.92199707 436.50000000 0.134264 0.414098 -0.900275 0.000000
197.75399780 274.41400146 412.00000000 -0.516063 0.071714 0.853543 0.000000
251.95300293 157.71499634 348.00000000 -0.300755 -0.725351 0.619202 0.000000
314.45300293 166.50399780 408.00000000 -0.478536 0.579281 -0.659876 0.000000
229.00399780 159.17999268 348.00000000 0.497016 -0.431403 0.752905 0.000000
234.37500000 139.64799500 370.50000000 -0.109537 0.988187 -0.107181 0.000000
185.54699707 141.11300659 378.00000000 0.094209 0.970981 -0.219821 0.000000
182.61700439 173.82800293 367.50000000 0.014741 -0.483769 0.875072 0.000000
169.43400574 189.45300293 390.00000000 0.300416 -0.312255 0.901248 0.000000
222.65600586 234.37500000 403.50000000 -0.076392 0.884761 0.459742 0.000000
310.54699707 192.38299561 394.50000000 0.071831 -0.255820 0.964052 0.000000
217.77299500 247.07000732 454.50000000 -0.796150 0.164046 -0.582438 0.000000
180.66400146 312.98800659 429.00000000 -0.701014 -0.675921 -0.227398 0.000000
289.06201172 198.24200439 394.50000000 -0.050648 -0.466784 0.882920 0.000000
331.05499268 273.43798828 442.50000000 0.001112 -0.150135 -0.988665 0.000000
199.21899414 256.83599854 451.50000000 0.162015 -0.527665 -0.833859 0.000000
242.18800354 159.17999268 346.50000000 -0.058407 -0.616830 0.784927 0.000000
214.84399414 255.85899353 451.50000000 0.701430 -0.551481 -0.451514 0.000000
172.85200500 279.29699707 400.50000000 -0.419988 -0.605912 0.675633 0.000000
306.64099121 255.85899353 433.50000000 0.680299 0.247812 -0.689770 0.000000
197.26600647 280.27301025 436.50000000 -0.355498 -0.463901 -0.811429 0.000000
230.46899414 211.91400146 448.50000000 -0.430931 0.120095 -0.894358 0.000000
248.04699707 159.17999268 346.50000000 -0.172069 -0.525184 0.833411 0.000000
249.51199341 221.67999268 387.00000000 -0.346665 -0.536927 0.769112 0.000000
297.85198975 227.53900146 415.50000000 0.222935 -0.397150 0.890265 0.000000
240.23399353 240.23399353 421.50000000 0.057306 -0.974208 -0.218252 0.000000
260.74200439 182.61700439 439.50000000 -0.371596 -0.008939 -0.928352 0.000000
203.61300659 274.41400146 420.00000000 -0.622520 0.697680 0.354559 0.000000
114.25800323 242.18800354 439.50000000 0.625169 -0.123252 -0.770696 0.000000
307.12899780 258.78900146 432.00000000 0.664859 -0.175767 -0.725995 0.000000
232.42199707 160.15600586 346.50000000 0.327697 -0.525914 0.784875 0.000000
233.39799500 160.15600586 346.50000000 0.305685 -0.511587 0.803017 0.000000
166.99200439 289.06201172 442.50000000 -0.167060 -0.190371 -0.967393 0.000000
235.35200500 160.15600586 346.50000000 0.084124 -0.531832 0.842661 0.000000
133.78900146 283.20300293 391.50000000 -0.240663 -0.737718 0.630757 0.000000
192.87100220 288.08599854 417.00000000 -0.474997 -0.481617 0.736494 0.000000
132.81199646 297.85198975 436.50000000 0.226333 -0.397931 -0.889058 0.000000
209.96099854 197.26600647 451.50000000 -0.273965 0.439262 -0.855566 0.000000
144.04299927 152.34399414 372.00000000 0.421606 0.906778 -0.001297 0.000000
344.72698975 256.83599854 442.50000000 -0.130741 0.308657 -0.942145 0.000000
339.84399414 194.82400513 399.00000000 -0.820768 0.379427 -0.427054 0.000000
150.39100647 177.73399353 382.50000000 -0.734209 -0.192403 0.651091 0.000000
323.24200439 262.69500732 439.50000000 -0.274807 -0.200236 -0.940418 0.000000
149.41400146 156.73800659 412.00000000 0.412952 0.861213 -0.296282 0.000000
113.28099823 319.33599854 400.50000000 -0.097976 -0.339560 0.935468 0.000000
164.06199646 242.18800354 454.50000000 0.256416 -0.118446 -0.959282 0.000000
260.74200439 208.00799561 439.50000000 -0.000978 -0.000978 -0.999999 0.000000
342.77301025 224.60899353 403.50000000 0.036567 -0.303886 0.952007 0.000000
319.33599854 207.03100586 400.50000000 0.113870 -0.634419 0.764556 0.000000
246.09399414 198.72999573 371.00000000 -0.250757 -0.537337 0.805227 0.000000
170.41000366 183.59399414 387.00000000 0.453432 -0.408250 0.792295 0.000000
314.94100952 200.19500732 391.00000000 0.029900 -0.221264 0.974756 0.000000
348.63299561 277.34399414 439.50000000 -0.190927 -0.406630 -0.893420 0.000000
325.19500732 214.84399414 424.50000000 -0.303802 0.602782 -0.737806 0.000000
367.67599487 259.76599121 423.00000000 -0.878524 -0.211853 -0.428151 0.000000
342.77301025 268.55499268 430.50000000 0.297466 -0.339321 0.892399 0.000000
114.25800323 302.73400879 427.50000000 0.372991 -0.492477 -0.786349 0.000000
241.21099854 270.50799561 412.50000000 -0.907450 -0.197648 0.370770 0.000000
122.00000000 307.61700439 400.50000000 -0.225113 -0.272652 0.935406 0.000000
216.79699707 244.14100647 454.50000000 -0.636047 -0.464868 -0.615908 0.000000
348.63299561 279.29699707 439.50000000 -0.213677 -0.554944 -0.803977 0.000000
123.04699707 267.57800293 442.50000000 0.457586 -0.073269 -0.886141 0.000000
215.33200073 223.63299561 451.00000000 -0.284059 0.164455 -0.944598 0.000000
226.56199646 253.90600586 382.50000000 -0.992443 0.094356 0.078441 0.000000
335.93798828 227.05099487 429.00000000 -0.058796 0.684045 -0.727066 0.000000
205.07800293 214.84399414 385.50000000 -0.268283 -0.938294 0.218240 0.000000
147.46099854 166.99200439 430.50000000 0.126977 0.733477 -0.667748 0.000000
133.78900146 163.57400513 401.00000000 0.645634 0.763276 0.023809 0.000000
162.10899353 146.97300720 382.00000000 0.140157 0.973526 -0.180563 0.000000
135.74200439 282.71499634 393.00000000 -0.240663 -0.737718 0.630757 0.000000
176.75799561 305.66400146 418.50000000 -0.235698 -0.944172 0.230185 0.000000
107.42199707 281.25000000 388.50000000 -0.016169 -0.307217 0.951502 0.000000
130.85899353 251.95300293 379.50000000 -0.246514 -0.482311 0.840599 0.000000
163.08599854 146.97300720 390.00000000 0.141493 0.985696 0.091554 0.000000
291.01599121 205.07800293 400.50000000 -0.035321 -0.688060 0.724794 0.000000
180.66400146 302.73400879 433.50000000 -0.173479 -0.487818 -0.855534 0.000000
305.17599487 245.11700439 431.00000000 0.453274 0.127260 -0.882240 0.000000
193.35899353 242.18800354 457.50000000 0.007372 -0.072667 -0.997329 0.000000
129.88299561 292.96899414 436.50000000 0.235621 -0.395666 -0.887655 0.000000
151.36700439 235.35200500 373.50000000 -0.306989 -0.358406 0.881648 0.000000
125.97699738 279.29699707 388.50000000 0.142655 -0.519147 0.842695 0.000000
93.75000000 293.94500732 388.50000000 -0.171338 -0.407467 0.897003 0.000000
332.03100586 256.83599854 424.50000000 -0.009661 -0.622475 0.782580 0.000000
100.58599854 259.76599121 430.50000000 0.623822 -0.009682 -0.781506 0.000000
145.50799561 285.15600586 397.50000000 -0.306346 -0.306346 0.901279 0.000000
311.52301025 242.18800354 433.50000000 0.435635 0.135689 -0.889837 0.000000
121.09400177 191.89500427 348.00000000 -0.288352 0.001217 0.957524 0.000000
310.54699707 253.90600586 430.50000000 0.326874 -0.867059 -0.375981 0.000000
298.82800293 216.79699707 430.50000000 -0.280976 -0.006082 -0.959696 0.000000
215.82000732 202.14799500 394.50000000 0.399430 0.071762 0.913951 0.000000
316.40600586 170.89799500 409.50000000 -0.583289 0.423757 -0.692967 0.000000
216.79699707 199.21899414 394.50000000 -0.052689 0.764697 -0.642232 0.000000
179.68800354 144.04299927 393.00000000 0.001230 0.951115 -0.308835 0.000000
237.79299927 258.78900146 391.00000000 -0.779239 -0.466893 0.418088 0.000000
194.33599854 242.18800354 457.50000000 0.005502 -0.130936 -0.991376 0.000000
157.71499634 233.39799500 372.00000000 -0.252213 -0.333854 0.908257 0.000000
313.47698975 248.04699707 421.50000000 0.943716 -0.314572 -0.102203 0.000000
186.52299500 208.49600220 384.00000000 0.645548 -0.250959 0.721309 0.000000
131.83599854 176.75799561 430.50000000 0.265320 0.729234 -0.630732 0.000000
169.92199707 280.27301025 400.50000000 -0.253880 -0.531122 0.808365 0.000000
94.72660065 284.17999268 385.50000000 -0.122285 -0.266923 0.955928 0.000000
140.62500000 312.50000000 406.50000000 -0.081159 -0.228493 0.970157 0.000000
337.89099121 254.88299561 424.50000000 0.090623 -0.371960 0.923814 0.000000
363.28100586 255.85899353 427.50000000 -0.792279 0.058319 -0.607366 0.000000
258.78900146 233.39799500 433.50000000 -0.093517 -0.448043 -0.889107 0.000000
133.78900146 164.55099487 414.00000000 0.500304 0.846783 -0.180707 0.000000
148.43800354 230.46899414 370.50000000 -0.247173 -0.222317 0.943123 0.000000
107.42199707 299.80499268 394.50000000 -0.163268 -0.271213 0.948571 0.000000
275.87899780 152.34399414 417.00000000 -0.335897 0.807109 -0.485539 0.000000
