162.59800720 195.55700684 120.00000000 0.708486 0.705724 0.001381 0.000000
198.63299561 203.02699280 138.75000000 -0.001083 -0.993261 0.115898 0.000000
127.44100189 179.29699707 63.75000000 -0.943059 -0.001246 0.332624 0.000000
244.33599854 147.65600586 153.75000000 -0.688930 0.001381 0.724826 0.000000
184.57000732 210.93699646 178.75000000 -0.544642 -0.179536 -0.819226 0.000000
261.91400146 163.47700500 173.75000000 -0.739959 0.192297 0.644580 0.000000
91.40619659 210.93699646 166.25000000 0.810946 0.193227 -0.552295 0.000000
118.65200043 134.03300476 62.50000000 -0.895578 0.383819 0.224997 0.000000
123.04699707 150.29299927 176.25000000 0.601516 0.198454 -0.773818 0.000000
209.17999268 186.32800293 188.75000000 -0.434119 0.081311 -0.897179 0.000000
171.38699341 155.56599426 191.25000000 0.242294 0.329346 -0.912592 0.000000
151.17199707 264.55099487 106.25000000 -0.790870 -0.043702 0.610422 0.000000
178.41799927 177.53900146 138.75000000 -0.859468 0.273259 0.432024 0.000000
244.33599854 132.71499634 158.75000000 -0.889822 0.084679 0.448382 0.000000
99.31639862 148.97500610 95.00000000 0.862988 0.494970 0.101276 0.000000
85.69329834 178.41799927 85.00000000 0.959553 0.280333 0.025934 0.000000
88.76950073 251.36700439 153.75000000 0.800122 -0.529747 -0.281379 0.000000
228.51600647 89.64839935 118.75000000 0.152941 0.985226 -0.077063 0.000000
210.05900574 95.80079651 138.75000000 0.190540 0.970602 -0.147061 0.000000
120.41000366 172.26600647 56.25000000 -0.652763 0.120441 0.747927 0.000000
116.01599884 175.78100586 51.25000000 -0.591806 0.658867 0.464392 0.000000
155.56599426 209.17999268 86.25000000 -0.539834 -0.178942 0.822532 0.000000
129.19900513 165.23399353 186.25000000 -0.261585 0.872455 -0.412791 0.000000
145.89799500 254.00399780 173.75000000 -0.110151 -0.612439 -0.782806 0.000000
251.36700439 177.53900146 168.75000000 -0.539280 -0.573091 0.617045 0.000000
172.26600647 207.42199707 98.75000000 -0.752202 -0.089096 0.652882 0.000000
151.17199707 203.90600586 81.25000000 -0.314227 -0.454926 0.833249 0.000000
85.69329834 185.44900513 110.00000000 0.965116 0.160201 -0.207090 0.000000
87.45110321 200.39100647 147.50000000 0.918922 0.385704 -0.082554 0.000000
130.07800293 140.62500000 178.75000000 0.463128 0.667106 -0.583508 0.000000
246.09399414 183.69099426 173.75000000 0.126409 -0.623124 0.771840 0.000000
195.55700684 111.62100220 165.00000000 0.218867 0.759051 -0.613139 0.000000
216.21099854 183.69099426 166.25000000 -0.214890 0.899028 -0.381539 0.000000
205.66400146 116.89499664 176.25000000 -0.817758 0.001361 -0.575560 0.000000
207.42199707 94.48239899 130.00000000 0.817758 0.001361 -0.575560 0.000000
110.74199677 230.27299500 178.75000000 0.487638 -0.387194 -0.782489 0.000000
265.42999268 178.41799927 176.25000000 -0.981518 -0.174626 -0.078281 0.000000
88.33010101 195.11700439 42.50000000 0.975655 -0.108406 0.190645 0.000000
155.56599426 206.54299927 188.75000000 -0.138675 -0.379606 -0.914696 0.000000
209.17999268 147.21699524 127.50000000 -0.255012 -0.644657 0.720685 0.000000
147.65600586 248.72999573 176.25000000 -0.128315 -0.477215 -0.869368 0.000000
165.67399597 229.39399719 102.50000000 -0.785691 -0.238041 0.570987 0.000000
181.05499268 243.45700073 163.75000000 -0.624991 -0.493591 -0.604776 0.000000
101.95300293 265.42999268 98.75000000 0.904043 -0.368314 0.216912 0.000000
125.24400330 188.08599854 60.00000000 -0.786172 0.061353 0.614955 0.000000
243.89599609 126.56199646 160.00000000 -0.879977 0.158019 0.447962 0.000000
215.33200073 161.71899414 146.25000000 -0.051770 -0.538688 0.840913 0.000000
213.57400513 110.74199677 111.25000000 -0.247462 -0.622596 0.742386 0.000000
253.56399536 102.83200073 172.50000000 -0.984858 -0.172722 0.014870 0.000000
150.29299927 118.65200043 98.75000000 -0.552956 -0.617214 0.559720 0.000000
151.17199707 120.84999847 102.50000000 -0.387701 -0.664865 0.638469 0.000000
229.83399963 166.11300659 150.00000000 -0.180331 -0.399614 0.898771 0.000000
181.05499268 135.35200500 188.75000000 0.168321 0.522839 -0.835648 0.000000
239.06199646 162.59800720 151.25000000 -0.045752 -0.932031 0.359479 0.000000
177.53900146 246.97300720 163.75000000 -0.576815 -0.546367 -0.607262 0.000000
200.39100647 193.35899353 131.25000000 0.474239 0.484153 0.735318 0.000000
137.98800659 113.81800079 90.00000000 0.169332 0.340064 0.925031 0.000000
137.10899353 244.33599854 181.25000000 0.438072 -0.219783 -0.871658 0.000000
174.02299500 139.30700684 115.00000000 0.089695 -0.289885 0.952849 0.000000
120.41000366 166.55299377 185.00000000 0.186557 0.494004 -0.849209 0.000000
166.99200439 133.59399414 113.75000000 -0.328393 -0.415550 0.848219 0.000000
105.02899933 186.32800293 180.00000000 0.084615 0.295500 -0.951588 0.000000
195.11700439 151.61099243 125.00000000 -0.249839 -0.844549 0.473622 0.000000
177.53900146 114.69699860 162.50000000 0.209020 0.816244 -0.538569 0.000000
173.14399719 266.30899048 136.25000000 -0.567016 -0.567016 -0.597483 0.000000
158.20300293 248.72999573 173.75000000 -0.332212 -0.484807 -0.809072 0.000000
137.54899597 131.83599854 85.00000000 -0.998304 -0.049546 -0.030571 0.000000
177.53900146 135.35200500 188.75000000 0.044388 0.205142 -0.977725 0.000000
89.20899963 186.32800293 122.50000000 0.899850 0.300938 -0.315763 0.000000
268.94500732 134.03300476 190.00000000 -0.440566 -0.734276 0.516469 0.000000
157.32400513 116.89499664 101.25000000 -0.283580 -0.655278 0.700138 0.000000
269.82400513 138.86700439 186.25000000 0.001246 -0.943059 0.332624 0.000000
202.14799500 124.36499786 182.50000000 0.275293 0.828989 -0.486817 0.000000
217.96899414 184.13099670 150.00000000 -0.231551 0.961526 -0.147826 0.000000
155.56599426 232.03100586 183.75000000 0.576853 -0.780081 -0.242310 0.000000
211.81599426 115.57599640 115.00000000 -0.528956 -0.586414 0.613453 0.000000
166.11300659 199.51199341 186.25000000 -0.312775 -0.163966 -0.935568 0.000000
83.93550110 229.39399719 157.50000000 0.898677 -0.134448 -0.417496 0.000000
257.07998657 131.83599854 177.50000000 -0.753279 0.198718 0.626962 0.000000
87.45110321 235.54699707 92.50000000 0.961042 -0.274052 0.035962 0.000000
120.41000366 217.08999634 188.75000000 0.500495 -0.635308 -0.588123 0.000000
84.37500000 223.68200684 90.00000000 0.996719 -0.076340 -0.026880 0.000000
170.50799561 213.57400513 98.75000000 -0.622560 -0.416700 0.662404 0.000000
227.63699341 104.15000153 170.00000000 0.345286 0.885078 -0.312114 0.000000
109.86299896 203.90600586 41.25000000 -0.446689 0.894688 0.001310 0.000000
188.52499390 217.96899414 130.00000000 -0.975267 0.164852 0.147234 0.000000
90.52729797 164.79499817 90.00000000 0.947226 0.315742 0.055416 0.000000
172.26600647 262.79299927 156.25000000 -0.372357 -0.538210 -0.756096 0.000000
232.91000366 175.78100586 186.25000000 -0.254552 -0.624523 -0.738360 0.000000
84.37500000 185.88900757 95.00000000 0.943117 0.313483 -0.110720 0.000000
223.24200439 118.21299744 185.00000000 0.294401 0.686937 -0.664414 0.000000
120.41000366 284.76599121 143.75000000 0.383954 -0.673979 -0.631135 0.000000
165.23399353 277.29501343 135.00000000 -0.756757 -0.650495 -0.064619 0.000000
228.51600647 143.26199341 193.75000000 -0.000978 -0.000978 -0.999999 0.000000
127.44100189 124.36499786 127.50000000 0.481936 0.873073 -0.074037 0.000000
113.81800079 285.64401245 140.00000000 0.437649 -0.476988 -0.762198 0.000000
194.23800659 123.92600250 178.75000000 0.154496 0.580485 -0.799480 0.000000
136.22999573 144.14100647 81.25000000 -0.849100 0.271773 0.452956 0.000000
243.01800537 114.25800323 157.50000000 -0.899850 -0.300938 0.315763 0.000000
108.10500336 260.15600586 71.25000000 0.642644 -0.715997 0.272685 0.000000
181.05499268 99.31639862 121.25000000 0.388893 0.911162 0.136183 0.000000
91.40619659 208.30099487 41.25000000 0.843089 -0.266644 0.467013 0.000000
234.66799927 103.27100372 172.50000000 0.140067 0.833030 -0.535203 0.000000
238.18400574 90.08789825 125.00000000 -0.437283 0.863975 0.249660 0.000000
108.10500336 275.97698975 106.25000000 0.707197 -0.598903 0.375750 0.000000
90.52729797 253.12500000 156.25000000 0.747640 -0.541507 -0.384454 0.000000
193.35899353 198.19299316 122.50000000 -0.588802 0.438683 0.678874 0.000000
100.19499969 165.67399597 142.50000000 0.839650 0.480458 -0.253276 0.000000
122.16799927 213.13499451 60.00000000 -0.815883 -0.109465 0.567761 0.000000
101.51399994 144.14100647 82.50000000 0.760449 0.639367 -0.113698 0.000000
92.28510284 210.05900574 41.25000000 0.845940 -0.286104 0.450034 0.000000
163.47700500 143.26199341 113.75000000 -0.316745 0.039434 0.947691 0.000000
140.62500000 112.06099701 100.00000000 0.484237 0.873281 -0.053804 0.000000
143.70100403 124.80500031 170.00000000 0.347023 0.851217 -0.393707 0.000000
198.63299561 203.46699524 150.00000000 0.134106 -0.969398 -0.205630 0.000000
114.69699860 199.51199341 50.00000000 -0.688930 -0.001381 0.724826 0.000000
173.14399719 127.88099670 182.50000000 -0.020567 0.835025 -0.549828 0.000000
160.39999390 266.30899048 115.00000000 -0.942821 -0.314274 0.110999 0.000000
98.43750000 207.86099243 175.00000000 0.807502 -0.382164 -0.449323 0.000000
131.83599854 180.17599487 188.75000000 0.044360 0.128531 -0.990713 0.000000
254.00399780 137.98800659 171.25000000 -0.753444 0.302337 0.583879 0.000000
145.01899719 137.98800659 106.25000000 -0.470026 -0.470026 0.747095 0.000000
161.71899414 192.91999817 115.00000000 0.277315 0.178957 -0.943965 0.000000
118.21299744 225.87899780 55.00000000 -0.790733 -0.097567 0.604336 0.000000
146.33799744 155.56599426 100.00000000 -0.839751 0.266563 0.473034 0.000000
200.39100647 165.67399597 152.50000000 0.762091 -0.480199 0.434310 0.000000
88.33010101 261.91400146 132.50000000 0.908641 -0.403686 0.106817 0.000000
112.50000000 158.64300537 175.00000000 0.532050 0.271518 -0.801998 0.000000
163.47700500 242.57800293 176.25000000 0.335625 -0.001248 -0.941995 0.000000
89.64839935 249.60899353 158.75000000 0.740329 -0.496300 -0.453431 0.000000
249.16999817 113.37899780 167.50000000 -0.001361 -0.817758 -0.575560 0.000000
184.57000732 126.56199646 181.25000000 -0.578659 -0.001362 -0.815569 0.000000
151.17199707 208.30099487 83.75000000 -0.389157 -0.392308 0.833457 0.000000
154.68699646 281.25000000 113.75000000 -0.786037 -0.369615 0.495510 0.000000
174.90199280 157.32400513 116.25000000 -0.501575 -0.501575 0.704872 0.000000
136.22999573 160.83999634 73.75000000 -0.127657 -0.225656 0.965807 0.000000
193.79899597 208.30099487 147.50000000 -0.857541 -0.384735 0.341471 0.000000
188.96499634 181.93400574 193.75000000 -0.000978 -0.000978 -0.999999 0.000000
103.71099854 142.82200623 87.50000000 0.708486 0.705724 -0.001381 0.000000
142.82200623 256.64099121 97.50000000 -0.829419 -0.115157 0.546629 0.000000
126.56199646 197.75399780 61.25000000 -0.618013 -0.201895 0.759802 0.000000
85.69329834 176.66000366 72.50000000 0.817758 0.001361 -0.575560 0.000000
196.87500000 201.26899719 181.25000000 -0.397794 -0.711408 -0.579360 0.000000
255.76199341 113.37899780 186.25000000 -0.679053 0.067761 -0.730955 0.000000
152.92999268 145.01899719 188.75000000 0.232697 0.133898 -0.963288 0.000000
129.19900513 265.42999268 168.75000000 0.041017 -0.759515 -0.649195 0.000000
162.59800720 129.63900757 110.00000000 -0.127907 -0.356215 0.925608 0.000000
123.04699707 144.14100647 173.75000000 0.336569 0.077873 -0.938433 0.000000
179.29699707 218.40800476 110.00000000 -0.903235 0.116230 0.413107 0.000000
134.03300476 293.55499268 112.50000000 -0.132413 -0.851224 0.507824 0.000000
137.54899597 154.68699646 77.50000000 -0.711598 0.159313 0.684287 0.000000
179.29699707 227.63699341 173.75000000 -0.520466 -0.313553 -0.794229 0.000000
161.71899414 190.72300720 186.25000000 -0.000978 -0.000978 -0.999999 0.000000
110.74199677 216.21099854 41.25000000 -0.001380 -0.730182 0.683251 0.000000
212.69500732 181.93400574 163.75000000 -0.401770 0.851628 0.336618 0.000000
134.47300720 204.78500366 68.75000000 -0.273903 0.587388 0.761546 0.000000
119.53099823 238.18400574 58.75000000 -0.906249 0.121860 0.404800 0.000000
155.56599426 183.69099426 186.25000000 0.000978 0.000978 -0.999999 0.000000
107.22699738 137.98800659 53.75000000 0.474764 0.429082 0.768432 0.000000
156.44500732 107.22699738 118.75000000 0.416953 0.897943 -0.140882 0.000000
178.41799927 231.15199280 173.75000000 -0.411042 -0.309436 -0.857493 0.000000
162.59800720 191.60200500 93.75000000 -0.760982 0.149183 0.631389 0.000000
188.08599854 167.87100220 153.75000000 -0.714707 -0.108020 0.691032 0.000000
97.11910248 173.14399719 147.50000000 0.872268 0.472778 -0.125020 0.000000
239.50199890 138.86700439 150.00000000 -0.662266 -0.104724 0.741915 0.000000
88.76950073 168.31100464 72.50000000 0.940976 0.336703 -0.034566 0.000000
156.44500732 213.57400513 88.75000000 -0.441303 -0.267225 0.856646 0.000000
181.49400330 254.88299561 147.50000000 -0.686203 -0.686203 -0.241354 0.000000
121.28900146 274.21899414 81.25000000 0.427134 -0.852726 0.300690 0.000000
188.08599854 119.53099823 173.75000000 0.213495 0.665420 -0.715287 0.000000
84.81439972 181.93400574 65.00000000 0.979891 0.163520 0.114341 0.000000
144.58000183 166.11300659 80.00000000 -0.686203 0.686203 0.241354 0.000000
235.54699707 111.62100220 183.75000000 0.146508 0.714418 -0.684210 0.000000
182.81199646 174.90199280 193.75000000 -0.023691 0.143277 -0.989399 0.000000
155.56599426 202.14799500 86.25000000 -0.518300 0.028718 0.854716 0.000000
99.31639862 191.60200500 178.75000000 0.685677 0.244322 -0.685677 0.000000
121.28900146 181.05499268 186.25000000 0.646615 -0.132907 -0.751149 0.000000
228.51600647 101.51399994 112.50000000 -0.696363 -0.617715 0.365386 0.000000
162.59800720 116.89499664 103.75000000 -0.033967 -0.952326 0.303184 0.000000
221.48399353 185.88900757 167.50000000 -0.189692 -0.433792 0.880819 0.000000
105.46900177 266.74798584 92.50000000 0.683424 -0.637534 0.355643 0.000000
125.68399811 268.94500732 76.25000000 -0.480711 -0.438054 0.759622 0.000000
245.21499634 126.56199646 193.75000000 -0.315163 0.495708 -0.809287 0.000000
88.33010101 199.51199341 155.00000000 0.911227 0.242703 -0.332808 0.000000
84.81439972 185.44900513 97.50000000 0.994301 0.045447 -0.096437 0.000000
185.44900513 246.53300476 150.00000000 0.000978 0.000978 0.999999 0.000000
87.89060211 256.64099121 121.25000000 0.883935 -0.441244 0.154797 0.000000
119.53099823 165.23399353 183.75000000 0.790226 0.251933 -0.558635 0.000000
188.96499634 130.07800293 186.25000000 0.033863 0.879095 -0.475443 0.000000
138.42799377 283.00799561 95.00000000 -0.567016 -0.567016 0.597483 0.000000
192.47999573 156.44500732 146.25000000 0.864213 -0.197832 -0.462599 0.000000
188.96499634 174.02299500 193.75000000 -0.306641 0.197427 -0.931125 0.000000
112.50000000 231.15199280 178.75000000 0.443645 -0.246806 -0.861549 0.000000
231.15199280 99.75579834 162.50000000 0.307628 0.867785 -0.390274 0.000000
217.96899414 109.42400360 172.50000000 0.370211 0.821456 -0.433767 0.000000
250.48800659 156.44500732 191.25000000 -0.000978 -0.000978 -0.999999 0.000000
146.33799744 261.91400146 170.00000000 -0.163998 -0.804946 -0.570233 0.000000
180.17599487 121.28900146 173.75000000 -0.107695 0.756816 -0.644695 0.000000
95.36129761 178.41799927 167.50000000 0.847376 0.401060 -0.348002 0.000000
203.90600586 201.26899719 178.75000000 -0.149332 -0.731575 -0.665205 0.000000
164.35499573 257.95901489 165.00000000 -0.567016 -0.567016 -0.597483 0.000000
235.54699707 113.37899780 186.25000000 0.145872 0.747407 -0.648154 0.000000
148.97500610 209.17999268 190.00000000 0.151796 0.010120 -0.988360 0.000000
122.16799927 205.66400146 58.75000000 -0.817774 -0.205586 0.537569 0.000000
84.81439972 228.51600647 100.00000000 0.960236 -0.192047 0.202643 0.000000
148.53500366 232.91000366 183.75000000 -0.206743 -0.490449 -0.846591 0.000000
235.54699707 145.89799500 193.75000000 -0.000978 -0.000978 -0.999999 0.000000
159.96099854 176.66000366 188.75000000 0.405989 -0.355828 -0.841760 0.000000
173.14399719 199.51199341 98.75000000 -0.466621 0.336916 0.817773 0.000000
124.80500031 245.21499634 181.25000000 -0.000978 -0.000978 -0.999999 0.000000
244.33599854 125.68399811 161.25000000 -0.879977 0.158019 0.447962 0.000000
190.72300720 140.62500000 118.75000000 0.063095 -0.525788 0.848272 0.000000
132.27499390 159.96099854 182.50000000 0.365444 0.113602 -0.923875 0.000000
230.27299500 152.49000549 145.00000000 -0.517223 -0.356095 0.778252 0.000000
252.68499756 107.22699738 170.00000000 -0.972803 -0.229673 0.030062 0.000000
212.69500732 92.72460175 125.00000000 0.001246 0.943059 0.332624 0.000000
224.12100220 124.80500031 191.25000000 0.194818 0.524045 -0.829109 0.000000
173.14399719 151.17199707 191.25000000 0.625761 0.205497 -0.752459 0.000000
86.57219696 228.51600647 85.00000000 0.985329 -0.150949 0.079635 0.000000
174.02299500 144.14100647 116.25000000 0.014295 -0.117659 0.992951 0.000000
89.20899963 168.75000000 100.00000000 0.942821 0.314274 -0.110999 0.000000
243.01800537 116.89499664 160.00000000 -0.900001 -0.122535 0.418310 0.000000
153.80900574 171.82600403 95.00000000 -0.846549 0.466903 0.255649 0.000000
119.53099823 292.23599243 127.50000000 0.258582 -0.945399 -0.198383 0.000000
177.97799683 196.87500000 107.50000000 -0.668671 0.304527 0.678338 0.000000
88.76950073 241.69900513 101.25000000 0.926414 -0.370831 0.065128 0.000000
262.35299683 171.38699341 175.00000000 -0.662813 -0.237731 0.710044 0.000000
166.99200439 144.14100647 116.25000000 -0.361830 -0.177367 0.915216 0.000000
182.81199646 161.71899414 146.25000000 -0.995084 0.011885 0.098320 0.000000
137.98800659 263.67199707 88.75000000 -0.886592 -0.108534 0.449639 0.000000
161.71899414 180.61500549 105.00000000 -0.859318 0.507207 0.065671 0.000000
119.53099823 236.42599487 181.25000000 0.162792 -0.130482 -0.977995 0.000000
103.71099854 226.75799561 41.25000000 -0.018197 -0.695703 0.718099 0.000000
136.22999573 188.96499634 71.25000000 -0.647420 0.064598 0.759391 0.000000
110.74199677 205.66400146 186.25000000 0.491413 -0.110317 -0.863912 0.000000
102.83200073 281.25000000 128.75000000 -0.397638 -0.595633 0.697930 0.000000
85.69329834 203.90600586 150.00000000 0.855130 0.491810 -0.163937 0.000000
118.65200043 226.75799561 181.25000000 0.390961 -0.279258 -0.877020 0.000000
108.54499817 226.75799561 42.50000000 -0.298249 -0.864158 0.405313 0.000000
86.13279724 188.96499634 51.25000000 0.963072 -0.038424 0.266487 0.000000
125.68399811 281.25000000 91.25000000 0.267522 -0.886261 0.378118 0.000000
83.05660248 213.57400513 90.00000000 0.971343 -0.194778 -0.136217 0.000000
116.89499664 127.00199890 77.50000000 0.719980 0.691238 0.061795 0.000000
124.80500031 246.97300720 66.25000000 -0.827412 -0.102883 0.552091 0.000000
155.56599426 221.48399353 91.25000000 -0.373112 -0.465990 0.802272 0.000000
246.97300720 174.90199280 186.25000000 0.055916 -0.451417 -0.890560 0.000000
239.94099426 175.78100586 163.75000000 -0.567016 -0.567016 0.597483 0.000000
155.56599426 225.00000000 186.25000000 -0.480460 -0.510385 -0.713208 0.000000
124.36499786 172.26600647 187.50000000 0.095451 0.502899 -0.859059 0.000000
115.13700104 156.44500732 176.25000000 0.356963 0.528176 -0.770459 0.000000
194.23800659 196.87500000 123.75000000 -0.591031 0.493367 0.638178 0.000000
153.36900330 111.62100220 135.00000000 0.383819 0.895578 -0.224997 0.000000
94.04290009 157.76400757 102.50000000 0.865796 0.492925 -0.086156 0.000000
130.95700073 123.04699707 128.75000000 0.339560 0.935468 -0.097976 0.000000
211.81599426 187.20700073 186.25000000 -0.397663 -0.229137 -0.888460 0.000000
181.93400574 99.31639862 118.75000000 0.388893 0.911162 0.136183 0.000000
192.47999573 111.62100220 106.25000000 0.278113 -0.411851 0.867774 0.000000
165.23399353 246.97300720 113.75000000 -0.753370 -0.372617 0.541840 0.000000
161.71899414 206.54299927 91.25000000 -0.486231 -0.079871 0.870172 0.000000
217.08999634 143.26199341 133.75000000 -0.715676 -0.176237 0.675831 0.000000
114.25800323 238.18400574 51.25000000 -0.752421 -0.079736 0.653838 0.000000
191.60200500 128.32000732 183.75000000 0.004052 0.844099 -0.536172 0.000000
130.07800293 267.18701172 166.25000000 0.018200 -0.706990 -0.706990 0.000000
146.77699280 163.47700500 86.25000000 -0.686203 0.686203 0.241354 0.000000
234.66799927 105.02899933 175.00000000 0.063670 0.824880 -0.561711 0.000000
173.14399719 189.40400696 115.00000000 -0.473077 0.878175 0.070753 0.000000
237.30499268 108.10500336 141.25000000 -0.749070 -0.581536 0.317348 0.000000
259.27700806 185.44900513 181.25000000 -0.228554 -0.470731 -0.852159 0.000000
84.37500000 191.60200500 61.25000000 0.993841 0.057014 0.095024 0.000000
113.81800079 149.41400146 165.00000000 0.701680 0.701680 -0.123651 0.000000
164.35499573 247.85200500 111.25000000 -0.522088 -0.397703 0.754491 0.000000
83.49610138 213.13499451 102.50000000 0.987236 -0.110220 -0.114960 0.000000
222.36300659 194.23800659 136.25000000 -0.117080 0.136392 0.983712 0.000000
122.16799927 252.24600220 63.75000000 -0.812017 -0.143996 0.565591 0.000000
198.63299561 196.87500000 183.75000000 -0.277857 -0.582705 -0.763709 0.000000
196.87500000 138.86700439 193.75000000 0.196713 0.397797 -0.896137 0.000000
111.62100220 133.15400696 85.00000000 0.722896 0.677996 -0.133204 0.000000
191.60200500 116.01599884 108.75000000 0.290286 -0.497409 0.817508 0.000000
129.19900513 283.88699341 148.75000000 0.072021 -0.848719 -0.523918 0.000000
146.33799744 253.12500000 175.00000000 -0.172982 -0.431728 -0.885261 0.000000
166.11300659 185.88900757 187.50000000 0.652824 -0.230132 -0.721707 0.000000
123.04699707 230.27299500 61.25000000 -0.700772 -0.133552 0.700772 0.000000
123.04699707 233.35000610 62.50000000 -0.685011 -0.273046 0.675430 0.000000
144.14100647 214.45300293 188.75000000 -0.000978 -0.000978 -0.999999 0.000000
137.10899353 115.13700104 106.25000000 0.518533 0.834162 -0.187874 0.000000
165.23399353 268.50601196 120.00000000 -0.759648 -0.305458 0.574134 0.000000
102.83200073 254.00399780 168.75000000 -0.000978 -0.000978 -0.999999 0.000000
89.20899963 169.62899780 50.00000000 0.804653 0.581056 0.122095 0.000000
150.29299927 174.02299500 186.25000000 -0.000978 -0.000978 -0.999999 0.000000
83.93550110 191.60200500 102.50000000 0.943059 -0.001246 0.332624 0.000000
210.93699646 203.02699280 171.25000000 -0.072805 -0.996445 -0.042379 0.000000
135.79100037 148.53500366 185.00000000 0.145079 -0.147559 -0.978355 0.000000
98.43750000 153.80900574 118.75000000 0.869446 0.483656 -0.100703 0.000000
173.14399719 157.32400513 191.25000000 -0.243414 0.243414 -0.938882 0.000000
127.44100189 290.03900146 106.25000000 0.182253 -0.905523 0.383161 0.000000
162.59800720 146.77699280 113.75000000 0.000978 0.000978 0.999999 0.000000
230.27299500 102.39299774 167.50000000 0.315589 0.873586 -0.370474 0.000000
152.92999268 279.05300903 150.00000000 -0.639616 -0.531607 -0.555234 0.000000
179.73599243 172.26600647 192.50000000 0.275737 0.356222 -0.892791 0.000000
113.37899780 162.59800720 51.25000000 -0.802272 0.023637 0.596490 0.000000
113.37899780 175.78100586 48.75000000 -0.650011 0.227112 0.725193 0.000000
138.86700439 212.69500732 188.75000000 -0.000978 -0.000978 -0.999999 0.000000
232.03100586 121.72799683 142.50000000 -0.822841 -0.029139 0.567524 0.000000
200.39100647 105.46900177 101.25000000 0.427862 0.001300 0.903843 0.000000
222.36300659 157.32400513 193.75000000 -0.000978 -0.000978 -0.999999 0.000000
177.53900146 111.62100220 158.75000000 0.257096 0.749205 -0.610405 0.000000
101.07399750 150.73199463 45.00000000 0.352063 0.912489 0.208364 0.000000
259.27700806 159.96099854 188.75000000 -0.019540 -0.171260 -0.985032 0.000000
224.12100220 115.57599640 127.50000000 -0.684929 -0.547608 0.480622 0.000000
196.87500000 162.59800720 156.25000000 0.381231 -0.734646 0.561211 0.000000
203.02699280 204.34599304 152.50000000 0.130701 -0.954511 -0.268003 0.000000
114.25800323 129.63900757 62.50000000 0.048987 0.555648 0.829973 0.000000
160.83999634 117.77300262 103.75000000 -0.395653 -0.556541 0.730562 0.000000
245.21499634 135.35200500 193.75000000 -0.000978 -0.000978 -0.999999 0.000000
230.71299744 144.14100647 142.50000000 -0.678376 -0.169213 0.714963 0.000000
203.46699524 102.83200073 152.50000000 0.231321 0.906371 -0.353528 0.000000
107.22699738 191.60200500 183.75000000 0.525000 0.633039 -0.568891 0.000000
189.40400696 169.62899780 155.00000000 -0.602847 -0.004120 0.797846 0.000000
190.72300720 226.75799561 166.25000000 -0.517082 -0.550768 -0.655195 0.000000
181.93400574 122.60700226 175.00000000 -0.107695 0.756816 -0.644695 0.000000
101.95300293 262.79299927 156.25000000 0.542271 -0.630115 -0.555785 0.000000
232.91000366 102.83200073 171.25000000 0.268872 0.846564 -0.459388 0.000000
225.00000000 146.77699280 138.75000000 -0.591704 -0.222083 0.774961 0.000000
91.40619659 227.63699341 171.25000000 0.828387 0.551778 0.096525 0.000000
179.29699707 116.01599884 166.25000000 0.204871 0.862850 -0.462081 0.000000
199.51199341 121.28900146 111.25000000 -0.549973 -0.414544 0.725040 0.000000
161.71899414 141.50399780 113.75000000 0.000978 0.000978 0.999999 0.000000
96.67970276 191.60200500 176.25000000 0.567016 0.567016 -0.597483 0.000000
87.01170349 229.39399719 81.25000000 0.960424 -0.274228 0.048835 0.000000
223.24200439 158.20300293 193.75000000 -0.000978 -0.000978 -0.999999 0.000000
238.18400574 187.20700073 176.25000000 -0.051190 -0.962629 0.265940 0.000000
108.98400116 278.61300659 143.75000000 0.459538 -0.686800 -0.563143 0.000000
196.87500000 185.00999451 137.50000000 0.067457 0.773599 0.630074 0.000000
164.35499573 185.88900757 100.00000000 -0.825738 0.467132 0.316140 0.000000
85.69329834 232.91000366 100.00000000 0.953958 -0.275003 0.119738 0.000000
237.30499268 101.95300293 171.25000000 0.178496 0.868876 -0.461729 0.000000
192.47999573 221.48399353 146.25000000 -0.876217 -0.045109 0.479801 0.000000
223.24200439 121.28900146 188.75000000 0.155730 0.651647 -0.742364 0.000000
203.46699524 188.08599854 190.00000000 -0.235835 -0.588807 -0.773103 0.000000
172.26600647 149.41400146 116.25000000 0.000978 0.000978 0.999999 0.000000
124.80500031 262.79299927 171.25000000 0.169013 -0.414586 -0.894177 0.000000
163.47700500 188.96499634 116.25000000 0.658293 0.113907 -0.744093 0.000000
148.53500366 224.12100220 86.25000000 -0.625386 -0.471135 0.622032 0.000000
97.55860138 150.29299927 78.75000000 0.900111 0.434765 0.027921 0.000000
161.71899414 179.73599243 187.50000000 0.316292 -0.230421 -0.920253 0.000000
171.38699341 166.99200439 123.75000000 -0.348951 -0.751462 0.559945 0.000000
198.63299561 145.01899719 193.75000000 0.000000 0.000000 0.000000 0.000000
141.50399780 227.63699341 81.25000000 -0.686426 -0.230903 0.689567 0.000000
191.16200256 225.00000000 167.50000000 -0.500768 -0.608677 -0.615422 0.000000
141.50399780 199.51199341 76.25000000 -0.592146 -0.052290 0.804132 0.000000
149.41400146 157.32400513 103.75000000 -0.800157 0.319745 0.507456 0.000000
173.14399719 221.48399353 103.75000000 -0.395045 -0.649592 -0.649592 0.000000
146.77699280 119.97100067 162.50000000 0.192047 0.960236 -0.202643 0.000000
116.45500183 174.90199280 185.00000000 0.493986 -0.001331 -0.869469 0.000000
259.27700806 138.86700439 178.75000000 -0.526260 0.379624 0.760878 0.000000
189.84399414 112.06099701 162.50000000 0.268498 0.719702 -0.640264 0.000000
90.08789825 249.60899353 105.00000000 0.852726 0.427134 -0.300690 0.000000
159.96099854 174.46299744 110.00000000 -0.753587 0.451495 0.477764 0.000000
195.99600220 189.84399414 191.25000000 -0.416599 -0.360005 -0.834771 0.000000
188.08599854 161.71899414 191.25000000 -0.000978 -0.000978 -0.999999 0.000000
195.55700684 97.55860138 130.00000000 0.203567 0.940285 -0.272807 0.000000
166.11300659 245.65400696 112.50000000 -0.585344 -0.481357 0.652432 0.000000
116.01599884 247.85200500 56.25000000 -0.660375 -0.532669 0.529309 0.000000
181.05499268 210.05900574 111.25000000 -0.856437 -0.512744 0.060076 0.000000
94.92189789 155.12699890 77.50000000 0.857066 0.514240 -0.031540 0.000000
148.53500366 148.53500366 188.75000000 0.108629 0.096949 -0.989344 0.000000
93.16400146 163.03700256 45.00000000 0.911510 0.404965 0.071783 0.000000
259.27700806 145.89799500 191.25000000 -0.000978 -0.000978 -0.999999 0.000000
240.82000732 98.43750000 131.25000000 -0.724334 -0.607663 0.325707 0.000000
167.87100220 237.30499268 176.25000000 -0.301370 -0.553309 -0.776547 0.000000
201.26899719 205.22500610 145.00000000 -0.255270 -0.918685 0.301421 0.000000
180.17599487 182.81199646 193.75000000 -0.000978 -0.000978 -0.999999 0.000000
154.68699646 246.09399414 176.25000000 -0.281253 -0.473935 -0.834436 0.000000
225.00000000 145.01899719 193.75000000 -0.000978 -0.000978 -0.999999 0.000000
114.25800323 169.62899780 51.25000000 -0.754403 0.101469 0.648522 0.000000
110.74199677 210.05900574 186.25000000 0.375114 0.001272 -0.926978 0.000000
85.25389862 250.04899597 140.00000000 0.567016 0.567016 -0.597483 0.000000
101.95300293 274.21899414 143.75000000 0.520965 -0.714038 -0.467703 0.000000
181.05499268 112.50000000 161.25000000 0.237224 0.736807 -0.633120 0.000000
212.69500732 182.81199646 166.25000000 -0.415654 0.816975 0.399729 0.000000
156.00599670 121.28900146 172.50000000 0.364572 0.730780 -0.577103 0.000000
97.99800110 149.41400146 75.00000000 0.863136 0.503610 0.037050 0.000000
160.39999390 212.69500732 90.00000000 -0.358407 -0.238450 0.902600 0.000000
121.28900146 171.38699341 186.25000000 -0.029997 0.379529 -0.924694 0.000000
270.70300293 147.65600586 188.75000000 -0.491343 -0.387561 -0.779986 0.000000
130.95700073 260.59600830 172.50000000 -0.067903 -0.475318 -0.877190 0.000000
161.27900696 109.86299896 145.00000000 0.388893 0.911162 -0.136183 0.000000
149.85299683 237.30499268 95.00000000 -0.652197 -0.477831 0.588486 0.000000
268.94500732 138.86700439 186.25000000 0.001246 -0.943059 0.332624 0.000000
139.74600220 282.12899780 151.25000000 -0.122858 -0.777115 -0.617251 0.000000
104.15000153 140.62500000 75.00000000 0.793542 0.602047 -0.088494 0.000000
199.07200623 150.29299927 125.00000000 -0.275293 -0.828989 0.486817 0.000000
90.52729797 260.59600830 117.50000000 0.817940 -0.455823 0.350999 0.000000
109.86299896 134.91200256 87.50000000 0.722896 0.677996 -0.133204 0.000000
166.99200439 187.20700073 106.25000000 -0.029468 0.979515 0.199203 0.000000
218.84800720 188.96499634 138.75000000 -0.052736 0.428653 0.901929 0.000000
83.05660248 211.81599426 100.00000000 0.997080 -0.050662 -0.057130 0.000000
190.72300720 199.07200623 187.50000000 0.279525 -0.557471 -0.781723 0.000000
156.44500732 133.59399414 186.25000000 0.023286 0.538324 -0.842416 0.000000
209.61900330 201.26899719 145.00000000 -0.150233 -0.969452 0.193890 0.000000
97.99800110 274.21899414 125.00000000 0.543982 -0.816731 -0.192439 0.000000
143.26199341 254.88299561 98.75000000 -0.715705 -0.199408 0.669331 0.000000
118.65200043 266.30899048 166.25000000 0.315985 -0.675721 -0.665999 0.000000
219.72700500 189.84399414 136.25000000 0.076792 0.383958 0.920152 0.000000
146.77699280 127.44100189 176.25000000 0.274093 0.768411 -0.578289 0.000000
196.87500000 109.42400360 105.00000000 0.088110 -0.380905 0.920407 0.000000
195.99600220 166.11300659 191.25000000 0.062923 -0.230717 -0.970984 0.000000
257.51901245 117.77300262 188.75000000 -0.815662 0.576176 0.052123 0.000000
216.21099854 202.58799744 172.50000000 -0.252240 -0.961098 -0.112538 0.000000
159.96099854 134.47300720 186.25000000 0.366816 0.565712 -0.738523 0.000000
131.83599854 246.97300720 181.25000000 0.219366 -0.532307 -0.817636 0.000000
190.72300720 226.31799316 167.50000000 -0.466906 -0.661032 -0.587398 0.000000
240.82000732 130.95700073 153.75000000 -0.799535 0.132020 0.585930 0.000000
130.07800293 250.48800659 76.25000000 -0.802453 -0.267484 0.533405 0.000000
217.96899414 183.69099426 166.25000000 -0.118801 -0.300340 0.946405 0.000000
128.32000732 125.68399811 76.25000000 -0.883935 -0.441244 0.154797 0.000000
137.54899597 217.96899414 75.00000000 -0.686203 0.686203 -0.241354 0.000000
185.00999451 152.92999268 152.50000000 -0.650396 0.326009 0.686078 0.000000
225.00000000 132.71499634 136.25000000 -0.617624 -0.637710 0.460289 0.000000
145.89799500 236.42599487 91.25000000 -0.611549 -0.362338 0.703363 0.000000
108.10500336 218.84800720 178.75000000 0.455104 -0.438792 -0.774818 0.000000
108.98400116 175.78100586 43.75000000 -0.781737 0.155142 0.604001 0.000000
96.67970276 257.51901245 158.75000000 0.553602 -0.773767 -0.307911 0.000000
265.42999268 165.23399353 186.25000000 -0.792269 -0.193869 -0.578554 0.000000
101.95300293 260.59600830 90.00000000 0.747844 -0.622943 0.229505 0.000000
192.47999573 138.86700439 118.75000000 -0.062612 -0.499505 0.864046 0.000000
260.15600586 155.56599426 173.75000000 -0.844758 0.084048 0.528508 0.000000
83.05660248 211.81599426 112.50000000 0.978226 -0.069266 0.195645 0.000000
137.10899353 269.82400513 88.75000000 -0.943059 -0.001246 0.332624 0.000000
228.51600647 159.96099854 193.75000000 -0.000978 -0.000978 -0.999999 0.000000
165.23399353 172.26600647 123.75000000 -0.602958 -0.423565 0.676043 0.000000
185.00999451 123.04699707 115.00000000 0.492058 -0.125540 0.861463 0.000000
127.44100189 214.45300293 66.25000000 -0.709490 -0.035404 0.703826 0.000000
87.45110321 178.41799927 45.00000000 -0.326009 -0.650396 0.686078 0.000000
199.51199341 125.68399811 116.25000000 -0.355047 -0.552835 0.753866 0.000000
234.66799927 139.74600220 146.25000000 -0.307384 0.295618 0.904503 0.000000
231.59199524 185.44900513 170.00000000 -0.388603 -0.653184 0.649876 0.000000
93.60350037 240.82000732 70.00000000 0.942821 -0.314274 -0.110999 0.000000
94.48239899 271.58200073 130.00000000 0.866146 -0.459072 0.197594 0.000000
94.48239899 156.44500732 82.50000000 0.879023 0.474372 -0.047847 0.000000
109.86299896 184.57000732 181.25000000 0.344341 0.400432 -0.849166 0.000000
183.69099426 223.24200439 173.75000000 -0.426156 -0.442360 -0.789119 0.000000
109.86299896 180.17599487 43.75000000 -0.781737 0.155142 0.604001 0.000000
164.35499573 275.09799194 123.75000000 -0.443742 -0.443742 0.778580 0.000000
105.46900177 260.59600830 162.50000000 0.370016 -0.777196 -0.508974 0.000000
84.37500000 190.72300720 61.25000000 0.993841 0.057014 0.095024 0.000000
106.78700256 166.11300659 172.50000000 0.799478 0.088188 -0.594187 0.000000
198.63299561 203.46699524 142.50000000 0.106982 -0.949634 0.294532 0.000000
157.32400513 138.86700439 188.75000000 -0.127415 0.456691 -0.880454 0.000000
183.69099426 159.08200073 143.75000000 -0.775551 0.335590 -0.534696 0.000000
97.11910248 259.27700806 100.00000000 0.757526 -0.589187 0.281094 0.000000
130.07800293 124.36499786 145.00000000 0.498835 0.829333 -0.251734 0.000000
126.56199646 290.91799927 108.75000000 0.373039 -0.899682 0.226749 0.000000
176.66000366 199.07200623 105.00000000 -0.668671 0.304527 0.678338 0.000000
155.12699890 286.52301025 120.00000000 -0.507844 -0.675449 0.534661 0.000000
170.50799561 255.76199341 118.75000000 -0.723530 -0.271920 0.634480 0.000000
86.57219696 224.12100220 70.00000000 0.932369 -0.293030 0.211711 0.000000
92.28510284 174.02299500 121.25000000 0.851056 0.245116 -0.464351 0.000000
145.89799500 207.42199707 188.75000000 0.733294 -0.107707 -0.671326 0.000000
220.60499573 171.38699341 191.25000000 0.168260 -0.513714 -0.841300 0.000000
147.65600586 156.44500732 188.75000000 0.000978 0.000978 -0.999999 0.000000
140.62500000 163.47700500 76.25000000 -0.578659 0.001362 0.815569 0.000000
190.72300720 139.74600220 193.75000000 0.307899 0.203860 -0.929322 0.000000
225.87899780 92.28510284 136.25000000 0.441244 0.883935 -0.154797 0.000000
154.68699646 182.81199646 86.25000000 -0.360870 -0.321281 0.875529 0.000000
200.39100647 134.47300720 191.25000000 0.177828 0.600360 -0.779708 0.000000
227.63699341 154.68699646 143.75000000 -0.390606 -0.422492 0.817880 0.000000
227.63699341 96.67970276 153.75000000 0.113008 0.793994 -0.597330 0.000000
132.71499634 265.42999268 168.75000000 0.064625 -0.633321 -0.771186 0.000000
201.26899719 166.11300659 151.25000000 0.307526 -0.785547 0.536976 0.000000
94.04290009 177.97799683 147.50000000 0.839172 0.532968 -0.108327 0.000000
123.92600250 130.07800293 71.25000000 -0.707135 0.287023 0.646203 0.000000
163.03700256 123.92600250 107.50000000 0.032820 -0.389901 0.920272 0.000000
95.80079651 154.24800110 90.00000000 0.850074 0.526366 -0.017682 0.000000
148.09599304 159.96099854 100.00000000 -0.814899 0.304208 0.493353 0.000000
111.18199921 188.08599854 45.00000000 -0.864265 0.172264 0.472622 0.000000
115.57599640 240.82000732 180.00000000 0.441620 -0.055712 -0.895470 0.000000
134.47300720 128.32000732 81.25000000 -0.753444 -0.302337 0.583879 0.000000
235.98599243 146.77699280 147.50000000 -0.696293 -0.133269 0.705277 0.000000
222.80299377 199.51199341 165.00000000 -0.686203 -0.686203 -0.241354 0.000000
87.89060211 189.84399414 43.75000000 0.981917 -0.046194 0.183591 0.000000
131.83599854 256.20098877 175.00000000 0.225869 -0.480540 -0.847387 0.000000
250.48800659 172.26600647 166.25000000 -0.295312 -0.516401 0.803817 0.000000
185.44900513 177.53900146 193.75000000 -0.000978 -0.000978 -0.999999 0.000000
137.10899353 257.51901245 88.75000000 -0.688930 -0.001381 0.724826 0.000000
111.18199921 190.72300720 45.00000000 -0.493986 -0.001331 0.869469 0.000000
223.24200439 192.47999573 136.25000000 -0.120219 0.322835 0.938789 0.000000
87.45110321 191.60200500 45.00000000 0.979638 -0.041661 0.196404 0.000000
150.29299927 121.28900146 101.25000000 -0.486466 -0.611029 0.624495 0.000000
174.90199280 209.17999268 101.25000000 -0.768711 -0.151937 0.621287 0.000000
124.80500031 255.76199341 68.75000000 -0.827412 -0.102883 0.552091 0.000000
207.42199707 93.60350037 115.00000000 0.317711 0.948187 0.001236 0.000000
108.10500336 137.98800659 53.75000000 0.474764 0.429082 0.768432 0.000000
242.57800293 123.92600250 193.75000000 -0.249886 0.523053 -0.814845 0.000000
195.99600220 126.56199646 113.75000000 -0.567016 -0.567016 0.597483 0.000000
145.01899719 254.00399780 98.75000000 -0.715705 -0.199408 0.669331 0.000000
88.33010101 248.72999573 157.50000000 0.769071 -0.502416 -0.395104 0.000000
115.13700104 220.60499573 48.75000000 -0.777918 -0.104015 0.619697 0.000000
121.28900146 255.76199341 173.75000000 0.493876 -0.840349 -0.223384 0.000000
225.00000000 125.68399811 136.25000000 -0.705994 -0.169256 0.687696 0.000000
254.00399780 111.62100220 186.25000000 -0.393887 0.393887 -0.830485 0.000000
98.87689972 202.14799500 180.00000000 0.757017 -0.242935 -0.606554 0.000000
96.24019623 264.55099487 110.00000000 0.479792 -0.718858 0.503034 0.000000
183.25199890 246.09399414 137.50000000 -0.912006 -0.352988 0.208911 0.000000
166.11300659 159.96099854 191.25000000 0.352182 0.034831 -0.935283 0.000000
144.14100647 273.33999634 158.75000000 -0.265294 -0.662440 -0.700566 0.000000
121.28900146 220.60499573 186.25000000 0.373008 -0.535894 -0.757418 0.000000
109.42400360 286.52301025 132.50000000 0.590593 -0.667554 -0.453401 0.000000
173.14399719 126.56199646 108.75000000 0.143207 -0.722065 0.676841 0.000000
117.77300262 223.24200439 53.75000000 -0.731582 -0.223062 0.644229 0.000000
165.23399353 177.10000610 127.50000000 -0.710563 -0.369230 0.598973 0.000000
149.41400146 219.72700500 83.75000000 -0.694162 -0.304401 0.652287 0.000000
177.53900146 256.20098877 132.50000000 -0.918346 -0.359721 0.165048 0.000000
157.32400513 193.79899597 87.50000000 -0.660777 0.192534 0.725468 0.000000
90.08789825 257.51901245 145.00000000 0.926414 -0.370831 -0.065128 0.000000
100.19499969 169.18899536 155.00000000 0.849775 0.525391 -0.042974 0.000000
201.26899719 96.67970276 131.25000000 0.200009 0.948340 -0.246269 0.000000
185.88900757 154.68699646 152.50000000 -0.729764 0.293509 0.617492 0.000000
239.06199646 142.38299561 151.25000000 -0.202104 -0.234657 0.950837 0.000000
102.83200073 268.50601196 152.50000000 0.573957 -0.580730 -0.577344 0.000000
105.02899933 224.12100220 177.50000000 0.460182 -0.053255 -0.886226 0.000000
117.77300262 130.51800537 117.50000000 0.574226 0.810930 -0.112507 0.000000
186.76800537 233.78900146 135.00000000 -0.921681 -0.290982 0.256580 0.000000
158.20300293 190.72300720 88.75000000 -0.598377 0.148470 0.787338 0.000000
183.25199890 159.08200073 127.50000000 -0.603619 -0.735610 0.307443 0.000000
109.86299896 159.08200073 173.75000000 0.477716 0.256523 -0.840228 0.000000
225.00000000 90.08789825 117.50000000 0.152941 0.985226 -0.077063 0.000000
166.99200439 129.19900513 111.25000000 -0.146632 -0.466029 0.872534 0.000000
88.76950073 201.26899719 43.75000000 0.971710 -0.099052 0.214403 0.000000
104.58999634 276.85501099 116.25000000 -0.001381 -0.688930 0.724826 0.000000
106.78700256 160.83999634 167.50000000 0.958911 0.275607 -0.067314 0.000000
87.01170349 176.66000366 111.25000000 0.988690 0.141570 0.049492 0.000000
156.44500732 110.30300140 135.00000000 0.363655 0.909856 -0.199795 0.000000
181.93400574 156.44500732 146.25000000 -0.778842 0.616890 -0.113366 0.000000
198.63299561 129.19900513 186.25000000 0.311419 0.701902 -0.640587 0.000000
174.02299500 127.00199890 180.00000000 0.068850 0.855706 -0.512862 0.000000
199.51199341 182.37300110 145.00000000 -0.001246 0.943059 0.332624 0.000000
187.64599609 217.96899414 125.00000000 -0.961723 -0.112611 0.249815 0.000000
96.67970276 167.87100220 128.75000000 0.894539 0.162774 -0.416299 0.000000
129.19900513 158.20300293 68.75000000 -0.655745 0.182749 0.732531 0.000000
94.48239899 250.48800659 92.50000000 0.818468 -0.522524 0.238912 0.000000
264.55099487 162.59800720 178.75000000 -0.514258 -0.204793 0.832825 0.000000
202.14799500 122.16799927 113.75000000 -0.376220 -0.694939 0.612795 0.000000
179.73599243 244.33599854 125.00000000 -0.864642 -0.336335 0.373194 0.000000
141.94299316 295.31201172 130.00000000 -0.298834 -0.905333 -0.301778 0.000000
196.87500000 102.83200073 148.75000000 0.202026 0.880363 -0.429122 0.000000
123.92600250 248.72999573 66.25000000 -0.805459 -0.100500 0.584067 0.000000
107.22699738 248.72999573 173.75000000 0.000978 0.000978 -0.999999 0.000000
122.16799927 276.85501099 86.25000000 0.711606 -0.593279 0.376346 0.000000
124.80500031 281.25000000 91.25000000 0.304522 -0.877205 0.371184 0.000000
244.33599854 128.32000732 158.75000000 -0.868993 0.140722 0.474392 0.000000
126.56199646 251.36700439 71.25000000 -0.906987 0.052404 0.417886 0.000000
166.99200439 174.46299744 127.50000000 -0.829656 -0.247819 0.500256 0.000000
145.89799500 261.91400146 171.25000000 -0.163998 -0.804946 -0.570233 0.000000
225.87899780 90.08789825 120.00000000 0.152941 0.985226 -0.077063 0.000000
102.83200073 277.73400879 138.75000000 0.591676 -0.707044 -0.387309 0.000000
105.02899933 158.20300293 145.00000000 0.827271 0.473843 -0.301821 0.000000
97.99800110 161.71899414 127.50000000 0.870871 0.356613 -0.338247 0.000000
232.03100586 97.99800110 160.00000000 0.686203 0.686203 -0.241354 0.000000
87.45110321 172.26600647 75.00000000 0.918448 0.378670 -0.114290 0.000000
242.57800293 159.08200073 153.75000000 -0.712767 -0.443610 0.543298 0.000000
149.85299683 246.97300720 177.50000000 -0.136623 -0.536207 -0.832957 0.000000
206.98199463 144.14100647 125.00000000 -0.300799 -0.462887 0.833820 0.000000
103.71099854 250.48800659 63.75000000 0.583574 -0.673869 0.453147 0.000000
227.63699341 169.62899780 191.25000000 -0.174693 -0.261362 -0.949301 0.000000
152.05099487 274.65798950 155.00000000 -0.396089 -0.724793 -0.563728 0.000000
130.95700073 282.56799316 92.50000000 0.376011 -0.804823 0.459213 0.000000
138.42799377 134.47300720 92.50000000 -0.949173 0.093211 0.300637 0.000000
266.30899048 169.62899780 183.75000000 -0.329635 -0.683626 -0.651150 0.000000
227.63699341 100.19499969 108.75000000 -0.699427 -0.607267 0.376868 0.000000
217.96899414 108.10500336 171.25000000 0.370211 0.821456 -0.433767 0.000000
164.35499573 194.23800659 186.25000000 -0.000978 -0.000978 -0.999999 0.000000
151.17199707 171.38699341 186.25000000 0.379777 -0.210987 -0.900696 0.000000
148.97500610 184.57000732 80.00000000 -0.518557 -0.101988 0.848939 0.000000
232.91000366 113.37899780 138.75000000 -0.740248 -0.427003 0.519328 0.000000
90.08789825 194.23800659 157.50000000 0.944869 0.190068 -0.266642 0.000000
227.63699341 128.32000732 138.75000000 -0.701816 -0.052886 0.710392 0.000000
160.83999634 281.25000000 141.25000000 -0.500631 -0.628739 -0.595026 0.000000
187.20700073 235.54699707 163.75000000 -0.642171 -0.428670 -0.635499 0.000000
237.30499268 137.10899353 193.75000000 -0.000978 -0.000978 -0.999999 0.000000
162.59800720 177.53900146 188.75000000 0.316292 -0.230421 -0.920253 0.000000
184.57000732 107.66600037 155.00000000 0.267925 0.855830 -0.442460 0.000000
242.57800293 138.86700439 153.75000000 -0.647269 0.482510 0.590108 0.000000
161.71899414 105.90799713 125.00000000 0.386608 0.904002 -0.182525 0.000000
121.28900146 287.84201050 107.50000000 0.130210 -0.835393 0.534008 0.000000
266.30899048 152.92999268 178.75000000 -0.562093 0.049060 0.825618 0.000000
170.94700623 214.45300293 100.00000000 -0.622560 -0.416700 0.662404 0.000000
130.95700073 269.82400513 163.75000000 -0.043971 -0.767362 -0.639705 0.000000
140.62500000 145.01899719 186.25000000 0.000978 0.000978 -0.999999 0.000000
198.63299561 96.24019623 122.50000000 0.276988 0.957218 -0.083740 0.000000
239.06199646 160.83999634 191.25000000 -0.000978 -0.000978 -0.999999 0.000000
185.44900513 175.78100586 148.75000000 -0.385429 0.556001 0.736415 0.000000
112.50000000 251.36700439 56.25000000 -0.667001 -0.727776 0.159533 0.000000
174.02299500 132.71499634 188.75000000 -0.000978 -0.000978 -0.999999 0.000000
132.71499634 233.78900146 183.75000000 -0.632256 -0.155423 -0.759009 0.000000
167.87100220 225.87899780 103.75000000 -0.713922 -0.325393 0.620028 0.000000
154.68699646 112.50000000 143.75000000 0.300938 0.899850 -0.315763 0.000000
187.64599609 190.72300720 130.00000000 -0.208595 0.897105 0.389475 0.000000
92.28510284 214.45300293 43.75000000 0.856128 -0.329757 0.397875 0.000000
150.29299927 196.87500000 191.25000000 -0.432671 0.189202 -0.881475 0.000000
139.74600220 222.36300659 188.75000000 -0.201818 -0.185989 -0.961602 0.000000
161.71899414 146.77699280 113.75000000 0.000978 0.000978 0.999999 0.000000
93.16400146 225.00000000 171.25000000 0.452062 0.210366 -0.866825 0.000000
116.01599884 266.74798584 72.50000000 0.113272 -0.792905 0.598724 0.000000
92.28510284 243.89599609 165.00000000 0.748223 -0.511423 -0.422623 0.000000
207.42199707 124.80500031 183.75000000 0.388365 0.626342 -0.675920 0.000000
184.13099670 249.60899353 145.00000000 -0.812411 -0.579889 0.060966 0.000000
179.29699707 156.44500732 118.75000000 -0.546018 -0.465868 0.696298 0.000000
129.63900757 227.63699341 70.00000000 -0.943059 -0.001246 0.332624 0.000000
205.66400146 107.22699738 161.25000000 0.384992 0.809922 -0.442502 0.000000
257.51901245 118.65200043 183.75000000 -0.873300 0.429909 0.229185 0.000000
171.82600403 268.94500732 142.50000000 -0.797053 -0.597428 -0.088240 0.000000
143.26199341 154.68699646 88.75000000 -0.820839 0.492503 0.289248 0.000000
161.71899414 130.95700073 111.25000000 0.086864 -0.420532 0.903110 0.000000
116.45500183 150.29299927 57.50000000 -0.852031 0.098807 0.514082 0.000000
82.61720276 237.30499268 153.75000000 0.864219 -0.217178 -0.453827 0.000000
168.75000000 130.07800293 111.25000000 -0.296990 -0.551100 0.779798 0.000000
123.48600006 174.90199280 60.00000000 -0.523920 0.120458 0.843207 0.000000
177.97799683 248.72999573 162.50000000 -0.579964 -0.367583 -0.726997 0.000000
94.04290009 217.96899414 43.75000000 0.836111 -0.407820 0.366881 0.000000
134.47300720 122.60700226 150.00000000 0.495063 0.857232 -0.141655 0.000000
166.99200439 261.03500366 161.25000000 -0.670035 -0.392095 -0.630329 0.000000
196.87500000 226.75799561 158.75000000 -0.780730 -0.624305 0.026536 0.000000
247.85200500 95.36129761 152.50000000 -0.570058 0.821270 -0.023465 0.000000
228.95500183 134.47300720 140.00000000 -0.702171 -0.175925 0.689932 0.000000
83.93550110 218.84800720 87.50000000 0.991151 -0.127418 0.037210 0.000000
141.50399780 235.54699707 183.75000000 -0.000978 -0.000978 -0.999999 0.000000
212.69500732 186.32800293 186.25000000 -0.397663 -0.229137 -0.888460 0.000000
130.07800293 279.05300903 155.00000000 0.196373 -0.722095 -0.663338 0.000000
