180.93800354 238.59399414 320.00000000 -0.749645 0.182429 0.636202 0.000000
130.31199646 210.00000000 422.50000000 -0.000978 -0.000978 -0.999999 0.000000
144.37500000 192.18800354 327.50000000 -0.000978 -0.999999 -0.000978 0.000000
155.62500000 279.84399414 415.00000000 -0.416700 -0.622560 -0.662404 0.000000
114.37500000 315.46899414 375.00000000 0.440555 -0.882563 -0.164299 0.000000
105.93800354 246.56199646 262.50000000 0.000978 0.000978 0.999999 0.000000
158.43800354 212.81199646 337.50000000 -0.293434 -0.639782 0.710335 0.000000
168.75000000 163.12500000 332.50000000 0.000978 0.000978 0.999999 0.000000
140.62500000 218.43800354 432.50000000 0.439816 0.173881 -0.881094 0.000000
187.50000000 246.56199646 417.50000000 -0.114290 -0.378670 -0.918448 0.000000
116.25000000 255.93800354 417.50000000 0.001367 -0.799835 -0.600218 0.000000
176.25000000 165.00000000 402.50000000 -0.000978 -0.000978 -0.999999 0.000000
94.68750000 283.12500000 317.50000000 0.820840 -0.507400 0.262234 0.000000
127.50000000 253.12500000 427.50000000 -0.097591 -0.399987 -0.911310 0.000000
117.18800354 168.75000000 357.50000000 0.876671 0.462088 -0.133876 0.000000
232.50000000 190.31199646 377.50000000 0.864664 -0.165886 -0.474171 0.000000
227.34399414 255.00000000 375.00000000 -0.555620 -0.831382 -0.009556 0.000000
90.46880341 225.93800354 375.00000000 -0.000978 -0.000978 0.999999 0.000000
157.50000000 225.00000000 432.50000000 -0.000978 -0.000978 -0.999999 0.000000
185.62500000 313.12500000 372.50000000 -0.482333 -0.766828 -0.423472 0.000000
99.37500000 293.90600586 325.00000000 0.771154 -0.571636 0.280276 0.000000
151.87500000 183.75000000 417.50000000 -0.297510 0.781163 -0.548882 0.000000
146.25000000 311.25000000 307.50000000 0.714909 -0.156339 0.681516 0.000000
160.31199646 286.87500000 302.50000000 -0.000978 -0.000978 0.999999 0.000000
209.06199646 273.75000000 382.50000000 -0.701101 -0.701101 0.130055 0.000000
193.12500000 190.31199646 347.50000000 -0.000978 -0.000978 -0.999999 0.000000
151.87500000 317.81201172 317.50000000 0.000978 0.000978 0.999999 0.000000
195.93800354 234.84399414 345.00000000 -0.700752 -0.632465 0.330052 0.000000
237.18800354 155.62500000 387.50000000 0.830559 0.031891 -0.556017 0.000000
109.68800354 295.78100586 310.00000000 0.589471 -0.589471 0.552312 0.000000
240.93800354 157.50000000 392.50000000 0.231601 0.013065 -0.972723 0.000000
200.15600586 268.12500000 400.00000000 -0.618217 -0.209171 -0.757664 0.000000
105.00000000 248.43800354 262.50000000 0.000978 0.000978 0.999999 0.000000
219.84399414 215.62500000 350.00000000 -0.973235 0.202182 0.109253 0.000000
153.75000000 234.37500000 432.50000000 0.000978 0.000978 -0.999999 0.000000
107.81199646 248.43800354 262.50000000 -0.388506 -0.019490 0.921240 0.000000
165.93800354 246.56199646 427.50000000 -0.000978 -0.000978 -0.999999 0.000000
121.87500000 150.00000000 337.50000000 0.000978 0.000978 -0.999999 0.000000
192.18800354 181.87500000 342.50000000 0.884448 -0.419414 0.204556 0.000000
230.15600586 148.12500000 375.00000000 0.703931 0.365913 -0.608761 0.000000
193.12500000 219.37500000 352.50000000 -0.855529 -0.469258 -0.218786 0.000000
189.84399414 302.81201172 340.00000000 -0.970072 0.242814 -0.001184 0.000000
145.31199646 261.56201172 287.50000000 -0.520855 0.299214 0.799488 0.000000
157.96899414 231.56199646 300.00000000 -0.468584 0.843451 0.262714 0.000000
97.50000000 273.75000000 282.50000000 0.452614 -0.752163 0.478948 0.000000
177.18800354 277.03100586 410.00000000 -0.532971 -0.742880 -0.405058 0.000000
184.68800354 151.87500000 397.50000000 -0.322216 0.244190 -0.914630 0.000000
106.40599823 164.06199646 330.00000000 0.798544 0.545385 -0.254721 0.000000
141.56199646 210.00000000 427.50000000 -0.000978 -0.000978 -0.999999 0.000000
183.75000000 307.50000000 382.50000000 0.080707 -0.972207 0.219771 0.000000
142.50000000 306.56201172 302.50000000 -0.097968 -0.864677 0.492682 0.000000
165.93800354 187.50000000 332.50000000 -0.354885 -0.354885 0.864936 0.000000
94.68750000 170.62500000 317.50000000 0.707028 0.412295 -0.574564 0.000000
202.50000000 203.43800354 357.50000000 0.398044 0.161215 -0.903089 0.000000
111.09400177 249.37500000 265.00000000 0.001257 -0.936483 0.350710 0.000000
200.62500000 145.31199646 337.50000000 -0.575119 0.416008 0.704397 0.000000
180.00000000 265.31201172 412.50000000 -0.287044 0.252770 -0.923966 0.000000
89.53119659 270.00000000 300.00000000 0.799704 -0.600124 0.018018 0.000000
162.18800354 184.68800354 412.50000000 -0.107448 0.625556 -0.772745 0.000000
216.56199646 148.12500000 357.50000000 0.893046 0.070178 -0.444459 0.000000
118.12500000 286.87500000 407.50000000 0.826286 0.410764 -0.385389 0.000000
140.62500000 308.43798828 402.50000000 -0.334595 -0.754858 -0.564123 0.000000
214.68800354 203.43800354 352.50000000 -0.362158 0.901730 0.236063 0.000000
87.18750000 254.06199646 367.50000000 0.964985 -0.010870 -0.262080 0.000000
180.93800354 286.87500000 327.50000000 -0.848329 0.423389 0.317930 0.000000
142.50000000 252.18800354 287.50000000 0.000978 0.000978 0.999999 0.000000
237.18800354 141.09399414 400.00000000 -0.482715 0.433626 -0.760890 0.000000
168.75000000 266.25000000 307.50000000 -0.525576 -0.054370 0.849007 0.000000
85.31250000 265.78100586 310.00000000 0.905753 -0.423212 0.022413 0.000000
169.68800354 327.18798828 362.50000000 -0.531499 -0.708110 -0.464853 0.000000
190.31199646 165.93800354 337.50000000 0.000978 0.000978 0.999999 0.000000
106.87500000 232.50000000 417.50000000 -0.000978 -0.000978 -0.999999 0.000000
86.71880341 273.75000000 360.00000000 0.964510 -0.191858 -0.181417 0.000000
148.12500000 210.93800354 312.50000000 -0.589471 0.589471 -0.552312 0.000000
176.25000000 320.15600586 370.00000000 -0.119422 -0.923807 -0.363757 0.000000
205.31199646 213.75000000 412.50000000 -0.000978 -0.000978 -0.999999 0.000000
164.06199646 236.25000000 427.50000000 -0.601707 -0.517434 -0.608449 0.000000
203.43800354 211.87500000 412.50000000 -0.000978 -0.000978 -0.999999 0.000000
89.53119659 247.50000000 390.00000000 0.939463 -0.021611 -0.341969 0.000000
151.87500000 320.15600586 385.00000000 -0.280411 -0.777862 -0.562406 0.000000
162.18800354 156.56199646 327.50000000 -0.423389 -0.848329 0.317930 0.000000
140.62500000 304.21899414 300.00000000 0.178632 -0.827112 0.532894 0.000000
136.87500000 158.43800354 377.50000000 0.446689 0.894688 0.001310 0.000000
188.43800354 128.90600586 345.00000000 0.270039 0.901605 -0.337917 0.000000
150.00000000 262.50000000 292.50000000 -0.878120 0.231084 0.418933 0.000000
127.50000000 152.81199646 317.50000000 -0.606512 0.379686 0.698557 0.000000
178.12500000 149.06199646 327.50000000 0.000978 0.000978 0.999999 0.000000
249.37500000 195.93800354 392.50000000 0.801968 0.128492 -0.583384 0.000000
149.06199646 139.68800354 337.50000000 0.597330 0.793994 -0.113008 0.000000
137.81199646 152.81199646 367.50000000 0.351515 0.882560 -0.312290 0.000000
105.93800354 252.18800354 262.50000000 0.000978 0.000978 0.999999 0.000000
179.06199646 286.87500000 322.50000000 -0.730182 -0.001380 0.683251 0.000000
156.56199646 148.59399414 320.00000000 -0.185612 -0.627399 0.756253 0.000000
238.12500000 176.25000000 407.50000000 -0.000978 -0.000978 -0.999999 0.000000
180.00000000 167.81199646 332.50000000 0.000978 0.000978 0.999999 0.000000
193.12500000 181.87500000 342.50000000 0.884448 -0.419414 0.204556 0.000000
225.93800354 224.06199646 372.50000000 -0.822060 0.268840 -0.501938 0.000000
200.62500000 228.75000000 347.50000000 0.000978 0.000978 0.999999 0.000000
166.87500000 274.68798828 417.50000000 -0.000978 -0.000978 -0.999999 0.000000
70.31250000 219.37500000 302.50000000 0.414875 0.324752 -0.849950 0.000000
124.68800354 322.50000000 372.50000000 0.341768 -0.753186 -0.562055 0.000000
97.50000000 181.87500000 292.50000000 0.000978 0.000978 0.999999 0.000000
80.15619659 253.12500000 290.00000000 0.905605 -0.410374 0.107115 0.000000
186.56199646 224.06199646 347.50000000 -0.040702 0.809822 0.585262 0.000000
133.12500000 231.56199646 282.50000000 0.000978 0.000978 0.999999 0.000000
128.43800354 161.25000000 367.50000000 0.603724 0.777085 -0.177924 0.000000
130.31199646 328.59399414 355.00000000 0.447912 -0.885870 0.120865 0.000000
116.25000000 280.78100586 410.00000000 0.772062 -0.385218 -0.505497 0.000000
231.56199646 147.18800354 407.50000000 0.000978 0.000978 -0.999999 0.000000
143.43800354 200.62500000 427.50000000 0.212630 0.533870 -0.818396 0.000000
225.93800354 213.75000000 402.50000000 -0.000978 -0.000978 -0.999999 0.000000
219.37500000 212.81199646 352.50000000 -0.808861 0.020740 0.587634 0.000000
75.93750000 175.78100586 290.00000000 0.637794 0.734952 -0.230358 0.000000
127.96900177 200.62500000 420.00000000 0.542333 0.275096 -0.793850 0.000000
162.18800354 170.62500000 332.50000000 -0.032184 -0.611489 0.790598 0.000000
84.37500000 254.06199646 262.50000000 0.656816 -0.656816 0.370385 0.000000
151.87500000 205.31199646 432.50000000 0.000978 0.000978 -0.999999 0.000000
120.93800354 289.68798828 287.50000000 -0.400339 -0.799069 0.448572 0.000000
102.18800354 254.06199646 262.50000000 -0.000978 -0.000978 0.999999 0.000000
169.68800354 257.81201172 307.50000000 0.000978 0.000978 0.999999 0.000000
210.93800354 184.68800354 352.50000000 -0.000978 -0.000978 -0.999999 0.000000
112.50000000 190.31199646 307.50000000 -0.778580 0.443742 0.443742 0.000000
96.56250000 177.18800354 327.50000000 0.823167 0.506922 -0.255786 0.000000
120.00000000 251.25000000 422.50000000 -0.228534 -0.781989 -0.579884 0.000000
168.75000000 226.87500000 432.50000000 -0.819283 -0.496583 -0.286671 0.000000
174.37500000 277.50000000 412.50000000 -0.353646 0.734997 -0.578545 0.000000
211.87500000 225.93800354 347.50000000 0.222418 -0.146978 0.963809 0.000000
166.87500000 133.59399414 335.00000000 0.368685 0.862323 -0.347089 0.000000
108.75000000 306.56201172 332.50000000 0.799835 -0.600218 0.001367 0.000000
121.87500000 312.18798828 327.50000000 0.280208 -0.837527 0.469077 0.000000
125.62500000 237.18800354 277.50000000 -0.336820 -0.714318 -0.613435 0.000000
85.31250000 255.00000000 262.50000000 0.756259 -0.601534 0.257349 0.000000
103.12500000 294.37500000 317.50000000 0.649300 -0.709922 0.272802 0.000000
207.18800354 155.62500000 347.50000000 0.452628 0.174313 -0.874496 0.000000
105.00000000 167.81199646 332.50000000 0.851714 0.509287 -0.123332 0.000000
224.06199646 247.50000000 357.50000000 0.359865 -0.155428 0.919967 0.000000
132.18800354 310.31201172 397.50000000 0.569029 -0.231023 -0.789199 0.000000
186.09399414 290.62500000 395.00000000 -0.510171 -0.587623 -0.628032 0.000000
222.18800354 208.12500000 367.50000000 -0.420422 0.866646 0.268645 0.000000
187.50000000 198.75000000 352.50000000 0.574798 -0.765866 0.288195 0.000000
130.31199646 221.25000000 427.50000000 -0.000978 -0.000978 -0.999999 0.000000
199.68800354 211.87500000 347.50000000 0.000978 0.000978 0.999999 0.000000
95.62500000 204.37500000 347.50000000 0.699576 0.702572 -0.130328 0.000000
65.15619659 186.56199646 280.00000000 0.835429 0.457534 -0.304502 0.000000
212.81199646 145.31199646 402.50000000 0.023931 0.316137 -0.948412 0.000000
126.56199646 166.87500000 377.50000000 0.700255 0.665322 -0.258824 0.000000
244.68800354 154.68800354 402.50000000 -0.000978 -0.000978 -0.999999 0.000000
105.93800354 166.87500000 302.50000000 -0.396187 -0.249673 0.883572 0.000000
96.56250000 255.00000000 402.50000000 0.735696 -0.419692 -0.531610 0.000000
164.06199646 218.43800354 432.50000000 -0.000978 -0.000978 -0.999999 0.000000
169.68800354 246.56199646 427.50000000 -0.134329 -0.174502 -0.975451 0.000000
170.62500000 286.87500000 407.50000000 -0.195806 -0.732346 -0.652173 0.000000
181.87500000 259.68798828 417.50000000 -0.314210 -0.088084 -0.945258 0.000000
150.93800354 266.25000000 422.50000000 0.073101 -0.285991 -0.955440 0.000000
135.00000000 289.68798828 287.50000000 0.085189 -0.307992 0.947567 0.000000
165.00000000 248.43800354 302.50000000 -0.412964 -0.063637 0.908521 0.000000
90.00000000 229.21899414 375.00000000 0.000978 0.000978 0.999999 0.000000
154.68800354 280.31201172 292.50000000 -0.872953 -0.471595 0.124708 0.000000
106.87500000 297.18798828 317.50000000 0.562798 -0.742241 0.363780 0.000000
133.59399414 279.37500000 280.00000000 -0.237235 -0.708564 0.664573 0.000000
88.12500000 255.46899414 370.00000000 0.936483 0.001257 -0.350710 0.000000
94.68750000 179.06199646 292.50000000 0.000978 0.000978 0.999999 0.000000
225.00000000 186.56199646 407.50000000 0.000978 0.000978 -0.999999 0.000000
131.25000000 252.18800354 277.50000000 -0.000978 -0.000978 0.999999 0.000000
142.50000000 192.18800354 327.50000000 -0.001139 -0.983039 0.183394 0.000000
150.93800354 147.18800354 372.50000000 0.552484 0.800096 -0.233684 0.000000
90.00000000 275.62500000 372.50000000 0.927317 -0.213778 -0.307218 0.000000
173.43800354 323.90600586 335.00000000 -0.450761 -0.734757 0.506900 0.000000
231.56199646 150.00000000 377.50000000 0.742324 -0.052921 -0.667948 0.000000
158.43800354 285.00000000 297.50000000 -0.838250 -0.277351 0.469482 0.000000
245.62500000 175.31199646 387.50000000 0.192781 -0.953122 -0.233225 0.000000
147.18800354 246.09399414 290.00000000 -0.001380 -0.730182 0.683251 0.000000
101.25000000 256.87500000 262.50000000 -0.457757 0.790965 0.405996 0.000000
208.12500000 150.93800354 347.50000000 -0.000978 -0.000978 -0.999999 0.000000
178.12500000 199.68800354 417.50000000 -0.318826 0.496481 -0.807376 0.000000
120.93800354 251.25000000 272.50000000 -0.364399 -0.143805 0.920073 0.000000
110.62500000 195.00000000 402.50000000 0.647006 0.576423 -0.499119 0.000000
137.81199646 310.31201172 397.50000000 -0.000978 -0.000978 -0.999999 0.000000
127.50000000 264.37500000 272.50000000 0.000978 0.000978 0.999999 0.000000
135.93800354 157.50000000 322.50000000 0.000978 0.000978 0.999999 0.000000
87.65619659 277.50000000 350.00000000 0.904023 -0.421332 -0.072267 0.000000
80.62500000 228.75000000 327.50000000 0.871255 -0.001330 -0.490829 0.000000
179.06199646 228.75000000 327.50000000 -0.672462 0.609366 0.420081 0.000000
218.43800354 242.81199646 362.50000000 0.849163 -0.423805 0.315137 0.000000
91.87500000 184.68800354 327.50000000 0.764540 0.479679 -0.430565 0.000000
196.87500000 235.31199646 347.50000000 -0.703015 -0.600938 0.380320 0.000000
193.12500000 286.87500000 347.50000000 -0.625063 0.625063 0.467540 0.000000
191.25000000 211.87500000 362.50000000 -0.032820 -0.389901 0.920272 0.000000
111.09400177 182.81199646 310.00000000 -0.801787 0.353682 0.481712 0.000000
153.75000000 177.18800354 407.50000000 -0.152710 0.718192 -0.678881 0.000000
166.87500000 235.31199646 427.50000000 -0.208740 -0.424882 -0.880853 0.000000
92.81250000 257.81201172 262.50000000 -0.445057 -0.891500 0.084575 0.000000
128.43800354 190.31199646 412.50000000 0.891500 -0.445057 0.084575 0.000000
154.68800354 328.12500000 367.50000000 -0.402822 -0.871007 -0.281215 0.000000
60.93750000 212.81199646 272.50000000 0.981399 -0.140549 -0.130772 0.000000
110.62500000 298.12500000 392.50000000 0.000978 0.000978 -0.999999 0.000000
208.12500000 272.81201172 372.50000000 -0.856000 -0.504968 0.110776 0.000000
232.50000000 153.75000000 377.50000000 -0.000978 -0.000978 -0.999999 0.000000
164.06199646 294.37500000 407.50000000 -0.299627 -0.481599 -0.823581 0.000000
227.81199646 211.87500000 377.50000000 -0.000978 -0.000978 -0.999999 0.000000
145.31199646 304.68798828 302.50000000 -0.262410 -0.464972 0.845543 0.000000
166.87500000 283.12500000 412.50000000 0.226932 -0.640105 -0.734008 0.000000
106.87500000 257.81201172 262.50000000 0.000978 0.000978 0.999999 0.000000
139.68800354 151.40600586 365.00000000 0.338228 0.906333 -0.253305 0.000000
134.53100586 163.12500000 320.00000000 -0.523300 0.310163 0.793698 0.000000
150.00000000 287.81201172 292.50000000 -0.490804 -0.071313 0.868346 0.000000
213.75000000 178.12500000 407.50000000 -0.000978 -0.000978 -0.999999 0.000000
90.46880341 263.43798828 390.00000000 0.933568 -0.312114 -0.176171 0.000000
182.81199646 196.87500000 412.50000000 -0.656816 0.656816 -0.370385 0.000000
83.90619659 263.43798828 350.00000000 0.871255 -0.001330 0.490829 0.000000
152.81199646 176.25000000 327.50000000 -0.848329 -0.423389 -0.317930 0.000000
125.62500000 266.25000000 272.50000000 0.000978 0.000978 0.999999 0.000000
90.93750000 258.75000000 262.50000000 -0.445057 -0.891500 0.084575 0.000000
184.68800354 156.56199646 402.50000000 0.440555 0.882563 -0.164299 0.000000
137.81199646 206.25000000 327.50000000 -0.760458 0.630440 0.155720 0.000000
165.00000000 172.50000000 402.50000000 -0.000978 -0.000978 -0.999999 0.000000
202.50000000 253.12500000 377.50000000 -0.701101 0.701101 -0.130055 0.000000
198.75000000 249.84399414 380.00000000 -0.707202 0.676116 -0.206720 0.000000
107.81199646 172.50000000 342.50000000 0.816430 0.489229 -0.306751 0.000000
142.50000000 228.75000000 287.50000000 -0.354885 -0.354885 0.864936 0.000000
102.18800354 248.43800354 407.50000000 -0.000978 -0.000978 -0.999999 0.000000
183.75000000 131.25000000 322.50000000 0.844749 -0.357574 -0.398172 0.000000
175.31199646 185.62500000 407.50000000 -0.000978 -0.000978 -0.999999 0.000000
198.75000000 141.56199646 392.50000000 0.175877 0.825271 -0.536652 0.000000
179.06199646 193.12500000 412.50000000 -0.827412 -0.552091 -0.102883 0.000000
199.68800354 285.93798828 382.50000000 -0.899297 -0.357658 -0.251685 0.000000
122.81199646 243.75000000 427.50000000 -0.000978 -0.000978 -0.999999 0.000000
105.00000000 175.31199646 302.50000000 -0.669399 -0.126724 0.732015 0.000000
144.37500000 210.93800354 302.50000000 -0.424057 0.653547 0.626939 0.000000
165.00000000 154.21899414 325.00000000 0.029558 -0.753032 0.657320 0.000000
154.21899414 246.56199646 295.00000000 -0.322107 0.399166 0.858437 0.000000
128.43800354 294.37500000 407.50000000 0.001369 -0.606331 -0.795211 0.000000
148.12500000 265.31201172 287.50000000 0.000978 0.000978 0.999999 0.000000
144.37500000 293.43798828 412.50000000 -0.000978 -0.000978 -0.999999 0.000000
150.00000000 195.93800354 427.50000000 0.325308 0.733157 -0.597207 0.000000
186.56199646 213.75000000 422.50000000 -0.823781 0.493646 -0.278746 0.000000
162.18800354 249.37500000 297.50000000 -0.900223 -0.245248 0.359795 0.000000
175.31199646 140.62500000 322.50000000 0.000978 0.000978 0.999999 0.000000
146.25000000 315.93798828 317.50000000 0.280208 -0.837527 0.469077 0.000000
180.93800354 150.00000000 327.50000000 0.000978 0.000978 0.999999 0.000000
176.25000000 214.68800354 357.50000000 0.000978 0.000978 0.999999 0.000000
105.00000000 203.43800354 402.50000000 0.518624 0.518624 -0.679749 0.000000
158.90600586 153.75000000 390.00000000 0.590074 0.284699 -0.755486 0.000000
141.56199646 278.43798828 282.50000000 -0.487952 -0.189510 0.852050 0.000000
130.31199646 291.09399414 410.00000000 0.429324 -0.468502 -0.772131 0.000000
123.75000000 239.06199646 427.50000000 -0.000978 -0.000978 -0.999999 0.000000
192.18800354 233.43800354 337.50000000 -0.677853 -0.172906 0.714576 0.000000
211.87500000 134.53100586 375.00000000 0.107920 0.924833 -0.364742 0.000000
136.87500000 200.62500000 422.50000000 0.209017 -0.630146 -0.747815 0.000000
233.43800354 139.21899414 395.00000000 0.001257 0.936483 -0.350710 0.000000
137.81199646 270.93798828 417.50000000 0.748255 -0.448953 -0.488421 0.000000
122.81199646 210.93800354 422.50000000 -0.000978 -0.000978 -0.999999 0.000000
186.56199646 225.93800354 422.50000000 0.000978 0.000978 -0.999999 0.000000
104.53099823 207.18800354 405.00000000 0.620006 0.413891 -0.666548 0.000000
200.62500000 213.75000000 347.50000000 0.000978 0.000978 0.999999 0.000000
89.06250000 246.56199646 387.50000000 0.983039 -0.001139 -0.183394 0.000000
183.75000000 186.56199646 342.50000000 0.000978 0.000978 0.999999 0.000000
111.56199646 258.75000000 417.50000000 0.768884 0.181903 -0.612967 0.000000
157.50000000 176.25000000 402.50000000 -0.475845 0.689557 -0.545969 0.000000
158.43800354 183.75000000 332.50000000 -0.571319 0.009590 0.820672 0.000000
155.62500000 331.40600586 345.00000000 0.611291 -0.765269 -0.201711 0.000000
180.00000000 217.50000000 427.50000000 -0.189013 0.202230 -0.960925 0.000000
219.37500000 225.00000000 347.50000000 0.000978 0.000978 0.999999 0.000000
137.81199646 164.06199646 322.50000000 -0.507702 0.326266 0.797363 0.000000
127.50000000 221.71899414 280.00000000 -0.230734 0.374759 0.897952 0.000000
221.25000000 208.12500000 352.50000000 -0.552047 0.060711 0.831600 0.000000
179.06199646 316.87500000 332.50000000 -0.547087 -0.680931 0.486857 0.000000
216.56199646 196.87500000 357.50000000 0.753376 0.351575 -0.555716 0.000000
193.12500000 230.62500000 337.50000000 -0.494420 0.390673 0.776482 0.000000
112.96900177 195.93800354 295.00000000 0.000978 0.000978 0.999999 0.000000
88.59380341 169.68800354 305.00000000 0.656816 0.656816 -0.370385 0.000000
140.62500000 230.62500000 287.50000000 -0.437780 -0.170167 0.882832 0.000000
180.00000000 171.56199646 332.50000000 -0.503213 -0.450417 0.737496 0.000000
117.18800354 247.50000000 267.50000000 -0.855469 0.297487 0.423881 0.000000
146.25000000 214.68800354 432.50000000 -0.000978 -0.000978 -0.999999 0.000000
210.00000000 266.25000000 367.50000000 -0.876369 -0.292123 0.382938 0.000000
157.03100586 295.31201172 300.00000000 -0.591528 -0.393803 0.703572 0.000000
188.90600586 278.43798828 340.00000000 -0.982547 -0.001141 0.186011 0.000000
106.87500000 260.62500000 262.50000000 -0.799835 -0.001367 0.600218 0.000000
125.15599823 239.06199646 275.00000000 -0.890920 -0.454065 0.009267 0.000000
170.62500000 318.75000000 327.50000000 -0.145165 -0.609094 0.779700 0.000000
188.43800354 274.68798828 402.50000000 -0.440640 -0.440640 -0.782095 0.000000
99.37500000 300.46899414 345.00000000 0.762584 -0.630222 0.145899 0.000000
194.06199646 239.06199646 352.50000000 -0.699300 -0.702295 0.133271 0.000000
175.31199646 285.93798828 317.50000000 -0.795510 -0.174255 0.580344 0.000000
156.56199646 150.46899414 385.00000000 0.329704 0.713005 -0.618804 0.000000
98.43750000 281.71899414 300.00000000 0.439879 -0.763656 0.472584 0.000000
198.75000000 195.93800354 407.50000000 -0.003944 0.450887 -0.892572 0.000000
89.53119659 241.87500000 390.00000000 0.899960 0.248925 -0.357922 0.000000
96.56250000 194.06199646 337.50000000 0.780940 -0.623911 -0.029443 0.000000
182.81199646 267.18798828 412.50000000 -0.000978 -0.000978 -0.999999 0.000000
121.87500000 151.87500000 317.50000000 -0.455143 0.347305 0.819893 0.000000
175.31199646 286.87500000 407.50000000 -0.536691 -0.651095 -0.536691 0.000000
227.81199646 169.68800354 372.50000000 0.433203 -0.867916 0.243016 0.000000
135.00000000 148.59399414 355.00000000 0.504284 0.846424 -0.171070 0.000000
169.68800354 260.62500000 307.50000000 0.000978 0.000978 0.999999 0.000000
160.31199646 322.03100586 380.00000000 -0.223382 -0.667022 -0.710761 0.000000
220.31199646 146.25000000 402.50000000 0.061896 0.680856 -0.729797 0.000000
151.87500000 262.03100586 425.00000000 -0.029208 -0.588334 -0.808090 0.000000
143.43800354 260.62500000 287.50000000 -0.567491 0.237880 0.788268 0.000000
157.50000000 308.43798828 397.50000000 0.000978 0.000978 -0.999999 0.000000
165.93800354 135.46899414 345.00000000 0.312114 0.933568 -0.176171 0.000000
117.18800354 186.09399414 400.00000000 0.560507 0.696892 -0.447408 0.000000
186.56199646 131.71899414 355.00000000 0.253005 0.941511 -0.222589 0.000000
225.93800354 179.06199646 407.50000000 0.000978 0.000978 -0.999999 0.000000
240.00000000 180.00000000 407.50000000 -0.000978 -0.000978 -0.999999 0.000000
191.25000000 225.00000000 417.50000000 -0.862905 0.113427 -0.492473 0.000000
87.18750000 220.31199646 342.50000000 0.857279 0.335188 -0.390796 0.000000
83.43750000 182.81199646 277.50000000 -0.344777 0.684652 0.642168 0.000000
98.43750000 191.25000000 342.50000000 -0.000978 -0.000978 -0.999999 0.000000
115.78099823 297.18798828 305.00000000 0.504627 -0.781930 0.365975 0.000000
211.40600586 170.62500000 355.00000000 0.825910 0.052059 -0.561394 0.000000
122.81199646 250.31199646 422.50000000 -0.000978 -0.000978 -0.999999 0.000000
238.12500000 193.12500000 402.50000000 -0.000978 -0.000978 -0.999999 0.000000
104.06199646 307.96899414 370.00000000 0.701101 -0.701101 -0.130055 0.000000
215.62500000 182.81199646 407.50000000 -0.000978 -0.000978 -0.999999 0.000000
194.06199646 208.12500000 412.50000000 -0.570271 0.721467 -0.392780 0.000000
146.25000000 233.43800354 432.50000000 -0.000978 -0.000978 -0.999999 0.000000
91.87500000 221.25000000 352.50000000 0.871255 0.001330 -0.490829 0.000000
165.93800354 189.37500000 417.50000000 -0.000978 -0.000978 -0.999999 0.000000
108.75000000 243.75000000 417.50000000 -0.000978 -0.000978 -0.999999 0.000000
225.00000000 147.18800354 407.50000000 -0.347413 0.761078 -0.547782 0.000000
228.28100586 170.62500000 375.00000000 0.429708 -0.848558 0.308707 0.000000
220.31199646 165.93800354 367.50000000 0.000978 0.000978 -0.999999 0.000000
243.28100586 150.00000000 395.00000000 0.816375 -0.153723 -0.556687 0.000000
173.43800354 165.93800354 332.50000000 0.000978 0.000978 0.999999 0.000000
110.62500000 174.37500000 307.50000000 0.000978 0.000978 0.999999 0.000000
238.12500000 195.00000000 382.50000000 0.481107 -0.270719 -0.833815 0.000000
193.12500000 137.81199646 327.50000000 -0.670407 -0.265933 0.692701 0.000000
100.31199646 243.75000000 407.50000000 0.527952 -0.375252 -0.761875 0.000000
117.65599823 192.18800354 315.00000000 -0.743536 0.536724 0.398850 0.000000
193.12500000 164.06199646 402.50000000 -0.000978 -0.000978 -0.999999 0.000000
248.43800354 195.00000000 387.50000000 0.605723 -0.739973 -0.292473 0.000000
159.84399414 223.12500000 340.00000000 -0.445899 0.058635 0.893161 0.000000
79.68750000 173.90600586 295.00000000 0.656816 0.656816 -0.370385 0.000000
140.62500000 283.59399414 415.00000000 0.431352 -0.759377 -0.487116 0.000000
163.12500000 325.31201172 332.50000000 0.000000 0.000000 0.000000 0.000000
227.81199646 221.25000000 367.50000000 -0.810567 0.449249 -0.375707 0.000000
144.37500000 277.50000000 287.50000000 -0.502038 0.135332 0.854192 0.000000
184.68800354 156.09399414 400.00000000 0.408196 0.715583 -0.566848 0.000000
161.25000000 213.75000000 432.50000000 -0.000978 -0.000978 -0.999999 0.000000
84.84380341 266.25000000 360.00000000 0.978025 -0.197544 -0.066656 0.000000
165.93800354 330.00000000 362.50000000 -0.531499 -0.708110 -0.464853 0.000000
97.96880341 264.37500000 265.00000000 0.701101 0.701101 0.130055 0.000000
148.12500000 196.87500000 327.50000000 0.000978 0.000978 0.999999 0.000000
140.62500000 330.46899414 345.00000000 0.061874 -0.886864 0.457869 0.000000
178.12500000 314.06201172 377.50000000 -0.351606 -0.701577 -0.619808 0.000000
169.68800354 197.81199646 422.50000000 -0.142973 0.693797 -0.705836 0.000000
158.43800354 241.87500000 427.50000000 -0.621989 -0.428555 -0.655340 0.000000
129.37500000 208.12500000 287.50000000 -0.983039 -0.001139 -0.183394 0.000000
144.37500000 183.75000000 417.50000000 0.150541 0.863781 -0.480853 0.000000
94.68750000 216.56199646 392.50000000 0.917060 0.369352 -0.150269 0.000000
177.18800354 325.78100586 360.00000000 -0.512973 -0.853050 -0.095736 0.000000
176.25000000 177.65600586 335.00000000 -0.510309 -0.415139 0.753157 0.000000
137.81199646 157.96899414 380.00000000 0.334430 0.882229 -0.331403 0.000000
106.87500000 185.62500000 362.50000000 0.778245 0.605973 -0.164716 0.000000
108.75000000 263.90600586 265.00000000 -0.776977 -0.356989 0.518523 0.000000
238.12500000 222.18800354 392.50000000 0.892279 0.429722 -0.138482 0.000000
176.25000000 231.56199646 317.50000000 0.747540 0.175802 0.640530 0.000000
165.93800354 251.25000000 302.50000000 -0.412892 -0.066333 0.908361 0.000000
236.25000000 195.93800354 402.50000000 -0.000978 -0.000978 -0.999999 0.000000
82.03119659 231.56199646 335.00000000 0.955968 0.127550 -0.264305 0.000000
109.68800354 180.00000000 307.50000000 -0.760379 0.117095 0.638837 0.000000
106.40599823 184.68800354 355.00000000 0.000978 0.000978 -0.999999 0.000000
140.62500000 325.31201172 337.50000000 0.589471 -0.589471 0.552312 0.000000
115.78099823 319.68798828 370.00000000 0.633647 -0.610117 -0.475656 0.000000
215.62500000 226.87500000 402.50000000 0.453296 -0.453296 -0.767493 0.000000
114.37500000 300.00000000 312.50000000 0.658682 -0.655397 0.369585 0.000000
117.18800354 208.12500000 417.50000000 0.589471 0.589471 -0.552312 0.000000
140.62500000 297.18798828 407.50000000 -0.000978 -0.000978 -0.999999 0.000000
96.56250000 285.46899414 315.00000000 0.827412 -0.552091 0.102883 0.000000
216.56199646 229.68800354 347.50000000 0.000978 0.000978 0.999999 0.000000
139.68800354 270.00000000 282.50000000 -0.559448 0.217306 0.799872 0.000000
104.06199646 179.06199646 302.50000000 -0.761944 0.020971 0.647303 0.000000
109.21900177 158.43800354 330.00000000 0.811663 0.414637 -0.411435 0.000000
136.87500000 301.87500000 402.50000000 -0.000978 -0.000978 -0.999999 0.000000
250.31199646 181.87500000 402.50000000 0.857094 0.512590 0.051398 0.000000
80.62500000 240.93800354 332.50000000 0.983039 0.001139 -0.183394 0.000000
149.06199646 240.93800354 432.50000000 -0.000978 -0.000978 -0.999999 0.000000
210.00000000 259.68798828 367.50000000 -0.896858 0.295978 0.328699 0.000000
239.06199646 218.43800354 392.50000000 0.969212 0.241996 -0.045451 0.000000
169.68800354 137.34399414 360.00000000 0.312114 0.933568 -0.176171 0.000000
167.81199646 158.43800354 327.50000000 0.000978 0.000978 0.999999 0.000000
87.65619659 217.50000000 340.00000000 0.948140 0.269158 -0.169069 0.000000
219.37500000 213.75000000 367.50000000 0.998232 -0.059208 -0.005194 0.000000
150.93800354 270.00000000 422.50000000 -0.000978 -0.000978 -0.999999 0.000000
195.93800354 214.68800354 357.50000000 -0.937099 -0.305006 0.169754 0.000000
223.12500000 220.31199646 377.50000000 -0.000978 -0.000978 -0.999999 0.000000
231.56199646 212.81199646 377.50000000 0.762886 0.085734 -0.640824 0.000000
169.68800354 319.68798828 377.50000000 -0.336205 -0.867378 -0.366909 0.000000
136.87500000 211.87500000 427.50000000 -0.000978 -0.000978 -0.999999 0.000000
160.31199646 143.43800354 377.50000000 0.393482 0.918997 -0.024838 0.000000
150.00000000 214.21899414 330.00000000 -0.801178 0.516736 0.301824 0.000000
124.68800354 305.62500000 397.50000000 0.363316 -0.568598 -0.738037 0.000000
195.00000000 138.28100586 380.00000000 -0.001139 0.983039 -0.183394 0.000000
116.25000000 252.18800354 422.50000000 -0.142233 -0.780035 -0.609356 0.000000
121.87500000 255.00000000 272.50000000 0.000978 0.000978 0.999999 0.000000
111.56199646 287.81201172 292.50000000 0.449279 -0.752089 0.482193 0.000000
115.31199646 267.65600586 415.00000000 0.820864 -0.256035 -0.510518 0.000000
157.50000000 268.12500000 422.50000000 -0.143277 -0.704321 -0.695272 0.000000
161.25000000 187.50000000 412.50000000 -0.260866 0.618174 -0.741492 0.000000
172.03100586 250.31199646 425.00000000 -0.515023 -0.448782 -0.730306 0.000000
87.65619659 247.50000000 370.00000000 0.983039 -0.001139 -0.183394 0.000000
167.81199646 302.81201172 312.50000000 -0.842693 -0.096185 0.529734 0.000000
168.75000000 210.93800354 427.50000000 -0.000978 -0.000978 -0.999999 0.000000
133.12500000 173.43800354 397.50000000 0.656816 -0.656816 -0.370385 0.000000
155.62500000 211.87500000 332.50000000 -0.076327 -0.614937 0.784873 0.000000
205.31199646 150.93800354 402.50000000 -0.023700 0.298120 -0.954234 0.000000
176.25000000 234.37500000 317.50000000 0.000978 0.000978 0.999999 0.000000
226.87500000 231.56199646 397.50000000 -0.080448 -0.509503 -0.856700 0.000000
176.25000000 306.56201172 387.50000000 -0.405024 -0.692674 -0.596790 0.000000
112.50000000 203.43800354 412.50000000 -0.263801 -0.586050 -0.766130 0.000000
192.18800354 265.31201172 407.50000000 -0.000978 -0.000978 -0.999999 0.000000
220.31199646 253.12500000 372.50000000 0.799490 -0.532470 -0.278015 0.000000
169.68800354 141.56199646 317.50000000 0.000978 0.000978 0.999999 0.000000
203.43800354 142.50000000 392.50000000 0.098042 0.933409 -0.345160 0.000000
120.93800354 272.81201172 272.50000000 -0.000978 -0.000978 0.999999 0.000000
103.12500000 266.25000000 267.50000000 0.000978 0.000978 0.999999 0.000000
100.31199646 281.25000000 292.50000000 0.565064 -0.777160 0.276992 0.000000
142.50000000 298.12500000 407.50000000 -0.000978 -0.000978 -0.999999 0.000000
172.50000000 192.18800354 417.50000000 -0.332490 0.614700 -0.715258 0.000000
208.59399414 139.68800354 390.00000000 0.019827 0.902805 -0.429593 0.000000
176.25000000 249.37500000 422.50000000 -0.309443 -0.131074 -0.941841 0.000000
169.68800354 231.56199646 337.50000000 0.033943 0.995283 -0.090878 0.000000
125.62500000 285.00000000 282.50000000 0.026599 -0.642570 0.765765 0.000000
199.68800354 232.50000000 347.50000000 -0.166353 0.038389 0.985319 0.000000
171.56199646 237.18800354 307.50000000 -0.871255 0.001330 0.490829 0.000000
89.06250000 262.50000000 377.50000000 0.966139 -0.241851 -0.089903 0.000000
169.68800354 249.37500000 427.50000000 -0.196055 -0.190792 -0.961853 0.000000
151.87500000 197.81199646 327.50000000 0.000978 0.000978 0.999999 0.000000
240.00000000 213.75000000 387.50000000 0.080767 0.334986 -0.938755 0.000000
174.37500000 164.06199646 402.50000000 -0.000978 -0.000978 -0.999999 0.000000
86.25000000 185.62500000 317.50000000 0.871255 0.001330 -0.490829 0.000000
122.81199646 301.87500000 397.50000000 0.379797 -0.695473 -0.609977 0.000000
206.25000000 260.62500000 397.50000000 -0.000978 -0.000978 -0.999999 0.000000
188.43800354 314.06201172 347.50000000 -0.845424 -0.472398 0.249194 0.000000
150.93800354 248.43800354 427.50000000 -0.357582 -0.713531 -0.602501 0.000000
165.93800354 273.75000000 302.50000000 0.000978 0.000978 0.999999 0.000000
107.81199646 207.18800354 407.50000000 0.618453 0.362541 -0.697195 0.000000
176.71899414 284.06201172 320.00000000 -0.804320 0.097449 0.586150 0.000000
214.68800354 177.18800354 407.50000000 -0.000978 -0.000978 -0.999999 0.000000
196.87500000 200.62500000 412.50000000 -0.377408 0.680652 -0.627914 0.000000
74.06250000 188.43800354 267.50000000 -0.540746 -0.048905 0.839763 0.000000
75.00000000 188.43800354 267.50000000 -0.540746 -0.048905 0.839763 0.000000
165.93800354 270.00000000 417.50000000 -0.000978 -0.000978 -0.999999 0.000000
175.31199646 219.37500000 427.50000000 -0.000978 -0.000978 -0.999999 0.000000
185.62500000 182.81199646 342.50000000 0.000978 0.000978 0.999999 0.000000
128.90600586 206.25000000 290.00000000 -0.478821 0.705719 0.522199 0.000000
173.43800354 259.68798828 312.50000000 -0.063951 0.257057 0.964278 0.000000
78.28119659 188.43800354 270.00000000 -0.435706 0.612659 0.659401 0.000000
230.62500000 228.75000000 372.50000000 -0.646830 0.579627 -0.495623 0.000000
173.43800354 264.37500000 417.50000000 -0.231372 -0.416470 -0.879215 0.000000
133.12500000 169.68800354 317.50000000 -0.146764 0.367610 0.918326 0.000000
117.18800354 171.56199646 312.50000000 0.000978 0.000978 0.999999 0.000000
188.43800354 229.68800354 337.50000000 -0.235216 0.939471 0.249134 0.000000
235.31199646 210.93800354 382.50000000 0.518624 0.518624 -0.679749 0.000000
176.71899414 290.62500000 320.00000000 -0.654939 0.129794 0.744452 0.000000
210.93800354 188.43800354 407.50000000 -0.000978 -0.000978 -0.999999 0.000000
181.87500000 244.68800354 422.50000000 -0.000978 -0.000978 -0.999999 0.000000
114.37500000 280.31201172 407.50000000 0.388613 -0.388613 -0.835440 0.000000
152.81199646 315.93798828 317.50000000 0.000978 0.000978 0.999999 0.000000
190.31199646 272.81201172 402.50000000 -0.625652 -0.537960 -0.564942 0.000000
101.25000000 192.18800354 282.50000000 -0.475961 0.699747 0.532743 0.000000
92.81250000 275.62500000 382.50000000 0.860374 0.505032 0.068550 0.000000
192.18800354 245.62500000 417.50000000 -0.353967 -0.372516 -0.857869 0.000000
116.25000000 208.12500000 277.50000000 -0.371529 0.200944 0.906415 0.000000
168.75000000 156.56199646 327.50000000 -0.131512 -0.238284 0.962250 0.000000
122.81199646 200.62500000 417.50000000 -0.000978 -0.000978 -0.999999 0.000000
110.62500000 168.75000000 307.50000000 -0.442075 -0.036280 0.896244 0.000000
240.46899414 200.62500000 385.00000000 0.581314 -0.291453 -0.759690 0.000000
126.56199646 169.68800354 312.50000000 -0.866600 0.165695 0.470691 0.000000
173.43800354 253.12500000 307.50000000 -0.597330 0.793994 0.113008 0.000000
195.00000000 195.00000000 407.50000000 -0.000978 -0.000978 -0.999999 0.000000
62.81250000 190.31199646 267.50000000 0.848083 0.504706 0.161328 0.000000
165.00000000 319.68798828 322.50000000 -0.255656 -0.866811 0.428111 0.000000
195.46899414 289.68798828 355.00000000 -0.897475 -0.058561 0.437161 0.000000
97.50000000 179.06199646 332.50000000 0.813131 0.466237 -0.348485 0.000000
157.50000000 231.56199646 297.50000000 -0.519315 0.845160 0.126556 0.000000
193.12500000 265.31201172 342.50000000 0.000978 0.000978 0.999999 0.000000
199.68800354 196.87500000 352.50000000 0.323209 0.438753 -0.838470 0.000000
224.06199646 195.93800354 367.50000000 -0.000978 -0.000978 -0.999999 0.000000
237.18800354 152.81199646 387.50000000 0.830559 0.031891 -0.556017 0.000000
150.93800354 295.31201172 297.50000000 -0.506712 -0.480131 0.716043 0.000000
194.06199646 284.06201172 352.50000000 -0.937611 -0.026862 0.346647 0.000000
149.06199646 302.81201172 402.50000000 -0.000978 -0.000978 -0.999999 0.000000
222.65600586 233.43800354 350.00000000 -0.525420 -0.616650 0.586240 0.000000
195.46899414 213.75000000 355.00000000 -0.962859 -0.203606 0.177334 0.000000
198.75000000 151.87500000 337.50000000 0.000978 0.000978 0.999999 0.000000
151.87500000 313.59399414 395.00000000 -0.346253 -0.739648 -0.577088 0.000000
183.75000000 182.81199646 342.50000000 0.000978 0.000978 0.999999 0.000000
112.50000000 176.25000000 357.50000000 0.741988 0.590693 -0.317075 0.000000
167.81199646 160.31199646 327.50000000 -0.000978 -0.000978 0.999999 0.000000
151.87500000 306.56201172 302.50000000 -0.267554 -0.748835 0.606351 0.000000
75.93750000 198.75000000 312.50000000 0.673314 -0.290859 -0.679742 0.000000
96.56250000 185.15600586 335.00000000 0.699638 0.411844 -0.583859 0.000000
103.12500000 300.00000000 332.50000000 0.701101 -0.701101 0.130055 0.000000
186.56199646 254.06199646 332.50000000 -0.806551 -0.447371 0.386439 0.000000
222.18800354 138.75000000 362.50000000 0.819064 0.396014 -0.415099 0.000000
187.50000000 168.75000000 402.50000000 -0.000978 -0.000978 -0.999999 0.000000
208.12500000 210.00000000 347.50000000 0.000978 0.000978 0.999999 0.000000
186.56199646 285.00000000 397.50000000 0.000978 0.000978 -0.999999 0.000000
119.06199646 255.00000000 267.50000000 0.000978 0.000978 0.999999 0.000000
118.12500000 231.56199646 422.50000000 0.000978 0.000978 -0.999999 0.000000
210.93800354 202.50000000 347.50000000 0.000978 0.000978 0.999999 0.000000
112.50000000 264.37500000 412.50000000 0.649365 -0.248054 -0.718884 0.000000
137.81199646 223.12500000 432.50000000 -0.162713 0.655416 -0.737533 0.000000
93.75000000 201.56199646 342.50000000 0.873627 0.200237 -0.443488 0.000000
116.71900177 161.25000000 345.00000000 0.794606 0.367606 -0.483185 0.000000
90.00000000 185.62500000 277.50000000 -0.369485 0.605955 0.704485 0.000000
193.12500000 128.90600586 350.00000000 0.212751 0.945712 -0.245693 0.000000
232.50000000 178.12500000 407.50000000 -0.000978 -0.000978 -0.999999 0.000000
251.71899414 170.62500000 400.00000000 0.325194 0.810606 -0.486998 0.000000
179.06199646 239.06199646 427.50000000 -0.000978 -0.000978 -0.999999 0.000000
109.68800354 229.68800354 267.50000000 -0.290211 0.041459 0.956064 0.000000
80.62500000 192.18800354 267.50000000 -0.656816 0.656816 0.370385 0.000000
86.25000000 271.40600586 335.00000000 -0.000978 -0.000978 0.999999 0.000000
160.31199646 242.81199646 427.50000000 -0.227582 -0.091787 -0.969423 0.000000
122.81199646 205.31199646 287.50000000 0.095595 0.851798 0.515074 0.000000
100.78099823 305.62500000 360.00000000 0.707106 -0.707106 -0.001384 0.000000
203.43800354 216.56199646 347.50000000 0.014645 0.464654 0.885371 0.000000
190.31199646 235.31199646 332.50000000 -0.701577 0.351606 0.619808 0.000000
74.06250000 193.12500000 267.50000000 0.000978 0.000978 0.999999 0.000000
228.75000000 191.25000000 372.50000000 0.581467 -0.032071 -0.812938 0.000000
181.87500000 242.81199646 422.50000000 -0.000978 -0.000978 -0.999999 0.000000
202.96899414 253.12500000 365.00000000 -0.832862 0.417218 0.363688 0.000000
229.68800354 156.56199646 407.50000000 -0.000978 -0.000978 -0.999999 0.000000
86.71880341 250.31199646 365.00000000 0.924521 0.079398 -0.372769 0.000000
185.62500000 177.18800354 337.50000000 0.000978 0.000978 0.999999 0.000000
227.81199646 253.12500000 367.50000000 -0.353276 -0.779143 0.517815 0.000000
121.87500000 186.56199646 407.50000000 0.466030 0.679835 -0.566251 0.000000
111.56199646 283.12500000 282.50000000 0.000978 0.000978 0.999999 0.000000
110.62500000 231.56199646 267.50000000 -0.456143 -0.265699 0.849316 0.000000
199.68800354 279.37500000 392.50000000 0.000978 0.000978 -0.999999 0.000000
73.12500000 209.06199646 307.50000000 0.000978 0.000978 -0.999999 0.000000
176.25000000 271.87500000 412.50000000 -0.579898 -0.342741 -0.739085 0.000000
128.43800354 249.37500000 427.50000000 -0.000978 -0.000978 -0.999999 0.000000
239.06199646 146.25000000 402.50000000 -0.182667 0.859869 -0.476715 0.000000
157.50000000 229.68800354 302.50000000 -0.182905 0.817782 0.545692 0.000000
158.43800354 200.62500000 427.50000000 0.123252 0.625169 -0.770696 0.000000
109.68800354 173.43800354 307.50000000 0.000978 0.000978 0.999999 0.000000
112.50000000 260.62500000 417.50000000 0.612299 -0.085403 -0.786000 0.000000
105.93800354 225.93800354 267.50000000 0.000978 0.000978 0.999999 0.000000
223.12500000 243.75000000 357.50000000 0.202389 0.015208 0.979187 0.000000
144.37500000 158.43800354 387.50000000 0.139361 0.627874 -0.765737 0.000000
150.93800354 183.75000000 417.50000000 -0.001330 0.871255 -0.490829 0.000000
174.37500000 197.81199646 417.50000000 -0.464170 0.383864 -0.798244 0.000000
212.81199646 145.31199646 352.50000000 -0.000978 -0.000978 -0.999999 0.000000
85.78119659 269.06201172 335.00000000 -0.000978 -0.000978 0.999999 0.000000
192.18800354 154.68800354 402.50000000 0.000978 0.000978 -0.999999 0.000000
173.43800354 287.81201172 317.50000000 -0.666285 -0.139875 0.732462 0.000000
108.28099823 155.62500000 325.00000000 0.000978 0.000978 -0.999999 0.000000
216.09399414 239.06199646 380.00000000 0.464634 -0.771129 0.435288 0.000000
109.68800354 187.50000000 307.50000000 0.000978 0.000978 0.999999 0.000000
136.87500000 250.31199646 282.50000000 -0.000978 -0.000978 0.999999 0.000000
104.06199646 195.46899414 280.00000000 -0.349290 0.735945 0.579984 0.000000
238.12500000 169.68800354 387.50000000 -0.000978 -0.000978 -0.999999 0.000000
222.18800354 225.93800354 382.50000000 0.719943 0.537889 -0.438586 0.000000
221.25000000 212.81199646 407.50000000 -0.000978 -0.000978 -0.999999 0.000000
120.93800354 165.93800354 312.50000000 0.000978 0.000978 0.999999 0.000000
205.31199646 279.37500000 372.50000000 -0.705483 -0.471990 0.528695 0.000000
166.40600586 300.00000000 310.00000000 -0.892030 -0.033636 0.450724 0.000000
176.25000000 265.31201172 317.50000000 -0.762387 -0.305274 0.570591 0.000000
248.43800354 161.25000000 402.50000000 -0.846774 0.360230 -0.391418 0.000000
223.12500000 159.37500000 367.50000000 0.936483 0.001257 -0.350710 0.000000
110.62500000 260.62500000 412.50000000 0.670174 -0.402105 -0.623841 0.000000
129.37500000 234.37500000 277.50000000 0.000978 0.000978 0.999999 0.000000
172.03100586 202.50000000 340.00000000 -0.792631 -0.567048 0.224038 0.000000
104.06199646 300.00000000 327.50000000 0.646007 -0.735860 0.202942 0.000000
189.37500000 147.18800354 397.50000000 0.000978 0.000978 -0.999999 0.000000
177.18800354 277.50000000 317.50000000 -0.000978 -0.000978 0.999999 0.000000
176.25000000 182.81199646 337.50000000 -0.138671 -0.438885 0.887778 0.000000
126.56199646 231.56199646 427.50000000 -0.000978 -0.000978 -0.999999 0.000000
180.93800354 273.28100586 410.00000000 -0.400339 -0.799069 -0.448572 0.000000
109.21900177 295.31201172 310.00000000 0.589471 -0.589471 0.552312 0.000000
132.18800354 198.75000000 422.50000000 0.302098 0.115782 -0.946219 0.000000
220.31199646 179.06199646 407.50000000 -0.000978 -0.000978 -0.999999 0.000000
132.18800354 172.50000000 397.50000000 0.656816 -0.656816 -0.370385 0.000000
131.25000000 216.56199646 427.50000000 -0.000978 -0.000978 -0.999999 0.000000
98.90619659 270.00000000 400.00000000 0.947127 -0.306927 -0.093527 0.000000
211.87500000 207.18800354 357.50000000 0.194526 0.979792 -0.046543 0.000000
244.68800354 195.00000000 387.50000000 0.326662 -0.150237 -0.933124 0.000000
207.18800354 144.37500000 397.50000000 0.262217 0.653159 -0.710370 0.000000
120.00000000 182.81199646 397.50000000 0.518215 0.730137 -0.445367 0.000000
184.68800354 272.81201172 407.50000000 -0.414097 -0.636945 -0.650249 0.000000
146.25000000 251.25000000 287.50000000 -0.377918 -0.054367 0.924241 0.000000
164.06199646 258.75000000 422.50000000 -0.000978 -0.000978 -0.999999 0.000000
75.93750000 183.75000000 302.50000000 0.723237 0.527947 -0.445196 0.000000
167.81199646 191.25000000 417.50000000 -0.077658 0.410088 -0.908734 0.000000
138.75000000 311.25000000 312.50000000 0.226851 -0.911740 0.342444 0.000000
181.87500000 147.18800354 327.50000000 -0.081330 -0.353319 0.931961 0.000000
108.75000000 198.28100586 280.00000000 -0.705013 0.461675 0.538343 0.000000
219.37500000 202.50000000 407.50000000 -0.000978 -0.000978 -0.999999 0.000000
135.93800354 259.68798828 277.50000000 -0.908389 0.305722 0.285243 0.000000
193.59399414 282.18798828 395.00000000 -0.658956 -0.213421 -0.721269 0.000000
123.75000000 325.31201172 352.50000000 0.526882 -0.755252 0.389860 0.000000
92.34380341 282.18798828 375.00000000 0.925925 -0.373804 -0.054155 0.000000
168.75000000 295.31201172 402.50000000 -0.198639 -0.756059 -0.623633 0.000000
209.06199646 212.81199646 347.50000000 0.000978 0.000978 0.999999 0.000000
182.34399414 255.00000000 325.00000000 -0.730182 0.001380 0.683251 0.000000
223.12500000 202.50000000 367.50000000 0.630146 0.209017 -0.747815 0.000000
178.12500000 277.50000000 407.50000000 -0.097510 -0.589428 -0.801914 0.000000
189.37500000 282.18798828 342.50000000 -0.984568 0.164292 -0.060280 0.000000
229.68800354 223.12500000 402.50000000 -0.247318 -0.244523 -0.937573 0.000000
129.37500000 290.62500000 412.50000000 0.043861 -0.405378 -0.913096 0.000000
162.18800354 226.87500000 342.50000000 -0.112190 -0.552207 0.826124 0.000000
95.62500000 295.78100586 365.00000000 0.891764 -0.410124 -0.191196 0.000000
195.93800354 214.68800354 347.50000000 -0.706994 -0.666054 -0.237764 0.000000
189.37500000 239.06199646 422.50000000 -0.539318 0.004055 -0.842093 0.000000
112.50000000 199.68800354 282.50000000 -0.291993 -0.579199 0.761097 0.000000
226.87500000 161.25000000 407.50000000 -0.000978 -0.000978 -0.999999 0.000000
176.25000000 149.06199646 327.50000000 0.000978 0.000978 0.999999 0.000000
84.37500000 232.50000000 342.50000000 0.941040 0.171223 -0.291764 0.000000
134.06199646 312.18798828 317.50000000 0.178425 -0.835148 0.520281 0.000000
85.31250000 198.75000000 267.50000000 -0.717247 -0.504237 0.480938 0.000000
141.56199646 296.25000000 292.50000000 -0.244717 -0.350223 0.904133 0.000000
87.18750000 198.75000000 267.50000000 0.000978 0.000978 0.999999 0.000000
153.75000000 299.53100586 405.00000000 -0.045723 -0.854880 -0.516807 0.000000
148.12500000 150.46899414 355.00000000 0.739501 0.528685 0.416690 0.000000
103.12500000 238.12500000 412.50000000 -0.000978 -0.000978 -0.999999 0.000000
248.43800354 155.62500000 402.50000000 -0.000978 -0.000978 -0.999999 0.000000
142.50000000 298.12500000 292.50000000 0.000978 0.000978 0.999999 0.000000
194.06199646 247.50000000 347.50000000 -0.983039 -0.001139 0.183394 0.000000
217.96899414 188.43800354 360.00000000 0.615717 -0.067456 -0.785075 0.000000
188.43800354 159.84399414 335.00000000 -0.001380 -0.730182 0.683251 0.000000
111.56199646 304.21899414 325.00000000 0.423389 -0.848329 0.317930 0.000000
107.81199646 273.75000000 407.50000000 -0.000978 -0.000978 -0.999999 0.000000
224.06199646 241.87500000 357.50000000 0.000978 0.000978 0.999999 0.000000
