88.25299835 146.04699707 449.20001221 0.609157 0.194869 -0.768735 0.000000
246.79600525 109.33999634 420.39999390 -0.319791 0.403214 0.857410 0.000000
173.38200378 166.35299683 446.00000000 -0.314362 -0.296652 -0.901762 0.000000
65.99449921 256.16799927 376.79998779 0.787648 -0.615999 -0.012458 0.000000
68.33750153 131.20799255 416.00000000 0.843603 0.405367 -0.352153 0.000000
151.51400757 198.76499939 405.60000610 -0.801987 -0.582589 -0.131935 0.000000
65.60399628 253.82499695 361.20001221 0.781002 -0.624527 -0.001373 0.000000
142.92300415 180.80099487 396.00000000 -0.133248 0.163135 0.977564 0.000000
230.39500427 178.06799316 431.60000610 -0.073848 -0.304461 -0.949658 0.000000
71.85199738 261.24499512 361.60000610 0.633468 -0.744983 0.209091 0.000000
96.06300354 112.46399689 435.60000610 0.582927 0.582927 -0.566031 0.000000
78.09999847 267.10198975 362.00000000 0.613965 -0.738352 0.279075 0.000000
96.84400177 276.08300781 364.00000000 0.151960 -0.878472 0.452985 0.000000
149.95199585 180.02099609 447.20001221 -0.628739 -0.500631 -0.595026 0.000000
152.68600464 221.02299500 405.60000610 -0.936961 -0.332036 0.108886 0.000000
78.09999847 268.66400146 380.39999390 0.317525 -0.481817 -0.816719 0.000000
171.82000732 167.13400269 389.20001221 -0.349378 0.064602 0.934752 0.000000
106.60600281 255.38699341 364.79998779 -0.629607 -0.126517 0.766543 0.000000
73.80449677 258.51098633 393.60000610 0.555234 -0.639616 -0.531607 0.000000
71.07099915 127.69400024 416.79998779 0.828536 0.465171 -0.311680 0.000000
191.34500122 122.61699677 447.60000610 -0.318945 -0.402149 -0.858225 0.000000
171.03900146 168.69599915 446.00000000 -0.285379 -0.378995 -0.880296 0.000000
178.06799316 178.06799316 389.20001221 0.608971 -0.787135 0.097844 0.000000
142.14199829 217.89900208 432.39999390 -0.315840 -0.565947 -0.761544 0.000000
251.09199524 168.69599915 420.00000000 -0.618599 -0.438522 0.651947 0.000000
146.04699707 226.49000549 393.20001221 -0.731508 -0.332504 0.595263 0.000000
79.66200256 192.12600708 441.20001221 0.438838 -0.267584 -0.857799 0.000000
205.40299988 109.33999634 444.39999390 -0.334408 -0.055952 -0.940766 0.000000
48.81250000 203.05999756 400.79998779 0.971663 -0.230999 -0.050111 0.000000
68.72799683 243.28199768 341.60000610 0.546492 -0.590482 0.593866 0.000000
196.03100586 174.94400024 437.20001221 -0.361468 -0.486777 -0.795229 0.000000
122.61699677 213.21299744 441.20001221 0.001314 -0.456129 -0.889912 0.000000
131.59800720 263.19699097 395.20001221 -0.873778 -0.484213 -0.045266 0.000000
83.56700134 174.94400024 341.20001221 -0.632633 0.478251 0.609140 0.000000
90.59600067 250.31100464 416.00000000 0.169213 -0.678376 -0.714963 0.000000
176.50599670 135.11300659 446.00000000 -0.000978 -0.000978 -0.999999 0.000000
235.08099365 130.42700195 434.00000000 -0.067203 0.105930 -0.992100 0.000000
126.52200317 244.06199646 377.60000610 -0.543500 -0.226330 0.808321 0.000000
233.51899719 170.25799561 432.39999390 -0.157131 -0.132386 -0.978664 0.000000
122.61699677 187.04899597 391.20001221 -0.408984 0.911941 -0.033089 0.000000
93.72000122 103.48300171 404.79998779 0.518269 0.845290 -0.129932 0.000000
67.94699860 238.20500183 338.00000000 0.524606 -0.558342 0.642684 0.000000
76.92849731 116.36900330 372.79998779 0.835626 0.521706 0.171909 0.000000
133.55099487 102.31099701 427.60000610 -0.343290 0.343290 -0.874245 0.000000
164.00999451 137.45599365 446.79998779 -0.576050 0.324331 -0.750317 0.000000
176.50599670 137.06599426 376.00000000 -0.350619 0.302466 0.886330 0.000000
151.12399292 195.25000000 413.60000610 -0.690440 -0.594407 -0.412277 0.000000
90.59600067 132.77000427 446.00000000 0.409315 0.295872 -0.863088 0.000000
58.18450165 236.64300537 399.20001221 0.789298 -0.469705 -0.395456 0.000000
189.39300537 195.25000000 395.20001221 -0.863494 -0.169168 0.475142 0.000000
139.79899597 140.58000183 460.39999390 -0.207767 0.126190 -0.970005 0.000000
94.89150238 231.17599487 351.20001221 -0.717088 -0.372492 0.589096 0.000000
248.74899292 181.19200134 424.00000000 -0.697466 -0.394077 0.598535 0.000000
179.63000488 157.37199402 381.60000610 -0.217934 -0.507498 0.833637 0.000000
106.99700165 258.90200806 410.39999390 -0.020720 -0.573247 -0.819121 0.000000
146.43800354 146.04699707 400.00000000 -0.718125 0.120431 0.685415 0.000000
194.85899353 190.56399536 413.60000610 -0.709352 -0.700649 -0.076883 0.000000
58.18450165 192.90699768 332.00000000 0.257186 0.478952 0.839321 0.000000
203.84100342 136.67500305 440.39999390 -0.250027 -0.101293 -0.962926 0.000000
196.81199646 118.71199799 394.79998779 -0.288163 -0.109213 0.951333 0.000000
105.43499756 196.42199707 449.60000610 0.129476 -0.382860 -0.914688 0.000000
131.20799255 228.05200195 427.60000610 -0.285378 -0.607425 -0.741346 0.000000
50.76499939 204.62199402 346.79998779 0.859633 -0.260172 0.439706 0.000000
223.36599731 104.65399933 410.79998779 -0.509115 0.439915 0.739782 0.000000
191.34500122 194.07899475 415.20001221 -0.717805 -0.661751 -0.216431 0.000000
203.05999756 101.13999939 444.00000000 -0.003555 0.240582 -0.970622 0.000000
94.50099945 109.33999634 426.79998779 0.386277 0.882274 -0.269041 0.000000
246.79600525 147.60899353 409.20001221 -0.592232 -0.049470 0.804248 0.000000
86.69100189 153.85699463 348.39999390 -0.063606 -0.186016 0.980486 0.000000
156.19999695 173.77299500 447.20001221 -0.310217 -0.480285 -0.820422 0.000000
83.56700134 258.90200806 402.39999390 0.463758 -0.709766 -0.530246 0.000000
154.63800049 130.42700195 403.60000610 0.587182 0.316917 0.744836 0.000000
134.33200073 171.82000732 461.20001221 0.031783 -0.326727 -0.944584 0.000000
162.44799805 149.17100525 451.60000610 -0.471226 0.103302 -0.875942 0.000000
78.88099670 195.25000000 331.60000610 -0.582927 -0.582927 0.566031 0.000000
142.14199829 142.14199829 370.79998779 -0.476528 0.053558 0.877526 0.000000
93.32949829 109.33999634 424.00000000 0.391267 0.908247 -0.148314 0.000000
174.55299377 126.52200317 445.60000610 0.142348 -0.014571 -0.989709 0.000000
189.00199890 116.36900330 390.00000000 -0.539129 -0.040192 0.841263 0.000000
124.17900085 217.11799622 370.79998779 -0.490513 -0.028534 0.870967 0.000000
69.89949799 128.86500549 371.20001221 0.845010 0.467746 0.259177 0.000000
92.15799713 209.30799866 346.00000000 -0.643674 0.129930 0.754189 0.000000
229.61399841 176.11599731 404.79998779 -0.516029 -0.532838 0.670670 0.000000
86.69100189 230.39500427 344.39999390 -0.563584 -0.084609 0.821714 0.000000
142.14199829 205.40299988 438.79998779 -0.513109 -0.301550 -0.803608 0.000000
53.10800171 221.02299500 405.20001221 0.930293 -0.296962 -0.215333 0.000000
49.59349823 204.62199402 366.39999390 0.999999 0.000978 0.000978 0.000000
175.72500610 204.62199402 417.20001221 -0.473034 -0.266563 -0.839751 0.000000
91.37699890 178.84899902 343.60000610 -0.243955 0.163970 0.955824 0.000000
119.49299622 223.36599731 435.60000610 -0.198756 -0.476715 -0.856294 0.000000
83.95749664 107.77799988 396.00000000 0.721750 0.676546 -0.146158 0.000000
146.43800354 171.03900146 400.79998779 -0.844691 0.078081 0.529529 0.000000
76.53800201 119.88300323 413.60000610 0.712792 0.669310 -0.209645 0.000000
103.09200287 90.20549774 384.79998779 0.447665 0.888314 -0.102444 0.000000
206.18400574 103.09200287 444.39999390 -0.180563 0.140157 -0.973526 0.000000
240.54800415 106.99700165 418.79998779 -0.386495 0.520218 0.761574 0.000000
144.48500061 146.04699707 391.60000610 -0.838709 0.171317 -0.516931 0.000000
117.15000153 123.00700378 453.60000610 0.196426 0.394307 -0.897741 0.000000
58.96549988 242.11000061 356.79998779 0.847742 -0.429295 0.311510 0.000000
114.80699921 99.57749939 426.39999390 -0.001180 0.971447 -0.237255 0.000000
82.78600311 113.63600159 412.79998779 0.540898 0.802774 -0.250964 0.000000
127.30300140 151.51400757 362.00000000 0.000978 0.000978 0.999999 0.000000
149.17100525 169.47700500 454.00000000 -0.477098 -0.374289 -0.795164 0.000000
196.81199646 92.54850006 398.39999390 -0.491017 0.153901 0.857448 0.000000
61.69900131 250.31100464 376.79998779 0.900879 -0.423371 -0.095779 0.000000
146.04699707 121.05500031 450.79998779 -0.421323 0.654467 -0.627822 0.000000
185.48800659 104.65399933 390.39999390 -0.343664 0.287130 0.894121 0.000000
124.17900085 242.89100647 420.39999390 -0.199711 -0.485012 -0.851398 0.000000
140.97099304 120.27400208 400.79998779 -0.346253 -0.577088 0.739648 0.000000
75.75700378 169.08700562 343.20001221 0.078950 0.813900 0.575616 0.000000
124.17900085 193.68800354 451.60000610 -0.025232 -0.431600 -0.901712 0.000000
137.45599365 171.82000732 461.20001221 0.001240 -0.323658 -0.946173 0.000000
203.45100403 128.86500549 441.60000610 -0.213710 -0.232766 -0.948761 0.000000
125.74099731 259.29199219 406.00000000 -0.401832 -0.587038 -0.702792 0.000000
147.99899292 163.22900391 400.79998779 -0.760584 -0.168513 0.626989 0.000000
142.53300476 224.92799377 388.00000000 -0.898212 -0.388692 0.205264 0.000000
143.31399536 206.18400574 380.79998779 -0.768115 -0.211734 0.604292 0.000000
98.01550293 101.52999878 409.60000610 0.496637 0.758887 -0.421240 0.000000
155.02900696 206.18400574 427.20001221 -0.991134 0.104754 -0.081731 0.000000
110.90200043 209.30799866 360.39999390 -0.500875 -0.014851 0.865392 0.000000
203.45100403 167.91499329 437.60000610 -0.348131 -0.288366 -0.891992 0.000000
260.07299805 134.33200073 426.00000000 -0.603585 0.239866 -0.760361 0.000000
219.46099854 185.48800659 414.39999390 0.145762 -0.907118 0.394830 0.000000
158.54299927 137.06599426 371.20001221 -0.306346 0.306346 0.901279 0.000000
167.91499329 171.03900146 402.79998779 -0.195677 -0.541524 -0.817595 0.000000
111.68299866 147.99899292 367.20001221 0.008921 -0.363231 0.931656 0.000000
134.33200073 103.09200287 427.60000610 -0.343290 0.343290 -0.874245 0.000000
152.29499817 103.09200287 434.79998779 0.587924 0.180783 -0.788456 0.000000
51.15549850 171.82000732 391.20001221 0.983090 0.181796 0.022001 0.000000
103.09200287 127.69400024 450.39999390 0.306346 0.306346 -0.901279 0.000000
234.69099426 113.24500275 412.00000000 -0.405333 0.536615 0.740101 0.000000
68.33750153 136.67500305 420.79998779 0.901005 0.375297 -0.217585 0.000000
157.76199341 187.04899597 432.00000000 -0.313814 -0.785332 -0.533643 0.000000
196.03100586 192.51699829 422.39999390 -0.185202 -0.950345 -0.250091 0.000000
69.11849976 247.57699585 402.39999390 0.613832 -0.627286 -0.479294 0.000000
61.30849838 139.01800537 392.79998779 0.901151 0.429571 -0.058270 0.000000
124.95999908 103.09200287 434.79998779 -0.104525 0.854811 -0.508304 0.000000
228.83299255 118.71199799 436.39999390 -0.235185 -0.070929 -0.969359 0.000000
237.03399658 149.17100525 401.60000610 -0.578888 0.029153 0.814886 0.000000
128.86500549 226.88099670 429.60000610 -0.282322 -0.604520 -0.744883 0.000000
208.13699341 186.65899658 414.39999390 -0.366768 -0.858887 0.357483 0.000000
133.94099426 155.41900635 367.20001221 -0.470523 -0.483731 0.737979 0.000000
61.30849838 171.82000732 428.79998779 0.813639 -0.026336 -0.580774 0.000000
158.93400574 89.81500244 398.39999390 0.136908 -0.032813 0.990040 0.000000
130.81799316 217.89900208 374.39999390 -0.537015 -0.192115 0.821406 0.000000
140.58000183 121.83599854 400.39999390 0.189695 0.439682 0.877893 0.000000
136.67500305 136.67500305 367.60000610 -0.639025 0.129592 0.758190 0.000000
99.18699646 201.49800110 350.79998779 -0.655625 -0.136526 0.742642 0.000000
171.03900146 174.16299438 385.20001221 0.428660 0.554445 0.713331 0.000000
126.52200317 249.52999878 379.20001221 -0.624017 -0.257506 0.737762 0.000000
109.33999634 96.45349884 411.20001221 0.248098 0.934923 -0.253705 0.000000
111.68299866 140.58000183 360.39999390 0.226939 -0.683946 0.693337 0.000000
160.10499573 99.18699646 438.79998779 0.497016 0.431403 -0.752905 0.000000
81.22399902 195.25000000 441.20001221 0.388102 -0.228729 -0.892782 0.000000
137.84599304 168.69599915 391.20001221 -0.745866 -0.567118 0.349371 0.000000
158.54299927 198.76499939 397.60000610 0.055519 -0.998299 0.017808 0.000000
98.79650116 166.35299683 357.60000610 -0.650743 0.344127 0.676838 0.000000
149.95199585 87.86250305 424.00000000 0.403597 0.729769 -0.551857 0.000000
188.61199951 200.71699524 412.00000000 -0.723116 -0.620043 -0.304385 0.000000
229.61399841 136.67500305 398.79998779 -0.431157 0.192770 0.881444 0.000000
86.30049896 102.31099701 380.79998779 0.807456 0.109510 -0.579674 0.000000
62.47999954 137.06599426 381.60000610 0.841848 0.537498 0.048863 0.000000
197.98399353 87.47200012 400.00000000 -0.443190 0.189939 0.876074 0.000000
58.18450165 223.36599731 411.20001221 0.729001 -0.342582 -0.592618 0.000000
139.01800537 125.74099731 390.00000000 -0.853712 -0.516165 -0.068916 0.000000
152.29499817 130.42700195 371.60000610 0.001108 0.145143 0.989410 0.000000
138.23699951 188.61199951 388.00000000 0.174694 0.962786 0.206217 0.000000
124.56999969 206.18400574 444.79998779 -0.207673 -0.573793 -0.792234 0.000000
82.78600311 160.88600159 446.00000000 0.380410 -0.105746 -0.918752 0.000000
115.58799744 213.60400391 441.60000610 -0.097229 -0.463598 -0.880695 0.000000
230.39500427 182.75399780 430.00000000 0.033484 -0.274076 -0.961125 0.000000
111.68299866 273.35000610 394.79998779 -0.111622 -0.839343 -0.532019 0.000000
99.57749939 113.24500275 440.00000000 0.583294 0.535954 -0.610345 0.000000
105.82599640 267.88299561 366.39999390 -0.685430 -0.162619 0.709747 0.000000
71.46150208 135.11300659 428.00000000 0.839551 0.426811 -0.336133 0.000000
66.77549744 167.91499329 348.00000000 0.256339 0.812516 0.523553 0.000000
117.54100037 90.59600067 397.60000610 0.048185 0.936361 -0.347717 0.000000
81.22399902 189.00199890 442.79998779 0.469482 -0.277351 -0.838250 0.000000
85.51950073 203.05999756 337.60000610 -0.717276 -0.210048 0.664375 0.000000
95.67250061 156.19999695 357.60000610 -0.721486 0.114075 0.682967 0.000000
153.07600403 151.12399292 456.79998779 -0.396742 -0.043788 -0.916885 0.000000
242.11000061 175.72500610 414.00000000 -0.634050 -0.456717 0.624012 0.000000
192.90699768 169.47700500 388.39999390 -0.001240 -0.323658 0.946173 0.000000
137.45599365 215.55599976 435.60000610 -0.233503 -0.548963 -0.802568 0.000000
139.79899597 133.55099487 458.79998779 -0.045181 0.235674 -0.970781 0.000000
99.57749939 139.01800537 360.79998779 -0.133058 -0.971959 0.193885 0.000000
121.83599854 125.74099731 456.39999390 -0.006749 0.519635 -0.854361 0.000000
220.24200439 105.04499817 408.00000000 -0.479199 0.288768 0.828843 0.000000
122.61699677 186.26899719 387.20001221 -0.666998 0.617098 -0.417497 0.000000
148.38999939 226.88099670 415.20001221 -0.779953 -0.525866 -0.339320 0.000000
144.87600708 215.55599976 384.79998779 -0.781665 -0.110405 0.613850 0.000000
72.24250031 126.52200317 418.39999390 0.814414 0.485485 -0.317859 0.000000
123.39800262 90.98650360 408.00000000 0.105166 0.921908 -0.372861 0.000000
59.35599899 173.38200378 348.39999390 0.497175 0.621890 0.605037 0.000000
87.86250305 275.69299316 372.79998779 0.468803 -0.880908 -0.064996 0.000000
83.56700134 264.75900269 394.79998779 0.441425 -0.694619 -0.568022 0.000000
249.52999878 150.73300171 411.20001221 -0.574936 -0.049200 0.816718 0.000000
117.93099976 267.10198975 378.00000000 -0.741389 -0.307170 0.596649 0.000000
222.58500671 114.80699921 438.79998779 -0.330783 -0.126596 -0.935177 0.000000
222.58500671 183.92599487 429.60000610 0.135650 -0.603715 -0.785575 0.000000
255.38699341 129.64599609 427.60000610 -0.469290 0.094422 -0.877981 0.000000
55.84149933 153.07600403 408.00000000 0.955820 0.213149 -0.202425 0.000000
90.20549774 186.65899658 343.20001221 -0.652022 0.113845 0.749604 0.000000
86.30049896 185.87800598 447.20001221 0.426405 -0.297098 -0.854349 0.000000
48.03150177 191.34500122 397.60000610 0.984795 -0.024245 -0.172022 0.000000
49.98400116 210.08900452 381.20001221 0.987514 -0.037937 -0.152898 0.000000
206.96499634 128.08399963 394.79998779 -0.212967 0.436358 0.874206 0.000000
106.99700165 137.84599304 356.79998779 0.348753 -0.854056 0.385953 0.000000
70.29000092 123.00700378 392.00000000 0.871237 0.490324 0.022963 0.000000
114.80699921 174.16299438 372.39999390 -0.780940 0.029443 0.623911 0.000000
80.44300079 252.26300049 408.39999390 0.440931 -0.687186 -0.577369 0.000000
64.04199982 248.35800171 394.00000000 0.716497 -0.578139 -0.390367 0.000000
99.96800232 272.17800903 395.20001221 0.517548 -0.799272 -0.305464 0.000000
215.55599976 145.26600647 391.60000610 -0.304885 0.222637 0.926001 0.000000
200.71699524 146.82800293 389.20001221 -0.146258 0.280439 0.948663 0.000000
116.76000214 174.94400024 375.20001221 -0.824684 0.026246 0.564985 0.000000
138.62800598 216.33700562 378.39999390 -0.596698 0.004115 0.802456 0.000000
116.76000214 274.91198730 386.39999390 -0.675703 -0.697754 0.237835 0.000000
73.80449677 123.39800262 368.79998779 0.852553 0.466549 0.235554 0.000000
133.16099548 255.38699341 390.39999390 -0.914294 -0.229657 0.333652 0.000000
82.78600311 118.71199799 430.00000000 0.665528 0.729201 -0.159181 0.000000
171.82000732 127.30300140 445.20001221 0.142348 -0.014571 -0.989709 0.000000
155.41900635 158.54299927 454.79998779 -0.208237 -0.238179 -0.948635 0.000000
156.19999695 187.44000244 379.60000610 0.029504 0.658914 0.751640 0.000000
124.17900085 101.52999878 432.39999390 -0.296629 0.820832 -0.488105 0.000000
78.49050140 151.51400757 444.00000000 0.781806 0.532395 -0.324553 0.000000
200.71699524 83.17649841 433.60000610 -0.051589 0.849133 -0.525654 0.000000
214.77499390 187.04899597 423.20001221 0.179745 -0.979429 0.091707 0.000000
233.51899719 175.72500610 431.60000610 -0.051111 -0.119258 -0.991547 0.000000
92.93900299 269.05499268 357.60000610 -0.001381 -0.716707 0.697373 0.000000
231.95700073 122.61699677 435.60000610 -0.354470 0.032225 -0.934512 0.000000
156.98100281 179.24000549 441.60000610 -0.579575 -0.582954 -0.569436 0.000000
190.56399536 185.87800598 397.20001221 -0.539140 -0.479050 0.692704 0.000000
70.29000092 249.91999817 346.00000000 -0.000978 -0.000978 0.999999 0.000000
71.85199738 255.77799988 350.39999390 0.604343 -0.647869 0.463720 0.000000
67.16600037 226.49000549 418.79998779 0.616052 -0.445762 -0.649443 0.000000
253.82499695 142.92300415 413.20001221 -0.545191 -0.051856 0.836707 0.000000
171.42999268 167.13400269 389.60000610 -0.349378 0.064602 0.934752 0.000000
49.20299911 202.66999817 391.20001221 0.970886 -0.042743 0.235699 0.000000
48.03150177 196.81199646 395.20001221 0.999999 -0.000978 -0.000978 0.000000
116.36900330 204.62199402 364.39999390 -0.560283 -0.196939 0.804548 0.000000
105.43499756 232.73800659 359.60000610 -0.567718 -0.121759 0.814169 0.000000
163.22900391 184.70599365 383.20001221 0.000000 0.000000 0.000000 0.000000
110.12100220 272.17800903 398.39999390 -0.052869 -0.753027 -0.655862 0.000000
128.47500610 239.76699829 420.79998779 -0.275723 -0.500039 -0.820937 0.000000
189.39300537 90.59600067 440.00000000 0.078230 0.544767 -0.834930 0.000000
60.13700104 185.09700012 426.79998779 0.743710 0.023810 -0.668078 0.000000
128.08399963 117.15000153 368.39999390 -0.454988 0.564985 0.688315 0.000000
222.58500671 137.45599365 395.60000610 -0.361442 0.249321 0.898442 0.000000
107.77799988 279.20800781 380.00000000 -0.066914 -0.938108 0.339818 0.000000
80.83350372 112.46399689 361.60000610 0.849572 0.465206 0.248618 0.000000
222.58500671 176.50599670 432.39999390 -0.067600 -0.356559 -0.931824 0.000000
148.38999939 113.63600159 438.39999390 -0.385429 0.556001 -0.736415 0.000000
167.13400269 140.58000183 373.20001221 -0.382285 0.068409 0.921509 0.000000
138.23699951 219.07099915 432.79998779 -0.257842 -0.548500 -0.795403 0.000000
224.92799377 158.15199280 435.20001221 0.580716 -0.580716 -0.570558 0.000000
96.84400177 276.86499023 384.00000000 0.067119 -0.806851 -0.586930 0.000000
96.84400177 131.98899841 350.79998779 -0.137934 0.021307 0.990212 0.000000
57.40349960 154.63800049 364.00000000 0.907335 0.396518 0.139699 0.000000
168.69599915 178.84899902 385.20001221 -0.201447 0.122895 0.971759 0.000000
151.12399292 223.36599731 412.79998779 -0.824298 -0.550024 -0.134188 0.000000
108.94999695 205.40299988 359.20001221 -0.505833 -0.045484 0.861432 0.000000
235.08099365 185.09700012 430.00000000 0.056783 -0.140220 -0.988491 0.000000
119.10299683 154.63800049 368.00000000 0.438586 -0.461412 0.771194 0.000000
250.70100403 118.71199799 429.20001221 -0.407681 0.011722 -0.913049 0.000000
217.11799622 166.35299683 434.79998779 -0.309326 -0.243145 -0.919346 0.000000
90.59600067 99.57749939 388.79998779 0.716799 0.683739 -0.136748 0.000000
91.37699890 251.09199524 415.20001221 0.092366 -0.681749 -0.725732 0.000000
178.84899902 185.09700012 385.20001221 -0.415871 0.448235 0.791288 0.000000
187.44000244 76.92849731 416.79998779 0.064997 0.929860 -0.362128 0.000000
218.67999268 185.48800659 414.39999390 0.145762 -0.907118 0.394830 0.000000
142.14199829 180.02099609 396.00000000 -0.061882 0.095636 0.993491 0.000000
220.24200439 131.20799255 438.79998779 -0.240327 -0.240327 -0.940471 0.000000
254.60600281 160.10499573 418.00000000 -0.734966 -0.209768 0.644843 0.000000
73.80449677 264.75900269 374.39999390 0.697359 -0.714543 0.055846 0.000000
143.31399536 231.95700073 414.39999390 -0.692341 -0.579441 -0.430015 0.000000
207.74600220 127.30300140 395.60000610 -0.122879 0.430783 0.894051 0.000000
91.76750183 160.10499573 352.79998779 -0.836380 0.009520 0.548067 0.000000
128.08399963 165.57200623 378.00000000 -0.180754 -0.797446 0.575680 0.000000
192.12600708 174.16299438 390.00000000 0.087980 -0.377639 0.921764 0.000000
82.78600311 207.74600220 438.00000000 0.325378 -0.365096 -0.872258 0.000000
61.69900131 250.31100464 384.00000000 0.877988 -0.474252 0.064985 0.000000
58.18450165 148.38999939 367.20001221 0.881765 0.444502 0.157820 0.000000
128.08399963 131.98899841 458.79998779 0.016077 0.293092 -0.955949 0.000000
162.05799866 199.15499878 400.79998779 0.329081 -0.939280 0.097259 0.000000
232.73800659 114.80699921 410.00000000 -0.453990 0.411984 0.790040 0.000000
246.79600525 185.09700012 429.20001221 -0.313508 -0.937787 0.149225 0.000000
58.18450165 216.33700562 337.60000610 0.701445 -0.268808 0.660089 0.000000
134.33200073 208.13699341 441.60000610 0.065765 -0.505127 -0.860536 0.000000
140.58000183 188.22099304 385.20001221 0.307647 0.925777 0.219748 0.000000
181.19200134 92.15799713 438.79998779 -0.230889 0.695809 -0.680103 0.000000
147.99899292 177.28700256 451.20001221 -0.682326 -0.423341 -0.595998 0.000000
260.07299805 139.79899597 417.20001221 -0.421606 0.001297 0.906778 0.000000
180.80099487 173.38200378 441.60000610 -0.327896 -0.589567 -0.738170 0.000000
147.60899353 152.29499817 398.79998779 -0.724475 0.089279 0.683495 0.000000
114.80699921 98.01550293 416.79998779 -0.752844 0.657865 -0.020951 0.000000
82.00499725 187.83099365 444.00000000 0.494915 -0.279463 -0.822776 0.000000
143.70399475 229.22399902 418.39999390 -0.542776 -0.670488 -0.505807 0.000000
148.38999939 206.96499634 388.39999390 -0.879354 -0.003979 0.476151 0.000000
123.39800262 269.83599854 398.39999390 -0.374963 -0.764535 -0.524299 0.000000
181.19200134 207.74600220 409.20001221 -0.543619 -0.690814 -0.476712 0.000000
240.54800415 180.02099609 416.00000000 -0.580888 -0.496701 0.644870 0.000000
166.35299683 212.04200745 404.79998779 0.548901 -0.827011 0.121490 0.000000
65.21350098 138.23699951 415.20001221 0.842992 0.395690 -0.364410 0.000000
125.74099731 272.17800903 392.79998779 -0.693144 -0.600504 0.398682 0.000000
100.74900055 233.51899719 428.39999390 0.094346 -0.584944 -0.805568 0.000000
100.74900055 106.60600281 429.60000610 0.458254 0.864265 -0.207483 0.000000
204.62199402 103.09200287 400.39999390 -0.549357 0.230575 0.803145 0.000000
76.53800201 122.22699738 360.00000000 0.881461 0.381213 0.278753 0.000000
56.62250137 221.80400085 340.79998779 0.803412 -0.147566 0.576847 0.000000
136.67500305 176.50599670 459.60000610 -0.154938 -0.353147 -0.922649 0.000000
95.28199768 276.08300781 364.79998779 0.171470 -0.874939 0.452858 0.000000
136.67500305 228.44299316 380.79998779 -0.652845 -0.287123 0.700966 0.000000
76.53800201 245.23399353 413.20001221 0.503813 -0.577953 -0.641983 0.000000
62.47999954 135.89399719 388.39999390 0.907782 0.419278 0.011755 0.000000
192.90699768 166.74299622 440.00000000 -0.205704 -0.192432 -0.959508 0.000000
65.99449921 185.87800598 332.79998779 0.309854 0.576361 0.756173 0.000000
134.33200073 105.43499756 392.39999390 -0.895783 0.356833 0.265033 0.000000
124.95999908 219.46099854 370.79998779 -0.398181 0.133665 0.907516 0.000000
103.48300171 269.44500732 364.00000000 -0.707614 -0.123646 0.695697 0.000000
192.12600708 181.19200134 394.79998779 0.022841 -0.474297 0.880069 0.000000
48.03150177 192.90699768 349.60000610 0.630885 -0.607332 0.482837 0.000000
131.59800720 262.41598511 397.60000610 -0.880657 -0.438131 -0.180234 0.000000
68.33750153 129.64599609 374.39999390 0.870736 0.424050 0.248997 0.000000
234.30000305 128.86500549 404.39999390 -0.647020 0.251531 0.719790 0.000000
61.69900131 160.49499512 428.00000000 0.787434 0.164742 -0.593976 0.000000
64.04199982 187.44000244 332.39999390 0.302731 0.578232 0.757629 0.000000
101.52999878 192.12600708 355.60000610 -0.660178 0.251723 0.707673 0.000000
125.74099731 203.84100342 370.00000000 -0.446574 -0.161465 0.880057 0.000000
210.08900452 108.55899811 402.00000000 -0.437886 0.233238 0.868249 0.000000
208.13699341 90.59600067 405.60000610 -0.440506 0.263694 0.858149 0.000000
96.06300354 122.61699677 444.39999390 0.570954 0.520427 -0.634955 0.000000
53.49850082 201.49800110 412.79998779 0.899331 -0.001305 -0.437266 0.000000
124.95999908 119.49299622 364.39999390 -0.439096 0.545142 0.714153 0.000000
189.78300476 171.03900146 439.60000610 0.371158 0.184863 -0.909982 0.000000
213.99400330 83.56700134 430.79998779 0.040275 0.934120 -0.354680 0.000000
145.65699768 210.86999512 384.79998779 -0.893566 -0.117166 0.433373 0.000000
75.75700378 157.76199341 348.39999390 0.001381 -0.716707 0.697373 0.000000
182.75399780 90.59600067 394.00000000 -0.242381 0.432071 0.868658 0.000000
92.93900299 158.54299927 354.79998779 -0.770809 0.026580 0.636512 0.000000
114.02600098 92.93900299 402.79998779 0.075840 0.932700 -0.352590 0.000000
247.18699646 153.07600403 432.00000000 -0.409850 0.011710 -0.912078 0.000000
127.30300140 168.30599976 381.60000610 -0.401240 -0.844633 0.354403 0.000000
106.21600342 94.50099945 398.79998779 0.442887 0.843816 -0.303028 0.000000
165.57200623 211.65100098 410.79998779 0.666235 -0.592765 -0.452505 0.000000
198.37399292 93.32949829 442.39999390 -0.205991 0.266820 -0.941475 0.000000
154.63800049 198.76499939 390.39999390 -0.422746 -0.824909 0.375247 0.000000
60.91799927 153.46699524 422.39999390 0.829349 0.383870 -0.405986 0.000000
174.94400024 76.92849731 417.60000610 -0.000978 0.999999 -0.000978 0.000000
126.52200317 195.64100647 450.39999390 -0.031157 -0.475485 -0.879172 0.000000
150.73300171 167.91499329 404.39999390 -0.532096 -0.054467 0.844930 0.000000
65.60399628 242.50100708 344.00000000 0.637023 -0.424127 0.643676 0.000000
90.20549774 139.79899597 448.79998779 0.468496 0.387998 -0.793706 0.000000
92.93900299 277.64599609 374.39999390 0.375823 -0.924178 -0.068210 0.000000
217.89900208 101.92099762 408.00000000 -0.469796 0.238699 0.849891 0.000000
67.94699860 257.33999634 388.79998779 0.650011 -0.725193 -0.227112 0.000000
137.84599304 121.83599854 377.60000610 -0.592039 0.527943 0.608906 0.000000
102.70099640 267.88299561 363.20001221 -0.707614 -0.123646 0.695697 0.000000
265.54000854 133.55099487 421.20001221 -0.572376 0.214448 -0.791453 0.000000
135.11300659 146.82800293 366.00000000 -0.563392 -0.072742 0.822981 0.000000
97.62500000 142.92300415 454.00000000 0.335164 0.359651 -0.870814 0.000000
172.60099792 171.42999268 401.60000610 -0.252240 0.506028 -0.824810 0.000000
52.71749878 192.90699768 336.79998779 0.430553 -0.061119 0.900494 0.000000
65.21350098 223.36599731 419.20001221 0.597445 -0.463564 -0.654345 0.000000
152.29499817 150.73300171 403.60000610 -0.606772 0.138648 0.782691 0.000000
197.59300232 156.19999695 385.20001221 -0.295826 0.026212 0.954882 0.000000
228.83299255 144.48500061 396.39999390 -0.520689 0.031599 0.853161 0.000000
141.75199890 224.14700317 425.60000610 -0.417497 -0.666998 -0.617098 0.000000
238.98599243 110.90200043 415.60000610 -0.312995 0.513185 0.799171 0.000000
101.52999878 105.82599640 429.60000610 0.358599 0.907385 -0.219224 0.000000
83.95749664 187.44000244 336.79998779 -0.716707 0.001381 0.697373 0.000000
236.64300537 160.88600159 402.00000000 -0.716707 -0.001381 0.697373 0.000000
123.39800262 88.64350128 396.79998779 0.785044 0.589165 -0.191287 0.000000
89.03399658 264.36801147 400.00000000 0.235780 -0.763553 -0.601161 0.000000
152.29499817 160.49499512 405.60000610 -0.817044 -0.137405 0.559963 0.000000
49.98400116 210.86999512 402.00000000 0.958536 -0.162621 -0.234015 0.000000
150.73300171 192.12600708 418.79998779 0.050648 -0.882920 -0.466784 0.000000
73.41400146 238.20500183 415.60000610 0.484976 -0.508309 -0.711632 0.000000
205.01300049 188.22099304 422.39999390 -0.327657 -0.832469 -0.446806 0.000000
212.43200684 112.46399689 402.00000000 -0.414773 0.292331 0.861688 0.000000
155.41900635 189.00199890 430.00000000 -0.334438 -0.941333 -0.045194 0.000000
249.91999817 104.65399933 429.20001221 0.306346 0.306346 -0.901279 0.000000
118.71199799 166.35299683 376.39999390 -0.590975 -0.736695 0.328679 0.000000
54.66999817 171.42999268 412.79998779 0.847805 0.388773 -0.360669 0.000000
65.60399628 253.82499695 390.00000000 0.655654 -0.595287 -0.464491 0.000000
128.86500549 222.97599792 432.79998779 -0.329049 -0.534504 -0.778481 0.000000
74.19499969 121.44599915 410.39999390 0.719719 0.663998 -0.202759 0.000000
82.00499725 135.11300659 441.20001221 0.516513 0.334214 -0.788362 0.000000
158.54299927 184.70599365 383.20001221 0.034607 0.834733 0.549567 0.000000
162.44799805 197.98399353 416.79998779 0.782901 -0.570377 -0.248466 0.000000
179.24000549 143.70399475 446.39999390 -0.185333 0.110702 -0.976420 0.000000
115.19799805 140.58000183 461.60000610 0.575029 0.360004 -0.734669 0.000000
110.90200043 107.38800049 440.79998779 0.324288 0.790752 -0.519181 0.000000
91.37699890 215.55599976 438.00000000 0.216004 -0.363872 -0.906057 0.000000
145.65699768 140.58000183 387.20001221 -0.792758 0.320612 -0.518403 0.000000
68.72799683 219.85200500 424.00000000 0.528724 -0.442537 -0.724302 0.000000
66.38500214 254.99699402 364.79998779 0.784924 -0.618039 0.043843 0.000000
226.49000549 185.87800598 419.60000610 0.023165 -0.854364 0.519159 0.000000
103.48300171 228.05200195 357.60000610 -0.537186 -0.084069 0.839264 0.000000
192.90699768 193.29800415 412.00000000 -0.671556 -0.720508 -0.172861 0.000000
117.15000153 131.59800720 356.00000000 0.456129 0.001314 0.889912 0.000000
159.71499634 89.81500244 398.39999390 0.136908 -0.032813 0.990040 0.000000
134.33200073 133.55099487 366.00000000 -0.682619 0.172564 0.710107 0.000000
173.38200378 181.97300720 385.20001221 -0.356974 0.572136 0.738397 0.000000
131.98899841 130.42700195 364.39999390 -0.666477 0.186244 0.721888 0.000000
231.56599426 167.13400269 400.00000000 -0.577996 -0.317174 0.751878 0.000000
149.17100525 202.27900696 434.00000000 -0.588380 0.026428 -0.808153 0.000000
106.21600342 173.38200378 406.00000000 -0.678408 0.406381 0.612060 0.000000
121.05500031 149.17100525 462.79998779 0.065181 -0.113208 -0.991431 0.000000
71.46150208 160.88600159 440.00000000 0.678221 0.079876 -0.730504 0.000000
236.64300537 118.71199799 433.20001221 -0.310286 -0.003709 -0.950636 0.000000
133.55099487 217.50799561 435.20001221 -0.207573 -0.582741 -0.785701 0.000000
181.58299255 209.30799866 391.20001221 -0.774702 -0.461560 0.432202 0.000000
117.54100037 225.70899963 434.39999390 -0.092804 -0.523985 -0.846657 0.000000
114.02600098 115.19799805 360.79998779 -0.435083 0.322803 0.840536 0.000000
91.76750183 117.15000153 436.79998779 0.463892 0.671554 -0.577771 0.000000
218.67999268 173.38200378 434.00000000 -0.129019 -0.176619 -0.975787 0.000000
224.53799438 99.96800232 414.39999390 -0.585674 0.484985 0.649443 0.000000
196.42199707 108.55899811 394.39999390 -0.494660 0.025749 0.868705 0.000000
54.27949905 202.27900696 332.79998779 0.791159 0.052555 0.609349 0.000000
64.04199982 235.08099365 410.79998779 0.601651 -0.406073 -0.687838 0.000000
134.33200073 254.21499634 398.39999390 -0.892405 -0.425432 0.150405 0.000000
155.02900696 146.04699707 456.00000000 -0.522389 0.020459 -0.852462 0.000000
224.14700317 150.34199524 436.00000000 -0.141682 0.028336 -0.989507 0.000000
66.77549744 128.86500549 383.20001221 0.910357 0.405362 0.083256 0.000000
89.81500244 171.82000732 451.60000610 0.477631 -0.047900 -0.877254 0.000000
115.19799805 196.03100586 376.00000000 -0.857971 0.166869 0.485839 0.000000
135.50399780 117.93099976 376.79998779 -0.888694 0.358175 0.286240 0.000000
49.20299911 181.19200134 394.00000000 0.958363 0.094160 0.269580 0.000000
91.37699890 155.41900635 453.20001221 0.555620 0.009556 -0.831382 0.000000
199.54600525 143.70399475 389.60000610 -0.146258 0.280439 0.948663 0.000000
210.08900452 88.64350128 438.39999390 -0.261148 0.732798 -0.628338 0.000000
91.37699890 137.84599304 448.79998779 0.468496 0.387998 -0.793706 0.000000
103.87300110 87.86250305 379.20001221 0.305110 0.807830 -0.504301 0.000000
151.51400757 197.59300232 409.20001221 -0.778721 -0.520760 -0.349860 0.000000
209.30799866 130.03599548 394.39999390 -0.150405 0.425432 0.892405 0.000000
102.70099640 163.22900391 361.60000610 -0.553669 0.179528 0.813155 0.000000
153.85699463 203.45100403 420.79998779 -0.766337 0.459148 0.449345 0.000000
155.02900696 193.68800354 378.39999390 0.969644 -0.188792 0.155400 0.000000
81.61450195 109.33999634 366.39999390 0.882138 0.440342 0.167127 0.000000
103.09200287 132.77000427 352.39999390 -0.043397 0.103486 0.993684 0.000000
106.99700165 108.94999695 440.00000000 0.369180 0.898682 -0.236805 0.000000
49.59349823 187.44000244 388.00000000 0.996734 0.078154 0.020342 0.000000
148.38999939 181.58299255 447.20001221 -0.674813 -0.487272 -0.554251 0.000000
65.60399628 248.35800171 398.00000000 0.644289 -0.610820 -0.460207 0.000000
109.33999634 242.50100708 422.39999390 -0.023359 -0.542761 -0.839562 0.000000
49.59349823 202.27900696 384.79998779 0.994888 -0.078748 0.063220 0.000000
171.03900146 172.60099792 390.00000000 0.907065 -0.072076 0.414775 0.000000
185.09700012 190.56399536 431.60000610 0.079248 -0.606609 -0.791041 0.000000
95.67250061 145.26600647 453.60000610 0.346901 0.343844 -0.872600 0.000000
161.66700745 98.79650116 439.20001221 0.497016 0.431403 -0.752905 0.000000
174.55299377 167.91499329 388.79998779 -0.471103 0.632050 0.615284 0.000000
144.09399414 102.31099701 392.79998779 0.598755 0.652425 0.464580 0.000000
229.22399902 148.38999939 435.20001221 -0.153803 0.026203 -0.987754 0.000000
67.16600037 171.42999268 343.20001221 0.369059 0.693832 0.618379 0.000000
256.16799927 162.05799866 420.79998779 -0.577089 -0.492965 0.651118 0.000000
50.76499939 218.67999268 357.20001221 0.951670 0.021259 0.306385 0.000000
119.49299622 139.79899597 357.20001221 0.007721 0.129052 0.991608 0.000000
149.17100525 181.97300720 394.00000000 0.318816 0.871023 0.373731 0.000000
68.72799683 242.89100647 341.20001221 0.548596 -0.568852 0.612740 0.000000
68.72799683 159.32400513 350.79998779 0.396896 0.109250 0.911339 0.000000
118.71199799 122.22699738 453.60000610 0.208225 0.468881 -0.858367 0.000000
71.85199738 153.07600403 438.79998779 0.669213 0.219951 -0.709771 0.000000
75.36650085 114.02600098 380.00000000 0.811391 0.578744 -0.081857 0.000000
231.56599426 161.66700745 398.39999390 -0.509129 -0.211250 0.834363 0.000000
65.99449921 222.58500671 420.00000000 0.555975 -0.459138 -0.692881 0.000000
193.68800354 187.44000244 401.20001221 -0.730715 -0.505369 0.458975 0.000000
110.90200043 89.81500244 393.20001221 0.137387 0.899391 -0.414995 0.000000
70.29000092 257.33999634 356.00000000 0.768457 -0.546136 0.333481 0.000000
61.69900131 222.58500671 336.39999390 0.644106 -0.240949 0.725997 0.000000
185.87800598 141.36099243 445.20001221 -0.295196 -0.141532 -0.944896 0.000000
94.50099945 273.74099731 388.00000000 0.288023 -0.829817 -0.477962 0.000000
192.90699768 193.29800415 413.60000610 -0.668182 -0.720408 -0.185862 0.000000
233.12899780 127.30300140 404.00000000 -0.575996 0.231330 0.784038 0.000000
181.58299255 182.75399780 388.79998779 -0.593851 0.424179 0.683677 0.000000
49.59349823 210.86999512 377.60000610 0.996663 -0.037793 -0.072347 0.000000
81.22399902 172.60099792 340.39999390 -0.663282 0.423902 0.616736 0.000000
73.02349854 123.39800262 412.79998779 0.731054 0.650343 -0.206433 0.000000
110.12100220 146.82800293 366.79998779 0.293963 -0.634511 0.714829 0.000000
77.70950317 229.61399841 337.60000610 -0.603716 -0.158080 0.781369 0.000000
132.77000427 109.73000336 381.60000610 -0.822119 0.543587 0.169216 0.000000
95.28199768 270.22601318 358.79998779 -0.012493 -0.653822 0.756545 0.000000
74.19499969 211.65100098 332.39999390 -0.401855 -0.398678 0.824359 0.000000
145.65699768 117.15000153 442.39999390 -0.659600 0.629694 -0.410381 0.000000
76.14749908 192.90699768 439.20001221 0.471412 -0.302268 -0.828495 0.000000
144.87600708 193.68800354 437.60000610 -0.958372 -0.140666 -0.248467 0.000000
57.79399872 173.38200378 350.00000000 0.531426 0.609031 0.588786 0.000000
91.37699890 96.45349884 373.60000610 0.579987 0.812549 -0.058140 0.000000
130.42700195 176.11599731 460.00000000 0.206600 -0.275929 -0.938712 0.000000
55.84149933 163.22900391 408.79998779 0.980491 0.196558 -0.001149 0.000000
139.01800537 219.46099854 432.39999390 -0.269175 -0.645066 -0.715147 0.000000
86.69100189 110.90200043 413.20001221 0.623318 0.731721 -0.275790 0.000000
173.38200378 74.19499969 410.79998779 0.133273 0.930160 -0.342112 0.000000
226.10000610 85.91000366 431.20001221 0.621996 0.438565 -0.648677 0.000000
158.54299927 143.70399475 453.20001221 -0.501924 0.227315 -0.834506 0.000000
144.48500061 187.83099365 382.39999390 0.322701 0.909697 0.261373 0.000000
145.26600647 96.06300354 396.39999390 0.252332 0.578325 0.775802 0.000000
86.30049896 158.54299927 448.79998779 0.536493 -0.124256 -0.834707 0.000000
144.48500061 182.75399780 395.60000610 0.001370 0.790530 0.612421 0.000000
197.98399353 157.76199341 440.00000000 -0.201881 -0.001154 -0.979409 0.000000
116.36900330 222.97599792 436.00000000 -0.092804 -0.523985 -0.846657 0.000000
103.87300110 114.80699921 357.20001221 -0.264436 0.177647 0.947901 0.000000
55.06050110 180.41099548 419.20001221 0.827644 0.221827 -0.515556 0.000000
84.34799957 195.64100647 442.39999390 0.387695 -0.258963 -0.884664 0.000000
80.44300079 238.98599243 419.60000610 0.284301 -0.431830 -0.855976 0.000000
192.12600708 77.70950317 420.00000000 -0.036474 0.954625 -0.295569 0.000000
139.40899658 200.71699524 442.39999390 -0.541119 -0.362371 -0.758866 0.000000
142.14199829 224.53799438 384.00000000 -0.780874 -0.430211 0.452939 0.000000
165.18200684 159.32400513 400.00000000 -0.654054 -0.344153 0.673626 0.000000
88.25299835 260.46398926 404.00000000 0.434376 -0.694003 -0.574175 0.000000
74.19499969 119.10299683 404.79998779 0.833752 0.512961 -0.204277 0.000000
110.12100220 192.90699768 451.60000610 0.046803 -0.410526 -0.910647 0.000000
63.26100159 163.22900391 430.79998779 0.814367 0.115503 -0.568741 0.000000
105.04499817 158.54299927 458.39999390 0.229188 -0.113954 -0.966689 0.000000
124.95999908 90.20549774 403.20001221 -0.125435 0.977403 -0.170145 0.000000
224.14700317 183.53500366 411.60000610 -0.091911 -0.912248 0.399194 0.000000
117.93099976 270.22601318 379.60000610 -0.809458 -0.421559 0.408736 0.000000
60.52750015 213.21299744 421.60000610 0.758418 -0.358909 -0.544047 0.000000
82.78600311 107.38800049 368.79998779 0.780563 0.624729 0.020871 0.000000
141.75199890 231.95700073 417.60000610 -0.758988 -0.559169 -0.333568 0.000000
127.30300140 220.24200439 434.79998779 -0.256790 -0.530700 -0.807723 0.000000
100.74900055 169.86799622 456.79998779 0.352205 -0.161369 -0.921907 0.000000
75.75700378 114.41699982 384.79998779 0.769174 0.631455 -0.098161 0.000000
176.50599670 214.77499390 402.79998779 -0.196773 -0.968431 -0.153045 0.000000
125.74099731 240.93899536 420.79998779 -0.197167 -0.498185 -0.844356 0.000000
70.29000092 160.88600159 350.00000000 0.384749 0.188772 0.903512 0.000000
73.02349854 148.38999939 438.39999390 0.695809 0.230889 -0.680103 0.000000
214.77499390 90.98650360 439.20001221 -0.174970 0.524911 -0.832979 0.000000
205.79400635 121.05500031 396.79998779 -0.047870 -0.096854 0.994147 0.000000
90.59600067 161.66700745 452.39999390 0.493738 -0.028563 -0.869142 0.000000
191.73599243 187.44000244 397.60000610 -0.541793 -0.432440 0.720733 0.000000
117.15000153 101.13999939 432.00000000 0.143761 0.869829 -0.471944 0.000000
164.00999451 127.30300140 374.00000000 -0.268421 0.330026 0.905004 0.000000
68.72799683 217.11799622 332.39999390 -0.294563 -0.202425 0.933947 0.000000
169.47700500 184.31599426 430.00000000 -0.237116 -0.717629 -0.654817 0.000000
149.17100525 182.36399841 392.79998779 0.373094 0.856104 0.357613 0.000000
142.92300415 178.84899902 457.20001221 -0.657208 -0.380489 -0.650620 0.000000
88.25299835 105.82599640 401.60000610 0.716572 0.591950 -0.368944 0.000000
216.33700562 156.58999634 391.20001221 -0.203607 0.069495 0.976583 0.000000
74.19499969 222.58500671 426.00000000 0.526360 -0.401739 -0.749367 0.000000
186.26899719 185.87800598 390.39999390 -0.675566 0.394769 0.622710 0.000000
146.04699707 203.84100342 436.39999390 -0.534074 -0.120785 -0.836765 0.000000
248.74899292 167.91499329 430.39999390 -0.240104 -0.181084 -0.953708 0.000000
89.03399658 135.89399719 446.00000000 0.537354 0.325620 -0.777960 0.000000
168.30599976 157.76199341 401.60000610 0.951863 -0.223410 0.209870 0.000000
184.31599426 135.11300659 383.60000610 -0.656873 0.152515 0.738415 0.000000
114.41699982 215.55599976 364.00000000 -0.577477 -0.100368 0.810214 0.000000
60.91799927 140.18899536 392.00000000 0.901457 0.431364 -0.036058 0.000000
165.57200623 176.11599731 393.60000610 -0.086519 -0.995513 -0.038331 0.000000
74.19499969 123.78900146 418.39999390 0.805583 0.553935 -0.210219 0.000000
126.52200317 160.49499512 368.79998779 -0.018179 -0.739754 0.672631 0.000000
133.55099487 138.62800598 461.60000610 -0.354559 0.622520 -0.697680 0.000000
62.87049866 252.26300049 384.79998779 0.743710 -0.668078 -0.023810 0.000000
209.30799866 133.55099487 392.39999390 -0.229075 0.477873 0.848034 0.000000
106.60600281 239.76699829 361.60000610 -0.716707 -0.001381 0.697373 0.000000
90.59600067 112.85399628 430.39999390 0.520567 0.710166 -0.473998 0.000000
75.75700378 260.85400391 393.20001221 0.546730 -0.651029 -0.526543 0.000000
65.60399628 135.89399719 414.00000000 0.843124 0.389495 -0.370724 0.000000
141.75199890 242.11000061 401.60000610 -0.829545 -0.554448 0.066647 0.000000
88.64350128 243.67199707 348.00000000 -0.582932 0.073046 0.809231 0.000000
108.55899811 171.03900146 408.39999390 0.900358 0.038913 0.433406 0.000000
195.25000000 183.92599487 397.60000610 -0.399009 -0.610931 0.683780 0.000000
147.21899414 81.22399902 408.79998779 0.411640 0.831165 -0.373788 0.000000
213.21299744 113.24500275 402.00000000 -0.402382 0.301404 0.864433 0.000000
167.91499329 172.99200439 444.79998779 -0.206704 -0.368598 -0.906316 0.000000
142.92300415 123.00700378 454.39999390 -0.160515 0.802574 -0.574553 0.000000
225.31900024 156.19999695 394.39999390 -0.352424 -0.101271 0.930345 0.000000
83.95749664 126.52200317 439.20001221 0.672209 0.273035 -0.688176 0.000000
200.71699524 119.49299622 396.39999390 -0.216310 0.003508 0.976318 0.000000
104.65399933 190.56399536 358.00000000 -0.595275 0.239048 0.767140 0.000000
127.69400024 256.94900513 383.20001221 -0.623239 -0.351697 0.698486 0.000000
90.20549774 130.42700195 444.79998779 0.347639 0.353764 -0.868331 0.000000
183.14500427 85.91000366 435.20001221 0.085121 0.592964 -0.800717 0.000000
49.59349823 210.86999512 369.60000610 0.999999 0.000978 0.000978 0.000000
48.81250000 200.71699524 358.39999390 0.993415 -0.093379 -0.066378 0.000000
117.15000153 110.90200043 446.00000000 0.296254 0.594110 -0.747842 0.000000
112.46399689 183.53500366 398.79998779 -0.708486 0.705724 -0.001381 0.000000
98.79650116 161.66700745 359.20001221 -0.559122 0.258418 0.787783 0.000000
140.97099304 132.77000427 397.60000610 -0.871961 -0.045314 0.487474 0.000000
118.71199799 235.47200012 427.20001221 -0.145777 -0.623687 -0.767961 0.000000
147.60899353 231.56599426 404.00000000 -0.810128 -0.583914 0.052312 0.000000
221.80400085 82.00499725 426.79998779 0.096156 0.433397 -0.896059 0.000000
237.42399597 123.39800262 408.39999390 -0.529746 0.492981 0.690173 0.000000
106.21600342 276.86499023 389.60000610 0.582954 -0.579575 -0.569436 0.000000
54.27949905 232.73800659 366.39999390 0.930836 -0.328775 0.159532 0.000000
172.21099854 210.08900452 392.00000000 0.420081 -0.672462 0.609366 0.000000
55.06050110 226.49000549 404.00000000 0.802236 -0.308552 -0.511089 0.000000
134.33200073 229.61399841 379.60000610 -0.650506 -0.282898 0.704848 0.000000
65.60399628 251.09199524 352.79998779 0.700489 -0.700489 -0.136498 0.000000
74.58550262 193.68800354 437.60000610 0.586714 -0.253246 -0.769177 0.000000
87.08149719 231.95700073 426.39999390 0.293362 -0.550251 -0.781769 0.000000
167.13400269 202.27900696 390.79998779 0.732033 -0.641117 0.230426 0.000000
123.39800262 259.29199219 380.39999390 -0.635688 -0.391320 0.665409 0.000000
131.59800720 131.98899841 364.00000000 -0.648872 0.113811 0.752337 0.000000
264.75900269 142.92300415 420.39999390 -0.864690 0.077330 -0.496318 0.000000
57.79399872 176.50599670 423.60000610 0.765689 -0.018131 -0.642955 0.000000
143.31399536 154.63800049 375.20001221 -0.679828 -0.449321 0.579607 0.000000
218.67999268 125.74099731 398.79998779 -0.209700 0.552567 0.806657 0.000000
50.37450027 214.77499390 381.60000610 0.996924 -0.011679 -0.077503 0.000000
147.21899414 230.39500427 411.20001221 -0.602750 -0.659519 -0.449141 0.000000
74.19499969 238.20500183 416.39999390 0.570488 -0.513271 -0.641168 0.000000
52.71749878 224.92799377 397.60000610 0.929121 -0.364491 -0.062295 0.000000
224.14700317 183.14500427 410.39999390 -0.088664 -0.940902 0.326867 0.000000
77.31900024 115.58799744 409.20001221 -0.197281 0.790654 0.579609 0.000000
96.84400177 204.62199402 349.20001221 -0.667208 -0.117393 0.735563 0.000000
236.64300537 153.85699463 401.20001221 -0.531080 0.006757 0.847295 0.000000
108.55899811 265.14999390 368.00000000 -0.679882 -0.213144 0.701663 0.000000
127.30300140 171.82000732 386.79998779 -0.381800 -0.231439 0.894799 0.000000
124.17900085 271.00698853 390.00000000 -0.673869 -0.583574 0.453147 0.000000
133.55099487 109.73000336 385.60000610 -0.763970 0.597685 0.243153 0.000000
106.21600342 105.04499817 360.79998779 -0.411986 0.172022 0.894805 0.000000
136.67500305 164.79100037 380.39999390 -0.304801 -0.777163 0.550557 0.000000
149.95199585 98.01550293 432.00000000 0.617887 0.104204 -0.779331 0.000000
219.46099854 135.89399719 394.79998779 -0.489472 0.783479 0.382855 0.000000
141.36099243 189.39300537 380.00000000 0.381577 0.879286 0.285052 0.000000
64.82299805 138.62800598 415.20001221 0.842992 0.395690 -0.364410 0.000000
111.68299866 92.54850006 400.79998779 0.245659 0.927255 -0.282578 0.000000
121.83599854 269.83599854 385.60000610 -0.693206 -0.496102 0.522828 0.000000
173.38200378 211.25999451 392.79998779 0.321160 -0.731084 0.601974 0.000000
108.55899811 142.14199829 362.79998779 0.209693 -0.675678 0.706744 0.000000
115.58799744 132.38000488 457.60000610 0.352568 0.470623 -0.808833 0.000000
102.70099640 123.39800262 354.39999390 -0.247001 0.292689 0.923755 0.000000
73.41400146 121.83599854 370.79998779 0.842464 0.332922 0.423577 0.000000
57.40349960 216.33700562 413.60000610 0.907165 -0.160926 -0.388785 0.000000
64.04199982 133.16099548 394.39999390 0.890920 0.454065 0.009267 0.000000
101.92099762 114.02600098 356.79998779 -0.264436 0.177647 0.947901 0.000000
139.40899658 137.45599365 369.60000610 -0.588844 0.113070 0.800299 0.000000
228.44299316 100.74900055 417.60000610 -0.557267 0.440823 0.703654 0.000000
162.44799805 100.74900055 441.20001221 0.550441 0.325771 -0.768692 0.000000
62.47999954 237.81399536 407.20001221 0.701656 -0.548325 -0.454993 0.000000
