47.74219894 121.25000000 377.50000000 -0.673370 -0.673370 0.305197 0.000000
207.64100647 112.91400146 372.50000000 0.999999 -0.000978 -0.000978 0.000000
121.25000000 104.57800293 402.50000000 0.940504 0.339592 -0.011362 0.000000
152.32000732 128.07000732 337.50000000 -0.000978 -0.000978 -0.999999 0.000000
157.62500000 116.70300293 402.50000000 0.000978 0.000978 0.999999 0.000000
118.97699738 88.66410065 397.50000000 0.000978 0.000978 0.999999 0.000000
97.75779724 169.37100220 300.00000000 0.763545 0.522597 -0.379330 0.000000
177.32800293 116.70300293 327.50000000 0.502942 0.777862 -0.376802 0.000000
69.71880341 222.79699707 372.50000000 -0.398140 0.398140 0.826419 0.000000
70.47660065 119.73400116 242.50000000 -0.216268 -0.748380 -0.627021 0.000000
102.30500031 217.87100220 355.00000000 0.647973 0.540258 -0.536892 0.000000
122.00800323 153.83599854 312.50000000 0.113146 0.491255 -0.863635 0.000000
51.53120041 126.93399811 390.00000000 -0.496330 -0.570359 0.654483 0.000000
150.04699707 72.37110138 375.00000000 0.000978 0.000978 -0.999999 0.000000
75.02339935 214.46099854 322.50000000 -0.021729 0.348939 -0.936894 0.000000
114.05100250 219.00799561 370.00000000 0.678789 0.602446 -0.419886 0.000000
100.41000366 114.43000031 260.00000000 0.756178 0.451082 -0.474046 0.000000
49.25780106 219.76600647 342.50000000 -0.655793 0.727109 -0.203094 0.000000
67.44529724 120.49199677 242.50000000 -0.216268 -0.748380 -0.627021 0.000000
54.56250000 146.25799561 397.50000000 -0.755669 0.052854 0.652818 0.000000
200.06199646 87.52729797 320.00000000 0.583662 -0.747667 -0.316753 0.000000
72.75000000 107.60900116 267.50000000 -0.704682 -0.701727 -0.104890 0.000000
134.13299561 146.25799561 337.50000000 -0.301086 0.853848 -0.424608 0.000000
43.19530106 161.41400146 257.50000000 -0.952464 -0.198599 -0.231023 0.000000
70.47660065 120.49199677 242.50000000 -0.216268 -0.748380 -0.627021 0.000000
87.90619659 99.27339935 262.50000000 -0.205100 -0.949438 -0.237699 0.000000
121.25000000 186.42199707 347.50000000 0.000978 0.000978 -0.999999 0.000000
70.47660065 227.34399414 337.50000000 -0.001219 0.956644 -0.291258 0.000000
88.66410065 106.09400177 407.50000000 0.000978 0.000978 0.999999 0.000000
185.66400146 122.76599884 397.50000000 0.000978 0.000978 -0.999999 0.000000
106.09400177 78.81250000 392.50000000 -0.000978 -0.000978 0.999999 0.000000
129.58599854 167.85499573 330.00000000 0.592335 0.602461 -0.534958 0.000000
80.32810211 226.58599854 377.50000000 -0.006311 0.937806 -0.347102 0.000000
165.20300293 72.37110138 360.00000000 0.146768 -0.988694 -0.030719 0.000000
61.38280106 170.50799561 402.50000000 0.000978 0.000978 0.999999 0.000000
118.97699738 107.98799896 270.00000000 0.313687 0.751240 -0.580723 0.000000
187.17999268 88.28520203 315.00000000 0.012996 -0.974666 -0.223287 0.000000
63.65620041 115.18800354 397.50000000 0.000978 0.000978 0.999999 0.000000
62.14059830 129.96499634 400.00000000 -0.531309 -0.497788 0.685506 0.000000
62.89839935 97.75779724 357.50000000 -0.702968 -0.702968 -0.108035 0.000000
60.62500000 120.87100220 265.00000000 -0.766024 -0.639551 -0.064674 0.000000
182.63299561 73.12889862 365.00000000 0.000978 -0.999999 0.000978 0.000000
89.80079651 121.25000000 245.00000000 0.761729 0.208587 -0.613401 0.000000
75.02339935 100.03099823 312.50000000 -0.495948 -0.867568 -0.036889 0.000000
133.37500000 192.48399353 382.50000000 0.739172 0.477899 0.474592 0.000000
153.83599854 98.51560211 302.50000000 -0.000978 -0.000978 -0.999999 0.000000
151.56199646 76.53910065 387.50000000 0.060461 -0.842234 0.535711 0.000000
136.40600586 131.10200500 402.50000000 0.000978 0.000978 0.999999 0.000000
91.69529724 191.72700500 317.50000000 0.769978 -0.256659 0.584175 0.000000
114.43000031 160.65600586 407.50000000 0.000978 0.000978 0.999999 0.000000
81.08589935 202.71499634 320.00000000 0.673370 0.673370 -0.305197 0.000000
65.92970276 213.32400513 380.00000000 -0.344932 0.665343 0.662073 0.000000
87.90619659 88.66410065 332.50000000 -0.454705 -0.862890 -0.220600 0.000000
141.71099854 84.87500000 312.50000000 0.476914 -0.820039 -0.316368 0.000000
198.54699707 128.07000732 372.50000000 0.673370 0.673370 -0.305197 0.000000
190.96899414 82.60160065 332.50000000 -0.277171 -0.859078 -0.430304 0.000000
170.50799561 155.72999573 360.00000000 0.265294 0.662440 -0.700566 0.000000
128.07000732 112.15599823 282.50000000 0.797530 0.001368 -0.603278 0.000000
123.52300262 110.64099884 402.50000000 -0.000978 -0.000978 0.999999 0.000000
37.51169968 188.69500732 325.00000000 -0.457496 0.457496 -0.762493 0.000000
123.52300262 76.53910065 387.50000000 -0.076118 -0.889886 0.449787 0.000000
61.38280106 111.39800262 392.50000000 -0.566819 -0.807378 0.163881 0.000000
71.99220276 217.49200439 377.50000000 -0.273549 0.366227 0.889409 0.000000
53.80469894 215.21899414 372.50000000 -0.391730 0.613215 0.685941 0.000000
50.01559830 197.03100586 382.50000000 -0.605912 0.585658 0.538401 0.000000
133.37500000 179.97999573 355.00000000 0.741539 0.493809 -0.454172 0.000000
87.14839935 122.76599884 242.50000000 0.457496 -0.457496 -0.762493 0.000000
70.47660065 159.14100647 407.50000000 0.000978 0.000978 0.999999 0.000000
109.12500000 186.42199707 397.50000000 0.079888 0.652173 0.753849 0.000000
41.67969894 165.20300293 267.50000000 -0.988665 -0.001112 -0.150135 0.000000
225.07000732 87.90619659 372.50000000 0.621746 0.757511 -0.199020 0.000000
75.02339935 209.91400146 322.50000000 0.959024 0.269042 -0.088822 0.000000
43.19530106 138.67999268 382.50000000 -0.000978 -0.000978 0.999999 0.000000
165.96099854 78.05470276 332.50000000 -0.000978 -0.000978 -0.999999 0.000000
109.50399780 153.83599854 300.00000000 0.673370 0.673370 -0.305197 0.000000
84.87500000 193.24200439 312.50000000 0.565870 0.565870 -0.599653 0.000000
195.51600647 120.11299896 365.00000000 0.608180 0.621657 -0.493619 0.000000
40.92190170 206.12500000 362.50000000 -0.910396 0.305414 0.279110 0.000000
206.88299561 76.53910065 337.50000000 -0.001330 -0.871255 -0.490829 0.000000
50.77339935 202.71499634 380.00000000 -0.852635 0.116859 0.509272 0.000000
187.17999268 103.44100189 310.00000000 0.702968 0.702968 -0.108035 0.000000
128.07000732 171.26600647 332.50000000 0.688052 0.615452 -0.384451 0.000000
176.94900513 148.53100586 360.00000000 0.728385 0.486143 -0.482825 0.000000
172.78100586 143.22700500 352.50000000 -0.000978 -0.000978 -0.999999 0.000000
61.38280106 179.60200500 397.50000000 0.000978 0.000978 0.999999 0.000000
65.17189789 220.52299500 372.50000000 -0.247713 0.664250 0.705273 0.000000
209.15600586 106.47299957 400.00000000 0.594441 0.288455 0.750622 0.000000
125.03900146 132.61700439 332.50000000 -0.000978 -0.000978 -0.999999 0.000000
176.57000732 157.62500000 377.50000000 0.839231 0.446863 0.309846 0.000000
45.46879959 178.08599854 257.50000000 -0.945144 0.269455 -0.184652 0.000000
212.94500732 80.70700073 330.00000000 0.333239 -0.771119 -0.542520 0.000000
82.60160065 95.10549927 320.00000000 -0.519509 -0.847621 -0.107931 0.000000
213.70300293 101.54699707 372.50000000 0.894688 0.446689 0.001310 0.000000
168.99200439 121.25000000 402.50000000 0.000978 0.000978 0.999999 0.000000
64.41410065 125.03900146 242.50000000 -0.714418 -0.507919 -0.481274 0.000000
156.10899353 147.01600647 347.50000000 -0.000978 -0.000978 -0.999999 0.000000
125.03900146 115.94499969 407.50000000 0.422179 -0.147405 0.894448 0.000000
231.13299561 93.58979797 390.00000000 0.164658 0.960286 -0.225252 0.000000
87.14839935 166.71899414 412.50000000 0.000978 0.000978 0.999999 0.000000
92.45310211 209.15600586 337.50000000 -0.000978 -0.000978 -0.999999 0.000000
43.57419968 143.98399353 290.00000000 -0.988665 -0.001112 -0.150135 0.000000
109.12500000 113.67199707 407.50000000 0.227681 -0.571526 0.788365 0.000000
52.28910065 188.69500732 267.50000000 -0.000978 -0.000978 -0.999999 0.000000
53.04690170 199.30499268 382.50000000 -0.570333 0.270158 0.775716 0.000000
76.53910065 130.34399414 407.50000000 0.000978 0.000978 0.999999 0.000000
167.47700500 127.31199646 337.50000000 -0.000978 -0.000978 -0.999999 0.000000
154.59399414 131.85899353 402.50000000 -0.447974 -0.328514 0.831503 0.000000
94.72660065 199.30499268 392.50000000 -0.049582 0.301309 0.952237 0.000000
127.31199646 100.03099823 397.50000000 0.000978 0.000978 0.999999 0.000000
45.84769821 170.50799561 250.00000000 -0.956644 0.001219 -0.291258 0.000000
200.82000732 86.01170349 325.00000000 -0.026751 -0.716641 -0.696929 0.000000
73.50779724 183.39100647 282.50000000 -0.000978 -0.000978 -0.999999 0.000000
125.03900146 194.00000000 392.50000000 0.000978 0.000978 0.999999 0.000000
120.49199677 174.67599487 330.00000000 0.350767 0.722743 -0.595488 0.000000
173.91799927 154.59399414 385.00000000 0.917750 0.392556 0.060290 0.000000
100.78900146 173.53900146 407.50000000 0.244108 0.380216 0.892103 0.000000
161.41400146 155.35200500 392.50000000 0.000978 0.000978 0.999999 0.000000
188.31599426 131.10200500 365.00000000 0.686540 0.549566 -0.476068 0.000000
117.83999634 182.63299561 340.00000000 0.623338 0.623338 -0.472124 0.000000
74.26560211 181.11700439 277.50000000 0.647967 0.729158 -0.220153 0.000000
39.02730179 144.74200439 370.00000000 -0.988362 -0.131859 -0.075848 0.000000
91.69529724 79.94920349 385.00000000 -0.147758 -0.929357 0.338325 0.000000
147.77299500 159.89799500 362.50000000 0.204029 0.374777 -0.904386 0.000000
178.84399414 154.59399414 377.50000000 0.710685 0.534262 0.457701 0.000000
47.36330032 203.09399414 375.00000000 -0.655900 0.265219 0.706721 0.000000
87.90619659 95.86329651 285.00000000 -0.623338 -0.623338 -0.472124 0.000000
73.12889862 223.55499268 375.00000000 -0.341247 0.651471 0.677595 0.000000
187.93800354 116.70300293 402.50000000 0.000978 0.000978 0.999999 0.000000
198.54699707 119.73400116 367.50000000 0.580191 0.502832 -0.640733 0.000000
77.29689789 122.00800323 407.50000000 -0.137056 -0.098919 0.985612 0.000000
62.89839935 102.68399811 340.00000000 -0.702968 -0.702968 0.108035 0.000000
111.39800262 118.97699738 412.50000000 0.033484 -0.274076 0.961125 0.000000
101.54699707 197.78900146 392.50000000 0.260550 0.525781 0.809733 0.000000
171.26600647 113.67199707 312.50000000 0.385308 0.872654 -0.300022 0.000000
91.69529724 129.58599854 252.50000000 -0.000978 -0.000978 -0.999999 0.000000
134.89100647 160.65600586 332.50000000 0.945645 0.141644 -0.292732 0.000000
74.26560211 182.63299561 282.50000000 0.730516 0.614918 -0.297023 0.000000
180.35899353 97.75779724 402.50000000 0.000978 0.000978 0.999999 0.000000
60.24610138 128.07000732 245.00000000 -0.806229 -0.267699 -0.527571 0.000000
90.17970276 230.37500000 372.50000000 0.134989 0.805483 0.577040 0.000000
82.60160065 96.62110138 300.00000000 -0.460247 -0.886352 -0.050532 0.000000
180.35899353 118.97699738 402.50000000 0.000978 0.000978 0.999999 0.000000
98.89450073 129.58599854 260.00000000 0.723807 -0.169142 -0.668950 0.000000
129.58599854 118.97699738 297.50000000 0.245933 0.934547 -0.257176 0.000000
71.99220276 139.43800354 407.50000000 0.000978 0.000978 0.999999 0.000000
66.68750000 108.36699677 397.50000000 -0.302290 -0.145045 0.942116 0.000000
144.74200439 159.89799500 357.50000000 0.607019 0.723567 -0.328600 0.000000
60.62500000 219.00799561 372.50000000 -0.247546 0.651187 0.717410 0.000000
42.81639862 134.13299561 360.00000000 -0.951670 -0.306385 0.021259 0.000000
101.54699707 208.39799500 387.50000000 -0.055630 0.171625 0.983590 0.000000
173.53900146 162.17199707 372.50000000 0.747540 0.640530 -0.175802 0.000000
168.99200439 113.67199707 312.50000000 0.001342 0.854638 -0.519223 0.000000
155.35200500 137.92199707 342.50000000 -0.000978 -0.000978 -0.999999 0.000000
102.30500031 195.89500427 335.00000000 0.339700 0.713533 -0.612760 0.000000
181.11700439 117.46099854 402.50000000 0.000978 0.000978 0.999999 0.000000
186.42199707 80.32810211 402.50000000 0.301605 -0.675790 0.672564 0.000000
190.21099854 120.87100220 355.00000000 0.565870 0.565870 -0.599653 0.000000
100.78900146 127.31199646 412.50000000 0.000978 0.999999 0.000978 0.000000
140.95300293 104.57800293 402.50000000 0.000978 0.000978 0.999999 0.000000
174.29699707 80.32810211 397.50000000 -0.130772 -0.981399 0.140549 0.000000
59.86719894 181.11700439 252.50000000 0.432383 0.860182 -0.270430 0.000000
227.34399414 81.84380341 357.50000000 0.692721 -0.086043 -0.716055 0.000000
76.53910065 101.54699707 397.50000000 -0.808600 0.520819 0.273704 0.000000
160.65600586 113.29299927 305.00000000 0.053322 0.887339 -0.458025 0.000000
61.38280106 129.58599854 242.50000000 -0.667842 -0.658045 -0.347800 0.000000
95.48439789 178.84399414 407.50000000 -0.166249 0.678724 0.715329 0.000000
64.41410065 222.79699707 372.50000000 -0.227425 0.694823 0.682275 0.000000
134.89100647 171.26600647 347.50000000 0.633451 0.663221 -0.398594 0.000000
95.48439789 122.00800323 412.50000000 0.000978 0.000978 0.999999 0.000000
96.24220276 159.14100647 272.50000000 0.554866 0.341331 -0.758694 0.000000
77.29689789 200.06199646 307.50000000 0.767003 0.580392 -0.273591 0.000000
57.59379959 120.11299896 295.00000000 -0.774086 -0.602407 -0.194671 0.000000
112.91400146 188.69500732 397.50000000 -0.159386 0.331246 0.929985 0.000000
140.19500732 122.76599884 397.50000000 -0.769978 0.256659 0.584175 0.000000
109.88300323 83.35939789 397.50000000 0.000978 0.000978 0.999999 0.000000
107.60900116 172.02299500 312.50000000 0.909655 0.001294 -0.415362 0.000000
193.24200439 113.67199707 342.50000000 0.611565 0.785883 -0.091517 0.000000
127.31199646 91.69529724 277.50000000 -0.000978 -0.000978 -0.999999 0.000000
143.98399353 73.50779724 382.50000000 0.001294 -0.909655 0.415362 0.000000
57.21480179 105.33599854 355.00000000 -0.889135 -0.453473 -0.061650 0.000000
154.59399414 79.57029724 332.50000000 0.047050 -0.904698 -0.423447 0.000000
40.92190170 142.46899414 307.50000000 -0.937232 -0.332132 -0.106229 0.000000
106.85199738 218.25000000 382.50000000 0.003295 0.128493 0.991705 0.000000
222.79699707 72.37110138 375.00000000 0.037842 -0.999241 -0.009205 0.000000
231.51199341 90.93750000 395.00000000 0.658384 0.543883 0.520309 0.000000
141.71099854 103.06199646 317.50000000 0.410909 0.410909 -0.813823 0.000000
95.86329651 151.56199646 265.00000000 0.457156 0.737721 -0.496765 0.000000
92.45310211 198.54699707 392.50000000 0.000978 0.000978 0.999999 0.000000
103.06199646 128.44900513 280.00000000 0.800887 -0.561999 -0.206730 0.000000
116.70300293 123.52300262 322.50000000 0.403150 0.441698 0.801482 0.000000
143.60499573 162.17199707 360.00000000 0.630712 0.417701 -0.654010 0.000000
71.23439789 159.89799500 407.50000000 0.000978 0.000978 0.999999 0.000000
77.29689789 211.42999268 322.50000000 0.717169 0.296815 -0.630531 0.000000
55.32030106 187.93800354 262.50000000 -0.164805 0.932048 -0.322685 0.000000
43.19530106 132.61700439 357.50000000 -0.951670 -0.306385 0.021259 0.000000
59.86719894 135.64799500 397.50000000 -0.658797 -0.258757 0.706421 0.000000
47.74219894 142.84800720 275.00000000 -0.964622 -0.263299 -0.013347 0.000000
200.82000732 73.88670349 365.00000000 0.001112 -0.988665 -0.150135 0.000000
81.08589935 203.85200500 392.50000000 0.003900 0.417323 0.908750 0.000000
84.87500000 131.85899353 242.50000000 0.952627 -0.095393 -0.288794 0.000000
93.21089935 125.79699707 252.50000000 -0.000978 -0.000978 -0.999999 0.000000
75.02339935 90.93750000 342.50000000 -0.515834 -0.751644 -0.411030 0.000000
45.46879959 205.36700439 372.50000000 -0.769934 0.294902 0.565893 0.000000
209.15600586 101.16799927 350.00000000 0.567572 0.823185 0.015117 0.000000
158.38299561 72.75000000 352.50000000 0.001112 -0.988665 -0.150135 0.000000
115.94499969 189.45300293 347.50000000 0.782678 0.201436 -0.588930 0.000000
92.45310211 140.95300293 412.50000000 0.000978 0.000978 0.999999 0.000000
87.90619659 209.91400146 387.50000000 -0.410909 0.410909 0.813823 0.000000
142.46899414 134.89100647 397.50000000 0.000978 0.000978 0.999999 0.000000
93.21089935 81.84380341 342.50000000 -0.620587 -0.620587 -0.479315 0.000000
84.11720276 206.88299561 327.50000000 0.419240 0.584948 -0.694315 0.000000
60.62500000 110.64099884 387.50000000 -0.960965 -0.194308 0.196952 0.000000
102.30500031 171.26600647 407.50000000 0.150191 0.557639 0.816383 0.000000
195.51600647 75.02339935 347.50000000 -0.001112 -0.988665 -0.150135 0.000000
60.62500000 220.90199280 325.00000000 -0.001380 0.686096 -0.727510 0.000000
78.81250000 165.58200073 250.00000000 0.956066 0.135827 -0.259786 0.000000
143.98399353 150.80499268 397.50000000 0.000978 0.000978 0.999999 0.000000
86.39060211 153.83599854 412.50000000 0.000978 0.000978 0.999999 0.000000
202.33599854 100.41000366 325.00000000 -0.000978 -0.000978 -0.999999 0.000000
106.09400177 160.65600586 412.50000000 -0.000978 -0.000978 0.999999 0.000000
68.20310211 192.48399353 397.50000000 -0.293651 0.544445 0.785715 0.000000
204.60899353 84.11720276 402.50000000 -0.005888 -0.227263 0.973816 0.000000
212.18800354 97.75779724 402.50000000 0.000978 0.000978 0.999999 0.000000
90.93750000 156.10899353 257.50000000 0.822554 0.456273 -0.339442 0.000000
150.04699707 122.76599884 402.50000000 0.000978 0.000978 0.999999 0.000000
130.34399414 174.29699707 342.50000000 0.838015 0.544364 -0.037399 0.000000
91.69529724 183.39100647 402.50000000 0.361888 0.829655 0.425099 0.000000
152.32000732 115.18800354 402.50000000 0.000978 0.000978 0.999999 0.000000
54.56250000 209.15600586 302.50000000 -0.323853 0.864120 -0.385247 0.000000
130.34399414 74.26560211 352.50000000 -0.192047 -0.960236 -0.202643 0.000000
178.84399414 136.40600586 387.50000000 0.000978 0.000978 0.999999 0.000000
165.20300293 120.49199677 322.50000000 -0.001342 0.854638 -0.519223 0.000000
125.03900146 168.23399353 402.50000000 -0.000978 -0.000978 0.999999 0.000000
131.85899353 190.21099854 362.50000000 0.819728 0.428169 -0.380417 0.000000
80.32810211 118.97699738 407.50000000 0.000978 0.000978 0.999999 0.000000
185.66400146 100.78900146 402.50000000 0.000978 0.000978 0.999999 0.000000
192.48399353 128.07000732 367.50000000 0.636789 0.682625 -0.358501 0.000000
46.98440170 134.13299561 387.50000000 -0.579627 -0.482183 0.656911 0.000000
86.39060211 189.45300293 402.50000000 0.000978 0.000978 0.999999 0.000000
112.15599823 150.04699707 407.50000000 0.000978 0.000978 0.999999 0.000000
71.23439789 157.62500000 407.50000000 0.000978 0.000978 0.999999 0.000000
143.22700500 154.59399414 397.50000000 0.345974 -0.034726 0.937601 0.000000
211.42999268 106.09400177 372.50000000 0.897817 0.367088 -0.243251 0.000000
119.73400116 178.84399414 337.50000000 0.623338 0.623338 -0.472124 0.000000
51.53120041 122.00800323 317.50000000 -0.424083 -0.846613 0.321558 0.000000
73.50779724 222.79699707 332.50000000 0.499765 0.816230 -0.289832 0.000000
165.96099854 136.40600586 397.50000000 0.579588 0.459328 0.673124 0.000000
103.81999969 78.81250000 337.50000000 -0.268808 -0.628278 -0.730075 0.000000
43.95309830 129.58599854 327.50000000 -0.892121 -0.446748 -0.067356 0.000000
181.11700439 133.37500000 392.50000000 0.848910 -0.176918 -0.498047 0.000000
170.50799561 113.67199707 402.50000000 0.000978 0.000978 0.999999 0.000000
71.99220276 90.17970276 382.50000000 -0.661745 -0.674752 0.326808 0.000000
88.66410065 132.61700439 247.50000000 0.088694 0.477261 -0.874274 0.000000
142.46899414 116.70300293 397.50000000 -0.589407 0.073138 0.804519 0.000000
35.61719894 156.86700439 342.50000000 -0.909655 0.001294 -0.415362 0.000000
36.37500000 191.72700500 367.50000000 -0.988665 0.001112 0.150135 0.000000
95.48439789 231.13299561 367.50000000 0.284301 0.855976 0.431830 0.000000
127.31199646 156.86700439 322.50000000 0.826088 -0.102718 -0.554101 0.000000
56.07809830 184.14799500 257.50000000 0.047175 0.899021 -0.435358 0.000000
189.07400513 126.55500031 360.00000000 0.935342 -0.001259 -0.353743 0.000000
182.63299561 89.04299927 310.00000000 -0.001112 -0.988665 -0.150135 0.000000
56.83589935 136.40600586 242.50000000 -0.679189 -0.136438 -0.721170 0.000000
158.38299561 126.55500031 337.50000000 -0.288336 0.827602 -0.481599 0.000000
77.29689789 99.27339935 292.50000000 -0.640135 -0.767314 0.038154 0.000000
118.97699738 82.60160065 397.50000000 0.000978 0.000978 0.999999 0.000000
183.39100647 74.26560211 392.50000000 -0.474254 -0.853657 0.215296 0.000000
117.46099854 83.35939789 312.50000000 0.231695 -0.823973 -0.517093 0.000000
64.41410065 101.54699707 342.50000000 -0.569401 -0.821545 -0.029093 0.000000
103.06199646 114.05100250 270.00000000 0.435909 0.870319 -0.229189 0.000000
109.12500000 169.75000000 407.50000000 0.194511 0.251641 0.948073 0.000000
140.95300293 123.14499664 320.00000000 0.702968 0.702968 -0.108035 0.000000
59.10940170 147.77299500 402.50000000 -0.751814 -0.564265 0.341146 0.000000
206.12500000 106.85199738 402.50000000 0.255941 0.396634 0.881576 0.000000
81.08589935 137.16400146 242.50000000 0.790747 0.037922 -0.610968 0.000000
178.08599854 147.77299500 362.50000000 0.909655 0.001294 -0.415362 0.000000
117.46099854 147.77299500 312.50000000 0.523009 -0.277996 -0.805717 0.000000
73.50779724 137.92199707 407.50000000 0.000978 0.000978 0.999999 0.000000
81.08589935 89.42189789 392.50000000 -0.398137 -0.495640 0.771899 0.000000
46.22660065 140.95300293 387.50000000 -0.845769 -0.081023 0.527362 0.000000
104.95700073 148.53100586 275.00000000 0.860653 0.389526 -0.327941 0.000000
87.14839935 217.49200439 382.50000000 -0.194512 0.410961 0.890660 0.000000
103.81999969 145.50000000 272.50000000 0.759572 0.313143 -0.570081 0.000000
33.72269821 176.57000732 355.00000000 -0.999999 -0.000978 -0.000978 0.000000
143.60499573 172.78100586 365.00000000 0.834251 0.425767 -0.350354 0.000000
165.20300293 167.47700500 372.50000000 0.149763 0.900002 -0.409351 0.000000
71.23439789 207.64100647 387.50000000 0.000978 0.000978 0.999999 0.000000
112.15599823 211.42999268 357.50000000 -0.000978 -0.000978 -0.999999 0.000000
144.74200439 159.14100647 397.50000000 0.244479 -0.018065 0.969486 0.000000
53.80469894 138.30099487 245.00000000 -0.803017 -0.511587 -0.305685 0.000000
121.25000000 120.49199677 407.50000000 -0.000978 -0.000978 0.999999 0.000000
148.53100586 166.71899414 367.50000000 0.473062 0.298201 -0.829029 0.000000
48.50000000 159.89799500 392.50000000 0.000978 0.000978 0.999999 0.000000
134.89100647 146.25799561 337.50000000 -0.301086 0.853848 -0.424608 0.000000
123.14499664 148.53100586 320.00000000 0.678236 -0.318884 -0.662049 0.000000
57.59379959 196.27299500 277.50000000 0.022460 0.977608 -0.209234 0.000000
82.98049927 88.66410065 395.00000000 -0.566187 -0.488903 0.663631 0.000000
65.17189789 223.93400574 370.00000000 -0.405219 0.706239 0.580538 0.000000
201.95700073 106.85199738 345.00000000 0.669626 0.741015 -0.049972 0.000000
150.04699707 75.02339935 342.50000000 -0.149763 -0.900002 -0.409351 0.000000
84.11720276 232.64799500 367.50000000 -0.273477 0.915931 0.293735 0.000000
78.05470276 225.82800293 337.50000000 0.493552 0.628310 -0.601359 0.000000
78.81250000 193.24200439 302.50000000 0.702968 0.702968 -0.108035 0.000000
130.34399414 125.79699707 322.50000000 -0.312154 0.939188 -0.143127 0.000000
111.01999664 147.01600647 295.00000000 0.966914 0.192865 -0.166977 0.000000
57.59379959 194.00000000 272.50000000 -0.257970 0.644133 -0.720100 0.000000
156.86700439 92.45310211 307.50000000 -0.000978 -0.000978 -0.999999 0.000000
47.74219894 165.20300293 392.50000000 0.000978 0.000978 0.999999 0.000000
99.65229797 86.39060211 315.00000000 -0.393844 -0.918970 -0.019497 0.000000
53.42580032 140.19500732 245.00000000 -0.930150 -0.312856 -0.192203 0.000000
183.77000427 109.88300323 320.00000000 0.578388 0.781057 -0.235408 0.000000
53.80469894 111.39800262 352.50000000 -0.838024 -0.525790 -0.145807 0.000000
113.67199707 166.71899414 407.50000000 0.000978 0.000978 0.999999 0.000000
131.85899353 190.21099854 387.50000000 0.623338 0.623338 0.472124 0.000000
130.34399414 146.25799561 332.50000000 0.509556 -0.509556 -0.693330 0.000000
175.05499268 161.41400146 377.50000000 0.838876 0.494800 0.226847 0.000000
89.42189789 158.38299561 257.50000000 0.765892 0.512221 -0.388637 0.000000
200.06199646 81.08589935 402.50000000 0.000978 0.000978 0.999999 0.000000
142.46899414 162.17199707 397.50000000 0.000978 0.000978 0.999999 0.000000
59.10940170 226.58599854 362.50000000 -0.505965 0.777537 0.373412 0.000000
202.33599854 105.33599854 337.50000000 0.956644 -0.001219 0.291258 0.000000
128.07000732 169.75000000 397.50000000 -0.000978 -0.000978 0.999999 0.000000
134.89100647 190.96899414 382.50000000 0.000978 0.000978 0.999999 0.000000
153.83599854 162.17199707 367.50000000 0.329786 -0.031833 -0.943519 0.000000
106.85199738 134.89100647 412.50000000 0.000978 0.000978 0.999999 0.000000
92.45310211 221.66000366 380.00000000 0.018120 0.656519 0.754091 0.000000
86.39060211 83.35939789 387.50000000 -0.440233 -0.848027 0.295033 0.000000
143.22700500 127.31199646 332.50000000 0.171987 0.753395 -0.634678 0.000000
93.21089935 180.73800659 405.00000000 0.143556 0.821377 0.552025 0.000000
195.51600647 94.72660065 402.50000000 0.000978 0.000978 0.999999 0.000000
209.15600586 73.88670349 350.00000000 -0.001112 -0.988665 -0.150135 0.000000
64.41410065 227.72300720 365.00000000 -0.321845 0.713235 0.622665 0.000000
164.44500732 108.36699677 402.50000000 0.000978 0.000978 0.999999 0.000000
159.89799500 123.52300262 332.50000000 -0.000978 -0.000978 -0.999999 0.000000
83.35939789 82.60160065 382.50000000 0.000978 0.000978 0.999999 0.000000
153.07800293 94.72660065 402.50000000 -0.000978 -0.000978 0.999999 0.000000
82.60160065 98.51560211 397.50000000 -0.275998 -0.674839 0.684411 0.000000
122.76599884 86.39060211 397.50000000 0.000978 0.000978 0.999999 0.000000
43.95309830 177.32800293 387.50000000 -0.159437 0.151904 0.975451 0.000000
178.08599854 107.98799896 310.00000000 0.390425 0.749813 -0.534180 0.000000
154.59399414 122.76599884 402.50000000 0.000978 0.000978 0.999999 0.000000
85.63279724 197.03100586 397.50000000 0.000978 0.000978 0.999999 0.000000
41.67969894 175.05499268 272.50000000 -0.980066 0.196484 -0.029414 0.000000
159.14100647 104.57800293 402.50000000 0.000978 0.000978 0.999999 0.000000
99.27339935 160.65600586 292.50000000 0.384138 0.605058 -0.697383 0.000000
170.50799561 147.77299500 387.50000000 0.000978 0.000978 0.999999 0.000000
71.23439789 177.32800293 262.50000000 0.514758 0.795245 -0.320329 0.000000
126.55500031 80.32810211 312.50000000 -0.673370 -0.673370 0.305197 0.000000
103.06199646 90.93750000 397.50000000 0.000978 0.000978 0.999999 0.000000
95.48439789 124.28099823 412.50000000 0.000978 0.000978 0.999999 0.000000
59.86719894 197.03100586 392.50000000 0.006862 0.808301 0.588729 0.000000
109.12500000 146.25799561 407.50000000 -0.000978 -0.000978 0.999999 0.000000
90.93750000 90.93750000 307.50000000 -0.516516 -0.780406 -0.352389 0.000000
136.40600586 156.86700439 397.50000000 0.000978 0.000978 0.999999 0.000000
122.76599884 90.17970276 277.50000000 0.311396 -0.931394 -0.188513 0.000000
53.04690170 143.22700500 242.50000000 -0.565870 -0.565870 -0.599653 0.000000
45.84769821 161.41400146 250.00000000 -0.988665 0.001112 -0.150135 0.000000
62.14059830 113.29299927 300.00000000 -0.702968 -0.702968 -0.108035 0.000000
131.10200500 177.32800293 397.50000000 0.187685 0.298906 0.935644 0.000000
208.39799500 90.93750000 402.50000000 0.000978 0.000978 0.999999 0.000000
150.04699707 159.14100647 362.50000000 0.204029 0.374777 -0.904386 0.000000
84.11720276 143.22700500 242.50000000 0.475295 0.791085 -0.385070 0.000000
76.53910065 108.36699677 252.50000000 -0.565955 -0.775216 -0.280599 0.000000
125.03900146 184.90600586 397.50000000 0.034763 0.568721 0.821795 0.000000
78.81250000 198.92599487 310.00000000 0.824117 0.472494 -0.312380 0.000000
52.28910065 143.98399353 242.50000000 -0.565870 -0.565870 -0.599653 0.000000
94.72660065 228.85899353 372.50000000 0.095285 0.904514 0.415662 0.000000
66.68750000 233.02699280 355.00000000 -0.361568 0.931783 0.032399 0.000000
77.29689789 206.88299561 322.50000000 -0.398849 0.266401 -0.877468 0.000000
228.85899353 78.81250000 392.50000000 -0.236368 -0.846348 0.477310 0.000000
210.67199707 96.24220276 332.50000000 0.673370 0.673370 -0.305197 0.000000
74.64450073 110.64099884 250.00000000 -0.294563 -0.804930 -0.515092 0.000000
53.04690170 190.96899414 267.50000000 -0.000978 -0.000978 -0.999999 0.000000
153.83599854 140.95300293 342.50000000 -0.000978 -0.000978 -0.999999 0.000000
214.46099854 72.37110138 375.00000000 -0.029606 -0.999444 -0.015313 0.000000
169.75000000 160.65600586 387.50000000 -0.000978 -0.000978 0.999999 0.000000
115.18800354 126.55500031 327.50000000 0.210975 0.235475 -0.948705 0.000000
129.58599854 187.17999268 392.50000000 0.432166 0.432166 0.791495 0.000000
77.29689789 104.57800293 262.50000000 -0.472945 -0.861382 -0.185323 0.000000
97.75779724 156.86700439 412.50000000 0.000978 0.000978 0.999999 0.000000
92.45310211 176.57000732 302.50000000 0.560133 0.781030 -0.276122 0.000000
101.54699707 125.03900146 287.50000000 0.857418 -0.387769 0.338333 0.000000
191.72700500 116.70300293 402.50000000 0.000978 0.000978 0.999999 0.000000
147.77299500 156.10899353 392.50000000 0.837227 0.320807 0.442870 0.000000
143.22700500 156.86700439 347.50000000 0.854899 0.512940 -0.077718 0.000000
160.65600586 97.00000000 402.50000000 0.000978 0.000978 0.999999 0.000000
54.56250000 168.23399353 397.50000000 0.000978 0.000978 0.999999 0.000000
122.00800323 82.60160065 397.50000000 0.000978 0.000978 0.999999 0.000000
42.43750000 181.87500000 277.50000000 -0.974143 0.098537 -0.203310 0.000000
83.35939789 181.11700439 402.50000000 0.000978 0.000978 0.999999 0.000000
170.50799561 103.06199646 297.50000000 -0.000978 -0.000978 -0.999999 0.000000
80.32810211 145.50000000 242.50000000 0.000978 0.000978 -0.999999 0.000000
160.65600586 93.21089935 402.50000000 0.000978 0.000978 0.999999 0.000000
98.51560211 161.79299927 280.00000000 0.713241 0.639513 -0.286899 0.000000
62.14059830 101.16799927 375.00000000 -0.822857 -0.511005 0.248555 0.000000
137.92199707 172.02299500 352.50000000 0.623338 -0.623338 -0.472124 0.000000
34.48049927 191.72700500 360.00000000 -0.957661 0.268977 0.102653 0.000000
46.22660065 209.53500366 370.00000000 -0.678824 0.554792 0.481044 0.000000
97.00000000 180.35899353 312.50000000 0.620255 0.572934 -0.535752 0.000000
93.96880341 137.92199707 252.50000000 0.436839 0.351679 -0.827945 0.000000
84.87500000 193.24200439 397.50000000 0.000978 0.000978 0.999999 0.000000
84.11720276 205.36700439 327.50000000 0.587623 0.510171 -0.628032 0.000000
36.37500000 151.56199646 352.50000000 -0.981552 -0.178573 0.068313 0.000000
87.90619659 190.96899414 397.50000000 0.339786 0.851792 0.398744 0.000000
226.20700073 85.63279724 365.00000000 0.702968 0.702968 -0.108035 0.000000
138.67999268 80.32810211 317.50000000 0.001294 -0.909655 -0.415362 0.000000
124.28099823 78.43360138 325.00000000 -0.091134 -0.993471 -0.068632 0.000000
224.31199646 75.78119659 387.50000000 0.413313 -0.828209 0.378474 0.000000
187.17999268 126.17600250 355.00000000 0.755828 0.506618 -0.414804 0.000000
66.68750000 109.88300323 397.50000000 -0.125402 -0.137577 0.982521 0.000000
192.48399353 131.10200500 372.50000000 -0.000978 -0.000978 -0.999999 0.000000
74.26560211 97.75779724 397.50000000 0.000978 0.000978 0.999999 0.000000
128.82800293 109.50399780 400.00000000 0.092217 -0.698214 0.709924 0.000000
36.75389862 152.32000732 340.00000000 -0.974954 -0.216791 -0.049656 0.000000
100.78900146 88.66410065 287.50000000 -0.083420 -0.972402 -0.217888 0.000000
206.12500000 78.05470276 397.50000000 0.152818 -0.739881 0.655151 0.000000
74.26560211 98.89450073 325.00000000 -0.532905 -0.836587 -0.127021 0.000000
168.99200439 131.85899353 397.50000000 0.457496 0.457496 0.762493 0.000000
68.20310211 115.18800354 397.50000000 -0.136211 -0.445911 0.884653 0.000000
174.29699707 107.60900116 302.50000000 0.566393 0.736147 -0.370522 0.000000
90.93750000 181.87500000 402.50000000 0.361888 0.829655 0.425099 0.000000
56.07809830 121.25000000 297.50000000 -0.752712 -0.637144 -0.165749 0.000000
106.09400177 140.19500732 412.50000000 0.000978 0.000978 0.999999 0.000000
87.90619659 93.21089935 307.50000000 -0.564265 -0.751814 -0.341146 0.000000
192.48399353 73.12889862 375.00000000 0.000000 0.000000 0.000000 0.000000
82.60160065 172.02299500 407.50000000 0.000978 0.000978 0.999999 0.000000
61.38280106 204.22999573 385.00000000 -0.213330 0.727189 0.652446 0.000000
209.91400146 81.84380341 327.50000000 -0.137950 -0.861101 -0.489361 0.000000
64.41410065 100.78900146 382.50000000 -0.702968 -0.702968 0.108035 0.000000
57.59379959 178.84399414 247.50000000 -0.381800 0.894799 -0.231439 0.000000
51.91019821 185.66400146 260.00000000 -0.037797 0.804938 -0.592154 0.000000
119.73400116 87.52729797 285.00000000 -0.136438 -0.679189 -0.721170 0.000000
125.79699707 124.66000366 325.00000000 -0.232078 0.853985 -0.465672 0.000000
114.43000031 140.19500732 312.50000000 -0.000978 -0.000978 -0.999999 0.000000
201.57800293 112.15599823 397.50000000 0.237764 0.706994 0.666054 0.000000
219.00799561 104.57800293 392.50000000 0.638434 0.729864 0.244339 0.000000
97.00000000 219.00799561 347.50000000 0.536296 0.143308 -0.831775 0.000000
159.89799500 118.21900177 402.50000000 0.000978 0.000978 0.999999 0.000000
132.61700439 90.93750000 397.50000000 0.000978 0.000978 0.999999 0.000000
117.46099854 147.01600647 407.50000000 -0.000978 -0.000978 0.999999 0.000000
37.13280106 186.42199707 367.50000000 -0.931582 -0.106814 0.347484 0.000000
130.34399414 181.87500000 352.50000000 0.561247 0.737966 -0.374710 0.000000
57.59379959 109.88300323 332.50000000 -0.863156 -0.430817 -0.263361 0.000000
157.62500000 89.42189789 312.50000000 -0.000978 -0.000978 -0.999999 0.000000
83.73829651 149.28900146 245.00000000 0.717859 0.314567 -0.621069 0.000000
94.72660065 128.82800293 412.50000000 0.000978 0.000978 0.999999 0.000000
98.51560211 86.76950073 320.00000000 -0.393844 -0.918970 -0.019497 0.000000
40.16410065 142.08999634 360.00000000 -0.934959 -0.353034 -0.034915 0.000000
203.09399414 77.29689789 397.50000000 0.194348 -0.781983 0.592226 0.000000
50.77339935 220.14500427 340.00000000 -0.637939 0.729298 -0.247300 0.000000
155.35200500 135.64799500 342.50000000 -0.000978 -0.000978 -0.999999 0.000000
81.84380341 150.04699707 242.50000000 0.757014 -0.044029 -0.651913 0.000000
166.71899414 93.21089935 302.50000000 -0.721412 -0.689733 -0.061918 0.000000
56.07809830 206.12500000 297.50000000 -0.047731 0.986045 -0.159490 0.000000
65.17189789 176.57000732 402.50000000 0.000978 0.000978 0.999999 0.000000
50.01559830 118.97699738 377.50000000 -0.673370 -0.673370 0.305197 0.000000
51.53120041 118.97699738 327.50000000 -0.741118 -0.628305 -0.236594 0.000000
129.58599854 81.84380341 392.50000000 -0.038208 -0.731603 0.680660 0.000000
95.48439789 191.72700500 397.50000000 0.168562 0.053044 0.984263 0.000000
81.46479797 100.78900146 270.00000000 -0.348898 -0.910609 -0.221499 0.000000
62.89839935 116.70300293 277.50000000 -0.831648 -0.550167 -0.075346 0.000000
142.46899414 92.45310211 402.50000000 0.000978 0.000978 0.999999 0.000000
189.45300293 88.66410065 402.50000000 0.000978 0.000978 0.999999 0.000000
79.57029724 93.21089935 332.50000000 -0.472707 -0.831527 -0.291737 0.000000
96.24220276 212.94500732 387.50000000 0.000978 0.000978 0.999999 0.000000
67.44529724 114.43000031 397.50000000 -0.119341 -0.194715 0.973573 0.000000
36.37500000 194.00000000 362.50000000 -0.859871 0.401478 0.315337 0.000000
84.11720276 228.85899353 372.50000000 -0.040252 0.537159 0.842520 0.000000
168.23399353 109.88300323 402.50000000 0.000978 0.000978 0.999999 0.000000
93.21089935 106.85199738 407.50000000 0.000978 0.000978 0.999999 0.000000
157.62500000 168.99200439 382.50000000 -0.230629 0.921083 0.313713 0.000000
144.74200439 108.36699677 317.50000000 -0.000978 -0.000978 -0.999999 0.000000
160.65600586 146.25799561 347.50000000 -0.000978 -0.000978 -0.999999 0.000000
45.46879959 183.39100647 267.50000000 -0.702968 0.702968 -0.108035 0.000000
152.32000732 108.36699677 302.50000000 -0.348983 0.179437 -0.919790 0.000000
37.51169968 167.47700500 305.00000000 -0.988665 0.001112 -0.150135 0.000000
101.54699707 154.59399414 272.50000000 0.440878 0.520137 -0.731494 0.000000
218.25000000 72.75000000 367.50000000 -0.082660 -0.995231 -0.051800 0.000000
95.48439789 196.27299500 397.50000000 0.028517 0.283931 0.958421 0.000000
222.79699707 72.37110138 365.00000000 -0.162004 -0.975790 -0.146934 0.000000
75.02339935 235.30099487 355.00000000 -0.239985 0.970688 0.013134 0.000000
195.51600647 73.12889862 375.00000000 0.001112 -0.988665 0.150135 0.000000
150.04699707 148.53100586 397.50000000 0.000978 0.000978 0.999999 0.000000
46.98440170 124.28099823 382.50000000 -0.565870 -0.565870 0.599653 0.000000
170.50799561 73.12889862 370.00000000 -0.000978 -0.999999 -0.000978 0.000000
82.60160065 152.69900513 245.00000000 0.785594 0.107193 -0.609386 0.000000
59.10940170 162.92999268 402.50000000 0.000978 0.000978 0.999999 0.000000
71.23439789 227.34399414 367.50000000 -0.356996 0.924882 0.130945 0.000000
109.88300323 120.11299896 310.00000000 0.703222 0.703222 -0.104673 0.000000
146.25799561 160.65600586 362.50000000 0.477192 0.209242 -0.853526 0.000000
63.65620041 101.54699707 382.50000000 -0.795302 -0.551555 0.251559 0.000000
118.21900177 122.76599884 412.50000000 0.000978 0.000978 0.999999 0.000000
225.82800293 93.21089935 382.50000000 0.583141 0.532433 -0.613565 0.000000
81.08589935 124.28099823 407.50000000 0.000978 0.000978 0.999999 0.000000
86.39060211 192.48399353 397.50000000 0.000978 0.000978 0.999999 0.000000
136.40600586 174.29699707 392.50000000 0.537095 0.424718 0.728796 0.000000
172.78100586 156.86700439 362.50000000 0.380344 0.673424 -0.633907 0.000000
50.77339935 137.16400146 277.50000000 -0.824294 -0.534962 -0.185353 0.000000
89.42189789 104.57800293 402.50000000 0.000978 0.000978 0.999999 0.000000
86.76950073 78.05470276 370.00000000 -0.224647 -0.970124 0.091616 0.000000
135.64799500 100.03099823 397.50000000 0.000978 0.000978 0.999999 0.000000
196.27299500 100.78900146 402.50000000 0.000978 0.000978 0.999999 0.000000
87.90619659 180.35899353 407.50000000 -0.134406 0.961722 0.238799 0.000000
123.52300262 193.24200439 392.50000000 0.000978 0.000978 0.999999 0.000000
75.02339935 121.25000000 407.50000000 -0.308870 -0.188677 0.932202 0.000000
48.50000000 178.84399414 387.50000000 0.000978 0.000978 0.999999 0.000000
64.03520203 114.43000031 280.00000000 -0.699529 -0.677620 -0.226916 0.000000
65.92970276 206.12500000 382.50000000 -0.345286 0.885078 0.312114 0.000000
134.13299561 111.39800262 397.50000000 0.000978 0.000978 0.999999 0.000000
46.22660065 198.16799927 295.00000000 -0.673370 0.673370 -0.305197 0.000000
220.52299500 103.44100189 390.00000000 0.710981 0.696261 0.098625 0.000000
44.33200073 133.37500000 385.00000000 -0.847896 -0.086927 0.522988 0.000000
96.24220276 230.75399780 360.00000000 0.563591 0.657803 -0.499661 0.000000
80.32810211 230.37500000 372.50000000 -0.145504 0.610518 0.778522 0.000000
81.08589935 156.10899353 242.50000000 0.812238 0.160054 -0.560938 0.000000
213.70300293 105.33599854 377.50000000 0.781313 0.599259 -0.174468 0.000000
147.77299500 72.37110138 360.00000000 -0.034439 -0.998739 -0.036527 0.000000
46.22660065 206.12500000 372.50000000 -0.771648 0.269840 0.575974 0.000000
36.37500000 187.93800354 367.50000000 0.000978 0.000978 0.999999 0.000000
112.15599823 201.95700073 350.00000000 0.690778 0.693883 -0.203353 0.000000
167.47700500 90.55860138 305.00000000 -0.411844 -0.699638 -0.583859 0.000000
111.39800262 131.85899353 312.50000000 0.871551 -0.358694 -0.334272 0.000000
210.67199707 72.75000000 382.50000000 -0.001219 -0.956644 0.291258 0.000000
57.59379959 117.83999634 305.00000000 -0.702968 -0.702968 -0.108035 0.000000
223.55499268 100.03099823 392.50000000 0.708750 0.674631 0.206267 0.000000
52.66799927 115.18800354 335.00000000 -0.922541 -0.307514 0.233138 0.000000
211.42999268 96.24220276 402.50000000 0.000978 0.000978 0.999999 0.000000
37.51169968 147.01600647 335.00000000 -0.987374 -0.143724 -0.066604 0.000000
81.08589935 81.84380341 382.50000000 -0.496590 -0.789080 0.361595 0.000000
141.71099854 82.60160065 397.50000000 0.000978 0.000978 0.999999 0.000000
106.85199738 93.96880341 272.50000000 -0.236810 -0.928807 -0.285023 0.000000
36.37500000 159.14100647 367.50000000 -0.969334 -0.126435 0.210725 0.000000
48.12110138 158.38299561 245.00000000 -0.573310 -0.382754 -0.724441 0.000000
83.35939789 171.26600647 272.50000000 0.619264 0.755844 -0.212630 0.000000
139.05900574 115.94499969 305.00000000 0.001379 0.740750 -0.671779 0.000000
149.28900146 168.23399353 387.50000000 0.257349 0.756259 0.601534 0.000000
79.57029724 158.38299561 242.50000000 -0.000978 -0.000978 -0.999999 0.000000
114.43000031 120.49199677 317.50000000 0.000978 0.000978 -0.999999 0.000000
203.09399414 73.12889862 385.00000000 -0.001112 -0.988665 0.150135 0.000000
95.48439789 130.34399414 412.50000000 0.000978 0.000978 0.999999 0.000000
36.75389862 154.59399414 325.00000000 -0.985829 -0.163339 -0.038228 0.000000
101.54699707 81.84380341 337.50000000 -0.254364 -0.639860 -0.725175 0.000000
200.82000732 119.73400116 367.50000000 0.116912 0.855912 0.503732 0.000000
76.53910065 159.14100647 242.50000000 0.502234 0.699123 -0.508908 0.000000
104.57800293 223.93400574 380.00000000 0.623338 0.623338 -0.472124 0.000000
57.59379959 105.33599854 352.50000000 -0.884174 -0.463401 -0.059128 0.000000
126.55500031 76.91799927 335.00000000 -0.001112 -0.988665 -0.150135 0.000000
143.98399353 137.16400146 337.50000000 -0.000978 -0.000978 -0.999999 0.000000
51.53120041 199.30499268 382.50000000 -0.570333 0.270158 0.775716 0.000000
75.78119659 188.69500732 397.50000000 0.000978 0.000978 0.999999 0.000000
65.17189789 95.86329651 375.00000000 -0.824294 -0.534962 0.185353 0.000000
139.05900574 108.36699677 290.00000000 0.718082 0.525709 -0.456057 0.000000
91.69529724 118.97699738 412.50000000 -0.305084 -0.006176 0.952305 0.000000
128.82800293 162.92999268 402.50000000 0.000978 0.000978 0.999999 0.000000
77.67579651 225.82800293 375.00000000 -0.468285 0.708260 0.528278 0.000000
66.30860138 203.09399414 295.00000000 0.341698 0.808949 -0.478377 0.000000
179.60200500 141.71099854 382.50000000 0.500086 0.648259 0.574173 0.000000
109.88300323 93.96880341 397.50000000 0.000978 0.000978 0.999999 0.000000
151.56199646 144.74200439 342.50000000 -0.000978 -0.000978 -0.999999 0.000000
92.45310211 166.33999634 290.00000000 0.726812 0.307807 -0.614003 0.000000
84.87500000 140.95300293 412.50000000 -0.000978 -0.000978 0.999999 0.000000
46.60549927 160.65600586 245.00000000 -0.950636 -0.252872 -0.179850 0.000000
129.58599854 145.50000000 402.50000000 -0.000978 -0.000978 0.999999 0.000000
146.25799561 123.52300262 402.50000000 -0.226916 0.309691 0.923364 0.000000
133.37500000 184.14799500 392.50000000 0.641331 0.463834 0.611190 0.000000
84.87500000 221.28100586 377.50000000 -0.379440 0.599549 0.704675 0.000000
46.60549927 204.60899353 315.00000000 -0.843315 0.515441 -0.152122 0.000000
140.19500732 175.05499268 387.50000000 0.748706 0.574062 0.331500 0.000000
83.35939789 183.77000427 300.00000000 0.617214 0.559720 -0.552956 0.000000
42.81639862 194.00000000 375.00000000 -0.739258 0.296665 0.604556 0.000000
121.25000000 110.26200104 275.00000000 -0.446689 0.894688 0.001310 0.000000
69.71880341 183.39100647 402.50000000 0.000978 0.000978 0.999999 0.000000
123.90200043 144.74200439 325.00000000 0.552842 -0.620468 -0.556224 0.000000
215.97700500 87.90619659 332.50000000 0.909074 0.308880 -0.279602 0.000000
80.32810211 235.67999268 357.50000000 -0.001112 0.988665 0.150135 0.000000
83.35939789 79.19139862 375.00000000 -0.476427 -0.879041 -0.017447 0.000000
118.21900177 95.48439789 397.50000000 0.000978 0.000978 0.999999 0.000000
74.64450073 197.03100586 395.00000000 -0.622560 0.416700 0.662404 0.000000
42.81639862 212.18800354 360.00000000 -0.909395 0.409160 0.074763 0.000000
170.88699341 155.35200500 360.00000000 0.265294 0.662440 -0.700566 0.000000
81.08589935 82.60160065 382.50000000 0.000978 0.000978 0.999999 0.000000
43.19530106 160.65600586 387.50000000 -0.682397 -0.217055 0.698012 0.000000
89.42189789 221.28100586 382.50000000 0.042193 0.466846 0.883332 0.000000
94.72660065 151.56199646 262.50000000 0.781269 0.472660 -0.407689 0.000000
219.76600647 72.75000000 382.50000000 0.113887 -0.966119 0.231613 0.000000
165.20300293 79.57029724 397.50000000 0.066692 -0.566171 0.821586 0.000000
180.35899353 109.50399780 315.00000000 0.467462 0.837083 -0.284204 0.000000
38.64839935 153.07800293 302.50000000 -0.946196 -0.258053 -0.195247 0.000000
159.89799500 142.46899414 392.50000000 0.000978 0.000978 0.999999 0.000000
42.43750000 163.30900574 260.00000000 -0.987565 0.010158 -0.156882 0.000000
84.87500000 228.85899353 372.50000000 -0.058809 0.721485 0.689929 0.000000
173.53900146 122.00800323 332.50000000 0.354945 0.678813 -0.642827 0.000000
128.82800293 151.94099426 325.00000000 0.764788 -0.152354 -0.626010 0.000000
100.03099823 220.52299500 352.50000000 0.795787 0.598652 -0.091320 0.000000
93.21089935 89.42189789 312.50000000 -0.312154 -0.939188 -0.143127 0.000000
152.32000732 153.83599854 352.50000000 0.156280 0.930764 -0.330539 0.000000
159.14100647 73.50779724 347.50000000 -0.001112 -0.988665 -0.150135 0.000000
171.64500427 139.43800354 390.00000000 0.509556 0.509556 0.693330 0.000000
102.30500031 89.04299927 285.00000000 -0.128662 -0.984805 -0.116638 0.000000
114.43000031 138.67999268 412.50000000 0.259147 0.422819 0.868370 0.000000
102.30500031 222.03900146 357.50000000 0.392993 0.520185 -0.758264 0.000000
163.68800354 122.76599884 402.50000000 0.000978 0.000978 0.999999 0.000000
88.66410065 79.19139862 355.00000000 -0.300656 -0.899005 -0.318428 0.000000
175.05499268 106.09400177 402.50000000 0.000978 0.000978 0.999999 0.000000
46.98440170 153.07800293 392.50000000 -0.565649 -0.020644 0.824388 0.000000
200.82000732 84.87500000 327.50000000 -0.279072 -0.636284 -0.719209 0.000000
91.69529724 150.80499268 257.50000000 0.706063 0.380188 -0.597438 0.000000
92.45310211 124.28099823 252.50000000 0.000978 0.000978 -0.999999 0.000000
185.66400146 73.50779724 387.50000000 -0.126491 -0.987103 0.098119 0.000000
68.96089935 161.41400146 407.50000000 -0.267569 0.157314 0.950610 0.000000
197.78900146 129.58599854 392.50000000 0.000978 0.000978 0.999999 0.000000
101.54699707 87.14839935 397.50000000 -0.122506 -0.270041 0.955024 0.000000
75.02339935 229.23800659 370.00000000 -0.457905 0.738930 0.494273 0.000000
40.16410065 145.87899780 305.00000000 -0.565870 -0.565870 -0.599653 0.000000
94.72660065 78.81250000 382.50000000 -0.159738 -0.959745 0.231025 0.000000
99.27339935 78.43360138 385.00000000 -0.290701 -0.856721 0.426054 0.000000
70.47660065 122.00800323 402.50000000 -0.532307 -0.219366 0.817636 0.000000
55.32030106 218.62899780 370.00000000 -0.466525 0.556820 0.687246 0.000000
181.11700439 144.74200439 377.50000000 0.777500 -0.001376 0.628881 0.000000
110.64099884 122.76599884 412.50000000 0.000978 0.000978 0.999999 0.000000
107.60900116 186.04299927 400.00000000 0.129035 0.793490 0.594747 0.000000
176.57000732 136.40600586 352.50000000 0.612638 0.652702 -0.445707 0.000000
160.65600586 103.06199646 402.50000000 0.000978 0.000978 0.999999 0.000000
137.92199707 118.21900177 307.50000000 0.001379 0.740750 -0.671779 0.000000
52.66799927 221.28100586 340.00000000 -0.513371 0.846843 -0.138947 0.000000
172.02299500 149.28900146 387.50000000 0.492311 0.116260 0.862620 0.000000
187.93800354 78.81250000 397.50000000 0.001246 -0.332624 0.943059 0.000000
50.77339935 219.76600647 337.50000000 -0.637939 0.729298 -0.247300 0.000000
215.21899414 76.91799927 395.00000000 0.119238 -0.925124 0.360456 0.000000
165.20300293 128.07000732 402.50000000 0.000978 0.000978 0.999999 0.000000
75.02339935 203.85200500 387.50000000 0.000978 0.000978 0.999999 0.000000
190.96899414 117.46099854 352.50000000 0.946406 0.317195 -0.060850 0.000000
102.30500031 76.16020203 360.00000000 -0.169096 -0.975744 -0.139034 0.000000
95.48439789 197.03100586 332.50000000 0.703424 0.574325 -0.418744 0.000000
127.31199646 119.73400116 297.50000000 0.310578 0.905239 -0.289971 0.000000
