159.17999268 316.40600586 237.50000000 -0.043278 -0.255959 -0.965718 0.000000
119.14099884 297.85101318 107.50000000 -0.427610 -0.052608 0.902431 0.000000
134.76600647 313.96499634 235.00000000 0.299172 -0.593544 -0.747129 0.000000
91.79679871 243.16400146 82.50000000 -0.700489 -0.700489 0.136498 0.000000
92.28510284 243.16400146 85.00000000 -0.915674 0.102962 0.388509 0.000000
135.74200439 165.52699280 175.00000000 0.532328 0.845947 -0.031637 0.000000
250.00000000 210.93699646 172.50000000 -0.251346 -0.501150 0.828054 0.000000
193.35899353 208.00799561 157.50000000 -0.001145 0.981537 -0.191268 0.000000
81.54290009 285.15600586 105.00000000 0.986701 -0.140620 -0.081536 0.000000
168.94500732 278.32000732 132.50000000 -0.300177 -0.033911 0.953281 0.000000
179.68699646 254.88299561 252.50000000 -0.468717 -0.067750 -0.880746 0.000000
163.08599854 294.92199707 247.50000000 -0.000978 -0.000978 -0.999999 0.000000
258.78900146 194.33599854 177.50000000 -0.864674 -0.017591 0.502025 0.000000
104.49199677 245.11700439 227.50000000 0.701123 -0.067944 -0.709796 0.000000
211.91400146 216.30799866 165.00000000 0.371054 -0.249833 0.894373 0.000000
125.97699738 224.60899353 112.50000000 -0.700990 0.412639 0.581672 0.000000
91.30850220 230.46899414 175.00000000 0.946031 0.280959 -0.161517 0.000000
215.82000732 154.29699707 202.50000000 -0.000978 -0.000978 -0.999999 0.000000
168.94500732 214.84399414 252.50000000 -0.252710 0.473257 -0.843899 0.000000
168.94500732 349.60900879 202.50000000 -0.414097 -0.650249 -0.636945 0.000000
175.78100586 266.60101318 127.50000000 0.000978 0.000978 0.999999 0.000000
152.34399414 341.79699707 137.50000000 0.000978 0.000978 0.999999 0.000000
148.43699646 285.15600586 247.50000000 -0.000978 -0.000978 -0.999999 0.000000
95.70310211 230.46899414 137.50000000 0.912653 0.406364 0.043967 0.000000
212.89100647 284.17999268 172.50000000 -0.711009 -0.029567 0.702561 0.000000
120.60500336 222.65600586 235.00000000 0.215240 0.428995 -0.877288 0.000000
273.43701172 182.61700439 197.50000000 -0.804034 0.505891 -0.312416 0.000000
232.42199707 156.25000000 202.50000000 -0.291393 0.279795 -0.914770 0.000000
232.42199707 213.86700439 157.50000000 0.270543 0.954159 0.128013 0.000000
104.49199677 317.38299561 107.50000000 -0.000978 -0.000978 0.999999 0.000000
209.96099854 285.15600586 222.50000000 -0.721913 -0.353623 -0.594804 0.000000
156.25000000 357.91000366 185.00000000 -0.001145 -0.981537 -0.191268 0.000000
90.33200073 273.43701172 180.00000000 0.988144 -0.125721 -0.088122 0.000000
230.95700073 222.65600586 220.00000000 -0.680088 -0.073954 -0.729391 0.000000
248.04699707 145.50799561 202.50000000 0.000978 0.000978 -0.999999 0.000000
207.03100586 214.84399414 237.50000000 -0.619300 -0.119722 -0.775973 0.000000
126.95300293 345.70300293 167.50000000 0.624386 -0.778696 -0.061438 0.000000
267.57800293 196.28900146 202.50000000 -0.497074 0.039711 -0.866799 0.000000
267.08999634 170.89799500 195.00000000 -0.262487 0.510996 0.818525 0.000000
185.54699707 266.60101318 137.50000000 -0.606538 -0.281778 0.743447 0.000000
129.88299561 221.67999268 242.50000000 -0.000978 -0.000978 -0.999999 0.000000
211.91400146 208.98399353 162.50000000 0.000978 0.000978 0.999999 0.000000
120.11699677 218.75000000 112.50000000 -0.614387 0.647869 0.450327 0.000000
143.06599426 307.61700439 125.00000000 -0.838220 0.093136 0.537320 0.000000
103.51599884 197.26600647 167.50000000 0.924214 0.381769 0.008998 0.000000
200.19500732 201.17199707 237.50000000 -0.492556 0.300569 -0.816730 0.000000
226.56199646 268.55499268 207.50000000 -0.725734 -0.393312 -0.564460 0.000000
161.13299561 339.84399414 217.50000000 0.049972 -0.669626 -0.741015 0.000000
137.69500732 330.07800293 222.50000000 0.290850 -0.670080 -0.682935 0.000000
162.10899353 351.56201172 142.50000000 -0.181131 -0.457982 0.870313 0.000000
161.13299561 271.48400879 252.50000000 -0.000978 -0.000978 -0.999999 0.000000
159.17999268 157.22599792 197.50000000 0.191948 0.964963 -0.178890 0.000000
110.35199738 308.59399414 217.50000000 0.647869 -0.604343 -0.463720 0.000000
191.40600586 163.08599854 162.50000000 0.000978 0.000978 0.999999 0.000000
157.22599792 211.91400146 152.50000000 -0.000978 -0.000978 0.999999 0.000000
208.98399353 274.41400146 162.50000000 0.000978 0.000978 0.999999 0.000000
182.61700439 279.29699707 247.50000000 -0.280527 -0.075576 -0.956866 0.000000
185.54699707 158.20300293 202.50000000 0.541486 0.565103 -0.622456 0.000000
144.53100586 212.40199280 140.00000000 -0.336391 0.903409 0.265881 0.000000
195.80099487 348.63299561 170.00000000 -0.431471 -0.895268 0.111030 0.000000
195.31199646 340.82000732 192.50000000 -0.507076 -0.510423 -0.694509 0.000000
199.21899414 136.22999573 190.00000000 0.350182 0.851332 -0.390648 0.000000
107.42199707 216.30799866 220.00000000 0.629833 0.420443 -0.653099 0.000000
209.96099854 138.18400574 180.00000000 0.931838 0.001264 0.362873 0.000000
157.22599792 331.05499268 142.50000000 -0.714896 -0.044059 0.697841 0.000000
94.72650146 230.46899414 147.50000000 0.890715 0.446052 0.087543 0.000000
182.61700439 166.99200439 162.50000000 0.000978 0.000978 0.999999 0.000000
259.27700806 159.17999268 195.00000000 -0.692557 0.542364 0.475611 0.000000
162.10899353 215.82000732 252.50000000 -0.000978 -0.000978 -0.999999 0.000000
185.54699707 263.67199707 137.50000000 -0.551924 -0.676065 0.488176 0.000000
211.42599487 188.47599792 220.00000000 -0.544186 0.493953 -0.678139 0.000000
134.76600647 347.65600586 132.50000000 -0.505882 -0.854666 0.116742 0.000000
123.04699707 187.50000000 147.50000000 -0.605685 0.409875 0.682018 0.000000
163.08599854 264.16000366 120.00000000 -0.282725 -0.714000 0.640524 0.000000
83.00779724 247.07000732 82.50000000 0.000978 0.000978 0.999999 0.000000
181.64100647 238.28100586 252.50000000 -0.000978 -0.000978 -0.999999 0.000000
191.40600586 304.68701172 232.50000000 -0.392701 -0.179808 -0.901917 0.000000
240.23399353 155.27299500 182.50000000 -0.520597 0.368148 0.770354 0.000000
131.83599854 212.89100647 137.50000000 -0.623911 0.780940 -0.029443 0.000000
216.30799866 280.27301025 220.00000000 -0.715359 -0.001384 -0.698755 0.000000
223.63299561 248.04699707 222.50000000 -0.601568 -0.138823 -0.786666 0.000000
156.25000000 156.73800659 195.00000000 -0.580690 0.584076 0.567146 0.000000
157.22599792 290.03900146 127.50000000 -0.672576 -0.438927 0.595806 0.000000
199.21899414 301.75799561 227.50000000 -0.000978 -0.000978 -0.999999 0.000000
245.11700439 234.37500000 202.50000000 -0.129936 -0.990903 -0.035026 0.000000
219.72599792 282.22601318 212.50000000 -0.789461 -0.248563 -0.561221 0.000000
89.35540009 242.18699646 180.00000000 0.966054 0.074119 -0.247481 0.000000
125.97699738 197.75399780 230.00000000 0.663351 0.268840 -0.698348 0.000000
195.31199646 327.14801025 157.50000000 -0.926179 -0.231901 0.297345 0.000000
171.87500000 270.50799561 252.50000000 -0.814406 -0.327344 -0.479155 0.000000
172.85099792 204.10099792 152.50000000 0.000978 0.000978 0.999999 0.000000
205.56599426 303.71099854 165.00000000 -0.869271 0.156323 0.468968 0.000000
178.71099854 263.67199707 247.50000000 0.456006 -0.297260 -0.838865 0.000000
121.09400177 306.64001465 112.50000000 0.000978 0.000978 0.999999 0.000000
83.00779724 248.04699707 82.50000000 0.000978 0.000978 0.999999 0.000000
155.27299500 193.35899353 152.50000000 0.000978 0.000978 0.999999 0.000000
154.29699707 247.07000732 252.50000000 -0.000978 -0.000978 -0.999999 0.000000
221.67999268 201.17199707 157.50000000 0.000978 0.000978 0.999999 0.000000
107.42199707 264.64801025 227.50000000 0.712727 -0.682334 -0.162605 0.000000
198.24200439 300.78100586 157.50000000 0.000978 0.000978 0.999999 0.000000
250.97599792 180.66400146 177.50000000 -0.757762 -0.079688 0.647647 0.000000
247.07000732 237.30499268 152.50000000 -0.870854 0.290285 0.396672 0.000000
249.02299500 219.72599792 172.50000000 -0.873432 -0.312484 0.373457 0.000000
184.57000732 189.45300293 157.50000000 0.000978 0.000978 0.999999 0.000000
97.65619659 248.04699707 217.50000000 0.235698 0.944172 -0.230185 0.000000
228.51600647 236.32800293 222.50000000 0.076250 0.608561 -0.789835 0.000000
115.23400116 322.75399780 210.00000000 -0.434866 -0.722573 -0.537382 0.000000
160.15600586 260.74200439 117.50000000 -0.101928 -0.434241 0.895011 0.000000
190.42999268 193.35899353 237.50000000 -0.351243 0.830067 -0.433147 0.000000
175.78100586 232.42199707 152.50000000 -0.232024 0.770820 0.593297 0.000000
208.98399353 260.25399780 155.00000000 -0.722736 0.473517 0.503423 0.000000
205.56599426 282.22601318 230.00000000 -0.609118 -0.306970 -0.731263 0.000000
80.07810211 249.02299500 82.50000000 0.000978 0.000978 0.999999 0.000000
132.81199646 333.98400879 122.50000000 0.000978 0.000978 0.999999 0.000000
129.39399719 168.94500732 185.00000000 0.551057 0.827312 0.109048 0.000000
102.53900146 197.75399780 175.00000000 0.813436 0.528346 0.243256 0.000000
88.86710358 239.25799561 127.50000000 -0.700489 0.700489 0.136498 0.000000
165.03900146 328.12500000 142.50000000 0.000978 0.000978 0.999999 0.000000
248.04699707 238.28100586 192.50000000 -0.259786 0.135827 -0.956066 0.000000
181.64100647 321.28900146 227.50000000 0.042109 -0.948097 -0.315182 0.000000
125.97699738 276.36700439 107.50000000 -0.283931 -0.028517 0.958421 0.000000
89.84369659 249.02299500 82.50000000 -0.000978 -0.000978 0.999999 0.000000
214.84399414 241.21099854 162.50000000 0.931838 0.001264 0.362873 0.000000
111.32800293 308.59399414 107.50000000 -0.380473 -0.337342 0.861070 0.000000
119.14099884 268.55499268 102.50000000 -0.770580 0.496886 0.399138 0.000000
220.21499634 277.34399414 215.00000000 -0.899005 -0.300656 -0.318428 0.000000
174.80499268 343.75000000 147.50000000 -0.448216 -0.170819 0.877453 0.000000
129.88299561 178.71099854 217.50000000 0.275293 0.828989 -0.486817 0.000000
203.12500000 145.50799561 172.50000000 0.000978 0.000978 0.999999 0.000000
103.51599884 234.37500000 222.50000000 0.866501 0.085946 -0.491722 0.000000
143.55499268 350.58599854 137.50000000 0.055712 -0.441620 0.895470 0.000000
258.78900146 182.61700439 202.50000000 -0.556136 0.054910 -0.829276 0.000000
163.08599854 322.26501465 142.50000000 -0.000978 -0.000978 0.999999 0.000000
270.50799561 208.00799561 182.50000000 -0.136852 0.172007 0.975543 0.000000
163.08599854 181.15199280 230.00000000 0.098237 0.763904 -0.637809 0.000000
148.43699646 220.70300293 252.50000000 -0.000978 -0.000978 -0.999999 0.000000
219.72599792 154.29699707 172.50000000 0.000978 0.000978 0.999999 0.000000
156.25000000 242.18699646 252.50000000 -0.000978 -0.000978 -0.999999 0.000000
247.55799866 241.21099854 185.00000000 0.970072 -0.242814 -0.001184 0.000000
269.53100586 218.75000000 197.50000000 -0.000978 -0.000978 -0.999999 0.000000
138.67199707 317.38299561 232.50000000 0.431352 -0.759377 -0.487116 0.000000
92.77339935 234.37500000 152.50000000 0.955694 0.293774 0.018593 0.000000
178.71099854 242.18699646 252.50000000 -0.000978 -0.000978 -0.999999 0.000000
134.27699280 302.73400879 120.00000000 -0.244826 -0.460759 0.853089 0.000000
208.00799561 286.13299561 162.50000000 -0.863684 0.147103 0.482090 0.000000
162.10899353 202.14799500 252.50000000 -0.000978 -0.000978 -0.999999 0.000000
127.93000031 258.78900146 247.50000000 0.428244 -0.222329 -0.875886 0.000000
167.96899414 222.16799927 140.00000000 -0.467910 0.883232 -0.031014 0.000000
190.42999268 176.75799561 222.50000000 -0.311711 0.670260 -0.673490 0.000000
77.14839935 250.97599792 82.50000000 0.632031 0.500569 0.591581 0.000000
183.59399414 319.33599854 152.50000000 0.000978 0.000978 0.999999 0.000000
249.51199341 233.39799500 190.00000000 -0.719032 -0.611907 -0.329489 0.000000
200.19500732 250.00000000 137.50000000 -0.796041 -0.548940 0.254921 0.000000
158.20300293 257.81201172 252.50000000 -0.000978 -0.000978 -0.999999 0.000000
189.45300293 341.79699707 157.50000000 -0.518657 -0.155154 0.840786 0.000000
134.76600647 353.02700806 150.00000000 0.592554 -0.790572 -0.154514 0.000000
129.88299561 313.47601318 232.50000000 0.384850 -0.797075 -0.465363 0.000000
172.85099792 287.10900879 247.50000000 -0.000978 -0.000978 -0.999999 0.000000
248.04699707 236.32800293 162.50000000 -0.802485 0.302317 0.514414 0.000000
140.62500000 269.53100586 247.50000000 0.507569 -0.141885 -0.849849 0.000000
162.59800720 355.46899414 195.00000000 0.108406 -0.975655 -0.190645 0.000000
88.86710358 250.97599792 82.50000000 -0.000978 -0.000978 0.999999 0.000000
178.71099854 335.93701172 147.50000000 -0.000978 -0.000978 0.999999 0.000000
200.19500732 155.27299500 202.50000000 0.072538 0.210236 -0.974956 0.000000
248.04699707 241.21099854 167.50000000 -0.700489 -0.700489 -0.136498 0.000000
196.28900146 315.91799927 220.00000000 -0.647557 -0.460150 -0.607398 0.000000
238.28100586 147.46099854 202.50000000 0.509955 0.337306 -0.791310 0.000000
217.77299500 268.55499268 222.50000000 -0.881094 -0.439816 -0.173881 0.000000
230.46899414 165.03900146 207.50000000 -0.000978 -0.000978 -0.999999 0.000000
181.64100647 310.54699707 232.50000000 -0.999999 -0.000978 -0.000978 0.000000
174.80499268 185.54699707 157.50000000 0.000978 0.000978 0.999999 0.000000
199.21899414 260.74200439 237.50000000 -0.000978 -0.000978 -0.999999 0.000000
228.51600647 229.49200439 222.50000000 -0.595485 -0.125599 -0.793488 0.000000
81.05460358 251.95300293 82.50000000 0.000978 0.000978 0.999999 0.000000
250.97599792 169.92199707 182.50000000 -0.299706 0.212467 0.930072 0.000000
183.59399414 246.58200073 250.00000000 -0.469104 -0.391726 -0.791512 0.000000
148.43699646 253.90600586 252.50000000 -0.000978 -0.000978 -0.999999 0.000000
213.86700439 137.69500732 192.50000000 0.061795 0.691238 -0.719980 0.000000
214.35499573 289.06201172 215.00000000 -0.708102 -0.343470 -0.616944 0.000000
138.67199707 233.39799500 247.50000000 -0.000978 -0.000978 -0.999999 0.000000
171.87500000 324.21899414 142.50000000 -0.704956 -0.136782 0.695937 0.000000
186.52299500 234.37500000 137.50000000 0.239831 0.960634 0.140229 0.000000
185.54699707 274.41400146 242.50000000 -0.582954 -0.579575 -0.569436 0.000000
140.62500000 290.03900146 117.50000000 -0.678934 -0.315972 0.662730 0.000000
126.95300293 254.88299561 247.50000000 0.872133 -0.085668 -0.481710 0.000000
150.39100647 243.16400146 112.50000000 -0.191090 0.369249 0.909472 0.000000
76.17179871 252.92999268 82.50000000 0.644256 0.355734 0.677043 0.000000
174.80499268 334.96099854 147.50000000 -0.000978 -0.000978 0.999999 0.000000
220.70300293 236.32800293 227.50000000 -0.533926 0.040218 -0.844574 0.000000
192.38299561 254.88299561 127.50000000 -0.305544 -0.127871 0.943553 0.000000
214.35499573 247.07000732 170.00000000 -0.177164 -0.877034 0.446570 0.000000
169.92199707 177.73399353 227.50000000 -0.061045 0.586315 -0.807780 0.000000
134.76600647 240.23399353 107.50000000 0.000978 0.000978 0.999999 0.000000
83.98429871 230.46899414 107.50000000 0.917252 0.201139 -0.343791 0.000000
207.03100586 140.62500000 197.50000000 -0.084281 0.547110 -0.832807 0.000000
142.57800293 330.07800293 132.50000000 -0.685658 -0.080066 0.723507 0.000000
85.93750000 252.92999268 82.50000000 0.000978 0.000978 0.999999 0.000000
253.90600586 159.17999268 202.50000000 -0.000978 -0.000978 -0.999999 0.000000
98.14450073 217.77299500 205.00000000 0.948705 0.210975 -0.235475 0.000000
170.89799500 183.59399414 232.50000000 -0.507370 0.732133 -0.454485 0.000000
158.20300293 163.57400513 210.00000000 -0.019444 0.921632 -0.387578 0.000000
169.92199707 237.30499268 252.50000000 -0.000978 -0.000978 -0.999999 0.000000
160.15600586 334.96099854 222.50000000 -0.999999 -0.000978 -0.000978 0.000000
207.03100586 281.25000000 162.50000000 -0.523864 0.034374 0.851108 0.000000
140.62500000 188.47599792 157.50000000 0.000978 0.000978 0.999999 0.000000
139.64799500 298.82800293 122.50000000 0.000978 0.000978 0.999999 0.000000
82.03119659 242.18699646 112.50000000 0.931838 0.001264 -0.362873 0.000000
275.39099121 196.28900146 187.50000000 0.408637 0.246979 0.878645 0.000000
141.60099792 177.73399353 222.50000000 -0.103817 0.796904 -0.595119 0.000000
121.09400177 339.84399414 132.50000000 0.305333 -0.876504 0.372172 0.000000
118.16400146 249.02299500 237.50000000 0.924187 -0.232115 -0.303316 0.000000
206.05499268 286.13299561 162.50000000 -0.580692 0.009610 0.814067 0.000000
276.36700439 208.00799561 197.50000000 -0.214403 -0.099052 -0.971710 0.000000
197.26600647 141.60099792 172.50000000 -0.248028 0.853642 0.458015 0.000000
228.02699280 272.46099854 205.00000000 -0.686997 -0.365633 -0.627971 0.000000
178.71099854 210.93699646 152.50000000 0.000978 0.000978 0.999999 0.000000
166.99200439 220.70300293 152.50000000 0.505221 -0.782850 0.363178 0.000000
188.47599792 245.11700439 247.50000000 -0.293055 0.087265 -0.952105 0.000000
165.03900146 177.73399353 227.50000000 -0.001364 0.816854 -0.576843 0.000000
182.61700439 306.64001465 237.50000000 -0.370424 -0.358025 -0.857090 0.000000
148.43699646 306.64001465 132.50000000 -0.401032 -0.240023 0.884060 0.000000
73.73040009 254.88299561 85.00000000 0.881648 0.306989 0.358406 0.000000
194.33599854 217.77299500 167.50000000 0.000978 0.000978 0.999999 0.000000
123.04699707 337.89001465 127.50000000 -0.082154 -0.925245 0.370367 0.000000
144.53100586 167.47999573 210.00000000 0.428995 0.215240 -0.877288 0.000000
228.51600647 224.60899353 222.50000000 -0.739243 -0.101407 -0.665760 0.000000
231.44500732 269.53100586 202.50000000 -0.688914 -0.426628 -0.585992 0.000000
130.85899353 214.84399414 242.50000000 0.000978 0.000978 -0.999999 0.000000
202.14799500 297.85101318 227.50000000 -0.654779 -0.563884 -0.503288 0.000000
192.38299561 163.08599854 207.50000000 -0.000978 -0.000978 -0.999999 0.000000
218.75000000 278.32000732 217.50000000 -0.773786 -0.571240 -0.273752 0.000000
238.28100586 176.75799561 172.50000000 -0.630531 -0.296815 0.717169 0.000000
231.44500732 235.35099792 217.50000000 -0.857181 0.316616 -0.406196 0.000000
81.05460358 245.11700439 107.50000000 0.940406 0.168861 -0.295164 0.000000
178.71099854 291.99200439 142.50000000 -0.848231 -0.432644 0.305487 0.000000
74.21869659 255.37100220 85.00000000 0.881648 0.306989 0.358406 0.000000
102.53900146 321.28900146 177.50000000 0.831715 -0.537302 -0.139846 0.000000
112.30500031 284.17999268 232.50000000 0.591008 -0.001365 -0.806665 0.000000
208.98399353 284.17999268 167.50000000 -0.974527 -0.127003 0.184846 0.000000
225.58599854 172.85099792 207.50000000 -0.094925 0.335580 -0.937217 0.000000
241.21099854 203.12500000 167.50000000 -0.034513 0.333625 0.942074 0.000000
95.70310211 227.53900146 207.50000000 0.000978 0.000978 -0.999999 0.000000
279.29699707 209.47300720 195.00000000 -0.607013 -0.239982 -0.757590 0.000000
223.63299561 223.63299561 227.50000000 -0.278627 0.137314 -0.950532 0.000000
181.64100647 188.96499634 235.00000000 -0.442761 0.766255 -0.465635 0.000000
229.49200439 250.00000000 217.50000000 -0.310102 -0.933087 -0.182168 0.000000
108.88700104 237.30499268 230.00000000 0.588930 0.201436 -0.782678 0.000000
92.77339935 229.97999573 125.00000000 0.772106 0.587302 -0.242751 0.000000
128.90600586 348.14401245 140.00000000 0.449148 -0.800096 0.397633 0.000000
228.51600647 227.53900146 222.50000000 -0.000978 -0.000978 -0.999999 0.000000
82.03119659 249.51199341 115.00000000 0.928628 0.267955 -0.256613 0.000000
125.97699738 242.18699646 242.50000000 -0.000978 -0.000978 -0.999999 0.000000
75.19529724 256.34799194 85.00000000 0.443742 -0.443742 0.778580 0.000000
83.00779724 279.29699707 117.50000000 0.994200 -0.092613 -0.054675 0.000000
151.36700439 337.89001465 222.50000000 -0.000978 -0.000978 -0.999999 0.000000
237.30499268 210.93699646 217.50000000 0.000978 0.000978 -0.999999 0.000000
235.35099792 212.89100647 157.50000000 0.402508 0.903153 0.149340 0.000000
149.41400146 342.77301025 137.50000000 -0.226845 0.055178 0.972367 0.000000
208.00799561 281.25000000 227.50000000 -0.599022 -0.260788 -0.757075 0.000000
113.76899719 266.60101318 235.00000000 0.489288 0.104134 -0.865883 0.000000
166.99200439 308.59399414 142.50000000 0.000978 0.000978 0.999999 0.000000
163.08599854 225.58599854 127.50000000 -0.302994 0.936654 0.175709 0.000000
147.46099854 301.75799561 127.50000000 0.000978 0.000978 0.999999 0.000000
126.95300293 220.70300293 237.50000000 -0.000978 -0.000978 -0.999999 0.000000
172.85099792 218.26199341 255.00000000 -0.224280 0.194734 -0.954870 0.000000
260.74200439 166.01600647 202.50000000 -0.000978 -0.000978 -0.999999 0.000000
220.21499634 288.08599854 205.00000000 -0.981537 0.001145 -0.191268 0.000000
191.40600586 243.16400146 247.50000000 -0.000978 -0.000978 -0.999999 0.000000
163.08599854 241.21099854 112.50000000 0.000978 0.000978 0.999999 0.000000
141.60099792 332.03100586 222.50000000 0.369958 -0.783536 -0.499201 0.000000
171.38699341 227.53900146 155.00000000 -0.531063 0.461142 0.710859 0.000000
178.71099854 239.25799561 252.50000000 -0.000978 -0.000978 -0.999999 0.000000
143.06599426 287.10900879 120.00000000 -0.794744 -0.316942 0.517619 0.000000
187.50000000 288.08599854 147.50000000 -0.714347 0.477896 -0.511199 0.000000
200.19500732 263.67199707 237.50000000 -0.160538 0.055075 -0.985492 0.000000
153.32000732 334.96099854 137.50000000 -0.212585 0.072500 0.974449 0.000000
190.42999268 280.76199341 150.00000000 -0.843341 -0.504806 0.184247 0.000000
279.78500366 217.77299500 190.00000000 -0.603636 -0.795894 0.046651 0.000000
100.09799957 253.90600586 220.00000000 0.716707 -0.001381 -0.697373 0.000000
130.85899353 300.78100586 117.50000000 -0.272187 -0.542800 0.794533 0.000000
105.46900177 255.85899353 227.50000000 -0.000978 -0.000978 -0.999999 0.000000
159.17999268 308.59399414 242.50000000 -0.000978 -0.000978 -0.999999 0.000000
140.62500000 286.13299561 117.50000000 -0.610116 -0.442961 0.656920 0.000000
93.26170349 308.59399414 160.00000000 0.900315 -0.385434 0.202171 0.000000
85.93750000 261.71899414 152.50000000 0.981537 -0.001145 -0.191268 0.000000
242.18699646 245.11700439 162.50000000 0.520152 -0.470298 0.712925 0.000000
254.88299561 228.51600647 192.50000000 -0.465721 -0.883640 0.047801 0.000000
172.36300659 233.39799500 150.00000000 -0.203549 0.845860 0.493041 0.000000
136.71899414 166.01600647 202.50000000 0.308265 0.804652 -0.507452 0.000000
195.31199646 328.12500000 212.50000000 -0.619502 -0.652898 -0.435822 0.000000
84.96089935 258.78900146 82.50000000 -0.681751 -0.681751 0.265390 0.000000
182.61700439 159.17999268 167.50000000 0.216088 0.534857 0.816844 0.000000
112.79299927 333.98400879 160.00000000 0.653205 -0.754142 -0.067772 0.000000
242.18699646 236.32800293 192.50000000 -0.388637 -0.765892 -0.512221 0.000000
175.78100586 359.86300659 170.00000000 -0.121040 -0.988297 0.092836 0.000000
247.07000732 169.92199707 207.50000000 -0.327377 0.218728 -0.919229 0.000000
151.36700439 330.07800293 137.50000000 0.000978 0.000978 0.999999 0.000000
110.35199738 322.26501465 197.50000000 0.981537 0.001145 -0.191268 0.000000
228.02699280 273.43701172 190.00000000 -0.968657 -0.184445 0.166387 0.000000
164.06199646 350.09698486 205.00000000 -0.220015 -0.700616 -0.678771 0.000000
153.32000732 221.67999268 252.50000000 -0.000978 -0.000978 -0.999999 0.000000
179.68699646 199.21899414 157.50000000 0.000978 0.000978 0.999999 0.000000
178.71099854 189.45300293 157.50000000 0.000978 0.000978 0.999999 0.000000
211.91400146 191.40600586 222.50000000 -0.414478 0.385894 -0.824193 0.000000
195.31199646 331.05499268 207.50000000 -0.583104 -0.669985 -0.459466 0.000000
89.84369659 303.71099854 142.50000000 0.716707 0.001381 -0.697373 0.000000
189.45300293 166.99200439 207.50000000 0.000978 0.000978 -0.999999 0.000000
192.38299561 349.60900879 162.50000000 -0.235491 -0.472501 0.849286 0.000000
196.28900146 284.17999268 157.50000000 -0.792890 -0.395638 0.463461 0.000000
158.20300293 270.50799561 252.50000000 -0.000978 -0.000978 -0.999999 0.000000
89.84369659 299.80499268 102.50000000 0.000978 0.000978 0.999999 0.000000
141.60099792 339.84399414 132.50000000 -0.174950 0.010291 0.984524 0.000000
136.71899414 345.70300293 132.50000000 -0.415224 -0.560801 0.716304 0.000000
133.78900146 216.79699707 127.50000000 -0.480576 0.316707 0.817767 0.000000
99.60929871 223.63299561 212.50000000 0.802746 0.489946 -0.339930 0.000000
221.67999268 244.14100647 187.50000000 -0.831522 -0.461957 0.308493 0.000000
185.54699707 149.41400146 172.50000000 -0.067126 0.267236 0.961290 0.000000
177.73399353 271.48400879 247.50000000 -0.000978 -0.000978 -0.999999 0.000000
203.61300659 268.55499268 235.00000000 -0.792316 -0.070205 -0.606058 0.000000
257.81201172 186.52299500 182.50000000 -0.456495 0.214029 0.863599 0.000000
197.26600647 275.39099121 237.50000000 -0.296408 -0.118297 -0.947707 0.000000
255.37100220 221.67999268 200.00000000 -0.427827 -0.434285 -0.792692 0.000000
264.64801025 218.75000000 182.50000000 -0.982263 0.060722 0.177403 0.000000
246.09399414 232.91000366 170.00000000 0.235492 -0.171630 0.956602 0.000000
216.30799866 217.77299500 230.00000000 -0.722880 0.483582 -0.493552 0.000000
240.23399353 231.44500732 147.50000000 -0.806012 -0.434253 0.402205 0.000000
186.03500366 276.36700439 145.00000000 -0.530027 -0.313560 0.787878 0.000000
219.72599792 179.68699646 212.50000000 -0.000978 -0.000978 -0.999999 0.000000
207.03100586 277.34399414 232.50000000 -0.161573 -0.249703 -0.954747 0.000000
170.89799500 192.38299561 152.50000000 0.000978 0.000978 0.999999 0.000000
139.64799500 208.98399353 242.50000000 0.376806 0.666404 -0.643368 0.000000
159.17999268 232.91000366 120.00000000 0.199711 0.851398 0.485012 0.000000
275.87899780 186.52299500 195.00000000 -0.838906 0.503343 -0.207081 0.000000
250.97599792 152.34399414 192.50000000 -0.496238 0.401872 0.769576 0.000000
175.78100586 227.53900146 157.50000000 0.039286 0.884617 0.464661 0.000000
181.64100647 358.39801025 167.50000000 -0.411146 -0.863560 0.291929 0.000000
150.39100647 279.29699707 122.50000000 -0.004100 -0.578126 0.815937 0.000000
113.28099823 285.15600586 102.50000000 0.000978 0.000978 0.999999 0.000000
82.03119659 228.51600647 87.50000000 0.164805 0.932048 0.322685 0.000000
83.00779724 228.51600647 87.50000000 -0.368505 0.709167 0.601072 0.000000
93.75000000 232.42199707 147.50000000 0.907846 0.417262 0.041326 0.000000
239.74600220 230.46899414 210.00000000 -0.988152 -0.151236 -0.026154 0.000000
112.79299927 297.85101318 105.00000000 -0.326347 -0.548198 0.770050 0.000000
128.41799927 311.52301025 120.00000000 -0.554690 -0.458077 0.694611 0.000000
86.42569733 228.51600647 90.00000000 -0.000978 0.999999 -0.000978 0.000000
137.69500732 342.77301025 207.50000000 0.655331 -0.652029 -0.381313 0.000000
271.97299194 185.54699707 200.00000000 -0.895178 -0.036237 -0.444234 0.000000
230.95700073 269.53100586 195.00000000 -0.803548 -0.535178 0.260568 0.000000
220.70300293 211.91400146 162.50000000 0.000978 0.000978 0.999999 0.000000
157.22599792 337.89001465 137.50000000 -0.316967 0.006215 0.948416 0.000000
187.01199341 340.82000732 155.00000000 -0.620803 -0.329042 0.711573 0.000000
178.71099854 261.71899414 127.50000000 0.000978 0.000978 0.999999 0.000000
128.90600586 324.21899414 122.50000000 -0.329483 -0.074823 0.941192 0.000000
115.23400116 282.22601318 102.50000000 -0.437283 -0.249660 0.863975 0.000000
233.88699341 237.30499268 215.00000000 -0.859066 0.316173 -0.402543 0.000000
234.37500000 171.87500000 172.50000000 0.363144 0.907136 0.212678 0.000000
132.32400513 262.69500732 105.00000000 -0.394170 -0.273352 0.877444 0.000000
194.33599854 297.85101318 157.50000000 -0.669310 0.209645 0.712792 0.000000
198.24200439 175.78100586 157.50000000 0.000978 0.000978 0.999999 0.000000
221.67999268 228.51600647 147.50000000 0.000978 0.000978 0.999999 0.000000
91.30850220 238.28100586 185.00000000 0.951241 0.286296 -0.114782 0.000000
242.18699646 145.50799561 202.50000000 -0.000978 -0.000978 -0.999999 0.000000
217.77299500 247.07000732 227.50000000 -0.532156 -0.318015 -0.784650 0.000000
191.40600586 279.29699707 242.50000000 -0.887804 -0.188677 -0.419769 0.000000
134.76600647 208.98399353 242.50000000 0.201514 -0.928656 -0.311431 0.000000
90.33200073 231.44500732 170.00000000 0.681751 -0.681751 -0.265390 0.000000
236.32800293 237.30499268 152.50000000 0.126062 -0.853452 0.505696 0.000000
187.98800659 205.07800293 245.00000000 -0.445196 0.527947 -0.723237 0.000000
158.69099426 350.58599854 205.00000000 -0.009713 -0.739591 -0.672986 0.000000
77.14839935 229.97999573 90.00000000 0.496161 0.620622 0.607167 0.000000
197.26600647 325.19500732 157.50000000 -0.924130 -0.202374 0.324082 0.000000
181.64100647 358.88699341 170.00000000 -0.406726 -0.908584 -0.095132 0.000000
189.45300293 138.18400574 190.00000000 0.507076 0.510423 -0.694509 0.000000
214.84399414 145.01899719 200.00000000 0.001365 0.591008 -0.806665 0.000000
135.74200439 310.54699707 122.50000000 0.000978 0.000978 0.999999 0.000000
145.99600220 311.52301025 130.00000000 -0.761803 -0.218766 0.609752 0.000000
151.36700439 182.61700439 232.50000000 -0.049751 0.626864 -0.777539 0.000000
169.92199707 302.73400879 142.50000000 0.000978 0.000978 0.999999 0.000000
161.13299561 356.44500732 147.50000000 -0.169013 -0.894177 0.414586 0.000000
133.78900146 290.03900146 117.50000000 0.000978 0.000978 0.999999 0.000000
224.60899353 245.11700439 222.50000000 -0.000978 -0.000978 -0.999999 0.000000
259.76599121 164.06199646 202.50000000 -0.000978 -0.000978 -0.999999 0.000000
124.51200104 184.57000732 150.00000000 -0.542716 0.414048 0.730769 0.000000
236.32800293 239.74600220 190.00000000 0.001145 -0.981537 -0.191268 0.000000
101.56199646 321.77700806 165.00000000 0.705724 -0.708486 0.001381 0.000000
122.06999969 179.68699646 212.50000000 0.322294 0.801766 -0.503287 0.000000
99.60929871 299.31600952 205.00000000 0.898250 -0.391620 -0.199449 0.000000
170.89799500 322.26501465 142.50000000 0.000978 0.000978 0.999999 0.000000
150.39100647 184.57000732 157.50000000 -0.286321 0.141144 0.947681 0.000000
144.53100586 161.62100220 195.00000000 0.254555 0.963762 -0.079786 0.000000
179.68699646 182.61700439 232.50000000 -0.573673 0.430671 -0.696722 0.000000
124.02300262 290.03900146 237.50000000 0.260984 -0.249699 -0.932490 0.000000
117.18699646 214.84399414 232.50000000 0.363818 -0.032368 -0.930908 0.000000
202.14799500 217.77299500 167.50000000 0.700489 0.700489 -0.136498 0.000000
243.16400146 224.60899353 172.50000000 -0.300402 -0.813131 0.498574 0.000000
169.92199707 340.82000732 142.50000000 0.095740 -0.248923 0.963780 0.000000
138.67199707 165.03900146 202.50000000 0.609742 0.737772 -0.289667 0.000000
171.87500000 250.97599792 252.50000000 0.000978 0.000978 -0.999999 0.000000
119.14099884 302.73400879 107.50000000 -0.371209 -0.085041 0.924647 0.000000
219.72599792 279.29699707 212.50000000 -0.835585 -0.274394 -0.475927 0.000000
228.51600647 273.43701172 202.50000000 -0.748367 -0.602189 -0.278056 0.000000
189.45300293 270.50799561 142.50000000 -0.931838 -0.001264 0.362873 0.000000
253.90600586 208.98399353 172.50000000 0.000978 0.000978 0.999999 0.000000
104.00399780 206.05499268 160.00000000 0.868606 0.447011 0.213788 0.000000
202.63699341 193.35899353 230.00000000 -0.707568 0.541082 -0.454509 0.000000
97.16790009 231.44500732 90.00000000 -0.311692 0.679907 0.663758 0.000000
77.14839935 232.42199707 87.50000000 0.490055 0.621410 0.611306 0.000000
103.51599884 204.10099792 162.50000000 0.839617 0.436226 0.323651 0.000000
167.96899414 154.29699707 192.50000000 0.310102 0.933087 -0.182168 0.000000
140.13699341 291.99200439 120.00000000 -0.686283 -0.297336 0.663782 0.000000
204.10099792 240.23399353 137.50000000 -0.950120 0.283837 0.129259 0.000000
144.53100586 259.76599121 252.50000000 -0.000978 -0.000978 -0.999999 0.000000
146.48399353 321.28900146 232.50000000 0.273640 -0.511315 -0.814664 0.000000
124.02300262 240.23399353 102.50000000 -0.752542 0.530534 0.390146 0.000000
94.72650146 232.42199707 87.50000000 -0.509556 0.509556 0.693330 0.000000
116.69899750 290.03900146 105.00000000 -0.564303 -0.251670 0.786273 0.000000
215.82000732 179.68699646 217.50000000 -0.592907 0.475334 -0.650015 0.000000
156.25000000 329.10101318 137.50000000 -0.616632 -0.226358 0.754008 0.000000
195.31199646 320.31201172 217.50000000 -0.626691 -0.472118 -0.619970 0.000000
192.38299561 341.79699707 157.50000000 -0.566715 -0.137610 0.812341 0.000000
204.10099792 172.85099792 162.50000000 -0.600593 0.546455 0.583674 0.000000
162.10899353 190.42999268 242.50000000 -0.000978 -0.000978 -0.999999 0.000000
123.04699707 239.25799561 242.50000000 0.221689 0.121737 -0.967488 0.000000
229.49200439 160.15600586 207.50000000 0.078922 0.236765 -0.968356 0.000000
199.21899414 236.32800293 242.50000000 -0.694966 -0.172596 -0.698021 0.000000
175.78100586 296.87500000 242.50000000 -0.000978 -0.000978 -0.999999 0.000000
157.22599792 345.70300293 212.50000000 0.192735 -0.695389 -0.692306 0.000000
134.76600647 199.21899414 237.50000000 0.428986 0.305091 -0.850229 0.000000
278.32000732 207.03100586 197.50000000 -0.515038 -0.104729 -0.850745 0.000000
252.44099426 172.85099792 185.00000000 -0.581438 0.238499 0.777849 0.000000
250.00000000 192.38299561 207.50000000 -0.094732 -0.607743 -0.788463 0.000000
99.12100220 233.39799500 90.00000000 -0.416310 0.605392 0.678370 0.000000
130.85899353 213.86700439 127.50000000 -0.586934 0.147854 0.796020 0.000000
215.82000732 170.89799500 162.50000000 -0.109887 0.210933 0.971304 0.000000
135.74200439 207.03100586 242.50000000 -0.000978 -0.000978 -0.999999 0.000000
232.42199707 166.99200439 207.50000000 -0.000978 -0.000978 -0.999999 0.000000
125.97699738 235.35099792 107.50000000 -0.325263 0.396174 0.858633 0.000000
232.42199707 149.41400146 182.50000000 -0.464831 0.639353 0.612503 0.000000
249.02299500 212.89100647 207.50000000 -0.000978 -0.000978 -0.999999 0.000000
164.06199646 334.96099854 142.50000000 0.000978 0.000978 0.999999 0.000000
248.04699707 158.20300293 202.50000000 -0.000978 -0.000978 -0.999999 0.000000
99.60929871 265.62500000 217.50000000 0.909645 -0.046751 -0.412747 0.000000
79.10150146 238.28100586 102.50000000 0.902140 0.164415 -0.398886 0.000000
92.77339935 237.79299927 145.00000000 0.906652 0.301238 0.295360 0.000000
125.97699738 318.35900879 227.50000000 0.579155 -0.682635 -0.445632 0.000000
196.28900146 152.34399414 202.50000000 -0.000978 -0.000978 -0.999999 0.000000
267.57800293 168.94500732 202.50000000 -0.000978 -0.000978 -0.999999 0.000000
133.78900146 228.51600647 247.50000000 0.072320 0.155311 -0.985215 0.000000
133.78900146 337.89001465 122.50000000 -0.322233 -0.639608 0.697902 0.000000
142.57800293 320.31201172 232.50000000 0.396332 -0.850172 -0.346596 0.000000
87.40229797 277.34399414 165.00000000 0.976005 0.029793 -0.215698 0.000000
93.75000000 305.66400146 102.50000000 0.362111 -0.761569 0.537483 0.000000
157.22599792 261.71899414 117.50000000 0.000978 0.000978 0.999999 0.000000
150.39100647 336.91400146 222.50000000 0.286593 -0.661245 -0.693267 0.000000
247.07000732 192.38299561 207.50000000 -0.000978 -0.000978 -0.999999 0.000000
151.36700439 353.51501465 197.50000000 0.314819 -0.864601 -0.391604 0.000000
126.46499634 256.83599854 245.00000000 0.748467 -0.165483 -0.642194 0.000000
171.87500000 180.66400146 157.50000000 0.259384 0.074652 0.962885 0.000000
261.71899414 184.57000732 202.50000000 -0.254713 -0.063992 -0.964897 0.000000
101.56199646 300.78100586 102.50000000 -0.148041 -0.057118 0.987330 0.000000
180.66400146 201.17199707 157.50000000 0.000978 0.000978 0.999999 0.000000
265.62500000 191.40600586 202.50000000 -0.329757 0.050433 -0.942718 0.000000
127.44100189 346.67999268 160.00000000 0.566957 -0.811002 -0.144343 0.000000
190.42999268 180.66400146 157.50000000 0.000978 0.000978 0.999999 0.000000
227.53900146 263.67199707 182.50000000 -0.862174 -0.001337 0.506611 0.000000
169.92199707 232.42199707 252.50000000 -0.000978 -0.000978 -0.999999 0.000000
118.16400146 207.03100586 122.50000000 0.001145 0.981537 0.191268 0.000000
250.00000000 222.65600586 172.50000000 -0.682818 -0.098385 0.723934 0.000000
102.53900146 283.20300293 222.50000000 0.556948 0.334169 -0.760355 0.000000
206.05499268 143.55499268 172.50000000 0.000978 0.000978 0.999999 0.000000
239.25799561 212.89100647 162.50000000 0.000978 0.000978 0.999999 0.000000
149.41400146 301.75799561 127.50000000 0.000978 0.000978 0.999999 0.000000
127.93000031 227.53900146 112.50000000 -0.689533 0.343952 0.637370 0.000000
98.14450073 218.75000000 140.00000000 0.262630 0.784743 0.561430 0.000000
165.03900146 351.56201172 142.50000000 -0.070601 -0.460986 0.884595 0.000000
217.77299500 254.39399719 190.00000000 -0.624944 0.236508 0.743982 0.000000
130.85899353 261.71899414 247.50000000 0.308999 0.102116 -0.945564 0.000000
123.04699707 327.14801025 217.50000000 0.450460 -0.550193 -0.703117 0.000000
208.49600220 290.03900146 165.00000000 -0.948558 0.016247 0.316186 0.000000
121.09400177 266.60101318 102.50000000 -0.586239 0.292321 0.755561 0.000000
124.02300262 175.78100586 207.50000000 0.559203 0.745060 -0.363563 0.000000
91.79679871 256.83599854 197.50000000 0.981537 0.001145 -0.191268 0.000000
209.96099854 192.38299561 157.50000000 -0.000978 -0.000978 0.999999 0.000000
211.91400146 270.50799561 227.50000000 -0.000978 -0.000978 -0.999999 0.000000
148.43699646 329.10101318 227.50000000 0.116961 -0.939724 -0.321308 0.000000
200.19500732 249.51199341 135.00000000 -0.765040 -0.592238 0.252919 0.000000
189.45300293 143.55499268 197.50000000 0.390230 0.520851 -0.759234 0.000000
166.01600647 259.76599121 117.50000000 -0.576689 -0.542866 0.610513 0.000000
135.74200439 330.07800293 122.50000000 0.000978 0.000978 0.999999 0.000000
113.76899719 323.24200439 115.00000000 -0.027666 -0.912972 0.407083 0.000000
246.09399414 247.55799866 175.00000000 0.762600 0.382113 -0.521950 0.000000
234.37500000 163.08599854 207.50000000 -0.000978 -0.000978 -0.999999 0.000000
176.75799561 293.94500732 242.50000000 -0.000978 -0.000978 -0.999999 0.000000
214.84399414 134.76600647 192.50000000 -0.006524 0.421447 -0.906829 0.000000
176.75799561 199.21899414 247.50000000 -0.001264 0.931838 -0.362873 0.000000
198.24200439 262.69500732 237.50000000 -0.000978 -0.000978 -0.999999 0.000000
177.73399353 203.12500000 157.50000000 0.000978 0.000978 0.999999 0.000000
157.22599792 281.25000000 127.50000000 -0.287729 -0.323141 0.901550 0.000000
204.10099792 324.21899414 167.50000000 -0.935853 0.219625 0.275580 0.000000
169.92199707 307.61700439 142.50000000 0.000978 0.000978 0.999999 0.000000
225.58599854 141.60099792 182.50000000 -0.281464 0.583600 0.761701 0.000000
100.09799957 204.10099792 195.00000000 0.877193 0.320776 -0.357262 0.000000
187.50000000 189.45300293 157.50000000 0.000978 0.000978 0.999999 0.000000
173.82800293 352.53900146 197.50000000 -0.152718 -0.874128 -0.461062 0.000000
191.40600586 277.34399414 242.50000000 -0.887804 -0.188677 -0.419769 0.000000
75.19529724 239.25799561 87.50000000 0.955865 0.103020 -0.275153 0.000000
206.05499268 259.76599121 152.50000000 -0.767256 -0.218552 0.602954 0.000000
239.25799561 185.54699707 207.50000000 -0.000978 -0.000978 -0.999999 0.000000
249.02299500 217.77299500 172.50000000 -0.873432 -0.312484 0.373457 0.000000
173.82800293 272.46099854 132.50000000 -0.920929 -0.209237 0.328801 0.000000
150.87899780 237.30499268 115.00000000 -0.342264 0.585580 0.734814 0.000000
148.92599487 357.42199707 180.00000000 0.446052 -0.890715 -0.087543 0.000000
236.81599426 151.36700439 185.00000000 -0.344932 0.665343 0.662073 0.000000
218.75000000 248.04699707 227.50000000 -0.532156 -0.318015 -0.784650 0.000000
187.50000000 312.50000000 152.50000000 0.000978 0.000978 0.999999 0.000000
130.85899353 335.93701172 122.50000000 0.168447 -0.262777 0.950039 0.000000
89.35540009 256.83599854 165.00000000 0.981537 0.001145 0.191268 0.000000
235.83999634 212.89100647 155.00000000 -0.419556 0.892458 -0.165804 0.000000
127.93000031 337.40200806 205.00000000 0.485905 -0.760760 -0.430279 0.000000
258.78900146 174.80499268 202.50000000 -0.000978 -0.000978 -0.999999 0.000000
120.11699677 196.28900146 122.50000000 -0.408585 0.593854 0.693106 0.000000
161.13299561 154.78500366 190.00000000 0.209142 0.965170 -0.157181 0.000000
157.22599792 155.76199341 180.00000000 0.367041 0.926341 0.084702 0.000000
160.15600586 285.15600586 247.50000000 -0.000978 -0.000978 -0.999999 0.000000
176.75799561 250.97599792 252.50000000 -0.000978 -0.000978 -0.999999 0.000000
208.00799561 261.71899414 152.50000000 -0.778959 0.473230 0.411433 0.000000
200.19500732 265.62500000 237.50000000 -0.050478 -0.165522 -0.984913 0.000000
249.02299500 226.56199646 177.50000000 -0.000978 -0.000978 0.999999 0.000000
153.32000732 291.01501465 127.50000000 -0.275780 -0.091927 0.956815 0.000000
166.99200439 219.72599792 257.50000000 0.000978 0.000978 -0.999999 0.000000
218.75000000 230.46899414 147.50000000 0.000978 0.000978 0.999999 0.000000
154.29699707 217.77299500 137.50000000 -0.530255 0.763762 0.368098 0.000000
197.26600647 255.85899353 137.50000000 0.000978 0.000978 0.999999 0.000000
107.91000366 250.97599792 230.00000000 0.890456 0.067438 -0.450045 0.000000
152.34399414 264.64801025 112.50000000 -0.236833 -0.537132 0.809567 0.000000
106.44499969 313.47601318 202.50000000 0.882188 -0.438907 -0.170605 0.000000
208.98399353 156.25000000 167.50000000 0.000978 0.000978 0.999999 0.000000
201.17199707 142.57800293 197.50000000 0.001381 0.716707 -0.697373 0.000000
227.53900146 237.30499268 222.50000000 0.076250 0.608561 -0.789835 0.000000
137.69500732 317.38299561 232.50000000 -0.114598 -0.238210 -0.964429 0.000000
232.42199707 178.71099854 167.50000000 -0.788169 0.001371 0.615457 0.000000
225.58599854 146.48399353 202.50000000 -0.000978 -0.000978 -0.999999 0.000000
131.83599854 302.73400879 237.50000000 0.870854 -0.290285 -0.396672 0.000000
150.39100647 302.73400879 127.50000000 0.236216 -0.816721 0.526468 0.000000
257.32400513 226.56199646 205.00000000 -0.668186 -0.711797 0.216499 0.000000
167.96899414 255.85899353 117.50000000 0.000978 0.000978 0.999999 0.000000
151.36700439 306.64001465 132.50000000 -0.453827 -0.217178 0.864219 0.000000
169.92199707 176.75799561 162.50000000 0.523171 0.411649 0.746216 0.000000
146.48399353 305.66400146 242.50000000 0.128761 -0.173765 -0.976333 0.000000
250.00000000 206.05499268 207.50000000 -0.800553 -0.433297 -0.413968 0.000000
114.25800323 220.70300293 227.50000000 0.521002 0.158824 -0.838649 0.000000
93.75000000 242.18699646 87.50000000 -0.915674 0.102962 0.388509 0.000000
220.70300293 184.57000732 217.50000000 -0.217920 0.789767 -0.573393 0.000000
202.14799500 279.29699707 232.50000000 -0.289286 -0.205435 -0.934939 0.000000
98.14450073 212.89100647 200.00000000 0.916983 0.349395 -0.192524 0.000000
190.42999268 323.24200439 157.50000000 -0.931838 0.001264 0.362873 0.000000
125.00000000 244.14100647 242.50000000 -0.000978 -0.000978 -0.999999 0.000000
130.85899353 198.72999573 155.00000000 -0.617624 0.637710 0.460289 0.000000
202.14799500 320.31201172 212.50000000 -0.736855 -0.436838 -0.515963 0.000000
197.26600647 173.82800293 157.50000000 -0.047298 0.082497 0.995468 0.000000
264.64801025 175.78100586 192.50000000 -0.423081 0.150588 0.893490 0.000000
250.00000000 234.37500000 167.50000000 0.264734 0.493861 0.828262 0.000000
127.93000031 214.84399414 122.50000000 -0.514618 0.675541 0.528028 0.000000
126.95300293 240.23399353 242.50000000 0.139426 -0.096526 -0.985517 0.000000
104.49199677 300.78100586 212.50000000 0.844418 -0.226700 -0.485350 0.000000
207.03100586 315.42999268 207.50000000 -0.001337 -0.862174 -0.506611 0.000000
179.68699646 322.26501465 227.50000000 -0.437247 -0.860782 -0.260520 0.000000
198.24200439 303.71099854 227.50000000 -0.000978 -0.000978 -0.999999 0.000000
92.77339935 243.16400146 87.50000000 -0.830330 0.450482 0.328051 0.000000
184.57000732 250.00000000 127.50000000 0.000978 0.000978 0.999999 0.000000
260.74200439 215.82000732 197.50000000 -0.000978 -0.000978 -0.999999 0.000000
211.91400146 236.32800293 152.50000000 -0.445285 0.595381 0.668762 0.000000
116.21099854 332.03100586 197.50000000 0.761701 -0.583600 -0.281464 0.000000
93.75000000 297.85101318 182.50000000 -0.000978 -0.000978 -0.999999 0.000000
161.13299561 279.29699707 252.50000000 -0.343476 -0.765967 -0.543433 0.000000
85.44920349 288.08599854 140.00000000 0.979922 -0.195510 -0.039102 0.000000
82.03119659 287.10900879 107.50000000 0.986701 -0.140620 -0.081536 0.000000
110.83999634 329.10101318 185.00000000 0.644831 -0.762074 0.058621 0.000000
170.89799500 167.47999573 170.00000000 0.395638 0.792890 0.463461 0.000000
210.93699646 249.02299500 147.50000000 0.209778 -0.930625 0.299884 0.000000
107.91000366 249.02299500 230.00000000 0.824605 -0.051977 -0.563316 0.000000
172.85099792 287.10900879 137.50000000 -0.679350 -0.459020 0.572524 0.000000
122.55899811 342.77301025 185.00000000 0.000978 0.000978 -0.999999 0.000000
143.55499268 214.84399414 132.50000000 -0.272187 0.542800 0.794533 0.000000
194.33599854 153.32000732 202.50000000 -0.000978 -0.000978 -0.999999 0.000000
153.32000732 346.67999268 137.50000000 0.080923 -0.278736 0.956952 0.000000
75.68360138 244.14100647 90.00000000 0.981537 -0.001145 -0.191268 0.000000
139.64799500 325.19500732 122.50000000 -0.938235 0.083605 0.335747 0.000000
261.71899414 187.50000000 202.50000000 -0.000978 -0.000978 -0.999999 0.000000
239.25799561 221.67999268 212.50000000 -0.454501 -0.064536 -0.888405 0.000000
193.35899353 182.61700439 157.50000000 0.000978 0.000978 0.999999 0.000000
164.06199646 204.10099792 152.50000000 0.000978 0.000978 0.999999 0.000000
128.90600586 345.70300293 137.50000000 0.395027 -0.656175 0.642952 0.000000
189.45300293 353.51501465 177.50000000 -0.491886 -0.653050 -0.575825 0.000000
124.02300262 308.59399414 232.50000000 -0.000978 -0.000978 -0.999999 0.000000
260.74200439 178.71099854 202.50000000 -0.141798 0.117559 -0.982890 0.000000
125.48799896 201.17199707 135.00000000 -0.981537 -0.001145 0.191268 0.000000
202.14799500 220.70300293 242.50000000 -0.375250 0.270598 -0.886546 0.000000
158.20300293 218.75000000 142.50000000 -0.607468 0.752629 0.254032 0.000000
199.21899414 220.70300293 167.50000000 0.008874 0.356245 0.934350 0.000000
246.09399414 229.49200439 182.50000000 -0.197046 -0.891817 0.407229 0.000000
178.71099854 359.37500000 172.50000000 -0.165311 -0.986241 -0.001125 0.000000
160.15600586 182.61700439 157.50000000 0.000978 0.000978 0.999999 0.000000
262.69500732 172.85099792 192.50000000 -0.409073 0.233543 0.882109 0.000000
245.11700439 236.32800293 192.50000000 -0.612853 -0.753919 -0.236677 0.000000
184.57000732 354.98001099 180.00000000 -0.369941 -0.867288 -0.333100 0.000000
104.49199677 237.30499268 227.50000000 0.738915 -0.162349 -0.653947 0.000000
94.72650146 245.11700439 87.50000000 -0.783986 0.389569 0.483324 0.000000
202.14799500 196.28900146 232.50000000 -0.685506 0.531309 -0.497788 0.000000
226.56199646 205.07800293 222.50000000 -0.000978 -0.000978 -0.999999 0.000000
191.40600586 208.49600220 160.00000000 -0.001145 0.981537 -0.191268 0.000000
103.51599884 218.75000000 107.50000000 -0.001376 0.763803 0.645448 0.000000
227.53900146 245.11700439 207.50000000 0.000978 0.000978 0.999999 0.000000
152.34399414 340.82000732 137.50000000 0.000978 0.000978 0.999999 0.000000
187.50000000 155.27299500 167.50000000 0.309080 0.439545 0.843368 0.000000
239.25799561 168.94500732 207.50000000 0.000978 0.000978 -0.999999 0.000000
167.96899414 172.85099792 162.50000000 -0.614196 0.377080 0.693235 0.000000
182.12899780 355.46899414 160.00000000 -0.578002 -0.813747 0.061067 0.000000
153.32000732 232.91000366 120.00000000 -0.018104 0.775689 0.630856 0.000000
95.70310211 316.40600586 137.50000000 0.906652 -0.301238 -0.295360 0.000000
122.55899811 317.38299561 225.00000000 0.579155 -0.682635 -0.445632 0.000000
217.77299500 202.14799500 157.50000000 0.000978 0.000978 0.999999 0.000000
264.64801025 213.86700439 182.50000000 -0.817112 -0.106326 0.566589 0.000000
199.21899414 145.50799561 172.50000000 -0.009657 0.619436 0.784987 0.000000
222.65600586 193.35899353 217.50000000 -0.307916 0.617444 -0.723844 0.000000
219.72599792 293.94500732 197.50000000 -0.990809 -0.135260 -0.001100 0.000000
132.81199646 168.45700073 205.00000000 0.268426 0.830102 -0.488752 0.000000
