124.21900177 307.42199707 475.00000000 -0.631920 -0.311919 -0.709495 0.000000
213.28100586 167.96899414 487.50000000 0.000978 0.000978 0.999999 0.000000
150.78100586 189.06199646 442.50000000 -0.408741 -0.396018 0.822253 0.000000
107.81199646 231.64100647 400.00000000 -0.740320 0.380782 0.554014 0.000000
101.56199646 210.93800354 392.50000000 -0.223657 0.086214 0.970847 0.000000
227.34399414 192.96899414 502.50000000 -0.000978 -0.000978 -0.999999 0.000000
75.78119659 217.18800354 522.50000000 0.311788 -0.347938 -0.884153 0.000000
53.12500000 293.75000000 407.50000000 0.569241 -0.562485 0.599646 0.000000
103.12500000 291.40600586 432.50000000 -0.686980 -0.711137 0.149475 0.000000
71.09380341 297.26599121 400.00000000 -0.689557 -0.545969 0.475845 0.000000
102.34400177 169.53100586 517.50000000 0.265089 0.116221 -0.957194 0.000000
223.43800354 181.25000000 492.50000000 -0.773083 -0.552202 0.312114 0.000000
84.37500000 194.53100586 377.50000000 -0.872048 0.258441 0.415621 0.000000
166.40600586 227.34399414 497.50000000 -0.621023 0.421230 -0.660981 0.000000
109.37500000 200.78100586 417.50000000 -0.731036 0.492330 0.472438 0.000000
108.98400116 233.59399414 400.00000000 -0.477297 0.222739 0.850044 0.000000
174.21899414 176.56199646 502.50000000 -0.000978 -0.000978 -0.999999 0.000000
49.21879959 175.78100586 497.50000000 0.832168 0.518028 0.197848 0.000000
126.95300293 181.25000000 510.00000000 -0.225334 0.905696 -0.359080 0.000000
54.68750000 290.62500000 487.50000000 -0.000978 -0.000978 -0.999999 0.000000
54.68750000 221.87500000 352.50000000 -0.791197 0.451419 0.412587 0.000000
225.78100586 145.31199646 492.50000000 -0.847227 0.344820 0.404110 0.000000
109.37500000 286.71899414 432.50000000 -0.691333 -0.336720 0.639280 0.000000
106.25000000 332.42199707 460.00000000 -0.165672 -0.655089 -0.737165 0.000000
100.78099823 278.90600586 422.50000000 -0.550439 -0.687630 0.473478 0.000000
37.50000000 283.59399414 472.50000000 0.938494 -0.312831 -0.146170 0.000000
137.50000000 245.31199646 442.50000000 -0.587182 -0.744836 0.316917 0.000000
185.93800354 169.53100586 457.50000000 -0.517788 -0.204989 0.830587 0.000000
55.46879959 222.65600586 352.50000000 -0.881621 0.262834 0.391998 0.000000
160.93800354 182.03100586 442.50000000 -0.501178 -0.773663 0.387642 0.000000
98.43750000 301.17199707 430.00000000 -0.842355 -0.474112 0.256235 0.000000
63.28120041 308.59399414 412.50000000 0.600938 -0.703015 0.380320 0.000000
113.28099823 265.62500000 427.50000000 -0.436760 -0.891895 0.117317 0.000000
98.43750000 258.98400879 505.00000000 -0.129632 -0.624318 -0.770340 0.000000
168.75000000 227.34399414 497.50000000 -0.621023 0.421230 -0.660981 0.000000
100.00000000 157.81199646 492.50000000 -0.001223 0.954848 -0.297091 0.000000
101.56199646 185.15600586 397.50000000 -0.959274 0.274984 0.064627 0.000000
35.93750000 253.12500000 402.50000000 0.844238 -0.422899 0.329269 0.000000
196.09399414 148.43800354 502.50000000 -0.000978 -0.000978 -0.999999 0.000000
81.64060211 152.34399414 455.00000000 0.304697 0.946025 0.110436 0.000000
79.68750000 215.62500000 372.50000000 -0.917078 -0.051910 0.395315 0.000000
125.78099823 234.37500000 517.50000000 -0.000978 -0.000978 -0.999999 0.000000
53.51559830 190.62500000 395.00000000 0.808858 0.213342 -0.547936 0.000000
80.46880341 230.46899414 377.50000000 -0.000978 -0.000978 0.999999 0.000000
100.78099823 267.18798828 502.50000000 -0.000978 -0.000978 -0.999999 0.000000
128.90600586 282.81201172 487.50000000 -0.130464 -0.264881 -0.955415 0.000000
110.15599823 325.00000000 467.50000000 -0.397475 -0.885759 -0.239676 0.000000
94.53119659 151.17199707 485.00000000 0.001299 0.905318 -0.424733 0.000000
57.03120041 224.21899414 352.50000000 -0.794303 0.364256 0.486210 0.000000
115.62500000 153.12500000 422.50000000 0.000978 0.000978 0.999999 0.000000
118.75000000 247.65600586 507.50000000 -0.000978 -0.000978 -0.999999 0.000000
157.81199646 160.15600586 502.50000000 -0.000978 -0.000978 -0.999999 0.000000
48.82809830 310.15600586 460.00000000 -0.042891 -0.995295 -0.086882 0.000000
134.37500000 211.71899414 517.50000000 -0.000978 -0.000978 -0.999999 0.000000
135.93800354 241.40600586 507.50000000 -0.000978 -0.000978 -0.999999 0.000000
205.46899414 193.75000000 487.50000000 0.000978 0.000978 0.999999 0.000000
85.15619659 225.00000000 377.50000000 0.000978 0.000978 0.999999 0.000000
75.78119659 278.90600586 392.50000000 -0.502427 -0.330166 0.799098 0.000000
150.00000000 217.18800354 512.50000000 -0.000978 -0.000978 -0.999999 0.000000
155.46899414 248.43800354 462.50000000 0.000978 0.000978 0.999999 0.000000
56.25000000 173.43800354 472.50000000 0.796442 0.527267 0.296093 0.000000
32.42190170 242.18800354 430.00000000 0.993773 0.079907 0.077656 0.000000
104.68800354 147.65600586 432.50000000 0.954632 0.001225 0.297786 0.000000
188.28100586 204.68800354 502.50000000 -0.000978 -0.000978 -0.999999 0.000000
75.78119659 161.71899414 432.50000000 0.000978 0.000978 0.999999 0.000000
217.96899414 191.40600586 492.50000000 0.001380 -0.730182 -0.683251 0.000000
203.12500000 174.21899414 482.50000000 -0.788007 -0.211266 0.578283 0.000000
97.65619659 275.00000000 497.50000000 -0.132746 -0.774104 -0.618985 0.000000
149.21899414 139.06199646 477.50000000 0.230666 0.967267 -0.105775 0.000000
208.59399414 155.46899414 502.50000000 -0.000978 -0.000978 -0.999999 0.000000
89.84380341 278.12500000 497.50000000 -0.000978 -0.000978 -0.999999 0.000000
157.81199646 182.42199707 440.00000000 -0.532913 -0.757813 0.376462 0.000000
49.21879959 276.56201172 382.50000000 0.619586 -0.619586 0.481900 0.000000
149.21899414 201.17199707 470.00000000 -0.857831 -0.151037 0.491237 0.000000
158.59399414 193.35899353 460.00000000 -0.022042 -0.982594 -0.184454 0.000000
113.28099823 300.39099121 485.00000000 -0.522369 -0.449404 -0.724684 0.000000
197.65600586 161.71899414 502.50000000 -0.000978 -0.000978 -0.999999 0.000000
89.45310211 241.40600586 385.00000000 -0.796635 -0.351032 0.492086 0.000000
175.78100586 181.25000000 457.50000000 0.491188 -0.541481 0.682299 0.000000
144.53100586 159.37500000 432.50000000 0.000978 0.000978 0.999999 0.000000
151.56199646 168.75000000 457.50000000 0.000978 0.000978 0.999999 0.000000
153.90600586 251.56199646 487.50000000 -0.731502 -0.640651 0.233391 0.000000
49.21879959 223.43800354 502.50000000 -0.000978 -0.000978 -0.999999 0.000000
165.62500000 248.43800354 487.50000000 -0.377732 -0.564145 -0.734206 0.000000
67.96880341 160.54699707 465.00000000 0.690320 0.690320 0.216602 0.000000
167.18800354 244.14100647 490.00000000 -0.377732 -0.564145 -0.734206 0.000000
109.37500000 173.43800354 517.50000000 -0.000978 -0.000978 -0.999999 0.000000
175.00000000 168.75000000 502.50000000 -0.000978 -0.000978 -0.999999 0.000000
72.65619659 313.28100586 477.50000000 -0.101271 -0.930345 -0.352424 0.000000
54.68750000 215.62500000 507.50000000 0.740789 0.098283 -0.664509 0.000000
190.62500000 209.37500000 502.50000000 0.184333 -0.216161 -0.958799 0.000000
155.46899414 189.45300293 450.00000000 -0.763173 -0.611468 0.208983 0.000000
51.56250000 179.68800354 382.50000000 0.786307 0.070437 -0.613808 0.000000
57.81250000 169.92199707 485.00000000 0.758297 0.649765 0.052838 0.000000
60.15620041 216.79699707 510.00000000 0.333364 -0.619569 -0.710635 0.000000
143.75000000 171.09399414 502.50000000 -0.000978 -0.000978 -0.999999 0.000000
92.18750000 229.68800354 382.50000000 -0.239985 0.013134 0.970688 0.000000
114.06199646 209.37500000 402.50000000 -0.880912 -0.472255 -0.031123 0.000000
191.40600586 163.28100586 462.50000000 -0.954848 0.001223 0.297091 0.000000
157.03100586 203.12500000 507.50000000 -0.322294 0.503287 -0.801766 0.000000
105.46900177 314.84399414 477.50000000 0.004083 -0.559398 -0.828889 0.000000
41.79690170 220.31199646 495.00000000 0.800558 -0.154126 -0.579095 0.000000
174.21899414 197.65600586 502.50000000 -0.000978 -0.000978 -0.999999 0.000000
51.56250000 281.25000000 487.50000000 0.677164 -0.210154 -0.705184 0.000000
161.71899414 196.09399414 507.50000000 -0.344964 0.256888 -0.902778 0.000000
38.28120041 285.93798828 472.50000000 0.938494 -0.312831 -0.146170 0.000000
80.46880341 332.42199707 455.00000000 0.780402 -0.625153 -0.012475 0.000000
39.84379959 261.32800293 385.00000000 0.851629 0.362760 0.378329 0.000000
96.87500000 257.81201172 507.50000000 -0.074823 -0.329483 -0.941192 0.000000
117.18800354 196.87500000 522.50000000 -0.000978 -0.000978 -0.999999 0.000000
68.75000000 282.03100586 497.50000000 -0.000978 -0.000978 -0.999999 0.000000
148.82800293 207.03100586 515.00000000 -0.519107 -0.222037 -0.825365 0.000000
39.45309830 247.65600586 380.00000000 0.874736 -0.068143 0.479784 0.000000
105.46900177 193.75000000 522.50000000 -0.000978 -0.000978 -0.999999 0.000000
55.46879959 242.96899414 502.50000000 0.000978 0.000978 -0.999999 0.000000
121.87500000 310.15600586 452.50000000 -0.702442 -0.426779 0.569592 0.000000
62.10940170 274.21899414 375.00000000 -0.562485 -0.599646 0.569241 0.000000
94.53119659 236.32800293 390.00000000 -0.672209 -0.273035 0.688176 0.000000
79.68750000 260.15600586 382.50000000 -0.757511 -0.199020 0.621746 0.000000
42.57809830 202.34399414 450.00000000 0.813021 0.562402 0.150670 0.000000
43.75000000 255.07800293 375.00000000 0.792403 -0.411533 0.450265 0.000000
57.81250000 230.46899414 352.50000000 -0.388861 -0.232134 0.891572 0.000000
171.09399414 211.71899414 482.50000000 0.453571 -0.781963 0.427560 0.000000
144.92199707 268.75000000 470.00000000 -0.987889 0.001116 0.155160 0.000000
43.75000000 200.39100647 490.00000000 0.926745 0.133572 -0.351144 0.000000
162.50000000 149.21899414 502.50000000 0.157076 0.028663 -0.987171 0.000000
60.93750000 230.46899414 352.50000000 -0.388861 -0.232134 0.891572 0.000000
116.40599823 175.78100586 432.50000000 0.000978 0.000978 0.999999 0.000000
124.21900177 197.65600586 522.50000000 -0.000978 -0.000978 -0.999999 0.000000
117.57800293 314.06201172 450.00000000 -0.591441 -0.441498 0.674742 0.000000
112.10900116 213.28100586 400.00000000 -0.759362 -0.152476 0.632550 0.000000
210.15600586 211.71899414 502.50000000 0.001116 0.987889 0.155160 0.000000
78.90619659 254.68800354 382.50000000 -0.697963 -0.301430 0.649606 0.000000
173.43800354 137.89100647 490.00000000 -0.017889 0.818777 -0.573832 0.000000
121.09400177 230.46899414 447.50000000 -0.619586 0.619586 0.481900 0.000000
123.82800293 218.75000000 420.00000000 -0.909269 0.294304 0.294304 0.000000
176.95300293 139.84399414 450.00000000 -0.691210 -0.230403 0.684940 0.000000
99.21880341 273.82800293 415.00000000 -0.589471 -0.589471 0.552312 0.000000
58.59379959 178.12500000 442.50000000 0.688528 0.700851 0.186380 0.000000
196.09399414 140.62500000 492.50000000 0.000978 0.000978 -0.999999 0.000000
152.34399414 253.90600586 477.50000000 -0.650101 -0.758215 0.049789 0.000000
72.65619659 217.18800354 367.50000000 0.000978 0.000978 0.999999 0.000000
41.40620041 213.28100586 492.50000000 0.954049 0.092411 -0.285043 0.000000
221.09399414 163.28100586 492.50000000 0.000978 0.000978 0.999999 0.000000
138.67199707 230.46899414 440.00000000 0.470804 -0.823514 0.316494 0.000000
98.43750000 262.50000000 502.50000000 -0.229609 -0.189327 -0.954691 0.000000
128.90600586 250.00000000 427.50000000 -0.353967 -0.372516 0.857869 0.000000
132.03100586 278.12500000 452.50000000 -0.942600 0.107992 0.315978 0.000000
181.25000000 157.03100586 502.50000000 -0.000978 -0.000978 -0.999999 0.000000
51.56250000 187.89100647 390.00000000 0.739258 0.604556 -0.296665 0.000000
59.37500000 232.03100586 352.50000000 -0.388861 -0.232134 0.891572 0.000000
76.17189789 258.59399414 380.00000000 -0.646258 -0.230024 0.727627 0.000000
120.31199646 257.81201172 427.50000000 -0.596799 -0.532555 0.600180 0.000000
180.46899414 137.50000000 492.50000000 0.690320 0.690320 -0.216602 0.000000
124.21900177 254.68800354 427.50000000 -0.596295 -0.576024 0.559132 0.000000
164.84399414 154.68800354 447.50000000 0.000978 0.000978 0.999999 0.000000
72.65619659 158.20300293 490.00000000 0.192817 0.958767 -0.208775 0.000000
207.81199646 195.31199646 492.50000000 0.762387 -0.305274 -0.570591 0.000000
154.68800354 139.06199646 487.50000000 0.307767 0.782973 -0.540586 0.000000
121.09400177 287.10900879 490.00000000 -0.185182 -0.757562 -0.625945 0.000000
143.75000000 203.90600586 462.50000000 -0.358286 -0.714936 0.600415 0.000000
167.96899414 184.37500000 502.50000000 -0.000978 -0.000978 -0.999999 0.000000
90.62500000 222.65600586 522.50000000 -0.000978 -0.000978 -0.999999 0.000000
175.78100586 188.28100586 457.50000000 0.000978 0.000978 0.999999 0.000000
72.26560211 156.25000000 475.00000000 0.273078 0.953794 -0.125326 0.000000
112.50000000 251.56199646 507.50000000 -0.000978 -0.000978 -0.999999 0.000000
171.09399414 153.90600586 447.50000000 0.000978 0.000978 0.999999 0.000000
225.00000000 153.90600586 502.50000000 -0.000978 -0.000978 -0.999999 0.000000
34.76559830 263.28100586 465.00000000 0.962656 -0.269248 0.028277 0.000000
28.90620041 245.31199646 457.50000000 0.297731 -0.237900 0.924532 0.000000
59.76559830 182.81199646 400.00000000 0.751308 0.501420 -0.429084 0.000000
125.78099823 234.37500000 417.50000000 -0.619586 -0.619586 0.481900 0.000000
206.25000000 182.81199646 487.50000000 -0.196990 -0.015153 0.980288 0.000000
108.59400177 293.75000000 492.50000000 -0.742672 -0.278303 -0.609086 0.000000
63.28120041 284.37500000 492.50000000 -0.000978 -0.000978 -0.999999 0.000000
105.46900177 193.75000000 407.50000000 0.595633 -0.697930 0.397638 0.000000
73.43750000 242.18800354 507.50000000 -0.000978 -0.000978 -0.999999 0.000000
132.03100586 214.06199646 457.50000000 -0.429309 -0.293899 0.854001 0.000000
124.21900177 285.93798828 447.50000000 -0.365239 -0.177645 0.913807 0.000000
140.62500000 271.87500000 487.50000000 0.000978 0.000978 -0.999999 0.000000
147.65600586 200.78100586 467.50000000 -0.894263 -0.290152 0.340742 0.000000
153.90600586 162.50000000 472.50000000 0.354150 -0.709933 -0.608747 0.000000
152.34399414 192.18800354 447.50000000 -0.753796 -0.518337 0.403878 0.000000
112.50000000 211.71899414 402.50000000 -0.858412 -0.128834 0.496518 0.000000
108.59400177 175.00000000 517.50000000 -0.000978 -0.000978 -0.999999 0.000000
110.93800354 266.40600586 422.50000000 -0.938885 0.209412 0.273206 0.000000
58.59379959 234.37500000 352.50000000 -0.908513 -0.181703 0.376282 0.000000
168.75000000 246.09399414 467.50000000 -0.514913 -0.616207 0.595948 0.000000
89.06250000 296.87500000 487.50000000 0.070345 -0.930416 -0.359690 0.000000
43.75000000 216.40600586 412.50000000 0.947241 0.316601 0.049990 0.000000
98.43750000 235.93800354 392.50000000 -0.561897 -0.422666 0.711073 0.000000
57.03120041 281.25000000 382.50000000 0.041279 -0.959420 0.278945 0.000000
105.46900177 260.15600586 412.50000000 -0.528725 -0.401045 0.748072 0.000000
53.12500000 300.78100586 482.50000000 0.053196 -0.451484 -0.890692 0.000000
114.84400177 200.00000000 432.50000000 0.000978 0.000978 0.999999 0.000000
87.10939789 232.81199646 515.00000000 0.671037 -0.671037 -0.315307 0.000000
71.87500000 204.68800354 367.50000000 0.000978 0.000978 0.999999 0.000000
119.53099823 296.87500000 447.50000000 -0.589660 -0.778475 0.215125 0.000000
135.93800354 211.71899414 517.50000000 -0.000978 -0.000978 -0.999999 0.000000
37.89059830 290.62500000 450.00000000 0.972674 -0.230212 -0.030132 0.000000
64.84380341 247.65600586 507.50000000 -0.000978 -0.000978 -0.999999 0.000000
230.07800293 151.56199646 500.00000000 -0.651389 0.315188 -0.690181 0.000000
163.28100586 250.39100647 480.00000000 -0.386959 -0.908575 -0.157335 0.000000
114.84400177 207.03100586 412.50000000 -0.853801 0.512849 -0.089500 0.000000
108.59400177 282.81201172 492.50000000 0.166266 -0.681844 -0.712351 0.000000
144.53100586 142.57800293 455.00000000 -0.000978 -0.000978 -0.999999 0.000000
58.20309830 299.21899414 405.00000000 0.431364 -0.901457 0.036058 0.000000
162.50000000 128.12500000 462.50000000 0.856721 0.515126 0.025961 0.000000
189.84399414 213.28100586 492.50000000 0.075755 -0.995790 -0.051601 0.000000
60.93750000 314.84399414 437.50000000 0.702740 -0.702740 -0.110959 0.000000
81.25000000 323.43798828 472.50000000 -0.000978 -0.000978 -0.999999 0.000000
137.50000000 275.00000000 457.50000000 -0.464526 0.152900 0.872260 0.000000
164.84399414 241.40600586 497.50000000 -0.000978 -0.000978 -0.999999 0.000000
179.29699707 175.78100586 455.00000000 -0.379254 -0.756880 -0.532258 0.000000
56.25000000 309.37500000 472.50000000 0.528898 -0.717909 -0.452631 0.000000
33.59379959 246.09399414 477.50000000 0.987889 -0.001116 -0.155160 0.000000
93.75000000 159.37500000 507.50000000 -0.000978 -0.000978 -0.999999 0.000000
151.56199646 152.34399414 447.50000000 -0.164172 -0.249595 0.954332 0.000000
49.21879959 236.71899414 352.50000000 0.746104 -0.581735 0.323903 0.000000
116.40599823 156.25000000 492.50000000 -0.046849 0.648790 -0.759524 0.000000
146.87500000 197.65600586 452.50000000 -0.437036 -0.875554 0.205925 0.000000
113.28099823 142.96899414 442.50000000 0.242814 0.970072 -0.001184 0.000000
156.25000000 244.53100586 462.50000000 0.000978 0.000978 0.999999 0.000000
165.62500000 183.59399414 502.50000000 -0.000978 -0.000978 -0.999999 0.000000
77.34380341 253.90600586 377.50000000 -0.706133 -0.368631 0.604555 0.000000
71.87500000 285.93798828 392.50000000 0.000978 0.000978 0.999999 0.000000
88.28119659 284.37500000 412.50000000 -0.232432 -0.207966 0.950119 0.000000
171.87500000 170.31199646 442.50000000 0.000978 0.000978 0.999999 0.000000
197.65600586 172.65600586 507.50000000 0.367998 0.119909 -0.922062 0.000000
72.65619659 169.53100586 517.50000000 -0.259659 0.520873 -0.813184 0.000000
100.78099823 229.68800354 517.50000000 -0.129476 -0.382860 -0.914688 0.000000
160.93800354 130.07800293 455.00000000 -0.671037 0.671037 0.315307 0.000000
209.37500000 182.03100586 487.50000000 0.000978 0.000978 0.999999 0.000000
45.31250000 300.00000000 437.50000000 0.906999 -0.411521 0.089461 0.000000
93.75000000 182.03100586 522.50000000 -0.000978 -0.000978 -0.999999 0.000000
200.78100586 144.53100586 472.50000000 0.000978 0.000978 0.999999 0.000000
182.03100586 148.43800354 457.50000000 -0.850419 -0.509085 0.132741 0.000000
76.56250000 192.96899414 527.50000000 0.401852 -0.358070 -0.842794 0.000000
69.53119659 165.62500000 512.50000000 -0.058178 0.810241 -0.583203 0.000000
175.78100586 160.15600586 447.50000000 -0.694023 -0.648726 -0.312229 0.000000
99.21880341 190.62500000 522.50000000 -0.514193 -0.034280 -0.856989 0.000000
194.14100647 180.46899414 475.00000000 -0.802443 0.006858 0.596689 0.000000
121.09400177 252.34399414 507.50000000 -0.000978 -0.000978 -0.999999 0.000000
127.34400177 228.90600586 452.50000000 -0.156163 0.895431 0.416913 0.000000
100.00000000 210.93800354 522.50000000 -0.000978 -0.000978 -0.999999 0.000000
141.01600647 284.37500000 475.00000000 0.001223 -0.954848 0.297091 0.000000
132.03100586 276.56201172 452.50000000 -0.923335 -0.247654 0.293463 0.000000
86.71880341 200.00000000 532.50000000 -0.000978 -0.000978 -0.999999 0.000000
201.56199646 203.90600586 487.50000000 0.284056 0.766475 -0.576046 0.000000
52.34379959 198.82800293 410.00000000 0.702740 0.702740 -0.110959 0.000000
52.73440170 268.75000000 370.00000000 0.769868 -0.439691 0.462575 0.000000
139.06199646 174.21899414 432.50000000 -0.000978 -0.000978 0.999999 0.000000
57.03120041 174.21899414 507.50000000 0.332387 0.190946 -0.923612 0.000000
134.37500000 264.84399414 452.50000000 -0.877010 0.006654 0.480426 0.000000
132.03100586 298.43798828 477.50000000 -0.786865 0.184160 -0.589007 0.000000
57.81250000 239.06199646 352.50000000 0.000978 0.000978 0.999999 0.000000
167.18800354 232.03100586 462.50000000 0.000978 0.000978 0.999999 0.000000
85.93750000 183.59399414 522.50000000 -0.000978 -0.000978 -0.999999 0.000000
199.21899414 206.64100647 490.00000000 0.319477 0.650307 -0.689228 0.000000
188.28100586 188.28100586 502.50000000 -0.000978 -0.000978 -0.999999 0.000000
62.50000000 268.75000000 367.50000000 -0.762801 -0.372455 0.528594 0.000000
193.75000000 187.10899353 475.00000000 -0.954848 -0.001223 0.297091 0.000000
118.75000000 186.71899414 522.50000000 -0.062293 0.153969 -0.986110 0.000000
185.93800354 210.15600586 482.50000000 -0.517093 -0.823973 0.231695 0.000000
118.75000000 219.53100586 447.50000000 0.000978 0.000978 0.999999 0.000000
125.00000000 200.78100586 522.50000000 -0.000978 -0.000978 -0.999999 0.000000
120.31199646 170.31199646 432.50000000 0.163687 -0.271909 0.948300 0.000000
183.59399414 171.09399414 457.50000000 -0.286003 -0.306536 0.907875 0.000000
202.34399414 140.62500000 492.50000000 -0.000978 -0.000978 -0.999999 0.000000
165.62500000 223.43800354 492.50000000 -0.446663 0.891952 -0.070092 0.000000
73.43750000 272.65600586 497.50000000 -0.000978 -0.000978 -0.999999 0.000000
112.50000000 228.12500000 407.50000000 0.000978 0.000978 0.999999 0.000000
153.12500000 234.37500000 502.50000000 -0.032866 -0.393072 -0.918920 0.000000
85.93750000 317.18798828 477.50000000 0.179233 -0.823867 -0.537698 0.000000
111.71900177 194.53100586 522.50000000 -0.000978 -0.000978 -0.999999 0.000000
171.48399353 225.00000000 485.00000000 -0.887804 0.188677 -0.419769 0.000000
90.62500000 152.34399414 432.50000000 0.579103 0.806028 -0.122304 0.000000
40.62500000 286.71899414 422.50000000 0.702740 -0.702740 0.110959 0.000000
95.31250000 202.34399414 387.50000000 -0.987889 -0.001116 0.155160 0.000000
140.62500000 160.93800354 432.50000000 0.000978 0.000978 0.999999 0.000000
203.12500000 131.25000000 487.50000000 -0.000978 -0.000978 -0.999999 0.000000
128.12500000 229.68800354 517.50000000 -0.000978 -0.000978 -0.999999 0.000000
130.46899414 243.75000000 507.50000000 -0.288727 -0.407884 -0.866180 0.000000
55.46879959 228.12500000 507.50000000 0.191744 -0.155711 -0.969014 0.000000
35.54690170 224.21899414 485.00000000 0.826157 -0.096601 -0.555097 0.000000
110.15599823 309.37500000 442.50000000 -0.141715 -0.227525 0.963405 0.000000
100.78099823 272.26599121 415.00000000 0.558781 0.558781 0.612802 0.000000
32.81250000 271.09399414 457.50000000 0.945905 0.237506 -0.221031 0.000000
166.40600586 171.09399414 502.50000000 -0.786306 0.058509 -0.615060 0.000000
165.62500000 170.70300293 505.00000000 -0.771093 0.387981 -0.504863 0.000000
133.98399353 302.34399414 465.00000000 -0.702968 -0.702968 -0.108035 0.000000
185.15600586 171.09399414 502.50000000 -0.000978 -0.000978 -0.999999 0.000000
173.43800354 207.81199646 502.50000000 0.125332 -0.311307 -0.942008 0.000000
170.31199646 203.12500000 502.50000000 -0.194345 -0.003450 -0.980927 0.000000
76.56250000 321.09399414 472.50000000 -0.000978 -0.000978 -0.999999 0.000000
134.37500000 293.35900879 460.00000000 -0.394579 -0.311671 0.864389 0.000000
194.14100647 148.43800354 465.00000000 -0.657815 -0.086056 0.748247 0.000000
82.81250000 201.56199646 377.50000000 -0.473692 -0.097566 0.875270 0.000000
93.75000000 191.40600586 527.50000000 -0.233042 0.364952 -0.901388 0.000000
96.09380341 178.12500000 392.50000000 0.000978 0.000978 0.999999 0.000000
92.57810211 191.40600586 385.00000000 -0.850754 0.120294 0.511612 0.000000
153.12500000 187.89100647 445.00000000 -0.699100 -0.498880 0.512228 0.000000
56.25000000 241.40600586 352.50000000 -0.417845 -0.172054 0.892078 0.000000
144.92199707 234.37500000 505.00000000 0.400786 -0.796744 -0.452293 0.000000
53.12500000 176.17199707 475.00000000 0.760671 0.543337 0.355196 0.000000
53.90620041 259.37500000 497.50000000 -0.000978 -0.000978 -0.999999 0.000000
227.34399414 174.21899414 502.50000000 -0.000978 -0.000978 -0.999999 0.000000
151.56199646 240.62500000 462.50000000 -0.390043 -0.454248 0.800953 0.000000
168.75000000 200.78100586 502.50000000 -0.275727 -0.553029 -0.786215 0.000000
107.81199646 245.31199646 507.50000000 -0.000978 -0.000978 -0.999999 0.000000
109.37500000 250.78100586 507.50000000 -0.000978 -0.000978 -0.999999 0.000000
89.84380341 275.00000000 497.50000000 -0.014011 -0.357919 -0.933647 0.000000
114.84400177 176.56199646 432.50000000 0.000978 0.000978 0.999999 0.000000
154.68800354 185.15600586 507.50000000 -0.000978 -0.000978 -0.999999 0.000000
110.93800354 156.25000000 492.50000000 -0.000978 -0.000978 -0.999999 0.000000
223.43800354 160.15600586 492.50000000 0.000978 0.000978 0.999999 0.000000
89.84380341 163.67199707 405.00000000 -0.501575 0.501575 0.704872 0.000000
89.06250000 167.57800293 515.00000000 -0.202368 0.758494 -0.619463 0.000000
182.81199646 175.78100586 502.50000000 -0.000978 -0.000978 -0.999999 0.000000
47.65620041 304.68798828 447.50000000 0.749132 -0.599623 0.281521 0.000000
191.40600586 215.62500000 497.50000000 -0.257970 -0.720100 -0.644133 0.000000
126.56199646 195.31199646 442.50000000 -0.704562 0.055963 0.707432 0.000000
50.00000000 242.96899414 352.50000000 0.242765 -0.394680 0.886168 0.000000
150.78100586 223.43800354 462.50000000 0.000978 0.000978 0.999999 0.000000
32.03120041 242.96899414 457.50000000 0.577468 0.634710 -0.513492 0.000000
92.18750000 208.20300293 530.00000000 -0.702907 -0.482518 -0.522589 0.000000
100.00000000 296.87500000 427.50000000 -0.688937 -0.358378 0.630025 0.000000
164.06199646 241.40600586 497.50000000 -0.401432 -0.121689 -0.907769 0.000000
128.90600586 208.20300293 520.00000000 -0.573858 -0.015138 -0.818815 0.000000
100.78099823 315.62500000 437.50000000 -0.680775 -0.120663 0.722486 0.000000
228.12500000 167.18800354 502.50000000 -0.496448 0.718937 -0.486486 0.000000
147.65600586 168.75000000 432.50000000 0.000978 0.000978 0.999999 0.000000
108.59400177 214.06199646 397.50000000 -0.503727 -0.110504 0.856766 0.000000
49.21879959 243.75000000 352.50000000 -0.000978 -0.000978 0.999999 0.000000
187.50000000 194.53100586 502.50000000 -0.000978 -0.000978 -0.999999 0.000000
149.21899414 189.84399414 507.50000000 -0.000978 -0.000978 -0.999999 0.000000
42.96879959 207.03100586 492.50000000 0.809239 0.154070 -0.566916 0.000000
168.75000000 125.78099823 467.50000000 -0.284739 0.909704 -0.302261 0.000000
133.98399353 297.65600586 460.00000000 -0.516316 0.086764 0.851992 0.000000
85.15619659 317.18798828 422.50000000 0.001371 -0.788169 0.615457 0.000000
143.35899353 246.87500000 460.00000000 -0.300987 -0.505847 0.808409 0.000000
133.59399414 167.18800354 427.50000000 -0.000978 -0.000978 0.999999 0.000000
56.64059830 176.56199646 455.00000000 0.915918 0.398974 0.043741 0.000000
75.78119659 225.00000000 367.50000000 -0.291476 0.023566 0.956288 0.000000
76.56250000 325.78100586 437.50000000 0.572689 -0.815036 0.087995 0.000000
150.78100586 139.84399414 482.50000000 0.375761 0.903857 -0.204565 0.000000
138.28100586 238.67199707 430.00000000 -0.616207 -0.595948 0.514913 0.000000
210.15600586 197.65600586 502.50000000 -0.000978 -0.000978 -0.999999 0.000000
153.12500000 212.50000000 512.50000000 -0.474560 -0.212422 -0.854207 0.000000
51.56250000 259.37500000 497.50000000 -0.000978 -0.000978 -0.999999 0.000000
114.84400177 160.15600586 497.50000000 -0.098209 0.655217 -0.749029 0.000000
150.00000000 239.06199646 457.50000000 -0.227962 -0.907492 0.352833 0.000000
133.59399414 271.87500000 452.50000000 0.000978 0.000978 0.999999 0.000000
172.65600586 160.93800354 502.50000000 -0.000978 -0.000978 -0.999999 0.000000
109.37500000 316.40600586 477.50000000 0.322809 -0.803046 0.500910 0.000000
142.96899414 157.81199646 432.50000000 0.000978 0.000978 0.999999 0.000000
111.32800293 295.31201172 440.00000000 -0.572517 -0.449000 0.686019 0.000000
159.37500000 194.53100586 507.50000000 -0.135781 0.382146 -0.914072 0.000000
137.10899353 206.25000000 460.00000000 -0.635466 0.233789 0.735885 0.000000
86.71880341 242.18800354 382.50000000 -0.574273 -0.078766 0.814866 0.000000
146.09399414 146.09399414 492.50000000 0.319031 0.626727 -0.710938 0.000000
203.90600586 170.31199646 507.50000000 -0.304081 -0.060303 -0.950736 0.000000
163.28100586 242.18800354 497.50000000 -0.486818 0.236541 -0.840867 0.000000
145.31199646 277.34399414 477.50000000 -0.852432 -0.358674 -0.380411 0.000000
54.68750000 308.59399414 432.50000000 0.698628 -0.640274 0.319326 0.000000
34.76559830 221.87500000 465.00000000 0.887077 0.456645 -0.067600 0.000000
184.37500000 141.40600586 457.50000000 -0.616887 -0.020888 0.786775 0.000000
96.09380341 174.21899414 517.50000000 -0.542922 0.607193 -0.580131 0.000000
179.68800354 129.68800354 477.50000000 0.012532 0.666987 -0.744964 0.000000
100.78099823 148.43800354 477.50000000 0.149912 0.946742 -0.284968 0.000000
84.37500000 195.31199646 377.50000000 0.122828 -0.602301 0.788763 0.000000
214.84399414 184.37500000 502.50000000 -0.000978 -0.000978 -0.999999 0.000000
110.93800354 199.21899414 427.50000000 -0.460994 0.808734 0.365286 0.000000
113.28099823 211.71899414 402.50000000 -0.858412 -0.128834 0.496518 0.000000
103.90599823 147.26600647 435.00000000 0.307909 0.920864 0.239167 0.000000
201.56199646 133.59399414 467.50000000 -0.754036 -0.313512 0.577183 0.000000
53.90620041 246.09399414 352.50000000 0.000978 0.000978 0.999999 0.000000
39.84379959 276.56201172 407.50000000 0.951025 -0.210284 0.226564 0.000000
80.46880341 319.53100586 472.50000000 -0.000978 -0.000978 -0.999999 0.000000
56.25000000 246.09399414 352.50000000 -0.870677 -0.278070 0.405708 0.000000
185.15600586 118.75000000 467.50000000 0.085284 0.468366 -0.879409 0.000000
43.75000000 236.71899414 497.50000000 -0.000978 -0.000978 -0.999999 0.000000
37.89059830 286.71899414 435.00000000 0.913373 -0.376925 0.153876 0.000000
109.37500000 164.06199646 512.50000000 -0.999999 0.000978 0.000978 0.000000
93.75000000 148.04699707 450.00000000 0.330883 0.928428 0.168932 0.000000
218.75000000 191.40600586 492.50000000 0.001380 -0.730182 -0.683251 0.000000
214.06199646 186.71899414 502.50000000 -0.000978 -0.000978 -0.999999 0.000000
57.81250000 171.87500000 507.50000000 0.550283 0.072518 -0.831823 0.000000
133.59399414 257.81201172 442.50000000 -0.426788 -0.813615 0.394819 0.000000
48.43750000 296.09399414 482.50000000 0.987889 -0.001116 0.155160 0.000000
123.43800354 244.53100586 507.50000000 -0.183970 -0.213088 -0.959556 0.000000
61.71879959 174.21899414 392.50000000 0.743213 0.359409 -0.564322 0.000000
108.59400177 167.96899414 517.50000000 -0.535129 0.475114 -0.698501 0.000000
115.62500000 274.21899414 497.50000000 -0.000978 -0.000978 -0.999999 0.000000
128.90600586 224.21899414 432.50000000 0.675503 -0.531351 0.511236 0.000000
103.12500000 202.34399414 392.50000000 -0.525095 -0.130177 0.841029 0.000000
85.93750000 158.20300293 425.00000000 0.441197 0.853185 0.278246 0.000000
128.90600586 175.78100586 432.50000000 0.000978 0.000978 0.999999 0.000000
172.65600586 150.00000000 447.50000000 0.000978 0.000978 0.999999 0.000000
67.96880341 280.46899414 497.50000000 -0.000978 -0.000978 -0.999999 0.000000
92.18750000 160.15600586 507.50000000 -0.000978 -0.000978 -0.999999 0.000000
137.10899353 247.65600586 445.00000000 -0.587182 -0.744836 0.316917 0.000000
78.90619659 274.21899414 392.50000000 -0.759801 -0.330699 0.559768 0.000000
52.34379959 185.93800354 512.50000000 0.819801 0.547033 0.169356 0.000000
32.42190170 270.31201172 455.00000000 0.945905 0.237506 -0.221031 0.000000
138.67199707 232.03100586 515.00000000 -0.739243 -0.665760 -0.101407 0.000000
99.21880341 332.03100586 442.50000000 -0.006655 -0.879853 0.475200 0.000000
82.81250000 239.84399414 507.50000000 -0.000978 -0.000978 -0.999999 0.000000
103.90599823 223.43800354 397.50000000 -0.828419 0.084416 0.553710 0.000000
86.71880341 157.42199707 425.00000000 0.441197 0.853185 0.278246 0.000000
105.46900177 323.43798828 472.50000000 -0.237484 -0.320964 -0.916833 0.000000
79.68750000 230.85899353 510.00000000 0.248014 -0.956248 -0.155175 0.000000
168.75000000 163.28100586 442.50000000 -0.103811 0.402788 0.909387 0.000000
153.12500000 157.03100586 502.50000000 -0.000978 -0.000978 -0.999999 0.000000
216.40600586 186.71899414 502.50000000 -0.000978 -0.000978 -0.999999 0.000000
61.71879959 247.65600586 502.50000000 -0.000978 -0.000978 -0.999999 0.000000
64.45310211 317.96899414 440.00000000 0.718099 -0.695703 -0.018197 0.000000
125.78099823 176.56199646 432.50000000 0.000978 0.000978 0.999999 0.000000
45.31250000 201.95300293 360.00000000 -0.484933 0.442193 0.754523 0.000000
84.37500000 292.18798828 492.50000000 -0.000978 -0.000978 -0.999999 0.000000
159.37500000 183.20300293 445.00000000 -0.338899 -0.844905 0.413863 0.000000
73.43750000 241.40600586 367.50000000 0.000978 0.000978 0.999999 0.000000
103.12500000 255.46899414 407.50000000 -0.314428 -0.128200 0.940585 0.000000
114.06199646 171.87500000 432.50000000 0.000978 0.000978 0.999999 0.000000
68.75000000 208.59399414 522.50000000 0.050031 -0.716157 -0.696144 0.000000
194.53100586 212.50000000 502.50000000 0.272489 -0.310375 -0.910724 0.000000
111.71900177 160.15600586 497.50000000 0.000978 0.000978 -0.999999 0.000000
80.46880341 259.37500000 502.50000000 -0.158613 -0.166226 -0.973248 0.000000
117.18800354 186.71899414 432.50000000 -0.000978 -0.000978 0.999999 0.000000
84.37500000 246.87500000 382.50000000 0.000978 0.000978 0.999999 0.000000
114.84400177 265.62500000 502.50000000 -0.000978 -0.000978 -0.999999 0.000000
221.48399353 189.06199646 495.00000000 0.708896 0.261673 -0.654976 0.000000
164.06199646 169.92199707 505.00000000 -0.143440 0.548623 -0.823673 0.000000
125.78099823 293.75000000 482.50000000 -0.000978 -0.000978 -0.999999 0.000000
117.96900177 147.26600647 480.00000000 0.063151 0.846227 -0.529067 0.000000
35.15620041 223.43800354 447.50000000 0.987889 -0.001116 0.155160 0.000000
206.25000000 150.00000000 502.50000000 -0.000978 -0.000978 -0.999999 0.000000
42.18750000 203.90600586 357.50000000 -0.229112 0.609408 0.759032 0.000000
147.65600586 159.37500000 457.50000000 0.388766 0.068606 0.918779 0.000000
229.68800354 169.53100586 497.50000000 -0.965807 0.143514 0.215917 0.000000
111.71900177 265.62500000 502.50000000 -0.000978 -0.000978 -0.999999 0.000000
137.50000000 216.40600586 517.50000000 -0.000978 -0.000978 -0.999999 0.000000
33.20309830 239.84399414 475.00000000 0.925133 0.090487 -0.368703 0.000000
188.28100586 160.15600586 502.50000000 -0.000978 -0.000978 -0.999999 0.000000
156.25000000 250.78100586 492.50000000 -0.826077 -0.500606 0.258827 0.000000
107.81199646 190.62500000 432.50000000 -0.488605 -0.243537 0.837828 0.000000
73.43750000 155.46899414 472.50000000 0.381314 0.914873 -0.132692 0.000000
76.95310211 235.93800354 370.00000000 -0.791970 -0.183932 0.582197 0.000000
135.15600586 292.18798828 482.50000000 -0.954848 -0.001223 -0.297091 0.000000
114.06199646 206.25000000 407.50000000 -0.554502 0.831055 -0.043299 0.000000
137.50000000 177.34399414 507.50000000 -0.000978 -0.000978 -0.999999 0.000000
93.75000000 317.18798828 477.50000000 -0.501420 -0.751308 -0.429084 0.000000
96.87500000 224.21899414 522.50000000 0.122895 -0.605590 -0.786230 0.000000
59.37500000 229.68800354 507.50000000 -0.000978 -0.000978 -0.999999 0.000000
155.46899414 183.98399353 440.00000000 -0.472296 -0.819805 0.323815 0.000000
203.12500000 182.81199646 487.50000000 -0.247319 0.018096 0.968765 0.000000
87.50000000 234.37500000 512.50000000 0.746646 -0.617751 -0.246786 0.000000
226.56199646 178.90600586 497.50000000 -0.958326 -0.020967 0.284908 0.000000
133.98399353 264.84399414 450.00000000 -0.921124 0.179147 0.345598 0.000000
131.64100647 289.84399414 455.00000000 -0.494317 -0.717343 0.490989 0.000000
64.84380341 165.62500000 447.50000000 0.653056 0.636438 0.410445 0.000000
48.82809830 306.25000000 470.00000000 0.552317 -0.735877 -0.391703 0.000000
190.62500000 214.84399414 497.50000000 -0.224067 -0.897732 -0.379303 0.000000
127.34400177 228.51600647 440.00000000 0.275493 -0.635387 0.721379 0.000000
111.71900177 240.62500000 407.50000000 -0.344028 -0.230804 0.910151 0.000000
138.28100586 246.09399414 442.50000000 -0.587182 -0.744836 0.316917 0.000000
139.06199646 203.90600586 462.50000000 -0.441534 -0.337829 0.831216 0.000000
171.87500000 196.09399414 462.50000000 0.000978 0.000978 0.999999 0.000000
196.09399414 187.50000000 507.50000000 -0.000978 -0.000978 -0.999999 0.000000
132.81199646 235.15600586 512.50000000 0.233543 -0.409073 -0.882109 0.000000
36.71879959 255.85899353 480.00000000 0.844473 -0.206964 -0.493994 0.000000
89.84380341 239.45300293 385.00000000 -0.757590 -0.239982 0.607013 0.000000
130.46899414 305.46899414 457.50000000 -0.246684 -0.614352 0.749479 0.000000
44.53120041 277.34399414 487.50000000 -0.000978 -0.000978 -0.999999 0.000000
109.76599884 298.43798828 440.00000000 -0.679900 -0.202886 0.704680 0.000000
50.78120041 309.76599121 450.00000000 0.727481 -0.642635 0.240399 0.000000
110.15599823 294.53100586 437.50000000 -0.727808 -0.455916 0.512284 0.000000
96.87500000 334.37500000 447.50000000 -0.147256 -0.566711 0.810650 0.000000
71.87500000 161.71899414 392.50000000 0.999999 0.000978 -0.000978 0.000000
58.59379959 167.96899414 507.50000000 0.469801 0.263397 -0.842561 0.000000
109.37500000 153.90600586 487.50000000 -0.000978 -0.000978 -0.999999 0.000000
51.56250000 275.00000000 492.50000000 0.645485 -0.567959 -0.510658 0.000000
93.75000000 199.21899414 527.50000000 -0.732088 0.220095 -0.644675 0.000000
48.43750000 206.25000000 357.50000000 -0.881387 0.217754 0.419214 0.000000
164.84399414 153.90600586 447.50000000 0.000978 0.000978 0.999999 0.000000
128.12500000 225.00000000 422.50000000 -0.328911 0.341036 0.880632 0.000000
49.60940170 206.25000000 360.00000000 -0.538868 0.676522 0.501936 0.000000
223.43800354 182.03100586 492.50000000 -0.773083 -0.552202 0.312114 0.000000
160.15600586 178.90600586 507.50000000 -0.000978 -0.000978 -0.999999 0.000000
138.28100586 251.56199646 502.50000000 -0.000978 -0.000978 -0.999999 0.000000
33.98440170 265.62500000 425.00000000 0.917045 -0.296054 0.267171 0.000000
200.78100586 171.09399414 507.50000000 -0.000978 -0.000978 -0.999999 0.000000
53.12500000 275.00000000 377.50000000 0.552596 -0.495489 0.670170 0.000000
107.03099823 211.71899414 522.50000000 -0.000978 -0.000978 -0.999999 0.000000
90.62500000 224.21899414 382.50000000 -0.357330 -0.095738 0.929058 0.000000
86.71880341 251.56199646 387.50000000 -0.794902 -0.388583 0.465977 0.000000
49.21879959 304.68798828 472.50000000 0.594111 -0.577185 -0.560259 0.000000
176.56199646 206.25000000 502.50000000 0.001205 -0.271059 -0.962562 0.000000
159.37500000 135.15600586 482.50000000 0.011928 0.994381 -0.105185 0.000000
204.68800354 187.10899353 505.00000000 -0.610195 -0.100968 -0.785791 0.000000
49.21879959 207.03100586 357.50000000 -0.881387 0.217754 0.419214 0.000000
85.93750000 279.68798828 497.50000000 -0.000978 -0.000978 -0.999999 0.000000
217.96899414 210.15600586 502.50000000 -0.000978 -0.000978 -0.999999 0.000000
88.28119659 275.00000000 407.50000000 0.000978 0.000978 0.999999 0.000000
132.81199646 143.75000000 477.50000000 -0.756880 0.379254 -0.532258 0.000000
37.50000000 258.59399414 392.50000000 0.764534 -0.070550 0.640711 0.000000
155.46899414 206.25000000 472.50000000 -0.868331 0.347639 0.353764 0.000000
39.84379959 268.75000000 482.50000000 0.737693 -0.342095 -0.582048 0.000000
137.50000000 139.84399414 447.50000000 0.694669 -0.619126 -0.366220 0.000000
155.46899414 217.96899414 462.50000000 0.250330 0.530202 0.810074 0.000000
147.65600586 250.00000000 497.50000000 -0.000978 -0.000978 -0.999999 0.000000
104.68800354 250.00000000 407.50000000 -0.484848 -0.282178 0.827827 0.000000
72.65619659 323.43798828 437.50000000 0.567438 -0.793176 0.221100 0.000000
137.10899353 243.75000000 435.00000000 -0.663701 -0.613798 0.427496 0.000000
89.06250000 314.84399414 482.50000000 -0.000978 -0.000978 -0.999999 0.000000
40.62500000 216.40600586 427.50000000 0.880373 0.316692 0.353058 0.000000
101.56199646 188.28100586 522.50000000 -0.275311 0.041110 -0.960476 0.000000
118.75000000 296.09399414 442.50000000 -0.689507 -0.589819 0.420350 0.000000
223.43800354 151.56199646 502.50000000 -0.000978 -0.000978 -0.999999 0.000000
70.31250000 288.28100586 492.50000000 -0.001299 -0.905318 -0.424733 0.000000
97.65619659 218.75000000 392.50000000 -0.237947 -0.953133 0.186863 0.000000
177.34399414 208.59399414 467.50000000 -0.000978 -0.000978 0.999999 0.000000
47.65620041 307.03100586 452.50000000 0.750926 -0.612390 0.247160 0.000000
129.68800354 150.78100586 427.50000000 -0.554263 0.099854 0.826330 0.000000
182.03100586 169.53100586 502.50000000 -0.000978 -0.000978 -0.999999 0.000000
59.37500000 306.25000000 417.50000000 0.639822 -0.758582 0.123214 0.000000
46.09379959 190.62500000 497.50000000 0.970365 0.112598 -0.213809 0.000000
48.04690170 181.25000000 505.00000000 0.393609 0.001282 -0.919277 0.000000
196.87500000 146.09399414 502.50000000 0.202817 0.098298 -0.974270 0.000000
96.09380341 216.40600586 387.50000000 0.000978 0.000978 0.999999 0.000000
89.84380341 167.96899414 512.50000000 0.020945 0.755431 -0.654893 0.000000
48.43750000 192.18800354 472.50000000 0.702740 0.702740 -0.110959 0.000000
56.64059830 192.96899414 410.00000000 0.000978 0.000978 -0.999999 0.000000
128.12500000 275.78100586 447.50000000 0.000978 0.000978 0.999999 0.000000
142.18800354 232.81199646 432.50000000 -0.890910 -0.126461 0.436219 0.000000
70.31250000 325.00000000 462.50000000 0.422899 -0.844238 -0.329269 0.000000
96.87500000 230.85899353 390.00000000 -0.499307 -0.469448 0.728225 0.000000
149.60899353 160.93800354 435.00000000 -0.430626 0.420949 0.798351 0.000000
42.96879959 199.21899414 487.50000000 0.931783 0.032399 -0.361568 0.000000
39.45309830 222.65600586 375.00000000 0.920864 0.307909 -0.239167 0.000000
102.34400177 267.96899414 417.50000000 -0.733668 0.123518 0.668188 0.000000
172.65600586 178.12500000 502.50000000 -0.000978 -0.000978 -0.999999 0.000000
38.28120041 208.59399414 472.50000000 0.941502 0.319176 0.108173 0.000000
38.28120041 218.35899353 435.00000000 0.000978 0.000978 0.999999 0.000000
110.15599823 196.09399414 432.50000000 -0.236795 0.490395 0.838714 0.000000
71.87500000 162.89100647 510.00000000 0.043824 0.776103 -0.629082 0.000000
121.09400177 241.01600647 510.00000000 -0.108027 -0.711792 -0.694034 0.000000
32.81250000 249.21899414 467.50000000 0.999815 -0.017014 0.009007 0.000000
57.42190170 189.06199646 405.00000000 0.867078 0.477837 -0.140882 0.000000
63.28120041 275.00000000 377.50000000 -0.622329 -0.571733 0.534629 0.000000
94.53119659 203.12500000 532.50000000 -0.733414 0.426864 -0.529047 0.000000
157.81199646 135.15600586 477.50000000 0.493972 0.836541 -0.237045 0.000000
121.87500000 218.75000000 447.50000000 0.000978 0.000978 0.999999 0.000000
110.15599823 277.34399414 427.50000000 0.000978 0.000978 0.999999 0.000000
69.53119659 285.15600586 392.50000000 0.000978 0.000978 0.999999 0.000000
110.15599823 271.87500000 427.50000000 0.000978 0.000978 0.999999 0.000000
124.21900177 251.56199646 427.50000000 -0.540258 -0.536892 0.647973 0.000000
147.65600586 164.06199646 502.50000000 -0.000978 -0.000978 -0.999999 0.000000
165.62500000 250.78100586 467.50000000 -0.248793 -0.514584 0.820552 0.000000
139.84399414 154.29699707 495.00000000 0.538096 -0.001349 -0.842882 0.000000
127.34400177 164.84399414 502.50000000 -0.540190 0.322190 -0.777424 0.000000
160.15600586 146.87500000 497.50000000 0.740740 0.631117 -0.230209 0.000000
212.50000000 163.28100586 487.50000000 0.000978 0.000978 0.999999 0.000000
144.53100586 233.59399414 437.50000000 0.001116 -0.987889 0.155160 0.000000
77.34380341 230.46899414 507.50000000 0.572417 -0.552155 -0.606188 0.000000
182.81199646 145.31199646 502.50000000 -0.073526 0.467513 -0.880923 0.000000
38.28120041 216.40600586 487.50000000 0.776143 0.211395 -0.594066 0.000000
165.62500000 142.18800354 447.50000000 -0.000978 -0.000978 0.999999 0.000000
60.93750000 174.21899414 392.50000000 0.705609 0.475410 -0.525453 0.000000
104.68800354 188.28100586 522.50000000 -0.000978 -0.000978 -0.999999 0.000000
49.21879959 296.87500000 422.50000000 0.952288 -0.305078 0.008646 0.000000
55.46879959 213.28100586 357.50000000 0.000978 0.000978 0.999999 0.000000
189.84399414 193.75000000 502.50000000 -0.000978 -0.000978 -0.999999 0.000000
114.84400177 302.34399414 482.50000000 -0.191176 -0.199087 -0.961154 0.000000
153.12500000 193.75000000 507.50000000 -0.000978 -0.000978 -0.999999 0.000000
146.48399353 225.78100586 510.00000000 -0.559938 -0.559938 -0.610687 0.000000
39.45309830 214.06199646 360.00000000 -0.001348 0.848073 0.529877 0.000000
152.34399414 201.56199646 507.50000000 -0.288121 0.220658 -0.931824 0.000000
157.81199646 165.62500000 442.50000000 0.000978 0.000978 0.999999 0.000000
82.81250000 160.93800354 417.50000000 0.442309 0.886050 0.138848 0.000000
52.34379959 194.53100586 422.50000000 0.971993 0.203499 0.117549 0.000000
32.03120041 244.53100586 462.50000000 0.341736 -0.574959 -0.743397 0.000000
210.93800354 154.68800354 502.50000000 -0.000978 -0.000978 -0.999999 0.000000
130.46899414 173.43800354 502.50000000 0.054090 0.275482 -0.959783 0.000000
119.53099823 289.84399414 487.50000000 -0.539099 -0.663377 -0.518945 0.000000
167.96899414 147.65600586 502.50000000 -0.000978 -0.000978 -0.999999 0.000000
70.31250000 205.46899414 367.50000000 0.000978 0.000978 0.999999 0.000000
202.34399414 130.46899414 477.50000000 -0.178852 0.935852 -0.303632 0.000000
60.93750000 171.09399414 387.50000000 0.457144 0.706496 -0.540262 0.000000
173.43800354 166.40600586 502.50000000 -0.000978 -0.000978 -0.999999 0.000000
148.43800354 164.06199646 432.50000000 -0.362167 0.193251 0.911860 0.000000
121.87500000 226.56199646 517.50000000 0.316184 -0.349467 -0.881987 0.000000
57.81250000 304.29699707 415.00000000 0.425150 -0.776998 0.464244 0.000000
153.90600586 139.06199646 472.50000000 0.164046 0.796150 0.582438 0.000000
124.21900177 238.28100586 512.50000000 -0.476193 -0.839887 -0.260442 0.000000
114.45300293 244.53100586 410.00000000 -0.377483 -0.412231 0.829200 0.000000
82.81250000 271.09399414 397.50000000 -0.591894 -0.445171 0.671925 0.000000
103.90599823 335.54699707 455.00000000 -0.259166 -0.952067 0.162483 0.000000
160.15600586 159.37500000 502.50000000 -0.000978 -0.000978 -0.999999 0.000000
139.45300293 274.21899414 460.00000000 -0.488526 0.257362 0.833731 0.000000
89.06250000 273.43798828 497.50000000 0.097886 -0.341932 -0.934613 0.000000
61.71879959 164.84399414 507.50000000 -0.000978 -0.000978 -0.999999 0.000000
196.09399414 146.87500000 467.50000000 -0.816697 -0.115419 0.565406 0.000000
54.68750000 286.71899414 487.50000000 0.147214 -0.374344 -0.915530 0.000000
171.09399414 229.29699707 490.00000000 -0.947241 -0.316601 0.049990 0.000000
176.56199646 189.06199646 457.50000000 0.000978 0.000978 0.999999 0.000000
66.40619659 265.23400879 370.00000000 -0.779783 -0.304578 0.546965 0.000000
150.78100586 192.96899414 507.50000000 -0.000978 -0.000978 -0.999999 0.000000
134.37500000 157.03100586 432.50000000 -0.780241 0.390932 -0.488259 0.000000
57.03120041 216.40600586 357.50000000 -0.367103 0.200107 0.908401 0.000000
117.18800354 310.15600586 447.50000000 -0.251597 -0.504738 0.825795 0.000000
141.40600586 196.48399353 445.00000000 -0.079758 -0.749730 0.656920 0.000000
121.48400116 214.06199646 415.00000000 -0.854875 0.403476 0.326182 0.000000
145.31199646 259.37500000 487.50000000 -0.606855 -0.769707 -0.198188 0.000000
82.81250000 190.62500000 527.50000000 0.125206 0.578892 -0.805735 0.000000
181.25000000 118.75000000 467.50000000 0.150384 0.419644 -0.895144 0.000000
32.81250000 255.46899414 462.50000000 0.985538 -0.035901 -0.165607 0.000000
187.50000000 212.10899353 500.00000000 -0.223730 -0.655544 -0.721254 0.000000
130.46899414 175.78100586 432.50000000 0.000978 0.000978 0.999999 0.000000
38.28120041 205.85899353 475.00000000 0.472076 0.633354 0.613194 0.000000
180.46899414 157.81199646 502.50000000 -0.000978 -0.000978 -0.999999 0.000000
100.78099823 153.12500000 487.50000000 -0.000978 -0.000978 -0.999999 0.000000
75.00000000 262.50000000 382.50000000 -0.473753 -0.470451 0.744469 0.000000
40.62500000 241.40600586 487.50000000 0.539786 -0.361479 -0.760240 0.000000
197.65600586 167.96899414 477.50000000 -0.942562 -0.156414 0.295146 0.000000
157.03100586 149.21899414 497.50000000 0.737035 0.567076 -0.367701 0.000000
80.46880341 181.25000000 382.50000000 0.000978 0.000978 0.999999 0.000000
171.87500000 229.68800354 462.50000000 -0.461764 -0.234667 0.855398 0.000000
