159.60899353 119.53099823 368.12500000 -0.240367 0.882342 -0.404593 0.000000
260.15600586 118.12500000 335.62500000 -0.575851 0.790835 -0.207306 0.000000
170.15600586 146.95300293 311.87500000 0.358148 -0.717931 0.596913 0.000000
199.68800354 124.80500031 280.00000000 0.317684 0.317684 0.893394 0.000000
143.78900146 166.64100647 401.25000000 -0.340876 -0.115436 -0.932994 0.000000
172.26600647 109.33599854 293.75000000 0.068891 0.996184 0.053582 0.000000
121.64099884 130.42999268 306.25000000 0.174367 -0.583750 0.792990 0.000000
71.01560211 184.92199707 378.12500000 0.892786 -0.147603 -0.425614 0.000000
217.96899414 107.93000031 345.00000000 -0.001330 0.871255 -0.490829 0.000000
248.90600586 132.53900146 320.00000000 -0.081168 -0.841581 0.533998 0.000000
97.03119659 199.68800354 290.62500000 -0.430435 -0.235464 0.871368 0.000000
170.85899353 172.26600647 344.37500000 0.001238 -0.947186 0.320681 0.000000
127.96900177 245.39100647 364.37500000 -0.252635 -0.770457 -0.585296 0.000000
136.40600586 209.88299561 318.75000000 -0.542523 -0.222849 0.809942 0.000000
107.57800293 111.79699707 348.12500000 0.312114 0.933568 -0.176171 0.000000
172.96899414 153.63299561 317.50000000 0.332353 -0.734420 0.591751 0.000000
62.22660065 213.75000000 323.75000000 0.918970 -0.393844 0.019497 0.000000
124.80500031 234.84399414 373.75000000 -0.204994 -0.593405 -0.778362 0.000000
130.42999268 146.25000000 312.50000000 0.366446 -0.439417 0.820140 0.000000
159.60899353 185.27299500 372.50000000 -0.728680 -0.675253 -0.114274 0.000000
127.26599884 147.65600586 314.37500000 -0.064211 -0.199903 0.977709 0.000000
108.98400116 125.15599823 289.37500000 -0.887468 -0.355888 0.292820 0.000000
88.59380341 121.28900146 342.50000000 0.739373 0.670460 -0.061734 0.000000
145.54699707 102.30500031 337.50000000 -0.063634 0.980921 -0.183698 0.000000
150.46899414 163.82800293 330.62500000 -0.530881 -0.296342 0.793944 0.000000
83.67189789 127.61699677 348.75000000 0.758190 0.639025 -0.129592 0.000000
172.96899414 138.16400146 300.00000000 0.339594 -0.777365 0.529509 0.000000
120.58599854 165.93800354 297.50000000 -0.647941 0.035291 0.760872 0.000000
82.96880341 207.77299500 286.25000000 -0.422141 -0.371548 0.826891 0.000000
220.07800293 124.45300293 286.87500000 -0.408613 -0.770016 0.490010 0.000000
111.09400177 122.69499969 291.25000000 -0.780421 -0.548361 0.300406 0.000000
123.04699707 126.21099854 302.50000000 0.055483 -0.607464 0.792407 0.000000
132.18800354 250.31199646 354.37500000 -0.360723 -0.856137 -0.370012 0.000000
149.06199646 123.75000000 308.12500000 -0.550533 0.015027 0.834678 0.000000
276.32800293 166.64100647 369.37500000 -0.871255 0.001330 -0.490829 0.000000
173.67199707 161.01600647 386.87500000 -0.092659 0.029433 -0.995263 0.000000
226.40600586 175.78100586 370.62500000 0.041272 -0.909317 -0.414052 0.000000
96.32810211 135.00000000 386.87500000 0.404185 0.522004 -0.751097 0.000000
249.60899353 134.64799500 323.75000000 -0.043547 -0.813341 0.580155 0.000000
81.91410065 127.96900177 335.00000000 0.760808 0.648304 0.029532 0.000000
154.68800354 148.35899353 393.12500000 -0.246171 -0.082057 -0.965747 0.000000
271.05499268 166.64100647 348.75000000 0.015015 -0.836755 0.547372 0.000000
86.83589935 246.09399414 315.00000000 0.342578 -0.807846 0.479609 0.000000
148.71099854 134.29699707 392.50000000 -0.491020 0.739011 -0.461262 0.000000
276.67999268 142.73399353 345.00000000 -0.867916 0.433203 0.243016 0.000000
150.11700439 232.03100586 358.75000000 -0.759648 -0.305458 -0.574134 0.000000
71.01560211 151.17199707 270.62500000 -0.107839 0.427155 0.897725 0.000000
193.35899353 156.44500732 318.75000000 -0.170711 -0.793125 0.584646 0.000000
134.29699707 156.79699707 404.37500000 -0.272253 0.304283 -0.912848 0.000000
100.89800262 138.51600647 392.50000000 0.357163 0.575702 -0.735528 0.000000
234.14100647 106.17199707 336.87500000 -0.119616 0.942140 -0.313151 0.000000
60.82030106 174.37500000 318.75000000 0.994072 0.104581 0.029723 0.000000
224.29699707 116.71900177 281.87500000 -0.622547 0.029379 0.782031 0.000000
180.00000000 144.14100647 386.87500000 -0.000978 -0.000978 -0.999999 0.000000
185.62500000 116.71900177 363.12500000 -0.059253 0.877771 -0.475402 0.000000
205.31199646 172.61700439 358.75000000 0.090724 -0.962187 0.256839 0.000000
259.45300293 168.75000000 375.62500000 0.131756 -0.919519 -0.370304 0.000000
118.82800293 195.11700439 298.75000000 -0.612794 -0.261269 0.745803 0.000000
119.53099823 247.50000000 363.12500000 -0.205532 -0.764951 -0.610415 0.000000
119.18000031 245.39100647 366.25000000 -0.179327 -0.737235 -0.651403 0.000000
235.54699707 108.63300323 301.25000000 -0.056081 0.965842 -0.252988 0.000000
150.82000732 193.35899353 385.00000000 -0.703919 -0.444317 -0.554149 0.000000
87.89060211 203.90600586 286.87500000 -0.457653 -0.346803 0.818708 0.000000
60.82030106 192.65600586 341.25000000 0.931793 -0.092776 -0.350935 0.000000
207.42199707 167.69500732 346.25000000 -0.138882 -0.913257 0.382979 0.000000
151.87500000 123.04699707 374.37500000 -0.266563 0.473034 -0.839751 0.000000
175.78100586 107.22699738 282.50000000 0.328124 0.935357 -0.132066 0.000000
76.28910065 241.17199707 328.75000000 0.789443 -0.593962 0.154881 0.000000
256.64099121 115.31199646 313.12500000 -0.869512 0.235774 0.434005 0.000000
249.25799561 163.12500000 376.25000000 0.056560 -0.135051 -0.989223 0.000000
80.15619659 191.25000000 279.37500000 -0.314933 -0.259783 0.912869 0.000000
228.51600647 150.46899414 371.87500000 -0.000978 -0.000978 -0.999999 0.000000
144.84399414 198.98399353 386.87500000 -0.546585 -0.450226 -0.706075 0.000000
142.73399353 244.68800354 356.87500000 -0.618737 -0.585019 -0.524325 0.000000
233.43800354 126.91400146 365.00000000 -0.275245 0.606176 -0.746185 0.000000
62.22660065 209.53100586 312.50000000 0.939895 -0.331805 0.080638 0.000000
189.14100647 107.22699738 297.50000000 0.000978 0.999999 0.000978 0.000000
129.37500000 126.21099854 391.25000000 0.032502 0.691018 -0.722107 0.000000
243.28100586 134.64799500 322.50000000 -0.112348 -0.815619 0.567577 0.000000
71.01560211 156.79699707 270.62500000 -0.739664 0.015323 0.672802 0.000000
96.32810211 202.14799500 291.25000000 -0.525232 -0.218974 0.822302 0.000000
113.55500031 114.60900116 370.00000000 0.233550 0.909538 -0.343796 0.000000
88.59380341 124.80500031 366.25000000 0.583998 0.810874 -0.037813 0.000000
130.42999268 196.87500000 307.50000000 -0.717849 -0.293885 0.631129 0.000000
246.09399414 172.26600647 364.37500000 -0.198845 -0.914116 0.353344 0.000000
75.23439789 236.25000000 319.37500000 0.826750 -0.506519 0.244792 0.000000
161.71899414 153.98399353 391.87500000 -0.233866 -0.050202 -0.970972 0.000000
200.74200439 106.87500000 301.25000000 0.123375 0.970462 0.207320 0.000000
211.64100647 105.11699677 316.25000000 0.135565 0.989966 -0.039872 0.000000
118.12500000 142.73399353 308.12500000 -0.692340 0.223487 0.686089 0.000000
73.12500000 150.11700439 367.50000000 0.832753 0.474747 -0.284848 0.000000
112.14800262 137.10899353 300.00000000 -0.919327 0.170873 0.354456 0.000000
140.27299500 186.32800293 318.75000000 -0.798011 0.200652 0.568258 0.000000
86.48439789 220.42999268 295.00000000 -0.137047 -0.463075 0.875659 0.000000
82.26560211 246.09399414 321.87500000 0.597421 -0.755888 0.267809 0.000000
265.07800293 172.61700439 363.75000000 0.176272 -0.964924 0.194552 0.000000
135.00000000 230.62500000 321.87500000 -0.556740 -0.244841 0.793784 0.000000
121.64099884 253.82800293 328.12500000 -0.244421 -0.834722 0.493454 0.000000
105.46900177 132.53900146 391.25000000 0.332504 0.595263 -0.731508 0.000000
134.64799500 227.10899353 321.25000000 -0.585698 -0.134933 0.799219 0.000000
127.26599884 254.88299561 342.50000000 -0.332857 -0.942023 -0.042410 0.000000
82.96880341 238.71099854 361.25000000 0.589471 -0.589471 -0.552312 0.000000
80.15619659 214.45300293 289.37500000 -0.116168 -0.586722 0.801413 0.000000
74.53119659 234.84399414 319.37500000 0.825352 -0.523283 0.212059 0.000000
124.80500031 151.87500000 312.50000000 -0.694324 0.230396 0.681786 0.000000
85.42970276 201.79699707 285.00000000 -0.419031 -0.353116 0.836494 0.000000
160.31199646 181.40600586 383.12500000 -0.699506 -0.644580 -0.308558 0.000000
82.96880341 127.61699677 343.75000000 0.743236 0.660818 -0.104495 0.000000
90.35160065 118.82800293 296.25000000 0.515989 0.856352 0.020422 0.000000
86.48439789 121.99199677 286.25000000 0.536308 0.842770 0.045969 0.000000
259.45300293 149.06199646 373.12500000 -0.063325 0.314042 -0.947295 0.000000
75.93750000 233.08599854 311.25000000 0.742916 -0.495826 0.449703 0.000000
242.57800293 107.22699738 316.25000000 -0.149075 0.982925 0.107867 0.000000
155.39100647 172.96899414 336.87500000 -0.511414 -0.602557 0.612684 0.000000
271.75799561 153.98399353 371.25000000 -0.477722 0.399991 -0.782169 0.000000
60.82030106 189.84399414 305.00000000 0.999999 0.000978 0.000978 0.000000
265.78100586 123.39800262 327.50000000 -0.868606 0.213788 0.447011 0.000000
95.97660065 166.64100647 281.25000000 -0.413477 -0.155948 0.897060 0.000000
253.82800293 148.71099854 338.75000000 0.226876 -0.671241 0.705664 0.000000
60.82030106 192.65600586 310.00000000 0.991271 0.034880 0.127144 0.000000
117.77300262 149.06199646 297.50000000 -0.252485 0.581814 0.773139 0.000000
163.12500000 181.75799561 375.00000000 -0.643655 -0.747127 -0.165859 0.000000
149.76600647 200.39100647 333.12500000 -0.878559 0.088276 0.469405 0.000000
139.21899414 218.67199707 321.87500000 -0.595092 -0.168079 0.785885 0.000000
81.56250000 243.98399353 318.12500000 0.653936 -0.695711 0.297244 0.000000
159.60899353 169.45300293 390.62500000 -0.550553 0.012295 -0.834710 0.000000
170.15600586 151.87500000 318.12500000 0.445389 -0.665582 0.598857 0.000000
126.91400146 235.54699707 372.50000000 -0.200927 -0.575173 -0.792972 0.000000
66.44529724 211.64100647 355.00000000 0.975623 -0.169510 -0.139375 0.000000
241.17199707 112.50000000 341.87500000 -0.399834 0.765397 -0.504281 0.000000
108.98400116 154.68800354 400.62500000 0.266629 0.269480 -0.925359 0.000000
122.34400177 146.25000000 313.12500000 -0.646970 0.026665 0.762049 0.000000
82.96880341 136.40600586 379.37500000 0.632110 0.537715 -0.557942 0.000000
132.89100647 239.76600647 368.12500000 -0.295076 -0.582177 -0.757628 0.000000
135.00000000 200.39100647 391.87500000 -0.398053 -0.423630 -0.813690 0.000000
100.89800262 206.01600647 295.00000000 -0.366768 -0.357483 0.858887 0.000000
133.59399414 191.25000000 396.87500000 -0.252045 -0.254861 -0.933552 0.000000
84.72660065 127.96900177 361.25000000 0.668875 0.740797 -0.061853 0.000000
250.31199646 114.25800323 337.50000000 -0.376580 0.856992 -0.351785 0.000000
142.38299561 183.51600647 322.50000000 -0.813028 0.147148 0.563323 0.000000
270.00000000 147.65600586 368.12500000 -0.432935 0.549047 -0.714923 0.000000
93.51560211 254.17999268 336.25000000 0.425578 -0.901787 -0.075263 0.000000
75.58589935 239.06199646 326.25000000 0.846422 -0.505481 0.167506 0.000000
171.21099854 175.07800293 381.25000000 -0.273111 -0.819334 -0.504085 0.000000
91.40619659 132.89100647 276.87500000 -0.332851 -0.031882 0.942440 0.000000
91.40619659 252.77299500 327.50000000 0.444357 -0.887295 0.123511 0.000000
167.34399414 156.79699707 324.37500000 0.435769 -0.656157 0.616087 0.000000
253.82800293 163.12500000 353.12500000 0.092078 -0.641624 0.761472 0.000000
216.56199646 105.81999969 301.25000000 -0.012349 0.989050 0.147066 0.000000
219.72700500 140.62500000 373.75000000 -0.008454 -0.262086 -0.965007 0.000000
83.67189789 248.55499268 341.25000000 0.572538 -0.803957 -0.160791 0.000000
110.39099884 125.15599823 294.37500000 -0.852531 -0.368032 0.371138 0.000000
151.87500000 103.00800323 337.50000000 -0.131756 0.919519 -0.370304 0.000000
159.96099854 183.51600647 377.50000000 -0.714576 -0.677853 -0.172906 0.000000
176.48399353 111.09400177 350.62500000 -0.060451 0.950488 -0.304825 0.000000
242.57800293 135.70300293 369.37500000 -0.082754 0.631540 -0.770914 0.000000
179.29699707 149.06199646 310.62500000 0.133475 -0.724364 0.676373 0.000000
124.45300293 162.42199707 404.37500000 -0.000978 -0.000978 -0.999999 0.000000
74.53119659 196.17199707 379.37500000 0.760873 -0.215400 -0.612107 0.000000
268.24200439 152.57800293 372.50000000 -0.379127 0.251265 -0.890578 0.000000
104.06199646 110.74199677 337.50000000 0.480285 0.820422 -0.310217 0.000000
63.28120041 204.25799561 342.50000000 0.976181 -0.092558 -0.196223 0.000000
149.06199646 203.90600586 380.62500000 -0.422947 -0.515107 -0.745507 0.000000
113.90599823 256.28900146 348.75000000 0.048037 -0.938671 -0.341453 0.000000
139.57000732 210.93800354 383.75000000 -0.546915 -0.402385 -0.734147 0.000000
61.17190170 168.04699707 270.62500000 0.644695 -0.107695 0.756816 0.000000
101.95300293 166.64100647 404.37500000 0.113526 0.123086 -0.985881 0.000000
98.43750000 144.49200439 395.00000000 0.229780 0.443039 -0.866555 0.000000
110.39099884 112.14800262 357.50000000 0.266318 0.951519 -0.153903 0.000000
255.23399353 111.79699707 320.62500000 -0.606557 0.794268 0.035021 0.000000
75.23439789 210.58599854 373.75000000 0.715577 -0.343933 -0.607996 0.000000
71.36720276 144.84399414 341.25000000 0.877641 0.479317 -0.001328 0.000000
98.43750000 189.84399414 289.37500000 -0.424527 -0.147227 0.893365 0.000000
221.48399353 143.78900146 325.00000000 -0.490240 -0.722896 0.486916 0.000000
96.67970276 118.82800293 278.75000000 0.399830 0.514067 0.758861 0.000000
104.76599884 125.15599823 384.37500000 0.251758 0.704605 -0.663437 0.000000
206.01600647 137.10899353 379.37500000 -0.569255 0.090793 -0.817133 0.000000
187.03100586 139.57000732 297.50000000 0.324008 -0.360516 0.874670 0.000000
99.14060211 179.29699707 286.87500000 -0.397633 -0.449148 0.800096 0.000000
172.96899414 177.18800354 376.87500000 -0.220810 -0.884722 -0.410499 0.000000
63.28120041 160.31199646 325.62500000 0.903340 0.422288 -0.075164 0.000000
85.07810211 227.10899353 374.37500000 0.447614 -0.467289 -0.762419 0.000000
219.37500000 143.78900146 322.50000000 -0.531925 -0.705342 0.468561 0.000000
88.24220276 248.90600586 348.75000000 0.376415 -0.878302 -0.294783 0.000000
149.76600647 234.84399414 335.62500000 -0.829656 -0.247819 0.500256 0.000000
159.60899353 156.09399414 391.87500000 -0.315537 -0.158458 -0.935589 0.000000
187.73399353 126.21099854 281.25000000 0.026689 -0.754306 0.655980 0.000000
95.62500000 208.82800293 389.37500000 0.358551 -0.503258 -0.786240 0.000000
266.83599854 165.23399353 347.50000000 0.254721 -0.798544 0.545385 0.000000
91.05470276 118.82800293 285.00000000 0.616845 0.772933 0.148583 0.000000
104.76599884 182.10899353 404.37500000 0.346441 -0.490126 -0.799847 0.000000
150.46899414 131.13299561 385.00000000 -0.480221 0.787433 -0.386441 0.000000
229.21899414 155.03900146 340.00000000 -0.317174 -0.577996 0.751878 0.000000
72.07029724 234.14100647 328.75000000 0.854361 -0.519635 -0.006749 0.000000
125.85900116 166.64100647 404.37500000 0.059028 -0.085758 -0.994566 0.000000
117.42199707 254.88299561 353.75000000 -0.122031 -0.904712 -0.408172 0.000000
125.15599823 107.22699738 357.50000000 0.093784 0.986514 -0.134147 0.000000
275.27301025 161.71899414 345.00000000 -0.667168 -0.265912 0.695829 0.000000
222.18800354 162.42199707 373.12500000 0.065056 0.219719 -0.973392 0.000000
108.98400116 214.45300293 389.37500000 0.095132 -0.406726 -0.908584 0.000000
146.95300293 165.93800354 328.12500000 -0.579095 -0.154126 0.800558 0.000000
131.48399353 127.61699677 302.50000000 0.268638 -0.382697 0.883955 0.000000
69.60939789 214.45300293 363.12500000 0.865227 -0.298618 -0.402752 0.000000
78.75000000 198.28100586 280.62500000 0.040478 -0.559709 0.827700 0.000000
64.33589935 172.26600647 343.75000000 0.971986 0.151594 -0.179620 0.000000
147.30499268 147.65600586 400.00000000 -0.470195 0.130849 -0.872809 0.000000
222.89100647 168.75000000 374.37500000 0.060455 -0.117488 -0.991232 0.000000
78.04689789 129.02299500 292.50000000 0.773001 0.634221 -0.015266 0.000000
104.41400146 188.43800354 291.25000000 -0.483194 -0.222663 0.846726 0.000000
107.57800293 130.07800293 289.37500000 -0.926547 -0.189808 0.324783 0.000000
225.00000000 147.30499268 332.50000000 -0.413039 -0.622046 0.665175 0.000000
168.75000000 155.74200439 322.50000000 0.395807 -0.634284 0.664094 0.000000
88.94529724 201.79699707 390.00000000 0.462052 -0.410173 -0.786299 0.000000
85.78119659 232.73399353 301.87500000 0.276429 -0.501321 0.819917 0.000000
71.71880341 141.32800293 311.87500000 0.857066 0.514240 0.031540 0.000000
116.71900177 197.57800293 398.12500000 -0.151347 -0.208264 -0.966292 0.000000
190.54699707 165.58599854 333.75000000 -0.165775 -0.895185 0.413717 0.000000
229.92199707 176.13299561 370.00000000 -0.080923 -0.956952 -0.278736 0.000000
136.40600586 157.50000000 316.87500000 -0.256950 -0.591142 0.764544 0.000000
94.92189789 254.88299561 333.75000000 0.375586 -0.925029 -0.057068 0.000000
182.81199646 151.87500000 313.12500000 0.044144 -0.693485 0.719117 0.000000
141.32800293 240.46899414 361.87500000 -0.493577 -0.523693 -0.694354 0.000000
66.79689789 173.67199707 368.12500000 0.951914 0.142854 -0.271022 0.000000
218.32000732 110.39099884 281.25000000 -0.287250 0.779225 0.557043 0.000000
99.14060211 122.69499969 375.00000000 0.427560 0.781963 -0.453571 0.000000
139.92199707 174.02299500 321.25000000 -0.708564 0.237235 0.664573 0.000000
61.87500000 172.26600647 270.62500000 0.287971 -0.279288 0.916008 0.000000
159.25799561 176.48399353 390.00000000 -0.772386 -0.198087 -0.603474 0.000000
206.71899414 105.11699677 321.25000000 0.102650 0.990745 0.088810 0.000000
148.35899353 198.63299561 383.75000000 -0.636448 -0.485313 -0.599504 0.000000
245.03900146 113.20300293 300.00000000 0.925729 0.357949 -0.122059 0.000000
87.18750000 165.93800354 396.87500000 0.500299 0.001334 -0.865851 0.000000
177.89100647 159.60899353 323.12500000 0.139206 -0.758898 0.636157 0.000000
144.49200439 121.64099884 378.75000000 -0.495343 0.745482 -0.445973 0.000000
244.68800354 123.39800262 356.25000000 -0.247721 0.733695 -0.632713 0.000000
113.90599823 146.25000000 294.37500000 -0.867916 0.433203 0.243016 0.000000
93.16410065 121.64099884 365.00000000 0.596463 0.799575 -0.070088 0.000000
82.96880341 212.34399414 380.62500000 0.588994 -0.423080 -0.688542 0.000000
94.21880341 144.14100647 280.62500000 -0.263532 -0.289453 0.920200 0.000000
87.18750000 210.23399353 384.37500000 0.508478 -0.410379 -0.756994 0.000000
206.71899414 106.87500000 298.12500000 0.018409 0.995175 0.096377 0.000000
127.96900177 137.81199646 308.12500000 0.343120 -0.456966 0.820641 0.000000
110.39099884 114.25800323 367.50000000 0.226715 0.922545 -0.312268 0.000000
97.73439789 225.70300293 381.87500000 0.283830 -0.559732 -0.778550 0.000000
66.79689789 172.96899414 270.62500000 0.051217 -0.361147 0.931101 0.000000
110.39099884 117.06999969 373.75000000 0.247439 0.893449 -0.374863 0.000000
156.44500732 184.21899414 358.75000000 -0.636110 -0.704091 0.315627 0.000000
99.14060211 155.74200439 400.00000000 0.270430 0.432383 -0.860182 0.000000
106.87500000 125.85900116 284.37500000 -0.877665 -0.362283 0.313776 0.000000
95.62500000 134.29699707 278.12500000 -0.283879 0.003655 0.958853 0.000000
251.01600647 116.36699677 341.25000000 -0.330684 0.852325 -0.405204 0.000000
117.77300262 207.42199707 393.75000000 -0.131864 -0.426785 -0.894688 0.000000
94.21880341 239.06199646 369.37500000 0.198532 -0.522850 -0.828983 0.000000
58.35940170 172.96899414 275.62500000 0.726648 0.655378 0.206064 0.000000
135.70300293 235.54699707 324.37500000 -0.499383 -0.283349 0.818737 0.000000
110.03900146 133.59399414 296.25000000 -0.922389 0.057233 0.381999 0.000000
150.46899414 144.84399414 395.62500000 -0.683833 0.120676 -0.719589 0.000000
89.64839935 118.82800293 315.00000000 0.711604 0.700104 -0.058941 0.000000
171.21099854 158.20300293 323.75000000 0.330241 -0.691391 0.642587 0.000000
113.90599823 105.46900177 304.37500000 0.326721 0.920240 0.215436 0.000000
223.59399414 131.48399353 371.87500000 -0.379032 0.372792 -0.846972 0.000000
127.96900177 203.20300293 393.12500000 -0.345484 -0.357768 -0.867550 0.000000
81.56250000 220.78100586 375.62500000 0.619093 -0.354468 -0.700768 0.000000
258.04699707 144.84399414 333.12500000 0.296790 -0.736361 0.608019 0.000000
151.87500000 218.67199707 334.37500000 -0.788598 -0.055415 0.612407 0.000000
109.68800354 125.85900116 386.87500000 0.269175 0.715147 -0.645066 0.000000
65.03910065 208.12500000 347.50000000 0.950610 -0.157314 -0.267569 0.000000
236.25000000 107.22699738 311.25000000 -0.097281 0.995256 -0.001069 0.000000
210.93800354 173.32000732 367.50000000 0.229418 -0.817590 -0.528123 0.000000
253.12500000 110.74199677 322.50000000 -0.500346 0.858760 -0.110391 0.000000
144.84399414 120.58599854 376.25000000 -0.459620 0.763852 -0.453077 0.000000
153.28100586 146.95300293 318.12500000 -0.384921 -0.662461 0.642636 0.000000
243.98399353 125.85900116 309.37500000 -0.245949 -0.815189 0.524382 0.000000
124.45300293 241.52299500 368.75000000 -0.119564 -0.597819 -0.792664 0.000000
83.67189789 213.04699707 289.37500000 -0.349566 -0.517100 0.781288 0.000000
84.02339935 191.95300293 281.25000000 -0.395970 -0.286737 0.872347 0.000000
92.10939789 169.45300293 280.62500000 -0.400415 -0.121380 0.908259 0.000000
71.36720276 138.51600647 290.00000000 0.821582 0.570049 0.006835 0.000000
82.26560211 173.67199707 278.12500000 -0.377862 -0.096853 0.920782 0.000000
157.85200500 208.82800293 358.75000000 -0.974592 -0.195917 -0.108565 0.000000
205.31199646 105.81999969 307.50000000 0.096650 0.994276 0.045548 0.000000
251.71899414 145.19500732 336.25000000 0.199343 -0.721653 0.662932 0.000000
232.03100586 127.26599884 365.62500000 -0.300755 0.619202 -0.725351 0.000000
85.07810211 138.86700439 383.75000000 0.571557 0.531093 -0.625510 0.000000
78.04689789 242.92999268 338.75000000 0.827090 -0.559377 -0.054951 0.000000
253.82800293 168.39799500 375.00000000 -0.106229 -0.332132 -0.937232 0.000000
177.89100647 178.24200439 367.50000000 -0.114005 -0.992181 0.050794 0.000000
77.34380341 136.75799561 355.00000000 0.849574 0.506223 -0.148199 0.000000
157.14799500 184.21899414 360.00000000 -0.665148 -0.642041 0.381263 0.000000
260.15600586 156.79699707 375.62500000 -0.406019 0.001289 -0.913864 0.000000
144.84399414 180.70300293 398.12500000 -0.254358 -0.294595 -0.921149 0.000000
215.15600586 168.04699707 373.12500000 0.193457 -0.402915 -0.894558 0.000000
73.47660065 165.23399353 383.75000000 0.669836 0.268889 -0.692111 0.000000
137.81199646 248.90600586 333.12500000 -0.477568 -0.678649 0.558000 0.000000
60.11719894 172.26600647 300.00000000 0.999920 -0.008937 0.008937 0.000000
154.33599854 229.21899414 346.25000000 -0.958581 -0.255011 0.126852 0.000000
184.21899414 153.63299561 315.00000000 0.020998 -0.709745 0.704146 0.000000
77.69529724 242.57800293 337.50000000 0.827090 -0.559377 -0.054951 0.000000
205.31199646 120.58599854 370.00000000 -0.100841 0.870638 -0.481478 0.000000
122.34400177 125.85900116 390.62500000 0.098625 0.710981 -0.696261 0.000000
88.59380341 217.61700439 382.50000000 0.376981 -0.460398 -0.803691 0.000000
253.12500000 140.62500000 330.62500000 0.089049 -0.734286 0.672974 0.000000
231.32800293 164.53100586 349.37500000 -0.327821 -0.750920 0.573283 0.000000
225.00000000 175.78100586 370.62500000 0.075918 -0.815047 -0.574400 0.000000
70.66410065 229.92199707 345.00000000 0.846657 -0.523985 -0.092804 0.000000
163.12500000 161.71899414 331.87500000 0.145012 -0.602471 0.784857 0.000000
101.25000000 195.46899414 291.87500000 -0.353580 -0.261856 0.898005 0.000000
184.92199707 166.64100647 334.37500000 -0.168491 -0.916079 0.363883 0.000000
229.92199707 170.15600586 374.37500000 -0.077268 -0.254605 -0.963953 0.000000
132.89100647 118.12500000 380.62500000 -0.100747 0.795754 -0.597181 0.000000
189.14100647 106.87500000 284.37500000 -0.001330 0.871255 -0.490829 0.000000
239.76600647 167.34399414 356.87500000 -0.186089 -0.733590 0.653618 0.000000
227.10899353 133.59399414 371.87500000 -0.405601 0.260851 -0.876039 0.000000
102.65599823 221.48399353 301.87500000 -0.001330 0.871255 0.490829 0.000000
198.28100586 164.53100586 335.62500000 -0.178709 -0.866960 0.465234 0.000000
260.85900879 171.91400146 362.50000000 0.109780 -0.962193 0.249266 0.000000
59.41410065 194.06199646 337.50000000 0.938011 -0.128960 -0.321720 0.000000
177.18800354 107.22699738 300.00000000 -0.656816 0.656816 0.370385 0.000000
64.68750000 170.85899353 343.12500000 0.967611 0.153733 -0.200240 0.000000
262.26599121 161.01600647 346.87500000 0.538552 -0.669415 0.511708 0.000000
115.31199646 245.03900146 367.50000000 -0.070938 -0.725302 -0.684766 0.000000
74.88279724 144.14100647 362.50000000 0.894982 0.383564 -0.227787 0.000000
133.59399414 168.04699707 313.12500000 -0.840786 0.155154 0.518657 0.000000
127.96900177 254.53100586 335.62500000 -0.264842 -0.950472 0.162669 0.000000
151.52299500 237.65600586 345.00000000 -0.942066 -0.334363 0.026698 0.000000
77.69529724 153.28100586 276.25000000 -0.516316 -0.086764 0.851992 0.000000
100.54699707 122.34400177 375.62500000 0.421405 0.779354 -0.463708 0.000000
78.39839935 135.70300293 356.25000000 0.860546 0.494418 -0.122523 0.000000
155.39100647 187.38299561 383.75000000 -0.802700 -0.472648 -0.363698 0.000000
171.56199646 108.63300323 303.75000000 0.178106 0.978968 -0.099494 0.000000
108.28099823 108.98400116 298.12500000 0.323339 0.918283 0.228493 0.000000
150.46899414 210.93800354 331.87500000 -0.810126 0.023542 0.585783 0.000000
175.78100586 118.82800293 368.12500000 0.001330 0.871255 -0.490829 0.000000
153.98399353 228.51600647 341.87500000 -0.930409 -0.256323 0.261987 0.000000
191.25000000 142.03100586 300.62500000 -0.115820 -0.804875 0.582032 0.000000
225.70300293 151.17199707 335.62500000 -0.335543 -0.581932 0.740788 0.000000
146.95300293 216.56199646 374.37500000 -0.565251 -0.545003 -0.619245 0.000000
180.70300293 121.28900146 372.50000000 0.001330 0.871255 -0.490829 0.000000
262.96899414 124.10199738 346.25000000 -0.530932 0.761489 -0.371814 0.000000
102.65599823 185.97700500 401.25000000 0.433688 -0.398481 -0.808163 0.000000
236.95300293 108.63300323 293.75000000 -0.402098 0.872476 0.277675 0.000000
149.06199646 152.57800293 321.87500000 -0.505795 -0.653669 0.562928 0.000000
82.96880341 132.18800354 373.12500000 0.784429 0.477127 -0.396258 0.000000
225.00000000 121.28900146 287.50000000 -0.538750 -0.695538 0.475368 0.000000
157.50000000 201.09399414 359.37500000 -0.963591 0.217753 0.155165 0.000000
113.90599823 185.62500000 401.87500000 -0.082452 -0.312794 -0.946235 0.000000
116.01599884 189.84399414 295.62500000 -0.354792 -0.110108 0.928439 0.000000
119.53099823 257.69500732 340.00000000 -0.256396 -0.963695 -0.074519 0.000000
66.09380341 209.53100586 294.37500000 0.876063 -0.399581 0.269906 0.000000
165.58599854 149.76600647 318.75000000 0.434140 -0.680320 0.590497 0.000000
125.50800323 206.71899414 308.75000000 -0.516978 -0.374364 0.769795 0.000000
67.85160065 151.17199707 332.50000000 0.922371 0.365364 -0.125464 0.000000
151.87500000 150.11700439 321.25000000 -0.490066 -0.684085 0.540243 0.000000
253.12500000 126.21099854 313.75000000 -0.254751 -0.666150 0.700961 0.000000
156.44500732 205.31199646 347.50000000 -0.909704 0.302261 0.284739 0.000000
202.50000000 172.61700439 362.50000000 -0.027398 -0.999538 -0.013192 0.000000
273.86700439 172.96899414 367.50000000 -0.245587 -0.969042 0.025406 0.000000
69.60939789 228.16400146 323.75000000 0.865628 -0.478641 0.146939 0.000000
97.03119659 114.96099854 287.50000000 0.531543 0.846328 0.034516 0.000000
87.89060211 220.78100586 380.62500000 0.463859 -0.490271 -0.737882 0.000000
146.95300293 178.94500732 397.50000000 -0.367741 -0.263523 -0.891809 0.000000
120.23400116 113.20300293 369.37500000 0.152074 0.905338 -0.396530 0.000000
65.03910065 189.14100647 357.50000000 0.871255 0.001330 -0.490829 0.000000
121.64099884 243.98399353 366.87500000 -0.209091 -0.744983 -0.633468 0.000000
113.90599823 205.66400146 395.00000000 -0.014859 -0.509265 -0.860482 0.000000
191.95300293 170.15600586 344.37500000 -0.177921 -0.912381 0.368653 0.000000
242.57800293 118.12500000 350.62500000 -0.334595 0.754858 -0.564123 0.000000
192.65600586 163.12500000 329.37500000 -0.161455 -0.877096 0.452366 0.000000
73.12500000 136.05499268 285.00000000 0.821582 0.570049 0.006835 0.000000
65.74220276 175.07800293 356.25000000 0.999999 0.000978 0.000978 0.000000
91.40619659 125.50800323 373.75000000 0.462992 0.749684 -0.472877 0.000000
226.40600586 159.60899353 373.12500000 0.064106 0.257680 -0.964101 0.000000
85.42970276 250.31199646 332.50000000 0.518331 -0.851645 -0.077679 0.000000
239.06199646 138.16400146 371.25000000 -0.130825 0.196873 -0.971662 0.000000
75.23439789 168.04699707 385.62500000 0.783587 -0.079369 -0.616191 0.000000
94.92189789 128.67199707 278.12500000 -0.342768 -0.024210 0.939108 0.000000
81.91410065 247.50000000 333.75000000 0.654893 -0.755431 -0.020945 0.000000
258.75000000 141.67999268 370.00000000 -0.078839 0.569077 -0.818496 0.000000
94.21880341 197.92999268 288.75000000 -0.489185 -0.274876 0.827733 0.000000
60.82030106 180.00000000 315.00000000 0.999999 0.000978 0.000978 0.000000
132.18800354 150.11700439 313.75000000 0.348477 -0.433625 0.830983 0.000000
194.76600647 125.15599823 376.87500000 0.001377 0.772605 -0.634886 0.000000
236.25000000 133.59399414 369.37500000 -0.154122 0.488788 -0.858681 0.000000
176.48399353 142.73399353 304.37500000 0.285803 -0.745642 0.601942 0.000000
67.14839935 177.89100647 371.25000000 0.965809 -0.204081 0.159885 0.000000
187.73399353 164.17999268 330.00000000 -0.126785 -0.887494 0.443035 0.000000
137.81199646 239.76600647 326.87500000 -0.513619 -0.273202 0.813361 0.000000
148.00799561 169.45300293 330.00000000 -0.578554 -0.193869 0.792269 0.000000
260.85900879 172.61700439 367.50000000 0.130746 -0.977486 0.165612 0.000000
71.36720276 143.43800354 328.75000000 0.892194 0.450779 -0.028090 0.000000
97.73439789 239.41400146 370.00000000 0.203868 -0.574816 -0.792480 0.000000
80.85939789 140.27299500 380.00000000 0.694463 0.500348 -0.517082 0.000000
230.62500000 163.12500000 374.37500000 0.033447 0.162623 -0.986121 0.000000
59.41410065 197.57800293 328.75000000 0.982214 -0.163098 0.093026 0.000000
202.50000000 158.90600586 378.12500000 -0.560504 -0.259057 -0.786590 0.000000
77.69529724 139.92199707 368.75000000 0.940418 0.274807 -0.200236 0.000000
236.25000000 107.57800293 294.37500000 -0.393783 0.905558 0.157797 0.000000
205.31199646 171.21099854 368.75000000 -0.063979 -0.808981 -0.584343 0.000000
156.79699707 213.75000000 359.37500000 -0.974592 -0.195917 -0.108565 0.000000
82.61720276 162.42199707 277.50000000 -0.345854 0.148620 0.926443 0.000000
138.51600647 103.35900116 343.12500000 0.030436 0.967876 -0.249578 0.000000
120.23400116 103.00800323 320.00000000 0.241258 0.961120 -0.134322 0.000000
92.10939789 227.10899353 378.12500000 0.368279 -0.577789 -0.728375 0.000000
180.00000000 107.57800293 341.87500000 -0.014226 0.922101 -0.386688 0.000000
185.62500000 172.61700439 346.25000000 -0.001139 -0.983039 0.183394 0.000000
79.45310211 227.10899353 369.37500000 0.665841 -0.435550 -0.605765 0.000000
172.96899414 148.35899353 311.87500000 0.333930 -0.685778 0.646684 0.000000
77.69529724 196.17199707 383.75000000 0.748548 -0.299740 -0.591465 0.000000
138.86700439 184.21899414 317.50000000 -0.814215 0.196325 0.546361 0.000000
124.45300293 168.04699707 300.62500000 -0.667818 0.029525 0.743739 0.000000
192.65600586 170.85899353 378.12500000 -0.560027 -0.748326 -0.355496 0.000000
266.48400879 125.15599823 328.12500000 -0.868606 0.213788 0.447011 0.000000
265.07800293 123.75000000 325.62500000 -0.868606 0.213788 0.447011 0.000000
104.06199646 175.07800293 404.37500000 -0.000978 -0.000978 -0.999999 0.000000
217.96899414 153.28100586 333.12500000 -0.455657 -0.579168 0.675974 0.000000
253.82800293 156.79699707 346.87500000 0.204409 -0.916265 -0.344493 0.000000
69.96089935 142.73399353 297.50000000 0.708486 0.705724 -0.001381 0.000000
64.33589935 191.95300293 352.50000000 0.977160 0.084597 -0.194942 0.000000
67.14839935 215.85899353 356.25000000 0.963474 -0.133564 -0.232116 0.000000
208.82800293 152.92999268 323.75000000 -0.497635 -0.717327 0.487649 0.000000
105.46900177 158.90600586 285.62500000 -0.718256 -0.136454 0.682268 0.000000
215.85899353 156.09399414 373.12500000 -0.174561 -0.007986 -0.984614 0.000000
188.43800354 160.66400146 323.75000000 0.001330 -0.871255 0.490829 0.000000
148.71099854 232.73399353 360.00000000 -0.732382 -0.328198 -0.596576 0.000000
255.93800354 144.14100647 371.87500000 -0.147995 0.432491 -0.889409 0.000000
153.98399353 183.86700439 351.25000000 -0.754774 -0.578500 0.309281 0.000000
120.58599854 251.01600647 358.75000000 -0.294555 -0.765843 -0.571596 0.000000
143.08599854 247.50000000 350.00000000 -0.534857 -0.816844 -0.216088 0.000000
82.96880341 225.70300293 374.37500000 0.544127 -0.431663 -0.719439 0.000000
87.18750000 172.26600647 398.12500000 0.448770 0.011914 -0.893568 0.000000
189.84399414 120.23400116 369.37500000 -0.132279 0.853274 -0.504406 0.000000
179.29699707 178.24200439 371.25000000 -0.114005 -0.992181 0.050794 0.000000
138.51600647 182.46099854 317.50000000 -0.814215 0.196325 0.546361 0.000000
219.37500000 156.79699707 371.87500000 -0.316774 0.108264 -0.942302 0.000000
151.87500000 113.90599823 361.87500000 -0.215708 0.821525 -0.527795 0.000000
66.09380341 218.32000732 310.00000000 0.855992 -0.497263 0.141450 0.000000
148.71099854 166.64100647 330.00000000 -0.572252 -0.180631 0.799938 0.000000
203.20300293 135.70300293 294.37500000 -0.234943 -0.788848 0.567909 0.000000
65.74220276 221.48399353 321.25000000 0.841377 -0.530714 0.102116 0.000000
164.53100586 181.05499268 368.75000000 -0.440313 -0.884956 0.151583 0.000000
144.14100647 210.23399353 380.62500000 -0.550828 -0.477161 -0.684767 0.000000
193.35899353 108.28099823 343.12500000 -0.001330 0.871255 -0.490829 0.000000
87.53910065 120.93800354 301.25000000 0.672185 0.736065 -0.079849 0.000000
64.33589935 215.15600586 337.50000000 0.957329 -0.209624 -0.198943 0.000000
85.42970276 198.28100586 283.75000000 -0.471104 -0.284528 0.834928 0.000000
64.68750000 208.47700500 297.50000000 0.905251 -0.369342 0.210018 0.000000
82.26560211 130.42999268 363.75000000 0.468538 0.814780 -0.341477 0.000000
143.43800354 166.64100647 326.87500000 -0.546628 -0.134079 0.826572 0.000000
252.42199707 170.50799561 361.25000000 0.020630 -0.832085 0.554265 0.000000
65.03910065 220.78100586 325.00000000 0.918838 -0.393036 0.035492 0.000000
84.37500000 124.10199738 315.00000000 0.771229 0.617285 -0.155453 0.000000
265.07800293 135.00000000 359.37500000 -0.473531 0.670975 -0.570580 0.000000
170.15600586 137.10899353 385.62500000 0.126747 0.517186 -0.846436 0.000000
145.54699707 110.03900146 358.75000000 -0.263220 0.811464 -0.521767 0.000000
80.50779724 234.14100647 363.75000000 0.630564 -0.596934 -0.496044 0.000000
214.80499268 149.06199646 373.75000000 -0.262458 -0.180865 -0.947841 0.000000
119.53099823 225.70300293 313.12500000 -0.399966 -0.368596 0.839145 0.000000
145.89799500 217.26600647 327.50000000 -0.672594 -0.020975 0.739714 0.000000
124.45300293 223.59399414 314.37500000 -0.404790 -0.197280 0.892875 0.000000
199.68800354 124.45300293 375.62500000 -0.029402 0.788256 -0.614644 0.000000
148.35899353 219.02299500 370.00000000 -0.694463 -0.500348 -0.517082 0.000000
76.28910065 228.51600647 305.00000000 0.620638 -0.637367 0.456696 0.000000
143.43800354 215.15600586 325.62500000 -0.663681 -0.070850 0.744653 0.000000
179.29699707 146.95300293 386.87500000 -0.000978 -0.000978 -0.999999 0.000000
243.28100586 140.62500000 330.62500000 -0.203549 -0.845860 0.493041 0.000000
269.64801025 142.03100586 363.75000000 -0.587130 0.634235 -0.503014 0.000000
250.31199646 129.37500000 360.62500000 -0.169298 0.739726 -0.651264 0.000000
60.82030106 189.14100647 302.50000000 0.999999 0.000978 0.000978 0.000000
195.46899414 121.99199677 372.50000000 -0.023648 0.791522 -0.610682 0.000000
153.98399353 110.39099884 355.62500000 -0.196638 0.809418 -0.553331 0.000000
144.14100647 170.85899353 400.62500000 -0.338034 -0.092191 -0.936608 0.000000
270.00000000 173.32000732 362.50000000 -0.025778 -0.999156 -0.031965 0.000000
74.17970276 235.54699707 322.50000000 0.836029 -0.505259 0.213938 0.000000
202.50000000 172.26600647 359.37500000 0.107817 -0.986943 0.119665 0.000000
67.14839935 163.12500000 348.75000000 0.974303 0.163016 -0.155434 0.000000
65.74220276 172.96899414 363.75000000 0.935714 0.233579 -0.264350 0.000000
165.23399353 107.22699738 312.50000000 0.275799 0.942655 0.187982 0.000000
65.74220276 153.98399353 321.25000000 0.934275 0.352482 -0.053724 0.000000
103.35900116 161.01600647 284.37500000 -0.218048 0.193969 0.956468 0.000000
60.46879959 184.92199707 280.62500000 0.896241 -0.364698 0.252483 0.000000
153.28100586 194.76600647 380.62500000 -0.768105 -0.371873 -0.521272 0.000000
68.90619659 158.90600586 364.37500000 0.915977 0.276385 -0.290855 0.000000
254.53100586 151.17199707 340.62500000 0.314833 -0.631280 0.708778 0.000000
209.53100586 105.81999969 306.25000000 -0.000978 0.999999 -0.000978 0.000000
229.92199707 105.11699677 332.50000000 -0.130093 0.988004 -0.083213 0.000000
75.93750000 183.16400146 386.25000000 0.777484 -0.043902 -0.627369 0.000000
80.85939789 185.62500000 279.37500000 -0.537712 -0.060370 0.840965 0.000000
116.71900177 124.80500031 388.75000000 0.047069 0.726010 -0.686072 0.000000
148.35899353 180.00000000 333.12500000 -0.866082 -0.134467 0.481478 0.000000
149.06199646 183.16400146 335.00000000 -0.928969 -0.051244 0.366594 0.000000
120.93800354 235.54699707 374.37500000 -0.181944 -0.631452 -0.753767 0.000000
248.20300293 142.03100586 333.12500000 0.058834 -0.747617 0.661519 0.000000
118.12500000 244.33599854 367.50000000 -0.176125 -0.727472 -0.663148 0.000000
92.10939789 117.77300262 296.25000000 0.505514 0.841524 0.190505 0.000000
110.39099884 109.68800354 294.37500000 -0.058110 0.906781 0.417579 0.000000
87.53910065 220.78100586 380.00000000 0.463859 -0.490271 -0.737882 0.000000
80.85939789 161.01600647 390.62500000 0.774861 0.175067 -0.607406 0.000000
97.73439789 246.44500732 362.50000000 0.161030 -0.790101 -0.591447 0.000000
142.73399353 236.25000000 364.37500000 -0.558558 -0.432592 -0.707727 0.000000
88.59380341 121.28900146 346.25000000 0.733896 0.676448 -0.061756 0.000000
261.21099854 125.85900116 352.50000000 -0.248325 0.851617 -0.461610 0.000000
67.14839935 160.31199646 358.75000000 0.935714 0.233579 -0.264350 0.000000
149.41400146 102.65599823 337.50000000 -0.105178 0.969412 -0.221761 0.000000
119.53099823 227.10899353 381.87500000 -0.244792 -0.506519 -0.826750 0.000000
122.34400177 145.54699707 311.87500000 -0.703657 0.041224 0.709343 0.000000
107.57800293 180.70300293 290.62500000 -0.469361 -0.124876 0.874132 0.000000
73.82810211 200.39100647 376.87500000 0.754183 -0.178985 -0.631801 0.000000
98.43750000 255.58599854 328.75000000 -0.785701 -0.207573 -0.582741 0.000000
78.04689789 196.87500000 383.12500000 0.748548 -0.299740 -0.591465 0.000000
127.96900177 234.84399414 373.12500000 -0.214448 -0.572376 -0.791453 0.000000
174.37500000 176.13299561 358.75000000 0.011133 -0.953692 0.300580 0.000000
108.63300323 163.12500000 288.75000000 -0.522731 -0.028812 0.852011 0.000000
232.73399353 136.75799561 371.25000000 -0.175091 0.296414 -0.938873 0.000000
114.60900116 118.82800293 293.12500000 -0.634711 -0.347541 0.690187 0.000000
79.10160065 130.78100586 325.00000000 0.708486 0.705724 0.001381 0.000000
139.92199707 159.96099854 403.75000000 -0.097847 -0.235088 -0.967036 0.000000
253.12500000 146.60200500 373.75000000 -0.231867 0.391367 -0.890545 0.000000
271.40600586 145.89799500 366.25000000 -0.647562 0.513004 -0.563463 0.000000
82.26560211 190.19500732 391.25000000 0.703651 -0.265259 -0.659176 0.000000
253.12500000 129.02299500 360.00000000 -0.151398 0.795964 -0.586105 0.000000
179.29699707 107.22699738 303.75000000 0.123584 0.989830 -0.070455 0.000000
63.98440170 189.49200439 351.25000000 0.984137 -0.055395 -0.168541 0.000000
161.01600647 173.67199707 341.87500000 -0.431435 -0.681301 0.591349 0.000000
198.98399353 158.90600586 380.62500000 -0.525285 -0.277539 -0.804392 0.000000
62.57809830 161.01600647 291.87500000 0.962552 0.270297 0.020792 0.000000
71.01560211 178.59399414 379.37500000 0.871255 -0.001330 -0.490829 0.000000
156.79699707 198.28100586 369.37500000 -0.965070 -0.063837 -0.254097 0.000000
86.48439789 151.87500000 279.37500000 -0.360569 -0.084446 0.928902 0.000000
270.70300293 142.03100586 361.87500000 -0.652049 0.554326 -0.517258 0.000000
153.28100586 145.89799500 317.50000000 -0.370128 -0.630041 0.682681 0.000000
205.31199646 143.08599854 307.50000000 -0.440558 -0.764835 0.470038 0.000000
105.46900177 252.77299500 353.75000000 -0.001330 -0.871255 -0.490829 0.000000
267.89099121 126.56199646 340.62500000 -0.756831 0.624807 -0.191894 0.000000
114.96099854 174.37500000 293.75000000 -0.466688 -0.059196 0.882439 0.000000
180.70300293 118.12500000 366.87500000 -0.039906 0.857295 -0.513276 0.000000
115.31199646 256.99200439 332.50000000 -0.195917 -0.974592 0.108565 0.000000
208.12500000 110.39099884 276.87500000 -0.333004 0.798254 0.501896 0.000000
160.31199646 165.23399353 390.62500000 -0.537116 0.020501 -0.843259 0.000000
64.68750000 192.65600586 279.37500000 -0.083397 0.334913 0.938551 0.000000
222.89100647 124.45300293 366.87500000 -0.307807 0.726812 -0.614003 0.000000
155.03900146 210.93800354 338.75000000 -0.887778 0.138671 0.438885 0.000000
84.72660065 133.59399414 378.75000000 0.543396 0.651066 -0.529937 0.000000
104.76599884 188.43800354 291.87500000 -0.359080 -0.225334 0.905696 0.000000
189.14100647 118.82800293 366.87500000 -0.042288 0.879859 -0.473350 0.000000
126.56199646 243.28100586 323.12500000 -0.456148 -0.426928 0.780808 0.000000
122.34400177 192.65600586 398.12500000 -0.314833 -0.631280 -0.708778 0.000000
210.58599854 146.95300293 317.50000000 -0.542470 -0.673468 0.502162 0.000000
67.14839935 148.35899353 303.75000000 0.893371 0.447361 -0.041898 0.000000
249.60899353 118.82800293 346.87500000 -0.250030 0.839057 -0.483186 0.000000
165.23399353 137.81199646 385.62500000 0.090635 0.450386 -0.888222 0.000000
194.76600647 168.04699707 340.62500000 -0.178934 -0.908982 0.376476 0.000000
66.79689789 222.89100647 341.87500000 0.960538 -0.278082 0.006072 0.000000
139.92199707 136.40600586 306.87500000 -0.508162 -0.207816 0.835813 0.000000
123.75000000 230.62500000 378.12500000 -0.315840 -0.565947 -0.761544 0.000000
185.62500000 116.01599884 361.87500000 -0.030910 0.891024 -0.452903 0.000000
258.75000000 143.78900146 371.25000000 -0.073693 0.474137 -0.877362 0.000000
65.74220276 152.57800293 313.75000000 0.934003 0.357082 -0.011437 0.000000
85.07810211 124.10199738 318.75000000 0.754401 0.636004 -0.162416 0.000000
247.50000000 110.03900146 331.25000000 -0.487116 0.759377 -0.431352 0.000000
148.00799561 186.32800293 332.50000000 -0.903354 -0.011800 0.428733 0.000000
171.56199646 111.79699707 353.12500000 -0.080874 0.906065 -0.415337 0.000000
117.42199707 119.18000031 295.00000000 -0.308436 -0.705688 0.637865 0.000000
60.11719894 180.70300293 323.75000000 0.984848 0.057655 0.163553 0.000000
105.46900177 107.93000031 316.25000000 0.376787 0.922384 0.085081 0.000000
112.50000000 131.48399353 301.87500000 -0.872113 0.053732 0.486344 0.000000
159.25799561 181.40600586 385.00000000 -0.734368 -0.553651 -0.392649 0.000000
122.34400177 239.06199646 370.62500000 -0.171212 -0.601513 -0.780300 0.000000
83.67189789 243.63299561 313.75000000 0.503553 -0.778808 0.374022 0.000000
118.12500000 106.52300262 342.50000000 0.283716 0.930194 -0.232902 0.000000
195.46899414 117.06999969 272.50000000 -0.264324 -0.615701 0.742324 0.000000
174.37500000 150.46899414 313.12500000 0.269482 -0.690448 0.671313 0.000000
87.18750000 224.29699707 296.87500000 -0.113805 -0.431335 0.894985 0.000000
64.33589935 212.34399414 340.00000000 0.952116 -0.209330 -0.222836 0.000000
175.78100586 108.63300323 295.00000000 0.178483 0.969458 0.168211 0.000000
238.35899353 137.10899353 370.62500000 -0.074094 0.310675 -0.947624 0.000000
99.84380341 249.25799561 357.50000000 -0.001257 -0.936483 -0.350710 0.000000
89.29689789 158.20300293 279.37500000 -0.190503 -0.190503 0.963025 0.000000
112.50000000 187.03100586 401.87500000 -0.070088 -0.347795 -0.934947 0.000000
213.75000000 105.11699677 331.25000000 -0.009222 0.999075 -0.042012 0.000000
247.50000000 109.68800354 306.87500000 -0.280803 0.912244 0.298262 0.000000
200.39100647 142.38299561 303.75000000 -0.293424 -0.788278 0.540851 0.000000
168.04699707 179.64799500 363.75000000 -0.248021 -0.959279 0.135165 0.000000
129.37500000 251.36700439 355.00000000 -0.279258 -0.877020 -0.390961 0.000000
74.53119659 139.57000732 272.50000000 0.193180 0.399431 0.896179 0.000000
84.37500000 225.00000000 296.87500000 0.037442 -0.349887 0.936044 0.000000
124.45300293 103.00800323 331.25000000 0.001330 0.871255 -0.490829 0.000000
86.48439789 135.00000000 275.62500000 -0.344395 -0.350517 0.870936 0.000000
188.43800354 166.28900146 335.00000000 -0.116704 -0.898476 0.423226 0.000000
81.91410065 125.15599823 298.75000000 0.708386 0.705591 0.018164 0.000000
266.13299561 123.04699707 336.25000000 -0.641685 0.743247 -0.189274 0.000000
145.54699707 158.90600586 324.37500000 -0.511966 -0.426364 0.745725 0.000000
105.46900177 126.56199646 385.62500000 0.312337 0.658660 -0.684553 0.000000
70.31250000 193.35899353 374.37500000 0.828959 -0.124271 -0.545329 0.000000
85.78119659 131.48399353 376.87500000 0.551570 0.678985 -0.484510 0.000000
152.22700500 189.84399414 352.50000000 -0.901048 0.334759 0.275771 0.000000
247.50000000 130.78100586 316.87500000 -0.099775 -0.828565 0.550931 0.000000
157.85200500 179.29699707 348.75000000 -0.509140 -0.808634 0.294765 0.000000
95.62500000 201.09399414 394.37500000 0.354846 -0.398615 -0.845689 0.000000
80.15619659 135.35200500 371.25000000 0.837163 0.482563 -0.257470 0.000000
271.40600586 147.65600586 331.87500000 -0.096996 -0.381152 0.919410 0.000000
165.23399353 170.15600586 386.87500000 -0.333574 -0.348805 -0.875821 0.000000
116.01599884 210.23399353 304.37500000 -0.401661 -0.459733 0.792031 0.000000
73.12500000 202.50000000 281.87500000 0.006051 -0.272317 0.962188 0.000000
63.28120041 167.34399414 335.62500000 0.870545 0.368719 -0.325880 0.000000
118.82800293 256.28900146 332.50000000 -0.210346 -0.937501 0.277211 0.000000
243.28100586 149.06199646 373.12500000 -0.000978 -0.000978 -0.999999 0.000000
101.95300293 207.42199707 391.87500000 0.223617 -0.497435 -0.838185 0.000000
60.82030106 170.15600586 325.00000000 0.997818 0.065825 -0.005224 0.000000
150.46899414 177.89100647 396.87500000 -0.343844 -0.346901 -0.872600 0.000000
101.60199738 111.09400177 312.50000000 0.559743 0.822981 0.096906 0.000000
73.12500000 142.03100586 271.87500000 0.365390 0.255921 0.894983 0.000000
177.18800354 159.60899353 386.87500000 -0.000978 -0.000978 -0.999999 0.000000
195.46899414 164.88299561 335.00000000 -0.249089 -0.772334 0.584342 0.000000
264.37500000 143.08599854 368.75000000 -0.426901 0.593011 -0.682710 0.000000
75.93750000 142.03100586 271.87500000 -0.309454 0.179012 0.933913 0.000000
93.51560211 242.92999268 365.00000000 0.336820 -0.714318 -0.613435 0.000000
82.26560211 168.75000000 276.87500000 -0.408837 -0.113023 0.905582 0.000000
186.32800293 127.96900177 380.62500000 0.012256 0.537892 -0.842925 0.000000
92.81250000 254.17999268 332.50000000 0.402220 -0.914618 0.041151 0.000000
166.64100647 143.43800354 388.12500000 -0.013164 0.240543 -0.970549 0.000000
107.57800293 108.63300323 302.50000000 0.400221 0.892802 0.206708 0.000000
205.31199646 132.53900146 291.25000000 -0.250002 -0.753149 0.608494 0.000000
258.04699707 163.12500000 353.12500000 0.258332 -0.676736 0.689415 0.000000
136.40600586 187.03100586 396.87500000 -0.124165 -0.186874 -0.974506 0.000000
144.84399414 184.57000732 396.25000000 -0.276063 -0.387695 -0.879478 0.000000
120.93800354 165.23399353 298.12500000 -0.641624 0.092078 0.761472 0.000000
262.26599121 173.32000732 368.75000000 0.053865 -0.998078 0.030629 0.000000
156.44500732 215.85899353 358.75000000 -0.974592 -0.195917 -0.108565 0.000000
