101.78900146 260.78500366 321.50000000 0.458122 -0.753684 -0.471258 0.000000
164.12500000 211.46899414 347.25000000 -0.622499 -0.544897 -0.561767 0.000000
92.32029724 112.04699707 282.75000000 0.175889 -0.545705 -0.819310 0.000000
155.44500732 143.21499634 254.50000000 0.221454 -0.294802 -0.929543 0.000000
187.79699707 188.58599854 286.75000000 -0.215525 0.875478 -0.432537 0.000000
138.47999573 138.08599854 213.50000000 -0.809262 0.587434 -0.004108 0.000000
205.94500732 105.73400116 239.75000000 -0.012413 0.605456 -0.795782 0.000000
56.41799927 217.78100586 246.00000000 0.534955 0.001347 0.844879 0.000000
259.99600220 135.71899414 302.00000000 -0.252024 -0.386237 0.887302 0.000000
239.08599854 156.23399353 286.75000000 0.413293 0.465158 -0.782826 0.000000
117.56999969 100.60500336 282.50000000 -0.131026 0.984498 0.116601 0.000000
86.00779724 115.59799957 235.00000000 0.435769 0.656157 0.616087 0.000000
56.41799927 181.48399353 261.50000000 0.844879 0.001347 0.534955 0.000000
138.87500000 196.08200073 220.50000000 -0.495814 -0.519186 0.696143 0.000000
149.52699280 218.57000732 241.00000000 -0.558202 -0.764109 0.323339 0.000000
129.40600586 91.92579651 280.00000000 0.157820 0.881765 -0.444502 0.000000
105.73400116 100.21099854 225.75000000 0.331392 0.930392 0.156683 0.000000
197.26600647 87.98049927 289.00000000 0.276385 0.915977 0.290855 0.000000
146.76600647 94.29299927 295.00000000 0.199236 0.979868 -0.012816 0.000000
142.82000732 128.61700439 244.25000000 0.586929 0.167478 -0.792127 0.000000
63.51950073 177.53900146 318.00000000 0.957508 0.281022 -0.064851 0.000000
58.39059830 184.64100647 298.75000000 0.924280 0.016805 -0.381346 0.000000
111.65200043 181.48399353 194.00000000 -0.689888 0.423907 0.586820 0.000000
152.28900146 268.28100586 295.75000000 -0.938252 0.345672 -0.013928 0.000000
82.45700073 134.92999268 339.50000000 0.860767 0.479845 0.169791 0.000000
118.35900116 96.66020203 226.00000000 -0.078242 0.346120 0.934922 0.000000
191.74200439 199.63299561 307.75000000 -0.591751 0.332353 -0.734420 0.000000
212.25799561 185.42999268 323.25000000 -0.738161 -0.656312 -0.156120 0.000000
264.33599854 106.52300262 282.75000000 -0.564566 -0.320082 0.760797 0.000000
269.85900879 152.68400574 324.00000000 0.274580 0.411111 -0.869249 0.000000
190.95300293 213.04699707 319.75000000 -0.529816 -0.846870 0.045890 0.000000
259.60198975 89.16410065 281.75000000 0.684644 -0.668610 0.290212 0.000000
92.71479797 237.50799561 344.00000000 0.856545 0.516071 -0.001340 0.000000
153.07800293 205.15600586 232.25000000 -0.467988 -0.537937 0.701150 0.000000
209.10200500 192.92599487 295.00000000 0.494685 0.494685 -0.714545 0.000000
85.21880341 252.10499573 256.00000000 0.928439 0.110108 0.354792 0.000000
56.41799927 200.42199707 222.00000000 0.980333 -0.188387 -0.058796 0.000000
110.46900177 102.97299957 280.50000000 -0.317723 0.538054 0.780737 0.000000
60.36330032 175.17199707 308.50000000 0.841077 -0.120569 -0.527307 0.000000
138.08599854 89.55860138 233.00000000 0.104722 0.970252 0.218275 0.000000
57.99610138 183.06199646 284.00000000 0.965070 0.063837 0.254097 0.000000
239.87500000 130.98399353 274.75000000 0.812103 0.242857 -0.530574 0.000000
99.02729797 213.04699707 191.50000000 -0.740788 -0.581932 0.335543 0.000000
105.33999634 187.79699707 188.00000000 -0.863996 -0.414412 -0.285960 0.000000
114.41400146 123.88300323 353.25000000 0.035386 0.728948 -0.683654 0.000000
67.07029724 131.37899780 251.00000000 0.616405 0.787399 -0.006895 0.000000
150.71099854 259.99600220 287.00000000 0.112795 0.089539 0.989576 0.000000
126.64499664 208.31199646 222.00000000 -0.634310 -0.322833 0.702446 0.000000
62.73049927 228.82800293 277.00000000 0.731522 -0.668692 -0.133140 0.000000
233.56199646 167.28100586 341.25000000 -0.000978 -0.000978 -0.999999 0.000000
54.05080032 182.27299500 277.50000000 0.722223 -0.015366 -0.691490 0.000000
198.05499268 125.85500336 262.00000000 -0.259421 0.517288 0.815545 0.000000
160.96899414 91.53119659 302.75000000 -0.000978 -0.000978 -0.999999 0.000000
156.23399353 168.85899353 280.75000000 -0.259889 0.903004 0.342114 0.000000
109.68000031 203.97300720 207.00000000 -0.979121 -0.109612 0.171192 0.000000
104.94499969 267.49200439 265.25000000 0.093992 -0.959234 0.266525 0.000000
56.02339935 157.02299500 247.25000000 0.616052 -0.649443 -0.445762 0.000000
141.24200439 265.91400146 256.25000000 -0.574296 -0.687491 0.444455 0.000000
152.28900146 144.79299927 238.00000000 -0.752542 0.530534 -0.390146 0.000000
66.28119659 177.53900146 192.75000000 0.867459 -0.128459 0.480639 0.000000
190.16400146 210.28500366 326.50000000 -0.531594 -0.801312 -0.274422 0.000000
138.08599854 93.89839935 299.25000000 0.456165 0.593182 0.663361 0.000000
89.55860138 196.47700500 359.00000000 0.802461 -0.585342 -0.115895 0.000000
220.14799500 87.58589935 294.75000000 -0.052861 0.993109 -0.104597 0.000000
95.47660065 115.59799957 323.00000000 0.917752 0.328897 -0.222616 0.000000
168.85899353 120.33200073 242.00000000 0.768170 0.422412 -0.481126 0.000000
96.26560211 249.73800659 208.50000000 0.242814 -0.970072 -0.001184 0.000000
87.58589935 256.05099487 313.00000000 0.438924 -0.870359 0.223207 0.000000
59.17969894 183.85200500 277.75000000 0.297429 -0.021156 -0.954510 0.000000
168.85899353 185.82400513 281.00000000 -0.383405 0.887649 -0.255106 0.000000
147.55499268 87.98049927 280.00000000 0.380955 0.908870 -0.169789 0.000000
160.17999268 110.07399750 230.00000000 0.407982 0.755341 -0.512845 0.000000
127.03900146 115.59799957 220.50000000 -0.975787 -0.176619 0.129019 0.000000
284.45700073 122.30500031 311.00000000 -0.526543 -0.546730 0.651029 0.000000
174.77699280 175.17199707 360.00000000 -0.823911 -0.096676 -0.558412 0.000000
285.64099121 117.56999969 309.75000000 -0.844996 -0.388917 0.367050 0.000000
191.34800720 145.97700500 286.00000000 -0.885003 0.001319 -0.465583 0.000000
161.36300659 104.15599823 326.00000000 0.548171 0.554918 -0.625759 0.000000
96.26560211 104.15599823 282.75000000 0.261810 0.668012 -0.696574 0.000000
96.26560211 114.01999664 306.00000000 0.509977 0.843023 -0.170984 0.000000
215.41400146 91.53119659 323.25000000 -0.033551 0.999412 0.007117 0.000000
85.21880341 255.26199341 319.00000000 0.752129 -0.509612 -0.417849 0.000000
170.83200073 205.15600586 265.00000000 -0.986312 0.010215 0.164574 0.000000
184.64100647 192.92599487 314.00000000 0.079981 0.963581 0.255177 0.000000
231.19500732 180.69500732 333.25000000 0.602262 0.742843 0.292345 0.000000
184.24600220 127.82800293 345.50000000 -0.037442 0.349887 -0.936044 0.000000
195.68800354 181.08999634 337.50000000 -0.468238 -0.541556 -0.698191 0.000000
152.28900146 168.46499634 279.00000000 -0.244318 0.905587 0.346727 0.000000
170.04299927 196.47700500 249.50000000 -0.614921 -0.344160 0.709525 0.000000
126.25000000 114.80899811 210.00000000 -0.949190 0.134836 0.284356 0.000000
82.06250000 127.43399811 197.50000000 0.503061 0.392355 0.770057 0.000000
117.96499634 241.45300293 221.00000000 -0.527122 0.503695 0.684422 0.000000
57.99610138 205.15600586 289.50000000 0.985764 0.024099 -0.166398 0.000000
192.53100586 190.16400146 332.25000000 0.348563 0.662761 -0.662761 0.000000
189.77000427 191.74200439 341.50000000 -0.898533 -0.426209 -0.104806 0.000000
226.46099854 151.10499573 279.50000000 0.244871 0.454761 -0.856289 0.000000
86.40229797 132.56199646 180.50000000 0.813690 -0.087850 0.574623 0.000000
55.62889862 191.74200439 290.00000000 0.951751 -0.078989 0.296532 0.000000
211.46899414 129.40600586 280.75000000 -0.244507 0.412512 0.877525 0.000000
69.43750000 127.03900146 296.75000000 0.198529 0.473185 -0.858302 0.000000
173.59399414 111.65200043 264.50000000 -0.906814 0.167082 -0.387003 0.000000
72.59380341 241.45300293 291.75000000 0.945063 0.235234 -0.226980 0.000000
89.55860138 127.82800293 183.00000000 0.799029 0.579334 0.161010 0.000000
258.02301025 102.57800293 278.25000000 -0.951836 0.001231 -0.306607 0.000000
187.40199280 196.47700500 342.50000000 -0.856383 -0.447273 0.257983 0.000000
116.78099823 207.12899780 360.50000000 0.078680 -0.353394 -0.932160 0.000000
87.58589935 115.59799957 213.50000000 0.710751 0.609449 0.351291 0.000000
154.65600586 115.20300293 338.25000000 0.376774 0.640022 -0.669637 0.000000
61.15230179 213.04699707 279.00000000 0.976723 -0.135968 -0.165906 0.000000
273.80499268 156.23399353 334.75000000 0.477546 0.875733 -0.071005 0.000000
135.71899414 107.70700073 224.00000000 -0.394043 -0.491338 0.776735 0.000000
183.85200500 110.46900177 335.25000000 0.139473 0.838305 -0.527060 0.000000
164.91400146 185.42999268 253.25000000 -0.855851 0.411734 0.313041 0.000000
106.12899780 217.78100586 203.50000000 -0.731725 -0.018188 0.681357 0.000000
274.59399414 125.85500336 329.50000000 -0.139881 0.270436 -0.952522 0.000000
168.07000732 212.65199280 267.50000000 -0.952608 0.295193 0.073476 0.000000
151.50000000 138.87500000 356.25000000 -0.430872 0.533225 -0.728025 0.000000
171.62100220 141.24200439 253.50000000 0.426864 0.529047 -0.733414 0.000000
87.58589935 156.23399353 165.25000000 0.225439 -0.185421 0.956450 0.000000
170.43800354 198.05499268 274.25000000 -0.882439 0.466688 0.059196 0.000000
274.59399414 132.56199646 310.25000000 -0.896264 -0.370613 0.243630 0.000000
202.78900146 188.58599854 286.75000000 0.230863 0.565537 -0.791752 0.000000
152.28900146 149.52699280 223.00000000 -0.801945 0.495835 0.333214 0.000000
142.82000732 274.59399414 292.25000000 -0.985897 -0.064784 0.154304 0.000000
211.07400513 189.37500000 293.50000000 0.838255 0.519629 -0.165269 0.000000
180.30099487 145.97700500 283.00000000 0.889364 0.001318 0.457199 0.000000
183.06199646 112.83599854 338.25000000 -0.042856 0.515649 -0.855728 0.000000
55.62889862 213.83599854 292.50000000 0.282170 0.849594 -0.445613 0.000000
168.46499634 153.86700439 263.50000000 -0.367747 0.813501 -0.450530 0.000000
143.60899353 270.25399780 305.50000000 -0.269592 -0.918341 -0.289775 0.000000
146.76600647 263.15200806 310.00000000 0.202792 -0.667203 -0.716740 0.000000
54.05080032 190.95300293 239.00000000 0.999960 0.008884 -0.000987 0.000000
171.22700500 222.91000366 329.50000000 -0.739905 -0.286054 -0.608863 0.000000
231.98399353 104.94499969 329.25000000 -0.321785 0.599910 -0.732505 0.000000
101.00000000 257.23400879 326.25000000 0.467729 -0.704090 -0.534310 0.000000
175.17199707 189.77000427 354.00000000 -0.534803 -0.394151 -0.747416 0.000000
231.98399353 107.31199646 250.25000000 0.714418 -0.507919 -0.481274 0.000000
163.72999573 251.71099854 297.50000000 -0.652448 -0.745441 0.136489 0.000000
95.47660065 110.46900177 294.75000000 0.354284 0.918880 -0.173613 0.000000
71.41020203 223.30499268 205.00000000 0.724545 -0.666336 0.176158 0.000000
161.36300659 263.54699707 293.00000000 -0.872144 -0.368103 0.322281 0.000000
149.13299561 241.05900574 254.00000000 -0.801126 -0.467190 0.374073 0.000000
153.07800293 261.96899414 307.75000000 -0.483078 -0.529882 -0.697037 0.000000
173.19900513 100.21099854 259.50000000 -0.958300 -0.206014 0.198040 0.000000
120.33200073 99.42189789 315.00000000 0.183842 0.972459 0.143270 0.000000
108.89099884 117.56999969 174.25000000 -0.109841 0.584352 0.804033 0.000000
157.02299500 257.62899780 286.00000000 -0.783795 -0.618785 -0.052632 0.000000
88.76950073 110.46900177 266.50000000 0.413996 0.835862 -0.360475 0.000000
138.08599854 89.55860138 244.00000000 0.133123 0.972434 -0.191444 0.000000
71.01560211 164.12500000 338.25000000 0.795811 0.505555 -0.333316 0.000000
56.41799927 201.21099854 261.00000000 0.900315 -0.385434 0.202171 0.000000
67.07029724 235.53500366 292.00000000 0.183813 -0.794496 -0.578782 0.000000
68.25389862 222.51600647 225.00000000 0.908000 -0.378929 -0.178740 0.000000
66.67579651 134.14100647 263.00000000 0.858312 0.388173 0.335592 0.000000
117.17600250 239.08599854 222.00000000 -0.380172 0.405412 0.831331 0.000000
168.07000732 154.65600586 265.25000000 -0.367747 0.813501 -0.450530 0.000000
105.33999634 221.72700500 204.50000000 -0.668852 -0.117160 0.734106 0.000000
255.26199341 105.73400116 273.50000000 -0.749027 -0.341349 -0.567837 0.000000
168.07000732 230.40600586 326.25000000 -0.429888 -0.763338 -0.482194 0.000000
235.92999268 184.64100647 329.25000000 0.050353 0.943803 0.326651 0.000000
144.39799500 162.15199280 269.50000000 0.876369 0.382938 0.292123 0.000000
68.25389862 176.75000000 189.00000000 0.898947 0.033393 0.436784 0.000000
243.42599487 172.80499268 337.50000000 -0.150342 -0.118562 -0.981499 0.000000
219.35899353 185.03500366 339.00000000 -0.953550 -0.178372 0.242746 0.000000
176.75000000 95.47660065 319.75000000 -0.001184 0.970072 -0.242814 0.000000
200.42199707 207.91799927 323.50000000 -0.496600 -0.827667 -0.261450 0.000000
158.99600220 166.49200439 253.00000000 -0.334766 0.514162 -0.789664 0.000000
227.25000000 91.13670349 268.50000000 -0.297508 0.907181 0.297508 0.000000
153.07800293 260.78500366 271.00000000 -0.721653 -0.529212 0.446264 0.000000
65.88670349 147.55499268 290.00000000 0.267398 -0.917827 0.293415 0.000000
107.31199646 119.14800262 174.25000000 -0.109841 0.584352 0.804033 0.000000
72.19920349 170.43800354 182.00000000 0.999999 0.000978 0.000978 0.000000
271.43798828 102.57800293 308.75000000 -0.495835 0.801945 -0.333214 0.000000
78.90619659 223.69900513 195.00000000 0.759713 -0.348269 0.549131 0.000000
127.03900146 119.14800262 213.75000000 -0.974021 0.213569 -0.075305 0.000000
235.14100647 169.64799500 292.75000000 0.355185 0.702186 -0.617073 0.000000
157.41799927 86.00779724 258.50000000 0.285082 0.916023 -0.282187 0.000000
225.67199707 90.34770203 252.00000000 0.086980 0.985371 -0.146555 0.000000
212.65199280 135.71899414 347.00000000 -0.303714 0.268838 -0.914048 0.000000
182.27299500 203.57800293 338.25000000 -0.958552 -0.278044 0.062211 0.000000
222.12100220 124.67199707 260.00000000 -0.336945 0.669006 -0.662495 0.000000
172.01600647 203.97300720 351.00000000 -0.236949 -0.970883 -0.035239 0.000000
211.46899414 182.27299500 304.75000000 0.956630 -0.261856 -0.127638 0.000000
75.35549927 221.72700500 197.50000000 0.666405 -0.515331 0.538831 0.000000
179.51199341 153.07800293 279.50000000 0.682292 0.149771 0.715574 0.000000
272.22698975 123.09400177 303.25000000 -0.596414 -0.321643 0.735416 0.000000
267.49200439 144.39799500 315.75000000 0.740750 -0.001379 -0.671779 0.000000
104.94499969 117.56999969 174.25000000 0.223223 0.629083 0.744597 0.000000
128.22300720 119.14800262 208.00000000 -0.985699 0.166775 -0.024154 0.000000
123.09400177 190.95300293 210.75000000 -0.688930 -0.001381 0.724826 0.000000
183.06199646 190.16400146 338.25000000 0.035165 0.634377 -0.772224 0.000000
257.23400879 103.36699677 277.25000000 -0.774507 -0.568606 -0.277175 0.000000
114.80899811 191.74200439 204.50000000 -0.727522 -0.311334 0.611377 0.000000
98.63279724 243.42599487 206.00000000 -0.153480 -0.549846 0.821044 0.000000
70.62110138 174.38299561 186.50000000 0.901649 0.027886 0.431570 0.000000
266.30899048 149.13299561 321.00000000 0.758283 -0.622930 -0.192262 0.000000
257.23400879 175.96099854 334.75000000 -0.912557 0.408898 0.006490 0.000000
74.17189789 127.43399811 228.00000000 0.326539 0.267967 0.906403 0.000000
121.12100220 202.78900146 215.00000000 -0.572842 -0.360679 0.736045 0.000000
160.17999268 171.62100220 277.50000000 -0.697513 0.709311 0.101751 0.000000
171.22700500 86.40229797 245.50000000 -0.363489 0.866545 -0.342017 0.000000
81.66799927 242.24200439 222.50000000 0.899887 -0.416745 -0.128555 0.000000
95.47660065 256.83999634 232.50000000 0.991799 -0.090372 -0.090372 0.000000
79.69529724 132.95700073 205.50000000 0.876414 0.263980 0.402758 0.000000
146.76600647 231.19500732 344.25000000 -0.281155 0.146631 -0.948394 0.000000
74.96089935 163.33599854 344.25000000 0.999999 -0.000978 -0.000978 0.000000
84.42970276 247.37100220 228.50000000 0.628439 -0.759300 0.168902 0.000000
110.07399750 198.05499268 202.00000000 -0.716685 -0.333153 0.612676 0.000000
80.08979797 157.02299500 350.00000000 0.407791 0.345294 -0.845268 0.000000
110.46900177 239.47999573 213.50000000 -0.763410 -0.049757 0.643994 0.000000
55.23440170 184.24600220 252.00000000 0.943247 -0.161972 0.289916 0.000000
167.28100586 196.47700500 356.25000000 -0.202429 -0.475334 -0.856201 0.000000
174.38299561 88.76950073 294.50000000 0.060630 0.983163 -0.172380 0.000000
131.77299500 138.08599854 362.25000000 -0.264443 0.380978 -0.885960 0.000000
150.71099854 213.83599854 235.25000000 0.166229 -0.675591 0.718292 0.000000
125.46099854 97.44920349 293.00000000 0.290986 0.926896 -0.237047 0.000000
144.39799500 188.58599854 216.75000000 -0.737068 0.089032 0.669929 0.000000
198.05499268 183.06199646 335.25000000 -0.468238 -0.541556 -0.698191 0.000000
134.92999268 213.04699707 228.75000000 -0.356936 -0.363117 0.860664 0.000000
109.28500366 269.85900879 271.00000000 0.303713 -0.938623 0.163538 0.000000
66.28119659 132.95700073 250.50000000 0.903908 0.260149 -0.339517 0.000000
222.91000366 136.50799561 344.00000000 -0.506176 -0.104677 -0.856054 0.000000
59.96879959 148.34399414 296.75000000 0.354570 0.545617 0.759330 0.000000
172.80499268 88.76950073 250.50000000 -0.834855 0.545703 0.072288 0.000000
251.71099854 88.76950073 276.00000000 -0.296084 0.536751 0.790084 0.000000
188.58599854 89.55860138 292.50000000 0.021058 0.999754 0.007019 0.000000
278.53900146 149.13299561 331.75000000 0.842693 0.529734 -0.096185 0.000000
68.25389862 137.29699707 275.00000000 0.822106 0.451445 0.346900 0.000000
105.33999634 103.36699677 271.50000000 0.451093 0.804262 -0.386881 0.000000
171.22700500 239.47999573 310.00000000 -0.793372 -0.580182 -0.184257 0.000000
56.41799927 183.85200500 218.00000000 0.470451 0.473753 0.744469 0.000000
155.44500732 221.72700500 344.25000000 -0.526114 -0.126792 -0.840909 0.000000
165.30900574 108.89099884 235.00000000 0.871065 0.407507 0.274196 0.000000
57.60160065 204.76199341 287.00000000 0.985764 0.024099 -0.166398 0.000000
119.93800354 92.71479797 236.50000000 0.192287 0.953368 0.232627 0.000000
97.84380341 115.59799957 326.00000000 0.917752 0.328897 -0.222616 0.000000
72.98829651 135.71899414 319.50000000 0.577670 0.756891 0.305637 0.000000
273.80499268 99.42189789 303.75000000 -0.132411 0.602543 -0.787026 0.000000
69.04299927 235.92999268 268.50000000 0.794606 -0.483185 -0.367606 0.000000
168.07000732 171.22700500 289.75000000 -0.705251 0.035333 -0.708077 0.000000
158.60200500 222.51600647 253.25000000 -0.888949 -0.382680 0.251646 0.000000
53.26169968 172.80499268 252.50000000 0.893420 -0.406630 0.190927 0.000000
111.65200043 145.18800354 178.00000000 -0.389284 -0.509816 0.767167 0.000000
82.45700073 203.57800293 174.50000000 -0.109544 -0.571089 0.813546 0.000000
85.61329651 128.61700439 328.00000000 0.689277 0.663570 -0.290814 0.000000
235.92999268 93.50389862 322.00000000 -0.248270 0.945072 -0.212607 0.000000
159.78500366 175.17199707 278.50000000 0.675923 0.308118 -0.669471 0.000000
60.36330032 149.13299561 296.00000000 0.903721 -0.427382 0.025140 0.000000
168.07000732 191.74200439 277.75000000 0.387792 0.812288 0.435667 0.000000
251.71099854 173.59399414 337.25000000 -0.251851 -0.015665 -0.967639 0.000000
204.36700439 181.48399353 310.75000000 -0.321688 -0.782614 0.532946 0.000000
88.76950073 195.68800354 357.50000000 0.802461 -0.585342 -0.115895 0.000000
244.21499634 178.32800293 319.50000000 0.280813 0.872797 -0.399210 0.000000
101.39499664 199.63299561 192.50000000 -0.756676 0.073787 0.649613 0.000000
58.39059830 188.97999573 297.00000000 0.199119 -0.090284 -0.975808 0.000000
174.38299561 113.62500000 244.25000000 0.000978 0.000978 -0.999999 0.000000
201.21099854 88.76950073 283.50000000 -0.625957 0.416751 0.659164 0.000000
102.57800293 107.31199646 280.75000000 0.779029 0.511288 0.362902 0.000000
98.63279724 265.12500000 316.75000000 -0.132684 -0.615711 -0.776720 0.000000
168.07000732 191.74200439 259.25000000 -0.867096 -0.045347 0.496072 0.000000
88.37500000 256.83999634 312.00000000 0.370042 -0.927096 -0.059684 0.000000
79.30079651 133.35200500 207.50000000 0.801420 0.250541 0.543098 0.000000
100.21099854 254.47300720 330.50000000 0.480285 -0.820422 -0.310217 0.000000
64.30860138 202.78900146 312.00000000 0.891307 -0.325065 -0.316077 0.000000
205.15600586 196.87100220 302.00000000 0.484237 0.873281 -0.053804 0.000000
268.28100586 140.45300293 336.75000000 0.073808 0.681642 -0.727953 0.000000
140.45300293 251.31599426 327.50000000 -0.996059 -0.046912 0.075277 0.000000
241.45300293 181.48399353 323.75000000 0.683626 0.329635 0.651150 0.000000
154.65600586 84.82420349 247.00000000 0.572944 0.774973 -0.266742 0.000000
123.09400177 273.41000366 276.00000000 0.622814 -0.755722 0.202453 0.000000
81.66799927 255.65600586 277.50000000 0.782734 -0.597309 -0.174785 0.000000
156.23399353 263.94100952 291.00000000 -0.398594 -0.663221 0.633451 0.000000
190.95300293 212.65199280 321.00000000 -0.529816 -0.846870 0.045890 0.000000
224.48800659 111.25800323 337.50000000 -0.344820 0.404110 -0.847227 0.000000
106.91799927 102.57800293 217.50000000 0.223613 0.965543 0.133134 0.000000
80.48439789 116.38700104 258.50000000 0.470659 0.654903 -0.591255 0.000000
226.85499573 91.53119659 257.00000000 0.168879 0.949775 -0.263451 0.000000
82.06250000 252.10499573 304.00000000 0.674467 -0.725540 -0.136696 0.000000
121.51599884 179.11700439 201.75000000 -0.662761 -0.662761 0.348563 0.000000
131.77299500 228.82800293 231.75000000 -0.764589 -0.073713 0.640289 0.000000
199.63299561 207.52299500 326.25000000 -0.453062 -0.859151 -0.237895 0.000000
209.89100647 138.08599854 265.25000000 0.140905 0.895242 -0.422714 0.000000
243.42599487 154.65600586 288.50000000 0.622046 0.413039 -0.665175 0.000000
69.83200073 196.47700500 338.50000000 0.897162 -0.224658 -0.380303 0.000000
86.79689789 252.89500427 243.00000000 -0.120561 -0.665318 0.736761 0.000000
75.75000000 233.95700073 220.50000000 0.670715 -0.732901 -0.114007 0.000000
217.78100586 93.10939789 316.75000000 -0.073387 0.927347 0.366936 0.000000
162.15199280 174.38299561 233.50000000 -0.614381 0.503288 0.607648 0.000000
66.28119659 146.37100220 225.00000000 0.922019 0.343110 0.179321 0.000000
98.63279724 247.37100220 333.50000000 0.114319 -0.684429 -0.720061 0.000000
207.52299500 198.44900513 323.50000000 -0.710563 -0.598973 0.369230 0.000000
87.58589935 108.49600220 260.00000000 0.506618 0.755828 0.414804 0.000000
282.48400879 149.13299561 334.25000000 -0.158905 0.625027 0.764258 0.000000
135.71899414 235.14100647 238.25000000 -0.755377 0.107490 0.646414 0.000000
82.85160065 117.56999969 284.75000000 0.714084 0.650751 -0.258084 0.000000
266.70300293 129.40600586 302.25000000 -0.732518 -0.494408 0.467951 0.000000
162.54699707 211.07400513 250.50000000 -0.894100 0.011886 0.447710 0.000000
66.67579651 141.24200439 275.00000000 0.821916 0.441839 0.359489 0.000000
55.62889862 194.10899353 255.00000000 0.938820 0.032107 -0.342907 0.000000
166.09800720 213.04699707 259.00000000 -0.746285 0.018134 0.665379 0.000000
109.28500366 201.21099854 203.00000000 -0.744869 -0.432452 0.508090 0.000000
83.64060211 164.12500000 165.25000000 0.207386 -0.145556 0.967370 0.000000
95.47660065 254.47300720 236.50000000 0.991799 -0.090372 -0.090372 0.000000
83.64060211 255.26199341 265.50000000 0.889107 -0.448043 0.093517 0.000000
59.17969894 166.09800720 287.50000000 0.979890 0.187279 -0.068870 0.000000
151.50000000 151.89500427 340.50000000 -0.358378 0.630025 0.688937 0.000000
169.25399780 203.57800293 248.50000000 -0.434079 -0.266540 0.860542 0.000000
168.07000732 187.00799561 271.25000000 -0.719401 0.293208 -0.629676 0.000000
131.77299500 252.89500427 331.50000000 -0.234034 -0.559511 -0.795095 0.000000
177.53900146 95.47660065 319.75000000 -0.001184 0.970072 -0.242814 0.000000
86.00779724 111.65200043 250.00000000 0.746086 0.662386 0.067826 0.000000
65.49220276 151.50000000 301.75000000 0.550839 0.833890 -0.034688 0.000000
175.96099854 117.96499634 262.50000000 -0.345201 -0.892143 0.291404 0.000000
167.67599487 253.28900146 293.00000000 -0.449441 -0.643253 -0.619862 0.000000
107.31199646 130.58999634 358.00000000 0.328955 0.943004 -0.050311 0.000000
144.39799500 261.57400513 316.00000000 -0.508478 -0.410379 -0.756994 0.000000
265.91400146 99.81639862 313.50000000 -0.213172 0.889441 -0.404292 0.000000
103.76200104 119.93800354 345.00000000 0.210173 0.799272 -0.563019 0.000000
284.85198975 134.92999268 323.75000000 -0.790304 -0.392728 0.470303 0.000000
134.92999268 99.81639862 307.00000000 -0.397663 0.888460 0.229137 0.000000
170.83200073 210.67999268 314.50000000 -0.961984 0.266027 0.061779 0.000000
71.41020203 146.76600647 212.50000000 0.902717 0.409814 0.130971 0.000000
137.69099426 234.35200500 239.50000000 -0.659084 -0.089144 0.746767 0.000000
115.20300293 158.99600220 189.50000000 -0.866018 -0.498200 -0.042546 0.000000
60.36330032 172.80499268 211.00000000 0.849876 0.340261 0.402409 0.000000
125.46099854 104.55100250 222.00000000 -0.602660 0.085268 0.793430 0.000000
247.76600647 156.23399353 295.75000000 0.599550 0.518484 -0.609683 0.000000
140.84800720 176.75000000 212.50000000 -0.432935 -0.549047 0.714923 0.000000
176.75000000 136.90199280 285.50000000 -0.483171 0.819974 0.306900 0.000000
57.99610138 196.47700500 267.00000000 0.984699 0.005692 0.174172 0.000000
158.20700073 243.03100586 320.00000000 -0.622347 -0.622347 -0.474729 0.000000
162.54699707 209.10200500 247.25000000 -0.774674 -0.488841 0.401142 0.000000
82.85160065 115.20300293 247.25000000 0.712305 0.700976 0.035403 0.000000
88.76950073 125.46099854 327.00000000 0.686113 0.666831 -0.290835 0.000000
81.27339935 165.70300293 165.25000000 0.512867 0.766858 0.385871 0.000000
74.56639862 234.35200500 216.50000000 0.975911 -0.022530 -0.217001 0.000000
66.28119659 131.77299500 247.25000000 0.670232 0.707727 0.223411 0.000000
145.18800354 239.47999573 332.50000000 -0.341553 -0.558464 -0.755949 0.000000
262.75799561 147.94900513 305.50000000 0.644410 0.323017 -0.693106 0.000000
236.71899414 169.25399780 294.00000000 0.340464 0.325333 -0.882181 0.000000
91.53119659 107.70700073 254.00000000 0.505655 0.861942 -0.036999 0.000000
164.91400146 241.05900574 289.50000000 -0.250594 -0.244994 0.936579 0.000000
275.38299561 149.92199707 327.25000000 0.840822 0.432111 -0.326033 0.000000
228.43400574 108.89099884 255.00000000 0.187656 0.593482 -0.782664 0.000000
62.73049927 142.82000732 266.00000000 0.705955 0.488995 -0.512360 0.000000
236.71899414 161.75799561 289.75000000 0.448498 0.196866 -0.871833 0.000000
171.62100220 159.39100647 288.50000000 0.110738 0.424730 -0.898522 0.000000
175.96099854 127.43399811 345.00000000 -0.065862 0.853397 -0.517083 0.000000
89.16410065 113.62500000 296.25000000 0.489460 0.867486 -0.088864 0.000000
89.95310211 134.53500366 173.50000000 0.839070 0.343470 0.421888 0.000000
125.85500336 137.29699707 363.00000000 -0.300188 0.339018 -0.891602 0.000000
171.22700500 215.41400146 292.75000000 -0.322809 -0.500910 -0.803046 0.000000
251.71099854 127.03900146 283.75000000 0.812716 0.314040 -0.490786 0.000000
246.18800354 169.25399780 337.50000000 -0.150342 -0.118562 -0.981499 0.000000
61.15230179 164.12500000 216.00000000 0.955491 0.260348 0.138764 0.000000
67.85939789 230.80099487 278.00000000 0.539547 -0.803878 -0.250337 0.000000
156.23399353 250.92199707 265.25000000 0.409060 -0.737622 0.537199 0.000000
122.30500031 91.13670349 248.00000000 0.660542 0.710990 0.241200 0.000000
259.60198975 162.15199280 316.50000000 0.386553 0.593812 -0.705666 0.000000
218.96499634 90.74220276 251.00000000 -0.199740 0.967775 -0.153349 0.000000
87.19139862 228.82800293 193.50000000 0.004001 -0.873520 0.486771 0.000000
145.97700500 239.47999573 247.50000000 -0.596737 -0.292769 0.747122 0.000000
164.12500000 145.97700500 353.25000000 -0.009527 0.551215 0.834309 0.000000
197.26600647 92.71479797 316.50000000 0.285503 0.954692 0.083972 0.000000
69.04299927 164.12500000 189.50000000 0.921907 0.352205 0.161369 0.000000
194.10899353 126.64499664 346.50000000 0.258617 0.159458 -0.952728 0.000000
167.67599487 222.51600647 334.00000000 -0.563702 -0.590787 -0.577244 0.000000
109.28500366 105.73400116 314.50000000 -0.639298 0.272618 -0.719011 0.000000
116.78099823 247.37100220 340.00000000 0.438792 -0.774818 -0.455104 0.000000
97.05470276 123.48799896 346.00000000 0.405148 0.689578 -0.600281 0.000000
65.49220276 220.93800354 307.75000000 0.714275 -0.667590 -0.210081 0.000000
56.02339935 177.53900146 228.75000000 0.958193 0.286119 0.001218 0.000000
90.74220276 263.54699707 292.75000000 0.337764 -0.922844 0.185134 0.000000
152.28900146 92.32029724 295.75000000 0.383552 0.923367 0.016788 0.000000
114.80899811 160.17999268 183.50000000 -0.786915 -0.525142 0.324024 0.000000
212.25799561 92.32029724 262.25000000 -0.267420 0.955070 -0.127782 0.000000
134.92999268 214.62500000 229.75000000 -0.346693 -0.371347 0.861339 0.000000
157.41799927 153.86700439 239.50000000 -0.768063 0.260227 -0.585116 0.000000
223.30499268 88.37500000 287.75000000 0.068201 0.970939 0.229404 0.000000
86.79689789 145.18800354 350.25000000 0.877110 0.263284 -0.401695 0.000000
191.34800720 117.56999969 261.50000000 -0.928001 0.333522 -0.166063 0.000000
264.33599854 127.82800293 328.75000000 0.042719 0.238004 -0.970324 0.000000
214.62500000 94.29299927 309.50000000 0.105696 0.993546 0.041166 0.000000
203.97300720 193.32000732 331.50000000 -0.924983 -0.300726 -0.232315 0.000000
246.97700500 94.29299927 309.50000000 -0.239713 0.957527 -0.160250 0.000000
97.44920349 264.33599854 248.50000000 0.315485 -0.948930 -0.001237 0.000000
134.14100647 127.43399811 221.00000000 -0.840234 0.438044 0.319569 0.000000
75.75000000 244.21499634 255.50000000 0.717648 -0.691446 0.082973 0.000000
123.09400177 93.10939789 232.25000000 0.192287 0.953368 0.232627 0.000000
178.32800293 128.22300720 346.00000000 -0.050033 0.713333 -0.699037 0.000000
218.57000732 103.36699677 241.25000000 0.424641 0.503339 -0.752549 0.000000
140.45300293 273.80499268 298.75000000 -0.143225 -0.719141 -0.679943 0.000000
122.69899750 130.98399353 188.50000000 -0.778475 -0.215125 0.589660 0.000000
119.93800354 234.35200500 350.25000000 0.547575 -0.121197 -0.827933 0.000000
129.40600586 92.32029724 286.25000000 0.121651 0.992181 -0.027902 0.000000
136.11300659 198.84399414 221.00000000 -0.381810 -0.518287 0.765245 0.000000
187.00799561 101.00000000 329.25000000 0.022437 0.075860 -0.996866 0.000000
210.28500366 191.74200439 320.00000000 -0.864265 -0.207483 -0.458254 0.000000
134.14100647 281.69500732 292.75000000 0.035442 -0.920189 -0.389866 0.000000
106.91799927 202.00000000 201.00000000 -0.797017 -0.299476 0.524479 0.000000
149.92199707 91.53119659 294.25000000 0.346913 0.936794 -0.045475 0.000000
110.86299896 172.01600647 188.50000000 -0.500913 -0.461236 0.732357 0.000000
66.67579651 202.78900146 335.00000000 0.712012 -0.104664 -0.694323 0.000000
139.66400146 95.47660065 297.25000000 0.223737 0.913715 0.339215 0.000000
191.74200439 89.55860138 293.50000000 0.129841 0.988433 0.078373 0.000000
108.89099884 112.04699707 326.25000000 0.317672 0.886772 -0.335739 0.000000
62.73049927 185.42999268 313.00000000 0.955195 -0.046811 -0.292252 0.000000
102.18399811 99.42189789 285.00000000 0.533353 0.253459 -0.807027 0.000000
116.78099823 265.12500000 323.25000000 -0.368748 -0.923910 0.102052 0.000000
97.44920349 138.87500000 357.50000000 0.426313 0.058195 -0.902702 0.000000
265.51998901 117.56999969 294.00000000 -0.600043 -0.529052 0.600043 0.000000
166.09800720 134.14100647 245.00000000 0.512565 0.696220 -0.502548 0.000000
134.14100647 163.72999573 202.50000000 -0.558202 -0.323339 0.764109 0.000000
231.98399353 92.71479797 311.50000000 0.050606 0.998693 -0.007229 0.000000
67.46479797 210.67999268 334.50000000 0.807688 -0.587024 0.055166 0.000000
213.04699707 94.29299927 308.50000000 0.059945 0.955293 -0.289521 0.000000
69.04299927 230.40600586 302.50000000 0.980782 -0.053758 -0.187555 0.000000
229.61700439 94.29299927 325.00000000 -0.140751 0.989763 0.023646 0.000000
63.51950073 153.07800293 269.00000000 0.797509 -0.267925 -0.540551 0.000000
61.15230179 144.39799500 238.50000000 0.929919 0.364905 -0.045777 0.000000
89.55860138 127.82800293 183.50000000 0.799029 0.579334 0.161010 0.000000
181.48399353 151.50000000 265.25000000 0.327500 0.852120 -0.408210 0.000000
119.14800262 268.67599487 252.00000000 -0.000978 -0.999999 -0.000978 0.000000
78.51170349 133.35200500 323.00000000 0.578289 0.768411 -0.274093 0.000000
126.25000000 122.30500031 350.25000000 -0.260443 0.955838 -0.136171 0.000000
250.92199707 91.92579651 298.00000000 -0.026203 0.987754 -0.153803 0.000000
72.59380341 222.91000366 335.00000000 0.244417 -0.915479 0.319622 0.000000
274.59399414 111.25800323 318.25000000 -0.358286 0.600415 -0.714936 0.000000
238.29699707 92.71479797 314.00000000 -0.001011 0.999443 -0.033348 0.000000
138.08599854 280.11700439 292.75000000 -0.500555 -0.681358 0.534037 0.000000
162.15199280 84.42970276 248.00000000 -0.389087 0.836459 -0.385937 0.000000
194.89799500 205.15600586 313.75000000 -0.277518 0.854018 -0.440042 0.000000
129.80099487 215.41400146 228.50000000 -0.506639 -0.283906 0.814073 0.000000
176.75000000 118.35900116 265.25000000 -0.462130 -0.859531 0.218270 0.000000
57.99610138 159.39100647 265.50000000 0.995977 0.085431 0.027035 0.000000
66.67579651 138.87500000 273.50000000 0.903047 0.409964 0.128202 0.000000
216.99200439 182.27299500 310.75000000 -0.190209 -0.570627 -0.798878 0.000000
108.89099884 168.46499634 184.50000000 -0.462400 -0.549204 0.696104 0.000000
145.97700500 136.90199280 248.50000000 0.419540 0.572100 -0.704761 0.000000
82.85160065 130.98399353 326.25000000 0.679345 0.691955 -0.244312 0.000000
128.61700439 271.04299927 288.50000000 -0.042183 -0.999020 -0.013375 0.000000
149.13299561 92.71479797 292.00000000 0.295364 0.912283 -0.283724 0.000000
214.62500000 190.95300293 313.75000000 -0.917137 0.249866 -0.310527 0.000000
67.46479797 239.87500000 264.50000000 0.985741 -0.094164 -0.139458 0.000000
156.62899780 189.37500000 226.50000000 -0.465385 -0.221397 0.856971 0.000000
74.56639862 213.04699707 344.00000000 0.648975 -0.477928 -0.591959 0.000000
88.37500000 135.71899414 347.25000000 0.904386 0.204029 -0.374777 0.000000
176.75000000 193.32000732 289.75000000 -0.272213 0.280854 -0.920338 0.000000
74.56639862 153.07800293 184.50000000 0.945258 0.314210 0.088084 0.000000
75.35549927 198.05499268 345.00000000 0.992394 -0.123096 -0.001089 0.000000
67.46479797 238.29699707 248.50000000 0.919929 -0.366023 0.140564 0.000000
149.13299561 162.54699707 265.25000000 -0.669468 0.535239 -0.515104 0.000000
177.53900146 193.32000732 295.75000000 -0.196057 -0.980283 0.024654 0.000000
172.01600647 90.74220276 298.75000000 0.125867 0.952617 -0.276908 0.000000
176.75000000 227.64500427 322.00000000 -0.632812 -0.747307 0.202686 0.000000
245.00399780 94.68750000 315.00000000 -0.436786 0.856714 -0.274332 0.000000
119.93800354 91.13670349 254.50000000 0.660542 0.710990 0.241200 0.000000
153.47300720 157.02299500 221.00000000 -0.699131 -0.505577 0.505577 0.000000
270.64801025 125.46099854 328.25000000 -0.076181 0.180174 -0.980680 0.000000
207.52299500 88.37500000 283.75000000 -0.144990 0.986642 -0.074263 0.000000
63.12500000 203.97300720 321.00000000 0.809084 -0.437386 -0.392526 0.000000
56.41799927 160.17999268 231.50000000 0.234156 0.494328 0.837144 0.000000
90.74220276 228.43400574 194.50000000 -0.089918 -0.952609 -0.290604 0.000000
170.04299927 228.82800293 281.00000000 -0.915793 -0.299477 0.267649 0.000000
74.17189789 122.30500031 247.25000000 0.823106 0.417104 0.385385 0.000000
241.45300293 138.08599854 338.25000000 -0.026913 0.188388 -0.981726 0.000000
95.87110138 157.02299500 171.00000000 -0.795668 0.231101 0.559915 0.000000
122.30500031 99.02729797 303.00000000 0.160858 0.955844 -0.245940 0.000000
108.89099884 250.13299561 213.75000000 0.513552 -0.856842 0.045680 0.000000
106.52300262 98.23829651 234.00000000 0.374863 0.893449 0.247439 0.000000
191.74200439 196.08200073 316.50000000 -0.145912 0.457961 0.876916 0.000000
179.11700439 148.73800659 284.00000000 0.965980 0.127340 0.225095 0.000000
74.56639862 124.67199707 245.00000000 0.819595 0.431282 0.377173 0.000000
201.21099854 198.44900513 303.50000000 0.111085 0.966566 -0.231108 0.000000
91.53119659 124.27700043 184.00000000 0.770799 0.549655 0.322101 0.000000
138.87500000 238.69099426 343.50000000 -0.383604 -0.709585 -0.591047 0.000000
113.23000336 197.26600647 205.50000000 -0.660993 -0.272361 0.699219 0.000000
72.19920349 172.80499268 181.00000000 0.970602 0.190540 0.147061 0.000000
191.74200439 102.97299957 329.50000000 0.022437 0.075860 -0.996866 0.000000
128.61700439 124.27700043 212.00000000 -0.894990 0.444120 0.041847 0.000000
162.54699707 93.89839935 302.75000000 -0.005637 0.163482 -0.986530 0.000000
161.75799561 179.90600586 228.75000000 -0.769924 0.061651 0.635151 0.000000
101.39499664 203.57800293 191.50000000 -0.776297 0.052703 0.628160 0.000000
257.23400879 143.60899353 337.25000000 -0.000978 -0.000978 -0.999999 0.000000
228.43400574 130.19500732 340.50000000 -0.923189 0.384343 0.001277 0.000000
78.90619659 151.89500427 341.50000000 0.705048 0.436300 -0.559061 0.000000
107.31199646 249.34399414 332.25000000 -0.136649 -0.731298 -0.668229 0.000000
217.78100586 89.16410065 286.75000000 0.093150 0.963397 0.251376 0.000000
231.98399353 92.32029724 307.75000000 0.073212 0.988939 -0.128992 0.000000
134.14100647 240.27000427 343.00000000 -0.057626 -0.549555 -0.833468 0.000000
200.02699280 91.53119659 317.50000000 0.246666 0.968254 0.040497 0.000000
155.44500732 156.62899780 265.50000000 -0.226783 0.714758 -0.661582 0.000000
240.66400146 87.58589935 281.25000000 -0.252479 0.958896 0.129510 0.000000
67.07029724 143.21499634 227.00000000 0.882719 0.230728 0.409355 0.000000
83.64060211 175.17199707 353.25000000 0.149339 0.028500 -0.988375 0.000000
84.42970276 174.38299561 165.25000000 -0.000978 -0.000978 0.999999 0.000000
82.06250000 179.11700439 353.25000000 0.426336 0.153596 -0.891429 0.000000
72.19920349 237.50799561 237.00000000 -0.266184 -0.424373 0.865479 0.000000
221.33200073 103.36699677 333.50000000 -0.481712 -0.801787 -0.353682 0.000000
159.78500366 171.22700500 276.50000000 -0.770820 0.232024 -0.593297 0.000000
251.71099854 89.95310211 292.25000000 -0.135551 0.946171 -0.293917 0.000000
112.44100189 152.28900146 180.50000000 -0.332512 -0.397468 0.855252 0.000000
79.69529724 175.17199707 165.25000000 -0.000978 -0.000978 0.999999 0.000000
80.48439789 175.17199707 165.25000000 -0.000978 -0.000978 0.999999 0.000000
176.75000000 104.94499969 253.25000000 0.747382 -0.428718 0.507563 0.000000
149.92199707 161.36300659 272.50000000 0.440979 0.762288 -0.473766 0.000000
261.17999268 93.89839935 297.75000000 -0.146632 0.872534 -0.466029 0.000000
62.73049927 201.21099854 327.50000000 0.606978 -0.752023 -0.256981 0.000000
144.00399780 238.29699707 339.00000000 -0.580443 -0.761732 -0.287836 0.000000
111.25800323 99.81639862 283.00000000 -0.693485 -0.546432 -0.469564 0.000000
195.68800354 91.53119659 268.25000000 0.086300 0.858755 0.505067 0.000000
220.93800354 123.88300323 259.25000000 -0.553762 0.832674 -0.001354 0.000000
71.41020203 240.66400146 270.00000000 0.762939 -0.518928 0.385536 0.000000
149.13299561 87.98049927 254.50000000 0.176591 0.983527 0.038593 0.000000
265.12500000 116.38700104 291.50000000 -0.777972 -0.394670 0.488872 0.000000
76.93360138 248.55499268 269.00000000 0.832741 -0.501485 -0.234640 0.000000
178.32800293 111.25800323 338.25000000 -0.140535 0.557700 -0.818059 0.000000
104.94499969 113.23000336 179.00000000 0.579627 0.646830 0.495623 0.000000
247.37100220 123.88300323 275.00000000 0.538035 -0.195511 0.819935 0.000000
151.50000000 157.81199646 268.25000000 -0.199896 0.708158 -0.677166 0.000000
258.02301025 153.07800293 337.25000000 -0.000978 -0.000978 -0.999999 0.000000
128.61700439 122.69899750 348.50000000 -0.109161 0.936631 -0.332875 0.000000
62.73049927 228.82800293 260.50000000 0.956066 -0.259786 -0.135827 0.000000
84.82420349 254.86700439 253.00000000 0.781566 -0.414344 -0.466340 0.000000
109.68000031 213.83599854 359.25000000 0.125488 -0.167732 -0.977813 0.000000
195.68800354 140.45300293 347.25000000 -0.248941 0.123819 -0.960571 0.000000
155.83999634 216.20300293 352.50000000 -0.383957 -0.875664 -0.292900 0.000000
281.69500732 147.55499268 335.75000000 -0.294164 0.644589 0.705672 0.000000
59.96879959 218.57000732 274.25000000 0.891912 -0.222610 0.393621 0.000000
167.28100586 105.33999634 234.00000000 0.381276 0.441898 -0.812007 0.000000
71.01560211 236.71899414 289.75000000 0.297441 -0.196898 -0.934216 0.000000
214.62500000 114.41400146 250.25000000 0.168133 0.774019 -0.610430 0.000000
102.57800293 161.75799561 180.75000000 -0.388992 -0.792510 0.469695 0.000000
99.81639862 101.00000000 250.50000000 0.321200 0.835121 0.446547 0.000000
182.27299500 170.43800354 356.25000000 -0.534955 0.001347 -0.844879 0.000000
169.64799500 220.54299927 269.50000000 -0.995708 -0.086157 0.033808 0.000000
137.29699707 271.83200073 276.50000000 -0.208661 -0.969059 -0.131853 0.000000
90.34770203 162.54699707 360.50000000 0.846120 -0.129612 -0.516993 0.000000
251.71099854 139.66400146 289.75000000 -0.391107 0.751121 0.531839 0.000000
159.78500366 168.85899353 283.50000000 0.609192 0.110095 -0.785344 0.000000
272.22698975 102.57800293 306.75000000 -0.789862 0.309905 -0.529223 0.000000
183.45700073 114.41400146 282.50000000 -0.336687 0.796240 -0.502637 0.000000
107.31199646 179.11700439 186.75000000 -0.808065 -0.076070 0.584161 0.000000
93.89839935 138.87500000 356.25000000 0.596900 0.364682 -0.714645 0.000000
106.12899780 261.17999268 233.00000000 0.196114 -0.877353 -0.437939 0.000000
247.76600647 149.13299561 286.75000000 0.671554 0.577771 -0.463892 0.000000
284.06201172 143.60899353 323.75000000 -0.055448 0.109765 -0.992410 0.000000
151.89500427 168.85899353 218.00000000 -0.782876 0.221686 0.581344 0.000000
106.52300262 121.91000366 349.00000000 0.181476 0.770129 -0.611529 0.000000
68.64839935 150.71099854 319.75000000 0.938459 -0.288863 -0.189350 0.000000
276.17199707 147.55499268 324.25000000 0.553359 0.519720 -0.650911 0.000000
151.50000000 175.17199707 216.75000000 -0.927096 -0.370042 0.059684 0.000000
246.97700500 158.20700073 298.50000000 0.244570 0.451164 -0.858275 0.000000
71.41020203 153.86700439 331.00000000 0.798304 0.085172 -0.596202 0.000000
142.82000732 230.01199341 344.50000000 -0.036130 -0.090871 -0.995207 0.000000
204.36700439 125.46099854 259.25000000 0.343419 0.797052 -0.496760 0.000000
135.71899414 134.53500366 228.00000000 -0.520888 0.615289 0.591689 0.000000
132.56199646 271.04299927 310.00000000 -0.461767 -0.555121 -0.691818 0.000000
75.75000000 168.85899353 347.25000000 0.988342 -0.063876 -0.138205 0.000000
168.07000732 177.93400574 267.50000000 -0.813044 0.552628 -0.183200 0.000000
110.46900177 117.17600250 339.50000000 -0.055328 0.795871 -0.602933 0.000000
61.15230179 161.75799561 218.00000000 0.831478 0.438530 0.341079 0.000000
238.29699707 88.37500000 281.25000000 -0.218639 0.967892 0.124023 0.000000
155.44500732 163.33599854 225.75000000 -0.769609 -0.029439 0.637836 0.000000
99.42189789 256.05099487 218.00000000 0.019394 -0.986788 0.160852 0.000000
89.55860138 113.62500000 234.50000000 0.792912 0.522782 0.313033 0.000000
87.58589935 130.58999634 344.50000000 0.938109 0.006296 -0.346282 0.000000
135.32400513 99.42189789 307.50000000 -0.063894 0.942760 0.327293 0.000000
92.32029724 132.56199646 171.25000000 0.839070 0.343470 0.421888 0.000000
83.64060211 256.44500732 271.25000000 0.759337 -0.637008 0.132772 0.000000
61.54690170 222.12100220 288.00000000 0.927117 -0.363020 0.093117 0.000000
236.71899414 110.86299896 332.00000000 -0.250113 0.611911 -0.750339 0.000000
113.23000336 265.91400146 317.50000000 0.242049 -0.387575 -0.889493 0.000000
192.53100586 196.08200073 305.50000000 -0.222890 0.963250 -0.149897 0.000000
176.75000000 89.55860138 292.00000000 0.144467 0.985004 -0.094322 0.000000
102.57800293 112.83599854 323.25000000 0.132622 0.933825 -0.332239 0.000000
186.21899414 136.11300659 271.50000000 -0.096854 0.047870 -0.994147 0.000000
77.32810211 129.01199341 306.50000000 0.579277 0.599543 -0.552255 0.000000
69.83200073 128.61700439 261.50000000 0.843368 0.422463 -0.332047 0.000000
202.78900146 87.19139862 301.00000000 -0.296936 0.953986 -0.041697 0.000000
141.24200439 92.32029724 283.75000000 0.001347 0.534955 0.844879 0.000000
206.73399353 173.98800659 304.50000000 0.741145 -0.670560 0.032469 0.000000
256.44500732 173.19900513 327.00000000 0.137495 0.866945 -0.479063 0.000000
174.38299561 127.03900146 247.25000000 0.124114 0.124114 -0.984475 0.000000
138.87500000 162.15199280 205.00000000 -0.554577 -0.216608 0.803446 0.000000
73.77729797 205.94500732 187.00000000 0.903141 -0.296136 0.310869 0.000000
180.69500732 206.33999634 342.50000000 -0.768632 -0.343226 -0.539815 0.000000
192.53100586 158.60200500 289.75000000 -0.064634 -0.153947 -0.985963 0.000000
115.99199677 117.17600250 339.00000000 -0.055328 0.795871 -0.602933 0.000000
149.13299561 265.51998901 281.50000000 -0.425252 -0.901425 0.081197 0.000000
159.39100647 84.03520203 240.50000000 -0.204145 0.973135 0.106456 0.000000
55.62889862 186.21899414 217.00000000 0.470451 0.473753 0.744469 0.000000
76.53910065 249.73800659 268.00000000 0.832741 -0.501485 -0.234640 0.000000
198.84399414 199.23800659 299.50000000 -0.103947 0.985701 -0.132622 0.000000
56.81250000 175.96099854 228.75000000 0.517288 0.259421 -0.815545 0.000000
120.72699738 240.66400146 222.75000000 -0.380172 0.405412 0.831331 0.000000
164.91400146 115.59799957 339.50000000 0.102024 0.527363 -0.843493 0.000000
77.32810211 243.82000732 323.25000000 0.303703 -0.095975 -0.947921 0.000000
143.60899353 108.49600220 322.50000000 0.352613 0.739351 -0.573606 0.000000
61.94139862 217.78100586 293.50000000 0.940726 -0.247997 -0.231371 0.000000
169.64799500 157.02299500 268.25000000 -0.367747 0.813501 -0.450530 0.000000
94.29299927 188.58599854 174.50000000 -0.930306 -0.112723 0.349034 0.000000
137.29699707 212.25799561 359.25000000 0.385871 -0.512867 -0.766858 0.000000
85.61329651 127.03900146 324.50000000 0.655631 0.645722 -0.391397 0.000000
81.66799927 119.14800262 232.00000000 0.653637 0.743794 0.139743 0.000000
91.92579651 113.62500000 208.50000000 0.791159 0.609349 0.052555 0.000000
123.88300323 105.73400116 201.75000000 -0.688634 0.507679 0.517732 0.000000
61.54690170 161.36300659 217.50000000 0.831478 0.438530 0.341079 0.000000
174.38299561 183.45700073 356.50000000 -0.711806 -0.308288 -0.631103 0.000000
72.59380341 235.14100647 291.75000000 0.635056 -0.523879 0.567676 0.000000
93.10939789 254.47300720 226.00000000 0.545818 -0.786295 -0.289521 0.000000
109.68000031 95.47660065 247.25000000 0.713223 0.591893 -0.375467 0.000000
216.99200439 89.95310211 288.25000000 0.097789 0.966456 0.237487 0.000000
104.94499969 104.15599823 288.75000000 0.606026 -0.082443 -0.791161 0.000000
78.90619659 236.71899414 329.25000000 0.604080 -0.570238 -0.556701 0.000000
202.00000000 204.36700439 310.75000000 -0.104108 0.626117 -0.772748 0.000000
208.31199646 91.13670349 315.50000000 0.012326 0.989421 0.144547 0.000000
113.62500000 134.53500366 360.00000000 -0.192334 0.900934 -0.389007 0.000000
223.30499268 155.83999634 280.00000000 0.326496 0.378612 -0.866056 0.000000
105.73400116 158.60200500 365.25000000 -0.000978 -0.000978 -0.999999 0.000000
242.24200439 182.27299500 330.75000000 -0.113731 0.508190 0.853702 0.000000
195.68800354 88.76950073 279.50000000 -0.522841 0.453129 0.722019 0.000000
95.47660065 130.58999634 166.00000000 -0.298526 0.139132 0.944206 0.000000
159.39100647 87.19139862 269.00000000 -0.000978 0.999999 -0.000978 0.000000
164.52000427 187.00799561 238.00000000 -0.999999 -0.000978 -0.000978 0.000000
134.14100647 209.89100647 359.25000000 0.142854 -0.271022 -0.951914 0.000000
270.64801025 163.33599854 336.75000000 0.265950 0.673633 -0.689558 0.000000
78.90619659 232.37899780 204.50000000 0.662838 -0.558798 0.498387 0.000000
201.21099854 91.92579651 316.00000000 0.226199 0.967418 0.113739 0.000000
69.43750000 213.44099426 338.00000000 0.720029 -0.092387 -0.687767 0.000000
271.04299927 161.75799561 327.50000000 0.721880 0.567309 0.396294 0.000000
