183.92599487 185.60600281 202.50000000 -0.000978 -0.000978 -0.999999 0.000000
173.00799561 184.76600647 82.50000000 -0.306190 -0.148332 0.940343 0.000000
234.31599426 199.04299927 172.50000000 -0.536892 -0.819786 -0.199243 0.000000
143.61300659 220.87899780 197.50000000 0.155248 -0.397378 -0.904427 0.000000
109.18000031 186.44500732 162.50000000 0.948187 0.001236 -0.317711 0.000000
125.97699738 209.12100220 72.50000000 -0.502954 -0.086423 0.859981 0.000000
128.49600220 220.03900146 87.50000000 -0.380867 -0.334608 0.861962 0.000000
194.00399780 149.49200439 192.50000000 0.023836 0.688443 -0.724899 0.000000
163.77000427 239.35600281 182.50000000 -0.376978 -0.610737 -0.696339 0.000000
187.28500366 153.69099426 192.50000000 0.323415 0.285018 -0.902312 0.000000
110.85900116 235.15600586 102.50000000 0.953547 -0.227291 0.197703 0.000000
250.27400208 168.80900574 97.50000000 0.399626 -0.735115 0.547636 0.000000
154.95100403 261.19100952 130.00000000 -0.408225 -0.821215 0.398695 0.000000
148.65199280 145.71299744 170.00000000 0.211170 0.864149 -0.456786 0.000000
267.07000732 145.71299744 120.00000000 -0.000978 0.999999 -0.000978 0.000000
121.77700043 256.15200806 117.50000000 0.605284 -0.618773 0.500751 0.000000
110.85900116 191.48399353 127.50000000 0.947621 0.315016 0.052717 0.000000
147.81300354 155.79100037 190.00000000 0.300406 0.780421 -0.548361 0.000000
121.35700226 193.16400146 190.00000000 0.684529 0.203341 -0.700052 0.000000
295.62500000 148.23199463 150.00000000 0.000978 0.000978 0.999999 0.000000
136.89500427 204.92199707 197.50000000 -0.000978 -0.000978 -0.999999 0.000000
253.63299561 194.84399414 177.50000000 0.284945 -0.881974 0.375404 0.000000
144.45300293 183.92599487 72.50000000 0.000978 0.000978 0.999999 0.000000
309.48300171 170.48800659 165.00000000 -0.517346 -0.618456 0.591494 0.000000
267.91000366 145.71299744 150.00000000 -0.088142 0.995675 0.029381 0.000000
133.11500549 212.48100281 195.00000000 0.441371 -0.677879 -0.587939 0.000000
175.52699280 220.45899963 120.00000000 -0.396634 -0.881576 0.255941 0.000000
266.23098755 188.54499817 145.00000000 -0.209021 -0.879072 0.428418 0.000000
135.63499451 150.33200073 160.00000000 0.668719 0.743483 0.006923 0.000000
129.33599854 156.63099670 160.00000000 0.743757 0.668120 -0.021010 0.000000
176.36700439 219.19900513 117.50000000 -0.571302 -0.703778 0.422267 0.000000
118.41799927 206.60200500 187.50000000 0.501739 0.144817 -0.852811 0.000000
101.62100220 217.52000427 162.50000000 0.991076 -0.107050 0.079424 0.000000
164.60899353 177.20700073 202.50000000 -0.000978 -0.000978 -0.999999 0.000000
309.90200806 171.32800293 167.50000000 0.086061 -0.402983 0.911152 0.000000
145.29299927 234.31599426 192.50000000 0.071002 -0.181716 -0.980784 0.000000
148.65199280 238.51600647 187.50000000 -0.000978 -0.000978 -0.999999 0.000000
133.53500366 254.47300720 112.50000000 -0.661370 -0.513277 0.546934 0.000000
201.56300354 186.44500732 127.50000000 -0.105471 -0.839431 0.533133 0.000000
246.91400146 179.72700500 192.50000000 -0.000978 -0.000978 -0.999999 0.000000
261.19100952 161.25000000 192.50000000 -0.000978 -0.000978 -0.999999 0.000000
194.00399780 222.55900574 142.50000000 -0.434310 -0.480199 0.762091 0.000000
125.97699738 161.66999817 170.00000000 0.702227 0.702227 -0.117285 0.000000
173.00799561 252.79299927 172.50000000 -0.368719 -0.325880 -0.870545 0.000000
245.23399353 146.97300720 177.50000000 0.091273 0.971491 -0.218804 0.000000
188.12500000 190.64500427 117.50000000 -0.728222 0.389590 0.563838 0.000000
224.23800659 154.53100586 192.50000000 -0.139718 0.689576 -0.710608 0.000000
240.19500732 191.48399353 177.50000000 -0.727543 -0.656487 -0.199263 0.000000
146.13299561 146.55299377 170.00000000 0.257966 0.942196 -0.213822 0.000000
298.98400879 180.56599426 187.50000000 -0.000978 -0.000978 -0.999999 0.000000
175.52699280 189.80499268 87.50000000 -0.181430 -0.243251 0.952844 0.000000
127.65599823 238.51600647 187.50000000 0.382033 -0.575510 -0.723076 0.000000
203.24200439 190.22500610 200.00000000 0.038057 -0.635691 -0.771005 0.000000
191.48399353 187.28500366 122.50000000 -0.056672 -0.137631 0.988861 0.000000
267.07000732 198.62300110 175.00000000 0.198104 -0.865401 0.460256 0.000000
238.51600647 181.40600586 197.50000000 -0.000978 -0.000978 -0.999999 0.000000
192.32400513 209.96099854 137.50000000 -0.000978 -0.000978 0.999999 0.000000
178.88699341 176.36700439 202.50000000 -0.000978 -0.000978 -0.999999 0.000000
212.06100464 170.48800659 105.00000000 0.553597 -0.647826 0.523309 0.000000
105.40000153 200.72300720 160.00000000 0.951128 0.296167 0.087415 0.000000
110.85900116 241.87500000 177.50000000 -0.000978 -0.000978 -0.999999 0.000000
254.47300720 173.42799377 105.00000000 0.123509 -0.960772 0.248319 0.000000
158.73100281 270.01000977 160.00000000 -0.434515 -0.873509 -0.219497 0.000000
123.45700073 191.48399353 192.50000000 0.542791 -0.046047 -0.838605 0.000000
167.96899414 201.56300354 92.50000000 -0.165948 -0.692720 0.701855 0.000000
296.46499634 204.92199707 187.50000000 -0.000978 -0.000978 -0.999999 0.000000
150.33200073 147.39300537 55.00000000 0.629392 0.722279 -0.286669 0.000000
242.71499634 146.55299377 170.00000000 0.304846 0.917428 -0.255724 0.000000
161.25000000 167.96899414 197.50000000 0.000978 0.000978 -0.999999 0.000000
128.49600220 246.07400513 182.50000000 0.255294 -0.112744 -0.960268 0.000000
151.17199707 144.45300293 77.50000000 0.244106 0.738617 -0.628376 0.000000
181.40600586 209.96099854 117.50000000 -0.678789 -0.419886 0.602446 0.000000
143.61300659 148.65199280 52.50000000 -0.172896 0.946165 0.273639 0.000000
250.27400208 193.16400146 187.50000000 0.270061 -0.365552 -0.890752 0.000000
196.52299500 140.67399597 125.00000000 0.141794 0.985410 0.094132 0.000000
276.30899048 149.49200439 182.50000000 -0.365489 0.122749 -0.922687 0.000000
151.17199707 164.60899353 197.50000000 -0.043126 0.250130 -0.967251 0.000000
210.38099670 192.32400513 175.00000000 0.192287 -0.953368 0.232627 0.000000
304.02398682 178.04699707 182.50000000 -0.000978 -0.000978 -0.999999 0.000000
195.68400574 183.08599854 202.50000000 -0.000978 -0.000978 -0.999999 0.000000
162.50999451 262.87100220 135.00000000 -0.318204 -0.545264 0.775522 0.000000
211.64100647 191.48399353 147.50000000 0.141716 -0.987326 0.071444 0.000000
141.09399414 149.07200623 55.00000000 0.180234 0.438131 -0.880657 0.000000
145.29299927 239.35600281 112.50000000 -0.935464 0.053642 0.349327 0.000000
199.04299927 179.72700500 202.50000000 -0.000978 -0.000978 -0.999999 0.000000
288.90600586 167.12899780 187.50000000 -0.214927 0.099294 -0.971569 0.000000
135.63499451 158.73100281 95.00000000 0.290210 0.873667 -0.390491 0.000000
145.29299927 158.73100281 192.50000000 0.444998 0.811841 -0.378009 0.000000
298.14498901 172.16799927 157.50000000 -0.600362 -0.735565 0.313862 0.000000
167.96899414 161.25000000 192.50000000 0.000000 0.000000 0.000000 0.000000
147.39300537 149.49200439 55.00000000 0.556803 0.597421 -0.577112 0.000000
249.85400391 158.73100281 195.00000000 -0.628075 0.604501 -0.490000 0.000000
150.33200073 253.63299561 177.50000000 0.010652 -0.226057 -0.974056 0.000000
159.57000732 238.51600647 122.50000000 -0.313687 -0.751240 0.580723 0.000000
118.41799927 241.03500366 92.50000000 0.398498 -0.669676 0.626684 0.000000
141.09399414 150.33200073 52.50000000 -0.030910 0.452903 -0.891024 0.000000
191.48399353 151.17199707 192.50000000 0.266301 0.515472 -0.814477 0.000000
152.01199341 168.80900574 202.50000000 -0.202997 0.732958 -0.649280 0.000000
173.00799561 254.47300720 172.50000000 -0.410764 -0.385389 -0.826286 0.000000
144.45300293 150.33200073 52.50000000 0.285379 0.378995 -0.880296 0.000000
127.23600006 172.16799927 195.00000000 0.845076 0.229922 -0.482683 0.000000
252.79299927 186.02499390 140.00000000 0.323076 -0.894786 0.308188 0.000000
281.34799194 157.05099487 92.50000000 0.000978 0.000978 -0.999999 0.000000
173.00799561 144.45300293 177.50000000 0.000978 0.000978 -0.999999 0.000000
118.41799927 200.72300720 187.50000000 0.706912 -0.625657 -0.329892 0.000000
271.26998901 178.88699341 127.50000000 -0.128202 -0.903047 0.409964 0.000000
275.46899414 147.39300537 125.00000000 -0.001125 0.986241 -0.165311 0.000000
198.20300293 193.16400146 197.50000000 -0.452866 -0.794530 -0.404517 0.000000
203.24200439 167.12899780 112.50000000 0.465241 -0.551953 0.692025 0.000000
250.27400208 147.39300537 180.00000000 -0.001125 0.986241 -0.165311 0.000000
142.77299500 151.17199707 52.50000000 0.180234 0.438131 -0.880657 0.000000
191.48399353 171.74800110 120.00000000 0.455342 -0.682179 0.572097 0.000000
179.72700500 245.23399353 137.50000000 -0.496701 -0.644870 0.580888 0.000000
225.91799927 202.82200623 180.00000000 -0.402889 -0.907546 0.118497 0.000000
145.71299744 151.17199707 55.00000000 0.495042 0.498376 -0.711727 0.000000
146.13299561 150.75199890 55.00000000 0.467257 0.571092 -0.674926 0.000000
184.76600647 241.03500366 142.50000000 -0.911936 -0.309796 0.269072 0.000000
123.45700073 230.95700073 87.50000000 -0.233743 -0.316916 0.919200 0.000000
166.28900146 206.18200684 200.00000000 -0.449728 -0.670412 -0.590163 0.000000
110.01999664 203.24200439 87.50000000 0.998324 0.051547 0.026299 0.000000
159.99000549 141.93400574 140.00000000 0.150839 0.983471 0.100157 0.000000
196.10400391 225.07800293 160.00000000 -0.822215 -0.568802 -0.020659 0.000000
194.00399780 171.32800293 117.50000000 -0.312246 -0.936739 -0.158186 0.000000
227.59800720 173.84800720 127.50000000 -0.276429 -0.501321 0.819917 0.000000
299.82400513 188.96499634 172.50000000 0.000978 0.000978 0.999999 0.000000
198.20300293 175.52699280 202.50000000 -0.000978 -0.000978 -0.999999 0.000000
111.27899933 193.16400146 80.00000000 0.960180 -0.275943 0.043701 0.000000
186.44500732 220.03900146 132.50000000 -0.585469 -0.335712 0.737918 0.000000
120.09799957 176.36700439 187.50000000 0.489327 0.167051 -0.855952 0.000000
149.49200439 231.79699707 192.50000000 -0.141540 -0.112506 -0.983519 0.000000
257.83200073 173.42799377 105.00000000 -0.001236 -0.948187 0.317711 0.000000
166.28900146 266.23098755 167.50000000 -0.384572 -0.068339 -0.920562 0.000000
209.96099854 150.75199890 85.00000000 0.440566 -0.734276 0.516469 0.000000
171.32800293 241.87500000 132.50000000 -0.132066 -0.328124 0.935357 0.000000
247.75399780 178.46699524 120.00000000 0.226199 -0.967418 0.113739 0.000000
144.45300293 270.42999268 167.50000000 0.145395 -0.515493 -0.844469 0.000000
146.13299561 266.64999390 125.00000000 -0.617279 -0.496178 0.610552 0.000000
241.03500366 154.95100403 195.00000000 -0.064899 0.728314 -0.682163 0.000000
248.59399414 189.38499451 160.00000000 0.485745 -0.862089 0.144411 0.000000
143.61300659 259.51199341 122.50000000 0.241624 -0.463492 0.852522 0.000000
184.76600647 147.81300354 82.50000000 -0.169009 -0.465877 0.868559 0.000000
194.00399780 145.71299744 185.00000000 -0.753595 0.504039 -0.421948 0.000000
230.95700073 186.02499390 200.00000000 0.198347 -0.598117 -0.776476 0.000000
166.28900146 250.69299316 175.00000000 -0.398003 -0.606087 -0.688660 0.000000
300.66400146 174.68800354 187.50000000 -0.194552 0.176272 -0.964924 0.000000
195.68400574 168.80900574 197.50000000 -0.000978 -0.000978 -0.999999 0.000000
235.99600220 181.40600586 137.50000000 -0.937657 -0.279213 0.206979 0.000000
236.83599854 196.94299316 155.00000000 -0.493319 -0.819066 0.292859 0.000000
179.72700500 141.93400574 162.50000000 0.001125 0.986241 0.165311 0.000000
208.28100586 153.27200317 90.00000000 0.613055 -0.449351 0.649805 0.000000
109.18000031 200.72300720 177.50000000 0.956432 -0.059698 -0.285786 0.000000
150.33200073 176.36700439 202.50000000 -0.000978 -0.000978 -0.999999 0.000000
166.28900146 151.17199707 187.50000000 0.149796 0.688457 -0.709640 0.000000
109.18000031 238.51600647 132.50000000 0.905522 -0.185711 0.381500 0.000000
198.62300110 200.72300720 165.00000000 -0.937920 -0.337334 0.080696 0.000000
173.00799561 201.56300354 92.50000000 -0.353031 -0.441684 0.824794 0.000000
138.57400513 199.04299927 197.50000000 0.217696 0.118396 -0.968809 0.000000
116.73799896 238.09599304 95.00000000 0.654053 -0.519544 0.549808 0.000000
204.92199707 194.00399780 172.50000000 -0.262430 -0.962242 -0.072263 0.000000
167.12899780 141.51400757 85.00000000 0.306163 0.947397 -0.093294 0.000000
149.49200439 182.24600220 72.50000000 0.000978 0.000978 0.999999 0.000000
101.20099640 212.48100281 160.00000000 0.732798 0.261148 0.628338 0.000000
236.83599854 182.24600220 137.50000000 -0.754858 -0.564123 0.334595 0.000000
142.77299500 154.11099243 55.00000000 0.265633 0.551699 -0.790612 0.000000
134.37500000 155.37100220 52.50000000 0.414926 0.909696 -0.017016 0.000000
164.60899353 143.19299316 95.00000000 0.000978 0.000978 -0.999999 0.000000
177.62699890 249.43400574 140.00000000 -0.812716 -0.490786 0.314040 0.000000
205.76199341 180.56599426 202.50000000 -0.000978 -0.000978 -0.999999 0.000000
111.69899750 188.96499634 127.50000000 0.947621 0.315016 0.052717 0.000000
164.18899536 231.79699707 120.00000000 -0.660713 -0.719789 0.212983 0.000000
121.77700043 243.55499268 97.50000000 0.000978 0.000978 0.999999 0.000000
137.73399353 155.37100220 52.50000000 0.300763 0.947337 0.109971 0.000000
115.89800262 235.99600220 92.50000000 0.449086 -0.772427 0.449086 0.000000
146.97300720 247.75399780 122.50000000 -0.795754 -0.597181 0.100747 0.000000
131.85499573 271.26998901 132.50000000 0.290981 -0.832487 0.471483 0.000000
287.22698975 178.04699707 147.50000000 -0.640808 -0.720313 0.265546 0.000000
257.83200073 166.28900146 192.50000000 -0.000978 -0.000978 -0.999999 0.000000
301.50399780 179.72700500 187.50000000 -0.324635 0.114498 -0.938883 0.000000
104.56099701 213.32000732 155.00000000 0.945651 0.021463 0.324476 0.000000
133.95500183 156.21099854 55.00000000 0.446987 0.892607 0.058778 0.000000
152.01199341 239.35600281 187.50000000 -0.000978 -0.000978 -0.999999 0.000000
178.04699707 255.73199463 165.00000000 -0.702227 -0.702227 -0.117285 0.000000
209.12100220 139.83399963 100.00000000 -0.001125 0.986241 0.165311 0.000000
201.56300354 177.20700073 202.50000000 -0.000978 -0.000978 -0.999999 0.000000
186.44500732 146.13299561 182.50000000 -0.001236 0.948187 -0.317711 0.000000
128.49600220 165.86900330 105.00000000 0.702227 0.702227 0.117285 0.000000
162.92999268 207.44099426 92.50000000 -0.031217 -0.487249 0.872705 0.000000
143.61300659 208.28100586 87.50000000 -0.356656 -0.317196 0.878740 0.000000
246.91400146 187.70500183 155.00000000 0.134302 -0.983674 0.119783 0.000000
187.28500366 183.92599487 122.50000000 -0.214013 -0.064815 0.974678 0.000000
300.66400146 166.70899963 125.00000000 -0.196924 -0.979902 -0.031838 0.000000
109.59999847 188.12500000 155.00000000 0.918041 0.393065 0.051965 0.000000
134.37500000 157.05099487 52.50000000 0.537454 0.120891 0.834583 0.000000
283.86700439 187.28500366 187.50000000 -0.000978 -0.000978 -0.999999 0.000000
251.95300293 150.33200073 187.50000000 -0.091839 0.969976 -0.225195 0.000000
146.13299561 241.03500366 187.50000000 -0.000978 -0.000978 -0.999999 0.000000
227.59800720 178.04699707 202.50000000 -0.000978 -0.000978 -0.999999 0.000000
291.42599487 183.08599854 187.50000000 -0.000978 -0.000978 -0.999999 0.000000
178.04699707 162.92999268 197.50000000 -0.000978 -0.000978 -0.999999 0.000000
247.75399780 189.38499451 160.00000000 0.494282 -0.854296 0.160826 0.000000
269.58999634 181.40600586 132.50000000 0.001236 -0.948187 0.317711 0.000000
225.91799927 144.45300293 147.50000000 0.236625 0.942347 0.236625 0.000000
265.39099121 179.72700500 127.50000000 -0.608076 -0.608076 0.510380 0.000000
117.57800293 216.67999268 72.50000000 0.201866 -0.147864 0.968187 0.000000
132.27499390 157.89100647 55.00000000 0.812174 -0.049265 0.581331 0.000000
292.26599121 157.89100647 182.50000000 -0.000978 -0.000978 -0.999999 0.000000
129.33599854 165.02900696 95.00000000 0.817359 0.575076 -0.034811 0.000000
110.85900116 206.60200500 77.50000000 0.871082 -0.216650 0.440771 0.000000
196.52299500 182.24600220 202.50000000 -0.000978 -0.000978 -0.999999 0.000000
104.98000336 242.71499634 167.50000000 0.997804 -0.065824 0.007314 0.000000
199.88299561 160.41000366 107.50000000 -0.765729 -0.632430 0.117007 0.000000
110.01999664 225.07800293 97.50000000 0.934773 -0.158319 0.318016 0.000000
173.00799561 183.08599854 82.50000000 -0.243251 -0.181430 0.952844 0.000000
228.43800354 195.26400757 190.00000000 -0.348548 -0.656187 -0.669278 0.000000
249.43400574 169.22900391 100.00000000 0.462052 -0.786299 0.410173 0.000000
218.35899353 159.14999390 90.00000000 -0.149632 -0.663518 0.733044 0.000000
205.76199341 189.80499268 137.50000000 0.191731 -0.831841 0.520844 0.000000
157.89100647 251.95300293 127.50000000 -0.562948 -0.546042 0.620426 0.000000
111.69899750 182.24600220 177.50000000 0.841570 -0.105377 -0.529770 0.000000
110.43900299 192.32400513 130.00000000 0.947621 0.315016 0.052717 0.000000
151.17199707 243.55499268 122.50000000 -0.064150 -0.141130 0.987910 0.000000
141.09399414 150.75199890 120.00000000 0.511735 0.854781 0.086470 0.000000
258.67199707 146.13299561 92.50000000 0.216133 0.968120 -0.126610 0.000000
125.97699738 223.39799500 187.50000000 0.301750 0.060350 -0.951475 0.000000
261.19100952 170.48800659 97.50000000 -0.373353 -0.745076 0.552693 0.000000
157.05099487 208.28100586 197.50000000 -0.165109 -0.622565 -0.764952 0.000000
201.56300354 194.42399597 150.00000000 -0.657071 -0.747803 0.095122 0.000000
191.48399353 188.12500000 122.50000000 -0.087496 -0.247270 0.964988 0.000000
168.80900574 245.23399353 132.50000000 -0.205018 0.001158 0.978758 0.000000
213.32000732 141.09399414 92.50000000 -0.001125 0.986241 -0.165311 0.000000
241.03500366 189.80499268 192.50000000 -0.317185 -0.937941 -0.140215 0.000000
275.46899414 146.13299561 152.50000000 -0.069187 0.997353 0.022353 0.000000
187.28500366 210.38099670 190.00000000 -0.450684 -0.700141 -0.553793 0.000000
194.84399414 214.16000366 182.50000000 -0.639280 -0.691333 -0.336720 0.000000
110.43900299 184.76600647 175.00000000 0.894688 0.446689 -0.001310 0.000000
124.71700287 162.92999268 180.00000000 0.799835 0.600218 -0.001367 0.000000
111.69899750 180.14700317 165.00000000 0.915038 0.350836 -0.199046 0.000000
277.98800659 148.23199463 130.00000000 -0.013376 0.999105 0.040129 0.000000
162.92999268 145.71299744 175.00000000 0.127058 0.721991 -0.680136 0.000000
137.73399353 272.10900879 132.50000000 0.277052 -0.932414 0.232049 0.000000
137.73399353 267.07000732 167.50000000 -0.001327 -0.484515 -0.874782 0.000000
188.12500000 154.53100586 87.50000000 -0.793348 -0.333621 0.509211 0.000000
199.04299927 162.08999634 107.50000000 -0.729576 -0.603396 0.321919 0.000000
173.84800720 182.24600220 202.50000000 -0.000978 -0.000978 -0.999999 0.000000
120.93800354 180.56599426 187.50000000 0.489327 0.167051 -0.855952 0.000000
291.42599487 198.20300293 187.50000000 -0.000978 -0.000978 -0.999999 0.000000
303.18399048 183.92599487 187.50000000 -0.665988 0.001379 -0.745961 0.000000
211.64100647 166.28900146 102.50000000 0.693673 -0.577229 0.430842 0.000000
260.35198975 186.44500732 187.50000000 -0.000978 -0.000978 -0.999999 0.000000
262.03100586 192.32400513 187.50000000 -0.000978 -0.000978 -0.999999 0.000000
107.50000000 225.07800293 122.50000000 0.963762 -0.254555 0.079786 0.000000
297.72500610 148.65199280 150.00000000 -0.187862 0.922358 0.337586 0.000000
271.26998901 188.96499634 147.50000000 -0.205788 -0.741146 0.639026 0.000000
178.88699341 220.03900146 122.50000000 -0.230041 -0.337104 0.912930 0.000000
117.57800293 257.83200073 132.50000000 0.862765 -0.499644 0.077410 0.000000
239.35600281 162.08999634 197.50000000 -0.000978 -0.000978 -0.999999 0.000000
179.72700500 151.17199707 187.50000000 -0.000978 -0.000978 -0.999999 0.000000
128.49600220 270.85000610 135.00000000 0.400125 -0.863104 0.308142 0.000000
267.91000366 146.13299561 92.50000000 -0.001125 0.986241 0.165311 0.000000
146.97300720 246.91400146 117.50000000 -0.305313 -0.921674 0.239377 0.000000
135.21499634 161.25000000 52.50000000 0.731901 -0.146380 0.665502 0.000000
182.24600220 212.48100281 192.50000000 -0.352435 -0.557074 -0.751969 0.000000
137.73399353 207.44099426 82.50000000 0.000978 0.000978 0.999999 0.000000
110.01999664 233.47700500 107.50000000 0.956573 -0.277548 0.089074 0.000000
150.33200073 215.00000000 97.50000000 0.018154 -0.654929 0.755472 0.000000
130.17599487 267.07000732 167.50000000 0.046363 -0.571808 -0.819076 0.000000
208.28100586 140.67399597 95.00000000 -0.172605 0.966849 0.188179 0.000000
213.32000732 174.68800354 202.50000000 -0.000978 -0.000978 -0.999999 0.000000
182.24600220 231.79699707 132.50000000 -0.866191 -0.499045 0.025836 0.000000
255.31300354 158.73100281 192.50000000 -0.000978 -0.000978 -0.999999 0.000000
157.05099487 183.92599487 72.50000000 0.150831 -0.199819 0.968154 0.000000
170.48800659 228.43800354 187.50000000 -0.240094 -0.220887 -0.945285 0.000000
134.37500000 222.55900574 87.50000000 -0.116961 -0.321308 0.939724 0.000000
163.77000427 188.12500000 202.50000000 -0.000978 -0.000978 -0.999999 0.000000
119.25800323 236.41600037 90.00000000 0.405823 -0.627784 0.664225 0.000000
240.19500732 189.80499268 192.50000000 -0.317185 -0.937941 -0.140215 0.000000
105.81999969 217.52000427 177.50000000 -0.000978 -0.000978 -0.999999 0.000000
199.88299561 189.80499268 132.50000000 -0.373533 -0.914804 0.153642 0.000000
141.09399414 201.98199463 200.00000000 0.869289 -0.432384 -0.239544 0.000000
211.64100647 139.83399963 105.00000000 -0.164934 0.986194 0.014787 0.000000
189.38499451 219.19900513 135.00000000 -0.566563 0.118583 0.815441 0.000000
122.19699860 172.16799927 105.00000000 0.000978 0.000978 0.999999 0.000000
200.72300720 191.06500244 200.00000000 -0.185890 -0.717444 -0.671356 0.000000
208.28100586 162.92999268 102.50000000 0.670260 -0.673490 0.311711 0.000000
158.73100281 205.76199341 92.50000000 -0.260317 -0.522193 0.812127 0.000000
161.25000000 208.28100586 197.50000000 -0.000978 -0.000978 -0.999999 0.000000
308.22299194 154.53100586 167.50000000 -0.702227 -0.702227 0.117285 0.000000
279.66799927 172.16799927 187.50000000 -0.000978 -0.000978 -0.999999 0.000000
166.28900146 260.35198975 167.50000000 -0.182749 -0.732531 -0.655745 0.000000
286.38699341 181.40600586 187.50000000 -0.000978 -0.000978 -0.999999 0.000000
146.13299561 188.96499634 202.50000000 -0.000978 -0.000978 -0.999999 0.000000
300.66400146 203.24200439 187.50000000 -0.821879 -0.424452 -0.379940 0.000000
125.13700104 239.35600281 92.50000000 0.000978 0.000978 0.999999 0.000000
296.88500977 171.32800293 155.00000000 -0.504942 -0.817600 0.276702 0.000000
232.63699341 172.16799927 127.50000000 -0.245248 -0.900223 0.359795 0.000000
210.80099487 180.56599426 202.50000000 -0.000978 -0.000978 -0.999999 0.000000
253.63299561 186.44500732 187.50000000 -0.099896 -0.057244 -0.993350 0.000000
227.59800720 152.85200500 187.50000000 -0.033004 0.966895 -0.253031 0.000000
141.09399414 216.67999268 197.50000000 0.143269 -0.081699 -0.986306 0.000000
173.00799561 167.12899780 197.50000000 -0.000978 -0.000978 -0.999999 0.000000
149.49200439 201.56300354 82.50000000 0.000978 0.000978 0.999999 0.000000
288.06600952 150.33200073 177.50000000 -0.000978 -0.000978 -0.999999 0.000000
238.51600647 192.32400513 147.50000000 -0.303822 -0.781029 0.545607 0.000000
220.87899780 160.41000366 92.50000000 -0.308848 -0.465623 0.829342 0.000000
121.77700043 173.84800720 82.50000000 0.791724 0.573424 -0.210614 0.000000
169.64799500 166.28900146 197.50000000 -0.000978 -0.000978 -0.999999 0.000000
104.14099884 230.11700439 157.50000000 0.955600 -0.191656 -0.223822 0.000000
283.86700439 171.32800293 187.50000000 -0.000978 -0.000978 -0.999999 0.000000
127.65599823 164.60899353 52.50000000 0.000978 0.000978 0.999999 0.000000
169.64799500 251.95300293 172.50000000 -0.172036 -0.373929 -0.911362 0.000000
116.73799896 205.76199341 72.50000000 0.000978 0.000978 0.999999 0.000000
131.01600647 162.08999634 192.50000000 0.287493 0.573398 -0.767178 0.000000
151.17199707 249.43400574 182.50000000 -0.288750 -0.243233 -0.925992 0.000000
283.02700806 174.26800537 120.00000000 -0.260201 -0.946804 0.189361 0.000000
200.30299377 147.81300354 185.00000000 0.076884 0.703562 -0.706463 0.000000
247.75399780 183.92599487 142.50000000 0.155142 -0.781737 0.604001 0.000000
135.21499634 266.23098755 167.50000000 0.014052 -0.364074 -0.931264 0.000000
306.54299927 178.88699341 167.50000000 -0.705444 -0.566015 0.426586 0.000000
179.72700500 233.47700500 177.50000000 -0.384135 -0.428764 -0.817681 0.000000
283.02700806 159.57000732 92.50000000 -0.000978 -0.000978 -0.999999 0.000000
156.63099670 204.92199707 90.00000000 -0.618944 -0.635717 0.461272 0.000000
198.62300110 213.32000732 160.00000000 -0.955737 0.218493 0.197045 0.000000
160.41000366 223.39799500 107.50000000 -0.349273 -0.523104 0.777413 0.000000
112.11900330 251.95300293 140.00000000 0.766533 -0.382453 0.515904 0.000000
267.91000366 169.64799500 97.50000000 -0.442819 -0.721447 0.532378 0.000000
202.40199280 181.40600586 202.50000000 -0.000978 -0.000978 -0.999999 0.000000
107.08000183 201.56300354 140.00000000 0.688082 0.688082 0.230406 0.000000
115.89800262 256.15200806 137.50000000 0.864407 -0.422294 0.272890 0.000000
174.68800354 171.32800293 77.50000000 -0.392190 -0.303680 0.868312 0.000000
254.47300720 163.77000427 92.50000000 0.000978 0.000978 0.999999 0.000000
222.55900574 191.48399353 192.50000000 0.248265 -0.703682 -0.665730 0.000000
110.85900116 242.71499634 127.50000000 0.947621 -0.315016 -0.052717 0.000000
157.05099487 253.63299561 127.50000000 -0.562948 -0.546042 0.620426 0.000000
141.93400574 247.75399780 112.50000000 -0.774800 -0.543804 0.322432 0.000000
292.26599121 191.90400696 170.00000000 -0.440823 -0.557267 0.703654 0.000000
129.33599854 189.80499268 197.50000000 -0.000978 -0.000978 -0.999999 0.000000
225.91799927 156.63099670 195.00000000 0.431046 0.523531 -0.734925 0.000000
176.36700439 173.84800720 77.50000000 -0.386277 -0.269041 0.882274 0.000000
225.07800293 162.08999634 197.50000000 0.325008 0.590189 -0.738949 0.000000
203.24200439 180.56599426 202.50000000 -0.000978 -0.000978 -0.999999 0.000000
157.89100647 143.19299316 125.00000000 0.104392 0.988792 0.106738 0.000000
264.55099487 180.56599426 127.50000000 -0.608076 -0.608076 0.510380 0.000000
131.01600647 166.28900146 52.50000000 0.000978 0.000978 0.999999 0.000000
198.20300293 189.38499451 130.00000000 -0.498363 -0.836701 0.227083 0.000000
157.89100647 152.85200500 187.50000000 0.046972 0.727354 -0.684653 0.000000
293.10598755 185.60600281 167.50000000 0.000978 0.000978 0.999999 0.000000
285.54699707 161.25000000 92.50000000 -0.000978 -0.000978 -0.999999 0.000000
124.29699707 167.12899780 52.50000000 0.000978 0.000978 0.999999 0.000000
105.40000153 245.23399353 160.00000000 0.997162 -0.074919 0.007386 0.000000
246.91400146 188.12500000 157.50000000 0.400821 -0.914831 0.049270 0.000000
183.08599854 141.93400574 122.50000000 0.136743 0.989374 -0.049411 0.000000
170.48800659 246.07400513 177.50000000 -0.224104 -0.557943 -0.799048 0.000000
152.01199341 144.45300293 132.50000000 0.315016 0.947621 0.052717 0.000000
123.45700073 247.33399963 180.00000000 0.456359 -0.656956 -0.600120 0.000000
295.62500000 173.00799561 157.50000000 -0.595811 -0.743560 0.303526 0.000000
218.35899353 186.44500732 127.50000000 0.000978 0.000978 0.999999 0.000000
230.11700439 190.64500427 197.50000000 -0.088980 -0.762897 -0.640367 0.000000
180.56599426 211.64100647 117.50000000 -0.815363 -0.381354 0.435605 0.000000
299.82400513 172.16799927 162.50000000 -0.632218 -0.588384 0.504088 0.000000
107.91999817 236.83599854 135.00000000 0.902445 -0.195554 0.383865 0.000000
117.57800293 211.64100647 72.50000000 0.000978 0.000978 0.999999 0.000000
157.89100647 190.64500427 82.50000000 -0.355574 -0.295562 0.886685 0.000000
264.55099487 159.57000732 92.50000000 0.000978 0.000978 0.999999 0.000000
233.05700684 143.61300659 115.00000000 0.304846 0.917428 -0.255724 0.000000
251.11300659 163.77000427 192.50000000 -0.000978 -0.000978 -0.999999 0.000000
166.28900146 243.13499451 180.00000000 -0.236833 -0.537132 -0.809567 0.000000
126.81600189 241.03500366 182.50000000 0.147746 -0.259554 -0.954360 0.000000
126.81600189 167.96899414 52.50000000 0.000978 0.000978 0.999999 0.000000
199.88299561 199.04299927 167.50000000 -0.852238 -0.492305 0.176992 0.000000
137.73399353 262.87100220 172.50000000 -0.000978 -0.000978 -0.999999 0.000000
184.34599304 237.67599487 170.00000000 -0.582177 -0.514678 -0.629426 0.000000
146.97300720 227.59800720 192.50000000 0.032315 -0.114776 -0.992866 0.000000
126.81600189 165.02900696 115.00000000 0.700848 0.672499 0.237816 0.000000
180.56599426 215.00000000 192.50000000 -0.186199 -0.288264 -0.939273 0.000000
123.45700073 168.80900574 52.50000000 0.183859 -0.403911 0.896132 0.000000
198.20300293 217.10000610 175.00000000 -0.751122 -0.461849 -0.471711 0.000000
146.13299561 147.39300537 130.00000000 0.443570 0.882805 0.154599 0.000000
167.12899780 251.95300293 132.50000000 0.000978 0.000978 0.999999 0.000000
192.32400513 198.20300293 137.50000000 0.000978 0.000978 0.999999 0.000000
157.89100647 197.36300659 202.50000000 -0.000978 -0.000978 -0.999999 0.000000
109.18000031 207.44099426 177.50000000 0.789866 0.070242 -0.609243 0.000000
199.88299561 144.87300110 175.00000000 -0.212650 0.960227 -0.180951 0.000000
212.48100281 151.17199707 187.50000000 0.794581 -0.132183 -0.592594 0.000000
126.39700317 234.31599426 90.00000000 -0.353570 -0.521476 0.776563 0.000000
267.07000732 170.48800659 97.50000000 -0.330913 -0.832772 0.443832 0.000000
281.34799194 156.21099854 92.50000000 0.000978 0.000978 -0.999999 0.000000
220.03900146 152.85200500 187.50000000 -0.001311 0.893111 -0.449834 0.000000
143.61300659 210.80099487 197.50000000 -0.000978 -0.000978 -0.999999 0.000000
131.01600647 257.83200073 112.50000000 -0.035333 -0.705251 0.708077 0.000000
126.81600189 167.54899597 90.00000000 -0.000978 -0.000978 -0.999999 0.000000
127.65599823 169.64799500 52.50000000 -0.232453 -0.591274 0.772244 0.000000
122.61699677 267.91000366 162.50000000 0.515556 -0.827644 -0.221827 0.000000
183.08599854 175.94700623 85.00000000 -0.346535 -0.346535 0.871681 0.000000
289.74600220 167.12899780 107.50000000 -0.207454 -0.927194 0.311887 0.000000
277.98800659 161.25000000 187.50000000 -0.526046 0.201626 -0.826210 0.000000
154.53100586 169.22900391 200.00000000 -0.085315 0.790969 -0.605879 0.000000
230.95700073 175.52699280 202.50000000 -0.000978 -0.000978 -0.999999 0.000000
270.42999268 166.28900146 97.50000000 -0.222343 -0.614164 0.757210 0.000000
114.21900177 261.19100952 162.50000000 0.606358 -0.764538 -0.218661 0.000000
173.84800720 210.80099487 197.50000000 -0.545634 -0.711480 -0.442809 0.000000
287.22698975 172.58799744 120.00000000 -0.360053 -0.900868 0.242485 0.000000
217.52000427 144.87300110 160.00000000 -0.001125 0.986241 -0.165311 0.000000
221.71899414 195.68400574 157.50000000 0.427356 -0.811497 0.398546 0.000000
125.97699738 260.35198975 117.50000000 0.248106 -0.715874 0.652662 0.000000
121.35700226 171.32800293 55.00000000 0.766300 -0.001376 0.642481 0.000000
185.60600281 243.55499268 147.50000000 -0.903188 -0.302045 0.304992 0.000000
169.64799500 215.00000000 197.50000000 -0.352390 -0.151820 -0.923457 0.000000
297.30499268 200.72300720 177.50000000 -0.695278 -0.416503 0.585759 0.000000
195.68400574 191.90400696 130.00000000 -0.750700 -0.510870 0.418881 0.000000
228.43800354 169.64799500 202.50000000 -0.000978 -0.000978 -0.999999 0.000000
306.54299927 171.32800293 162.50000000 -0.256608 -0.843579 0.471728 0.000000
173.84800720 212.89999390 195.00000000 -0.563975 -0.466911 -0.681121 0.000000
205.76199341 139.83399963 115.00000000 0.007144 0.999182 -0.039804 0.000000
141.09399414 153.69099426 187.50000000 0.271297 0.927524 -0.257093 0.000000
238.51600647 174.68800354 197.50000000 -0.528724 0.442537 -0.724302 0.000000
132.69500732 272.94900513 137.50000000 0.298172 -0.949684 0.095888 0.000000
173.00799561 158.73100281 192.50000000 0.000978 0.000978 -0.999999 0.000000
227.59800720 181.40600586 127.50000000 0.000978 0.000978 0.999999 0.000000
177.62699890 248.59399414 140.00000000 -0.812716 -0.490786 0.314040 0.000000
157.89100647 188.12500000 77.50000000 -0.145991 -0.738986 0.657713 0.000000
108.76000214 245.23399353 140.00000000 0.930479 -0.364665 0.035039 0.000000
145.29299927 228.43800354 192.50000000 -0.000978 -0.000978 -0.999999 0.000000
155.37100220 194.00399780 202.50000000 -0.000978 -0.000978 -0.999999 0.000000
183.92599487 186.02499390 90.00000000 -0.638825 -0.318604 0.700282 0.000000
225.07800293 188.12500000 127.50000000 0.000978 0.000978 0.999999 0.000000
130.17599487 225.91799927 192.50000000 0.201974 -0.237218 -0.950228 0.000000
158.73100281 236.83599854 117.50000000 -0.604709 -0.644911 0.467351 0.000000
139.41400146 244.39500427 182.50000000 0.139177 -0.618068 -0.773707 0.000000
308.22299194 179.72700500 182.50000000 -0.000978 -0.000978 -0.999999 0.000000
170.48800659 184.76600647 82.50000000 -0.306190 -0.148332 0.940343 0.000000
138.57400513 271.69000244 160.00000000 -0.001125 -0.986241 -0.165311 0.000000
115.05899811 209.12100220 187.50000000 0.556297 0.742273 -0.373584 0.000000
163.77000427 183.50599670 75.00000000 -0.413951 -0.623420 0.663319 0.000000
267.07000732 162.08999634 92.50000000 0.000978 0.000978 0.999999 0.000000
272.10900879 183.50599670 140.00000000 -0.304277 -0.926982 0.219362 0.000000
277.98800659 190.64500427 187.50000000 -0.000978 -0.000978 -0.999999 0.000000
121.77700043 223.39799500 187.50000000 -0.000978 -0.000978 -0.999999 0.000000
162.08999634 230.53700256 115.00000000 -0.438639 -0.632107 0.638778 0.000000
141.09399414 180.56599426 202.50000000 -0.000978 -0.000978 -0.999999 0.000000
263.71099854 174.68800354 187.50000000 -0.000978 -0.000978 -0.999999 0.000000
160.41000366 213.32000732 197.50000000 -0.000978 -0.000978 -0.999999 0.000000
252.79299927 193.16400146 187.50000000 -0.019654 -0.412736 -0.910639 0.000000
296.46499634 166.28900146 112.50000000 -0.354611 -0.890269 0.285784 0.000000
159.57000732 170.48800659 197.50000000 -0.801335 -0.534746 -0.268157 0.000000
173.00799561 214.16000366 192.50000000 -0.390235 -0.258661 -0.883635 0.000000
125.55699921 257.83200073 115.00000000 0.538868 -0.676522 0.501936 0.000000
161.25000000 238.93600464 185.00000000 -0.347652 -0.683879 -0.641442 0.000000
149.49200439 241.87500000 117.50000000 -0.482432 0.482432 0.731108 0.000000
240.19500732 183.08599854 197.50000000 -0.000978 -0.000978 -0.999999 0.000000
183.92599487 198.20300293 197.50000000 -0.000978 -0.000978 -0.999999 0.000000
193.16400146 175.52699280 202.50000000 -0.000978 -0.000978 -0.999999 0.000000
153.69099426 246.91400146 122.50000000 0.000978 0.000978 0.999999 0.000000
164.60899353 242.29499817 125.00000000 -0.670636 -0.421020 0.610728 0.000000
309.90200806 174.68800354 167.50000000 -0.046225 -0.273602 0.960732 0.000000
204.92199707 162.92999268 107.50000000 0.000978 0.000978 0.999999 0.000000
202.40199280 158.73100281 197.50000000 -0.000978 -0.000978 -0.999999 0.000000
125.13700104 258.67199707 117.50000000 0.607527 -0.654389 0.450206 0.000000
153.69099426 260.35198975 127.50000000 -0.713922 -0.620028 0.325393 0.000000
284.70700073 148.65199280 177.50000000 -0.214346 0.581356 -0.784908 0.000000
193.16400146 195.68400574 127.50000000 -0.882213 -0.337450 0.328371 0.000000
181.40600586 235.99600220 177.50000000 -0.457609 -0.615174 -0.641993 0.000000
209.96099854 185.60600281 127.50000000 0.022866 -0.237088 0.971219 0.000000
160.41000366 184.76600647 72.50000000 -0.208075 -0.584152 0.784520 0.000000
149.49200439 223.39799500 192.50000000 -0.090154 -0.539495 -0.837148 0.000000
197.36300659 185.60600281 122.50000000 -0.323939 -0.309011 0.894190 0.000000
267.07000732 162.92999268 187.50000000 -0.000978 -0.000978 -0.999999 0.000000
223.39799500 141.51400757 95.00000000 0.020974 0.999776 0.002996 0.000000
215.00000000 165.44900513 97.50000000 0.110619 -0.924557 0.364633 0.000000
222.55900574 141.09399414 112.50000000 -0.148277 0.985747 -0.079477 0.000000
122.61699677 170.48800659 112.50000000 0.856657 0.515087 0.028692 0.000000
298.98400879 162.92999268 102.50000000 -0.230123 -0.883374 0.408282 0.000000
293.94500732 196.52299500 172.50000000 -0.342861 -0.136318 0.929443 0.000000
188.12500000 192.32400513 107.50000000 -0.987534 -0.059462 -0.145740 0.000000
133.53500366 251.11300659 107.50000000 -0.373977 -0.667229 0.644164 0.000000
165.44900513 203.24200439 202.50000000 -0.024745 -0.201491 -0.979178 0.000000
157.89100647 156.21099854 192.50000000 -0.145634 0.204918 -0.967884 0.000000
130.17599487 211.64100647 77.50000000 -0.749019 0.029511 0.661891 0.000000
199.04299927 162.08999634 197.50000000 -0.000978 -0.000978 -0.999999 0.000000
133.95500183 154.53100586 130.00000000 0.646869 0.751444 0.129971 0.000000
120.09799957 174.68800354 112.50000000 0.848925 0.528371 0.012225 0.000000
119.25800323 245.23399353 182.50000000 0.439190 -0.885580 -0.151197 0.000000
197.36300659 178.04699707 202.50000000 -0.000978 -0.000978 -0.999999 0.000000
146.13299561 144.45300293 157.50000000 0.310622 0.942624 -0.122366 0.000000
197.78300476 189.80499268 130.00000000 -0.659971 -0.636814 0.398629 0.000000
136.05499268 241.03500366 187.50000000 0.286171 -0.539139 -0.792108 0.000000
273.78900146 189.80499268 187.50000000 -0.000978 -0.000978 -0.999999 0.000000
303.18399048 157.05099487 177.50000000 -0.242061 0.428493 -0.870517 0.000000
164.60899353 259.51199341 132.50000000 -0.045407 -0.159507 0.986152 0.000000
143.61300659 234.31599426 192.50000000 0.085289 -0.203951 -0.975259 0.000000
162.08999634 246.07400513 127.50000000 -0.601093 -0.617930 0.506804 0.000000
174.68800354 241.03500366 132.50000000 -0.019213 -0.357367 0.933766 0.000000
123.87699890 172.16799927 190.00000000 0.796839 0.187402 -0.574394 0.000000
181.40600586 149.49200439 187.50000000 -0.000978 -0.000978 -0.999999 0.000000
128.49600220 270.85000610 160.00000000 0.414048 -0.863238 -0.288764 0.000000
195.26400757 212.48100281 185.00000000 -0.692371 -0.379900 -0.613431 0.000000
132.69500732 247.75399780 182.50000000 -0.000978 -0.000978 -0.999999 0.000000
271.26998901 195.68400574 162.50000000 -0.322962 -0.696235 0.641056 0.000000
159.57000732 225.07800293 107.50000000 -0.128451 -0.571384 0.810568 0.000000
234.31599426 170.48800659 122.50000000 0.041320 -0.284229 0.957865 0.000000
231.79699707 186.44500732 127.50000000 -0.766108 -0.436142 0.472079 0.000000
165.44900513 226.75799561 192.50000000 -0.428947 -0.856357 -0.287502 0.000000
287.22698975 183.92599487 187.50000000 -0.000978 -0.000978 -0.999999 0.000000
139.41400146 180.56599426 202.50000000 -0.000978 -0.000978 -0.999999 0.000000
156.21099854 213.32000732 197.50000000 -0.000978 -0.000978 -0.999999 0.000000
169.64799500 266.64999390 155.00000000 -0.340968 -0.813566 -0.471012 0.000000
288.06600952 170.90800476 115.00000000 -0.304846 -0.917428 0.255724 0.000000
298.98400879 193.16400146 187.50000000 -0.000978 -0.000978 -0.999999 0.000000
293.10598755 186.44500732 167.50000000 0.000978 0.000978 0.999999 0.000000
182.24600220 204.08200073 197.50000000 -0.256897 -0.088189 -0.962407 0.000000
144.45300293 145.71299744 60.00000000 0.564374 -0.470590 0.678253 0.000000
198.20300293 190.64500427 137.50000000 -0.655928 -0.675460 0.336916 0.000000
160.41000366 149.07200623 180.00000000 -0.093539 0.923186 -0.372799 0.000000
185.18600464 139.41400146 85.00000000 -0.316616 0.406196 0.857181 0.000000
300.66400146 165.86900330 115.00000000 -0.208349 -0.959468 0.189770 0.000000
180.56599426 185.60600281 202.50000000 -0.000978 -0.000978 -0.999999 0.000000
183.08599854 173.84800720 202.50000000 -0.000978 -0.000978 -0.999999 0.000000
153.69099426 176.36700439 202.50000000 -0.000978 -0.000978 -0.999999 0.000000
110.85900116 195.68400574 102.50000000 0.979902 0.196924 0.031838 0.000000
124.29699707 170.90800476 95.00000000 0.760911 0.646703 -0.052821 0.000000
143.19299316 146.97300720 60.00000000 0.313523 0.840741 0.441428 0.000000
103.72100067 204.08200073 160.00000000 0.914455 0.341301 0.217453 0.000000
297.30499268 161.66999817 100.00000000 -0.216004 -0.906057 0.363872 0.000000
152.01199341 185.60600281 202.50000000 -0.000978 -0.000978 -0.999999 0.000000
235.15600586 197.36300659 152.50000000 -0.292972 -0.896763 0.331639 0.000000
205.76199341 159.57000732 197.50000000 -0.000978 -0.000978 -0.999999 0.000000
260.35198975 175.52699280 187.50000000 -0.323201 -0.674011 -0.664267 0.000000
138.15400696 152.01199341 125.00000000 0.540416 0.838283 0.072339 0.000000
249.85400391 194.84399414 185.00000000 0.222208 -0.595143 -0.772288 0.000000
278.82800293 198.20300293 172.50000000 -0.080829 -0.846575 0.526096 0.000000
269.58999634 167.96899414 187.50000000 -0.000978 -0.000978 -0.999999 0.000000
192.32400513 167.12899780 197.50000000 -0.000978 -0.000978 -0.999999 0.000000
257.83200073 162.92999268 92.50000000 0.000978 0.000978 0.999999 0.000000
195.26400757 214.16000366 150.00000000 -0.986241 -0.001125 0.165311 0.000000
231.79699707 149.49200439 182.50000000 -0.001125 0.986241 -0.165311 0.000000
257.83200073 195.26400757 170.00000000 0.290802 -0.956552 -0.021037 0.000000
301.50399780 157.05099487 177.50000000 -0.242061 0.428493 -0.870517 0.000000
162.92999268 233.05700684 120.00000000 -0.660713 -0.719789 0.212983 0.000000
139.41400146 180.56599426 72.50000000 0.001311 -0.893111 0.449834 0.000000
144.87300110 221.71899414 100.00000000 -0.442073 -0.774851 0.451860 0.000000
148.65199280 148.65199280 57.50000000 0.554792 0.678824 -0.481044 0.000000
108.76000214 227.59800720 105.00000000 0.892127 -0.445374 0.075838 0.000000
172.16799927 168.80900574 197.50000000 -0.000978 -0.000978 -0.999999 0.000000
158.73100281 196.52299500 82.50000000 -0.403726 -0.478310 0.779888 0.000000
151.17199707 238.51600647 187.50000000 -0.011070 -0.293981 -0.955747 0.000000
113.37899780 260.77200317 160.00000000 0.554433 -0.830951 -0.046086 0.000000
131.85499573 196.52299500 77.50000000 -0.143181 -0.532871 0.833995 0.000000
298.14498901 170.90800476 155.00000000 -0.504942 -0.817600 0.276702 0.000000
198.20300293 177.20700073 122.50000000 0.040867 -0.171641 0.984311 0.000000
130.17599487 271.69000244 140.00000000 0.446689 -0.894688 -0.001310 0.000000
131.01600647 201.56300354 197.50000000 0.327042 -0.114398 -0.938060 0.000000
254.47300720 187.70500183 145.00000000 0.442827 -0.884212 0.148571 0.000000
123.45700073 197.36300659 192.50000000 0.122921 0.142393 -0.982148 0.000000
158.73100281 231.79699707 112.50000000 -0.523224 -0.389566 0.757941 0.000000
299.82400513 186.44500732 172.50000000 0.000978 0.000978 0.999999 0.000000
298.14498901 152.01199341 132.50000000 0.482432 0.482432 -0.731108 0.000000
112.53900146 256.15200806 147.50000000 0.941326 -0.248155 0.228746 0.000000
152.85200500 149.07200623 60.00000000 0.581375 -0.020714 -0.813372 0.000000
225.91799927 186.44500732 127.50000000 0.000978 0.000978 0.999999 0.000000
231.79699707 186.86500549 200.00000000 0.503023 -0.398837 -0.766744 0.000000
164.60899353 182.24600220 72.50000000 -0.170305 -0.282025 0.944171 0.000000
166.28900146 200.72300720 92.50000000 -0.343476 -0.765967 0.543433 0.000000
148.65199280 150.33200073 57.50000000 0.557468 0.674654 -0.483809 0.000000
128.49600220 214.16000366 192.50000000 -0.000978 -0.000978 -0.999999 0.000000
162.08999634 196.10400391 85.00000000 -0.120403 -0.679312 0.723905 0.000000
158.73100281 221.71899414 102.50000000 -0.296826 -0.538096 0.788890 0.000000
304.86300659 183.08599854 182.50000000 -0.416522 0.381680 -0.825125 0.000000
137.73399353 190.64500427 72.50000000 0.000978 0.000978 0.999999 0.000000
138.99400330 151.17199707 60.00000000 0.741145 0.670560 0.032469 0.000000
107.08000183 234.31599426 175.00000000 0.690448 -0.269482 -0.671313 0.000000
240.19500732 192.32400513 152.50000000 -0.662461 -0.642636 0.384921 0.000000
306.12298584 164.60899353 145.00000000 -0.446167 -0.893690 0.047465 0.000000
199.88299561 192.32400513 197.50000000 -0.314750 -0.874306 -0.369489 0.000000
146.97300720 182.24600220 202.50000000 -0.000978 -0.000978 -0.999999 0.000000
129.33599854 160.83000183 120.00000000 0.707106 0.679255 0.196504 0.000000
196.52299500 215.00000000 177.50000000 -0.714473 -0.504628 -0.484643 0.000000
170.48800659 187.28500366 202.50000000 -0.000978 -0.000978 -0.999999 0.000000
105.81999969 222.55900574 177.50000000 -0.000978 -0.000978 -0.999999 0.000000
215.00000000 176.36700439 202.50000000 -0.000978 -0.000978 -0.999999 0.000000
128.49600220 243.55499268 102.50000000 0.000978 0.000978 0.999999 0.000000
177.20700073 148.65199280 182.50000000 -0.000978 -0.000978 -0.999999 0.000000
174.68800354 174.68800354 77.50000000 -0.434087 -0.295056 0.851182 0.000000
120.93800354 262.87100220 132.50000000 0.721480 -0.631895 0.283153 0.000000
136.05499268 270.01000977 165.00000000 0.241278 -0.828338 -0.505609 0.000000
167.96899414 157.89100647 192.50000000 -0.000978 -0.000978 -0.999999 0.000000
275.46899414 185.60600281 187.50000000 -0.000978 -0.000978 -0.999999 0.000000
270.01000977 169.64799500 100.00000000 -0.245726 -0.817540 0.520815 0.000000
235.99600220 198.20300293 157.50000000 -0.225550 -0.956920 0.182842 0.000000
238.51600647 197.36300659 157.50000000 -0.467878 -0.823906 0.319795 0.000000
102.04100037 225.91799927 170.00000000 0.971538 -0.010702 -0.236641 0.000000
143.61300659 170.48800659 202.50000000 -0.053244 0.248887 -0.967068 0.000000
220.87899780 153.27200317 85.00000000 -0.035039 -0.609675 0.791877 0.000000
145.29299927 271.69000244 160.00000000 0.204742 -0.914895 -0.347918 0.000000
241.87500000 154.53100586 192.50000000 -0.358339 0.898059 -0.255114 0.000000
102.04100037 220.87899780 165.00000000 0.986241 -0.001125 -0.165311 0.000000
104.98000336 235.15600586 147.50000000 0.961555 -0.204446 0.183342 0.000000
174.68800354 257.41198730 145.00000000 -0.642170 -0.735463 0.216130 0.000000
234.31599426 193.16400146 147.50000000 -0.185990 -0.384957 0.904000 0.000000
299.82400513 168.38900757 150.00000000 -0.442827 -0.884212 0.148571 0.000000
134.37500000 202.40199280 82.50000000 0.000978 0.000978 0.999999 0.000000
275.46899414 207.44099426 182.50000000 -0.004080 -0.564387 0.825500 0.000000
205.76199341 149.49200439 182.50000000 0.333332 0.665039 -0.668291 0.000000
149.49200439 261.19100952 122.50000000 0.000978 0.000978 0.999999 0.000000
283.02700806 167.96899414 187.50000000 -0.000978 -0.000978 -0.999999 0.000000
144.45300293 153.69099426 57.50000000 0.604860 0.681088 -0.412630 0.000000
109.59999847 194.00399780 135.00000000 0.961375 0.252312 0.109982 0.000000
170.48800659 192.32400513 202.50000000 -0.000978 -0.000978 -0.999999 0.000000
184.76600647 217.52000427 122.50000000 -0.475046 0.001323 0.879960 0.000000
174.68800354 179.72700500 202.50000000 -0.000978 -0.000978 -0.999999 0.000000
239.35600281 191.90400696 180.00000000 -0.668346 -0.743692 -0.015348 0.000000
188.96499634 183.92599487 122.50000000 -0.170900 -0.033715 0.984711 0.000000
197.78300476 187.28500366 125.00000000 -0.465301 -0.505042 0.726930 0.000000
280.50799561 151.17199707 182.50000000 -0.102774 0.186975 -0.976974 0.000000
145.29299927 213.32000732 197.50000000 -0.000978 -0.000978 -0.999999 0.000000
219.19900513 198.20300293 177.50000000 0.874085 -0.473285 0.109438 0.000000
309.06298828 165.86900330 160.00000000 0.001311 -0.893111 -0.449834 0.000000
162.92999268 188.96499634 202.50000000 -0.000978 -0.000978 -0.999999 0.000000
164.60899353 260.35198975 132.50000000 -0.045407 -0.159507 0.986152 0.000000
234.73599243 188.96499634 145.00000000 -0.322494 -0.620679 0.714672 0.000000
132.69500732 270.42999268 132.50000000 0.272416 -0.667500 0.692989 0.000000
175.52699280 250.27400208 172.50000000 -0.670211 -0.380390 -0.637276 0.000000
200.72300720 142.77299500 157.50000000 -0.136197 0.988298 -0.068680 0.000000
302.34399414 178.88699341 182.50000000 -0.797991 -0.035061 -0.601649 0.000000
156.63099670 145.29299927 90.00000000 0.288894 0.947304 -0.138400 0.000000
164.60899353 231.79699707 187.50000000 -0.235066 -0.357709 -0.903763 0.000000
190.64500427 208.28100586 137.50000000 0.000978 0.000978 0.999999 0.000000
135.63499451 155.37100220 60.00000000 0.712607 0.701451 0.012551 0.000000
