134.37500000 155.46899414 197.50000000 0.174269 -0.786484 0.592515 0.000000
143.75000000 260.15600586 152.50000000 -0.000978 -0.000978 -0.999999 0.000000
138.28100586 275.78100586 152.50000000 0.000978 0.000978 -0.999999 0.000000
151.95300293 186.71899414 210.00000000 0.657290 -0.536254 0.529530 0.000000
139.84399414 267.18798828 152.50000000 0.829100 0.374280 -0.415340 0.000000
82.81250000 203.12500000 212.50000000 0.000978 0.000978 0.999999 0.000000
143.75000000 144.53100586 132.50000000 -0.671037 -0.671037 0.315307 0.000000
118.75000000 229.68800354 122.50000000 0.000978 0.000978 -0.999999 0.000000
144.53100586 231.25000000 137.50000000 -0.000978 -0.000978 -0.999999 0.000000
72.65619659 246.87500000 197.50000000 0.000978 0.000978 0.999999 0.000000
83.59380341 285.15600586 172.50000000 -0.569395 0.462529 0.679600 0.000000
118.35900116 204.68800354 100.00000000 -0.287999 -0.758982 0.583955 0.000000
140.62500000 233.59399414 137.50000000 0.340265 0.549906 -0.762773 0.000000
166.40600586 205.46899414 207.50000000 0.831883 0.247566 0.496670 0.000000
132.81199646 294.14099121 160.00000000 0.702740 0.702740 0.110959 0.000000
145.31199646 172.65600586 207.50000000 0.000978 0.000978 0.999999 0.000000
112.50000000 166.40600586 77.50000000 -0.776992 -0.148786 0.611675 0.000000
76.95310211 166.40600586 165.00000000 -0.886050 -0.442309 -0.138848 0.000000
180.46899414 153.90600586 147.50000000 0.000978 0.000978 0.999999 0.000000
167.96899414 220.31199646 197.50000000 0.765959 0.229320 0.600599 0.000000
150.00000000 239.06199646 197.50000000 0.601147 0.201407 0.773342 0.000000
125.78099823 147.26600647 90.00000000 -0.568569 0.190539 0.800265 0.000000
81.25000000 257.81201172 97.50000000 -0.181562 0.767444 -0.614870 0.000000
93.75000000 180.46899414 47.50000000 0.000978 0.000978 0.999999 0.000000
94.53119659 180.46899414 47.50000000 0.000978 0.000978 0.999999 0.000000
185.15600586 182.03100586 147.50000000 0.000978 0.000978 0.999999 0.000000
103.51599884 176.56199646 215.00000000 -0.945428 -0.274215 0.175989 0.000000
96.87500000 294.53100586 132.50000000 -0.497000 0.828333 -0.258564 0.000000
133.59399414 223.43800354 122.50000000 -0.000978 -0.000978 -0.999999 0.000000
63.28120041 248.04699707 130.00000000 -0.896483 0.357112 -0.262277 0.000000
83.20310211 167.96899414 115.00000000 -0.987889 0.001116 -0.155160 0.000000
69.14060211 177.34399414 185.00000000 -0.947241 -0.316601 -0.049990 0.000000
86.32810211 191.40600586 215.00000000 -0.840942 0.503963 0.197072 0.000000
118.35900116 189.06199646 90.00000000 -0.549587 0.087532 0.830838 0.000000
201.56199646 196.87500000 192.50000000 0.000978 0.000978 0.999999 0.000000
158.59399414 161.71899414 197.50000000 0.000978 0.000978 0.999999 0.000000
229.68800354 153.12500000 187.50000000 0.000978 0.000978 0.999999 0.000000
82.03119659 271.48400879 185.00000000 0.540989 0.833965 0.108778 0.000000
128.90600586 255.46899414 202.50000000 0.663964 0.362311 0.654127 0.000000
176.17199707 225.78100586 185.00000000 0.787748 -0.142004 -0.599406 0.000000
231.25000000 159.37500000 162.50000000 0.000978 0.000978 0.999999 0.000000
220.70300293 176.56199646 190.00000000 0.523487 -0.181495 0.832479 0.000000
125.00000000 143.75000000 182.50000000 0.060663 -0.833759 0.548786 0.000000
207.03100586 131.25000000 177.50000000 0.000978 0.000978 0.999999 0.000000
133.59399414 275.00000000 187.50000000 0.000978 0.000978 0.999999 0.000000
152.34399414 192.18800354 212.50000000 0.000978 0.000978 0.999999 0.000000
69.92189789 190.62500000 115.00000000 -0.886050 -0.442309 -0.138848 0.000000
109.37500000 300.00000000 167.50000000 -0.338238 0.577755 0.742828 0.000000
161.71899414 209.37500000 137.50000000 -0.000978 -0.000978 -0.999999 0.000000
125.39099884 182.81199646 95.00000000 -0.622453 -0.046790 0.781257 0.000000
203.12500000 182.03100586 152.50000000 0.000978 0.000978 0.999999 0.000000
164.06199646 182.81199646 147.50000000 0.000978 0.000978 0.999999 0.000000
114.84400177 299.21899414 167.50000000 0.000978 0.000978 0.999999 0.000000
119.53099823 164.06199646 207.50000000 -0.081609 -0.237293 0.968004 0.000000
85.15619659 230.46899414 82.50000000 0.108607 0.543036 -0.832656 0.000000
96.87500000 182.03100586 47.50000000 0.000978 0.000978 0.999999 0.000000
185.15600586 169.53100586 197.50000000 0.000978 0.000978 0.999999 0.000000
209.37500000 167.18800354 192.50000000 0.000000 0.000000 0.000000 0.000000
89.84380341 182.81199646 47.50000000 0.000978 0.000978 0.999999 0.000000
86.71880341 239.84399414 87.50000000 -0.833928 0.277976 0.476752 0.000000
73.43750000 168.75000000 187.50000000 -0.690320 -0.690320 0.216602 0.000000
157.81199646 228.12500000 147.50000000 0.513657 0.057073 -0.856095 0.000000
97.65619659 210.15600586 222.50000000 -0.469281 0.149647 0.870277 0.000000
92.96880341 182.81199646 47.50000000 0.000978 0.000978 0.999999 0.000000
60.15620041 228.51600647 185.00000000 -0.949660 0.157603 0.270754 0.000000
73.82810211 221.09399414 90.00000000 -0.905292 0.115777 -0.408707 0.000000
200.78100586 135.93800354 182.50000000 0.192618 -0.258190 0.946697 0.000000
139.84399414 257.81201172 197.50000000 0.000978 0.000978 0.999999 0.000000
120.70300293 242.96899414 130.00000000 0.651960 0.557619 -0.513818 0.000000
139.45300293 288.28100586 160.00000000 0.702740 0.702740 -0.110959 0.000000
76.56250000 234.37500000 202.50000000 -0.558177 0.183034 0.809282 0.000000
132.81199646 248.43800354 202.50000000 0.000978 0.000978 0.999999 0.000000
120.31199646 154.29699707 90.00000000 -0.744128 -0.493336 0.450437 0.000000
170.31199646 235.93800354 187.50000000 0.449441 0.619862 0.643253 0.000000
158.59399414 143.75000000 147.50000000 -0.227598 -0.558931 0.797367 0.000000
62.89059830 236.71899414 120.00000000 -0.853541 0.195821 -0.482826 0.000000
118.75000000 278.90600586 187.50000000 0.261003 0.532946 0.804889 0.000000
201.56199646 202.34399414 187.50000000 0.298670 -0.877818 0.374475 0.000000
123.43800354 254.68800354 202.50000000 0.000978 0.000978 0.999999 0.000000
158.59399414 244.53100586 192.50000000 0.000978 0.000978 0.999999 0.000000
221.09399414 185.93800354 192.50000000 0.000978 0.000978 0.999999 0.000000
154.68800354 205.46899414 207.50000000 0.284622 -0.377990 0.880973 0.000000
58.20309830 227.34399414 135.00000000 -0.995210 0.082842 -0.051914 0.000000
84.76560211 158.59399414 180.00000000 -0.551057 -0.827312 0.109048 0.000000
179.68800354 156.25000000 147.50000000 0.000978 0.000978 0.999999 0.000000
89.84380341 184.37500000 47.50000000 0.000978 0.000978 0.999999 0.000000
203.90600586 144.53100586 152.50000000 0.000978 0.000978 0.999999 0.000000
111.71900177 237.50000000 122.50000000 0.359992 0.439285 -0.823064 0.000000
62.50000000 244.53100586 127.50000000 -0.914794 0.288501 -0.282702 0.000000
221.87500000 145.31199646 187.50000000 0.434708 -0.113953 0.893333 0.000000
244.14100647 165.62500000 185.00000000 0.713191 -0.254598 0.653099 0.000000
107.42199707 278.90600586 125.00000000 0.650154 -0.452935 -0.610041 0.000000
107.03099823 221.09399414 222.50000000 0.000978 0.000978 0.999999 0.000000
198.43800354 131.64100647 180.00000000 -0.165629 -0.651880 0.740013 0.000000
191.40600586 121.09400177 162.50000000 0.000978 0.000978 0.999999 0.000000
91.40619659 286.71899414 172.50000000 0.578659 0.001362 0.815569 0.000000
121.48400116 278.90600586 140.00000000 0.547572 0.130654 -0.826496 0.000000
67.96880341 224.21899414 197.50000000 0.000978 0.000978 0.999999 0.000000
112.10900116 135.15600586 125.00000000 -0.628881 -0.777500 0.001376 0.000000
202.34399414 157.03100586 152.50000000 -0.237033 0.217851 0.946761 0.000000
122.65599823 162.50000000 207.50000000 0.141910 -0.195606 0.970361 0.000000
175.78100586 217.96899414 187.50000000 0.947395 0.008715 -0.319948 0.000000
238.28100586 132.81199646 162.50000000 0.000978 0.000978 0.999999 0.000000
75.78119659 232.03100586 202.50000000 -0.746398 -0.049950 0.663623 0.000000
151.56199646 222.65600586 137.50000000 0.541822 0.679374 -0.494853 0.000000
149.21899414 250.00000000 192.50000000 0.000978 0.000978 0.999999 0.000000
200.00000000 192.96899414 157.50000000 -0.253155 0.438095 0.862546 0.000000
85.15619659 183.59399414 212.50000000 0.000978 0.000978 0.999999 0.000000
86.71880341 182.81199646 212.50000000 -0.274289 -0.481942 0.832164 0.000000
97.65619659 150.00000000 182.50000000 -0.189942 -0.952402 0.238437 0.000000
142.18800354 137.50000000 102.50000000 -0.774772 0.599177 -0.201780 0.000000
79.68750000 162.89100647 190.00000000 -0.405556 -0.677031 0.614128 0.000000
137.50000000 155.07800293 195.00000000 0.371572 -0.770727 0.517604 0.000000
125.00000000 164.84399414 97.50000000 0.000978 0.000978 0.999999 0.000000
96.48439789 153.12500000 80.00000000 -0.656536 -0.740669 -0.142725 0.000000
150.00000000 200.78100586 212.50000000 0.000978 0.000978 0.999999 0.000000
89.06250000 259.37500000 197.50000000 0.000978 0.000978 0.999999 0.000000
125.00000000 166.40600586 97.50000000 -0.000978 -0.000978 0.999999 0.000000
96.87500000 185.93800354 47.50000000 0.000978 0.000978 0.999999 0.000000
228.12500000 162.50000000 187.50000000 0.000978 0.000978 0.999999 0.000000
103.90599823 143.75000000 97.50000000 -0.560283 -0.804548 -0.196939 0.000000
89.06250000 278.12500000 182.50000000 -0.387730 0.641817 0.661616 0.000000
89.84380341 231.25000000 212.50000000 -0.466380 0.312490 0.827550 0.000000
173.43800354 207.03100586 157.50000000 0.076785 0.991334 -0.106583 0.000000
224.21899414 132.81199646 152.50000000 -0.034513 -0.333625 0.942074 0.000000
171.09399414 157.81199646 197.50000000 0.000978 0.000978 0.999999 0.000000
161.71899414 257.81201172 177.50000000 0.671037 0.671037 0.315307 0.000000
86.71880341 170.31199646 202.50000000 -0.000978 -0.000978 0.999999 0.000000
209.37500000 117.18800354 157.50000000 -0.000978 -0.000978 0.999999 0.000000
135.15600586 234.37500000 212.50000000 0.358956 0.161882 0.919209 0.000000
117.96900177 210.15600586 222.50000000 0.000978 0.000978 0.999999 0.000000
252.73399353 168.75000000 180.00000000 0.317350 0.885873 0.338406 0.000000
185.93800354 123.43800354 137.50000000 0.204058 -0.946335 -0.250621 0.000000
237.50000000 169.53100586 187.50000000 0.000978 0.000978 0.999999 0.000000
200.00000000 144.53100586 192.50000000 0.000978 0.000978 0.999999 0.000000
233.59399414 181.25000000 187.50000000 0.000978 0.000978 0.999999 0.000000
168.75000000 239.84399414 182.50000000 0.671037 0.671037 0.315307 0.000000
72.65619659 275.39099121 170.00000000 -0.734997 0.578545 0.353646 0.000000
85.93750000 268.75000000 107.50000000 0.619586 0.619586 -0.481900 0.000000
157.81199646 165.62500000 197.50000000 -0.025643 -0.257654 0.965897 0.000000
169.53100586 235.15600586 162.50000000 0.593201 0.278312 -0.755417 0.000000
111.71900177 202.34399414 92.50000000 -0.572517 -0.686019 0.449000 0.000000
81.25000000 277.73400879 120.00000000 -0.845288 0.484106 -0.226118 0.000000
63.67190170 232.03100586 190.00000000 -0.932700 0.075840 0.352590 0.000000
228.12500000 139.06199646 182.50000000 0.000978 0.000978 0.999999 0.000000
114.84400177 275.78100586 192.50000000 0.173836 0.900785 0.397954 0.000000
130.46899414 235.93800354 212.50000000 0.000978 0.000978 0.999999 0.000000
89.06250000 223.43800354 217.50000000 -0.208136 -0.095967 0.973381 0.000000
92.18750000 188.28100586 47.50000000 0.000978 0.000978 0.999999 0.000000
147.65600586 192.96899414 112.50000000 0.000978 0.000978 -0.999999 0.000000
208.59399414 130.46899414 152.50000000 0.000978 0.000978 0.999999 0.000000
128.12500000 209.37500000 112.50000000 -0.243623 -0.611415 0.752874 0.000000
218.75000000 147.65600586 187.50000000 0.000978 0.000978 0.999999 0.000000
186.71899414 188.28100586 147.50000000 0.231493 -0.201711 0.951695 0.000000
149.21899414 152.34399414 187.50000000 0.000978 0.000978 0.999999 0.000000
132.03100586 131.25000000 157.50000000 -0.001116 -0.987889 0.155160 0.000000
203.12500000 203.12500000 152.50000000 -0.772419 0.452347 0.445815 0.000000
227.34399414 192.96899414 192.50000000 0.000978 0.000978 0.999999 0.000000
57.81250000 236.71899414 147.50000000 -0.991470 0.112952 -0.065033 0.000000
60.54690170 206.25000000 135.00000000 -0.918700 -0.367760 -0.144028 0.000000
100.39099884 146.87500000 100.00000000 -0.000978 -0.000978 -0.999999 0.000000
231.25000000 139.84399414 157.50000000 0.000978 0.000978 0.999999 0.000000
109.76599884 196.09399414 85.00000000 -0.665326 -0.484330 0.568125 0.000000
82.03119659 271.87500000 182.50000000 -0.685415 0.120431 0.718125 0.000000
167.96899414 177.34399414 147.50000000 0.000978 0.000978 0.999999 0.000000
95.31250000 247.65600586 207.50000000 -0.215296 0.474254 0.853657 0.000000
242.96899414 169.53100586 187.50000000 0.033014 -0.142300 0.989273 0.000000
76.56250000 170.31199646 197.50000000 -0.000978 -0.000978 0.999999 0.000000
177.34399414 130.46899414 172.50000000 -0.000978 -0.000978 0.999999 0.000000
187.50000000 132.81199646 182.50000000 0.000978 0.000978 0.999999 0.000000
175.39100647 217.18800354 185.00000000 0.955660 0.051897 -0.289863 0.000000
241.40600586 164.84399414 187.50000000 0.249755 -0.479591 0.841199 0.000000
123.43800354 130.46899414 142.50000000 -0.671037 -0.671037 0.315307 0.000000
57.42190170 225.00000000 175.00000000 -0.984669 -0.109408 0.135858 0.000000
197.65600586 175.00000000 147.50000000 -0.184073 0.068576 0.980518 0.000000
146.09399414 136.71899414 177.50000000 0.077085 -0.486338 0.870364 0.000000
78.12500000 172.65600586 147.50000000 -0.831055 -0.554502 -0.043299 0.000000
113.28099823 285.93798828 182.50000000 0.023830 0.755567 0.654638 0.000000
110.15599823 197.65600586 87.50000000 -0.663444 -0.529076 0.529076 0.000000
111.71900177 287.10900879 180.00000000 0.018131 0.765689 0.642955 0.000000
214.84399414 132.81199646 152.50000000 0.000978 0.000978 0.999999 0.000000
229.68800354 194.53100586 177.50000000 -0.302356 -0.796258 0.523979 0.000000
69.53119659 217.18800354 97.50000000 -0.000978 -0.000978 -0.999999 0.000000
70.70310211 255.46899414 115.00000000 -0.783479 0.489472 -0.382855 0.000000
212.50000000 171.87500000 152.50000000 0.000978 0.000978 0.999999 0.000000
130.07800293 200.78100586 220.00000000 0.639551 0.064674 0.766024 0.000000
152.34399414 214.06199646 207.50000000 0.583954 0.437549 0.683775 0.000000
97.65619659 150.39100647 95.00000000 -0.557471 -0.781723 -0.279525 0.000000
126.56199646 190.62500000 217.50000000 0.261570 -0.328789 0.907457 0.000000
128.90600586 129.29699707 100.00000000 -0.446689 -0.894688 -0.001310 0.000000
75.00000000 266.40600586 182.50000000 -0.576924 0.287667 0.764464 0.000000
71.48439789 187.50000000 115.00000000 -0.886050 -0.442309 -0.138848 0.000000
101.95300293 239.06199646 115.00000000 0.788169 -0.001371 -0.615457 0.000000
142.18800354 125.39099884 135.00000000 -0.193815 -0.969075 0.152742 0.000000
175.00000000 179.68800354 147.50000000 0.000978 0.000978 0.999999 0.000000
117.57800293 235.93800354 215.00000000 0.009628 0.799137 0.601072 0.000000
135.15600586 245.31199646 142.50000000 0.542259 -0.017757 -0.840024 0.000000
178.12500000 140.62500000 187.50000000 0.239633 -0.753357 0.612396 0.000000
121.87500000 144.53100586 82.50000000 -0.000978 -0.000978 0.999999 0.000000
71.09380341 176.56199646 197.50000000 -0.551259 -0.399869 0.732269 0.000000
59.76559830 239.06199646 180.00000000 -0.760458 0.155720 0.630440 0.000000
180.46899414 128.90600586 172.50000000 -0.000978 -0.000978 0.999999 0.000000
172.65600586 193.75000000 202.50000000 0.000978 0.000978 0.999999 0.000000
134.37500000 169.53100586 137.50000000 -0.908467 -0.299896 0.291119 0.000000
143.75000000 194.53100586 142.50000000 -0.661550 0.533616 0.526883 0.000000
198.43800354 188.28100586 192.50000000 0.000978 0.000978 0.999999 0.000000
92.96880341 192.18800354 47.50000000 -0.910950 0.181618 0.370386 0.000000
85.93750000 257.81201172 97.50000000 -0.000978 -0.000978 -0.999999 0.000000
235.93800354 191.40600586 177.50000000 -0.391373 -0.771377 0.501801 0.000000
162.50000000 257.03100586 177.50000000 0.707710 0.612913 0.351403 0.000000
143.35899353 133.59399414 170.00000000 -0.212129 -0.769550 0.602324 0.000000
171.87500000 130.46899414 142.50000000 -0.001141 -0.982547 0.186011 0.000000
195.31199646 138.28100586 147.50000000 0.000978 0.000978 0.999999 0.000000
188.28100586 135.93800354 182.50000000 0.000978 0.000978 0.999999 0.000000
201.56199646 201.56199646 152.50000000 -0.608332 0.648552 0.457506 0.000000
218.75000000 164.06199646 157.50000000 -0.000978 -0.000978 0.999999 0.000000
116.40599823 252.34399414 132.50000000 -0.000978 -0.000978 -0.999999 0.000000
209.37500000 119.53099823 147.50000000 0.000978 0.000978 0.999999 0.000000
91.01560211 253.90600586 105.00000000 0.938202 0.152030 -0.310908 0.000000
140.62500000 164.84399414 142.50000000 0.000978 0.000978 0.999999 0.000000
227.34399414 161.71899414 162.50000000 0.000978 0.000978 0.999999 0.000000
111.71900177 163.28100586 207.50000000 0.000978 0.000978 0.999999 0.000000
243.75000000 140.62500000 167.50000000 0.000978 0.000978 0.999999 0.000000
213.67199707 196.09399414 170.00000000 -0.085206 -0.921035 0.380045 0.000000
155.46899414 161.71899414 142.50000000 0.000978 0.000978 0.999999 0.000000
240.62500000 159.37500000 182.50000000 0.000978 0.000978 0.999999 0.000000
148.43800354 192.18800354 147.50000000 -0.297675 0.321371 0.898950 0.000000
67.96880341 228.90600586 197.50000000 0.000978 0.000978 0.999999 0.000000
107.03099823 208.59399414 92.50000000 0.000978 0.000978 0.999999 0.000000
100.00000000 280.46899414 187.50000000 0.000978 0.000978 0.999999 0.000000
115.62500000 237.50000000 122.50000000 0.193684 0.400474 -0.895605 0.000000
64.84380341 236.71899414 192.50000000 -0.887196 0.245205 0.390842 0.000000
75.78119659 230.46899414 202.50000000 -0.649613 0.073787 0.756676 0.000000
175.39100647 214.06199646 185.00000000 0.956007 0.067829 -0.285394 0.000000
246.87500000 142.96899414 167.50000000 -0.164168 0.122200 0.978834 0.000000
121.87500000 221.09399414 222.50000000 0.000978 0.000978 0.999999 0.000000
65.62500000 258.98400879 140.00000000 -0.897736 0.398833 -0.187089 0.000000
121.87500000 254.68800354 202.50000000 0.000978 0.000978 0.999999 0.000000
62.50000000 199.21899414 137.50000000 -0.979973 -0.196938 0.029482 0.000000
89.06250000 256.25000000 197.50000000 0.000978 0.000978 0.999999 0.000000
133.59399414 198.43800354 217.50000000 0.183711 -0.083948 0.979389 0.000000
182.03100586 205.85899353 185.00000000 0.570580 0.670975 0.473531 0.000000
137.89100647 234.37500000 210.00000000 0.666405 0.515331 0.538831 0.000000
109.37500000 302.73400879 145.00000000 -0.069203 0.944032 -0.322512 0.000000
189.84399414 149.21899414 192.50000000 0.000978 0.000978 0.999999 0.000000
101.95300293 171.09399414 55.00000000 -0.934282 -0.103809 0.341087 0.000000
119.53099823 243.35899353 210.00000000 -0.599103 0.798330 -0.061191 0.000000
200.78100586 176.56199646 152.50000000 0.000978 0.000978 0.999999 0.000000
84.37500000 234.37500000 207.50000000 0.000978 0.000978 0.999999 0.000000
148.82800293 214.84399414 210.00000000 0.652091 0.297869 0.697174 0.000000
69.53119659 197.65600586 102.50000000 -0.868867 -0.174949 -0.463102 0.000000
123.04699707 211.71899414 110.00000000 0.059383 -0.481969 0.874174 0.000000
95.31250000 154.68800354 192.50000000 -0.000978 -0.000978 0.999999 0.000000
129.68800354 126.95300293 130.00000000 -0.391611 -0.915578 0.091421 0.000000
111.71900177 282.81201172 187.50000000 0.000978 0.000978 0.999999 0.000000
136.71899414 252.34399414 197.50000000 0.000978 0.000978 0.999999 0.000000
76.17189789 279.68798828 150.00000000 -0.563791 0.788682 -0.245194 0.000000
100.78099823 173.43800354 52.50000000 -0.934282 -0.103809 0.341087 0.000000
58.20309830 224.21899414 130.00000000 -0.995210 0.082842 -0.051914 0.000000
139.84399414 160.15600586 142.50000000 0.000978 0.000978 0.999999 0.000000
171.09399414 239.06199646 172.50000000 0.966536 0.222651 0.127413 0.000000
92.18750000 220.31199646 217.50000000 0.000978 0.000978 0.999999 0.000000
97.65619659 266.40600586 117.50000000 0.558160 0.052020 -0.828101 0.000000
150.78100586 147.65600586 187.50000000 0.000978 0.000978 0.999999 0.000000
138.28100586 139.06199646 177.50000000 0.000978 0.000978 0.999999 0.000000
114.84400177 164.84399414 82.50000000 -0.902554 -0.137007 0.408197 0.000000
191.40600586 150.00000000 192.50000000 0.000978 0.000978 0.999999 0.000000
175.00000000 213.28100586 182.50000000 0.956575 0.051809 -0.286846 0.000000
67.96880341 211.71899414 202.50000000 -0.090157 -0.299217 0.949916 0.000000
230.46899414 169.53100586 162.50000000 0.000978 0.000978 0.999999 0.000000
115.62500000 223.04699707 115.00000000 0.354900 0.639474 -0.681996 0.000000
142.18800354 239.06199646 202.50000000 0.671037 0.671037 0.315307 0.000000
66.79689789 189.06199646 135.00000000 0.000978 0.000978 0.999999 0.000000
121.09400177 257.03100586 202.50000000 0.155759 0.323923 0.933174 0.000000
218.75000000 180.46899414 192.50000000 0.000978 0.000978 0.999999 0.000000
61.71879959 203.90600586 127.50000000 0.000978 0.000978 -0.999999 0.000000
132.81199646 146.09399414 97.50000000 -0.702740 -0.702740 0.110959 0.000000
62.89059830 235.15600586 120.00000000 -0.853541 0.195821 -0.482826 0.000000
71.09380341 247.65600586 107.50000000 -0.873982 0.308554 -0.375432 0.000000
214.84399414 120.31199646 162.50000000 0.558781 -0.558781 0.612802 0.000000
138.28100586 285.15600586 172.50000000 0.433729 0.733877 0.522784 0.000000
64.45310211 239.06199646 190.00000000 -0.785696 0.432538 0.442258 0.000000
123.43800354 166.40600586 207.50000000 0.124735 -0.227609 0.965730 0.000000
91.40619659 225.78100586 82.50000000 -0.873539 -0.447855 0.190671 0.000000
135.93800354 177.34399414 112.50000000 -0.974319 0.147471 0.170159 0.000000
228.12500000 124.21900177 162.50000000 0.100592 -0.871323 0.480290 0.000000
146.87500000 238.28100586 147.50000000 -0.000978 -0.000978 -0.999999 0.000000
165.62500000 159.37500000 192.50000000 0.000978 0.000978 0.999999 0.000000
85.15619659 164.06199646 197.50000000 -0.365948 -0.661332 0.654768 0.000000
118.75000000 261.71899414 137.50000000 0.476384 0.070833 -0.876380 0.000000
103.90599823 220.31199646 97.50000000 -0.578658 -0.294908 0.760385 0.000000
121.48400116 171.87500000 90.00000000 -0.792993 -0.032167 0.608381 0.000000
194.53100586 203.90600586 182.50000000 0.000978 0.000978 0.999999 0.000000
161.71899414 208.59399414 137.50000000 0.728796 0.424718 -0.537095 0.000000
116.40599823 289.84399414 127.50000000 0.962105 -0.147916 -0.229073 0.000000
153.90600586 203.90600586 122.50000000 -0.000978 -0.000978 -0.999999 0.000000
86.71880341 162.50000000 142.50000000 -0.856721 -0.515126 -0.025961 0.000000
142.96899414 180.46899414 142.50000000 0.000978 0.000978 0.999999 0.000000
87.10939789 265.62500000 105.00000000 0.569436 0.579575 -0.582954 0.000000
198.43800354 150.00000000 152.50000000 0.000978 0.000978 0.999999 0.000000
134.37500000 229.68800354 212.50000000 0.308758 -0.011160 0.951075 0.000000
193.75000000 194.92199707 155.00000000 -0.166232 0.891869 0.420638 0.000000
127.34400177 134.76600647 165.00000000 -0.211853 -0.878524 0.428151 0.000000
210.93800354 167.18800354 192.50000000 0.000978 0.000978 0.999999 0.000000
139.45300293 183.59399414 140.00000000 -0.592353 -0.780060 0.201554 0.000000
154.68800354 203.12500000 207.50000000 0.000978 0.000978 0.999999 0.000000
89.45310211 153.12500000 170.00000000 -0.702740 -0.702740 0.110959 0.000000
172.65600586 134.76600647 180.00000000 -0.809413 -0.029256 0.586511 0.000000
219.53100586 132.03100586 152.50000000 0.000978 0.000978 0.999999 0.000000
209.37500000 190.62500000 157.50000000 -0.419278 -0.011755 0.907782 0.000000
78.12500000 171.87500000 202.50000000 0.000978 0.000978 0.999999 0.000000
229.68800354 148.43800354 182.50000000 0.000978 0.000978 0.999999 0.000000
188.28100586 122.65599823 162.50000000 -0.055949 -0.690042 0.721603 0.000000
100.78099823 267.18798828 197.50000000 -0.321643 0.735416 0.596414 0.000000
225.78100586 189.06199646 167.50000000 0.702740 -0.702740 0.110959 0.000000
91.40619659 167.96899414 202.50000000 -0.696932 -0.368964 0.614940 0.000000
131.64100647 260.15600586 145.00000000 0.891840 0.275443 -0.358820 0.000000
146.09399414 264.06201172 152.50000000 -0.000978 -0.000978 -0.999999 0.000000
125.39099884 177.34399414 95.00000000 -0.537868 0.490951 0.685321 0.000000
167.18800354 235.93800354 187.50000000 0.189359 0.813484 0.549897 0.000000
148.82800293 133.59399414 120.00000000 -0.895824 -0.430388 0.110751 0.000000
157.03100586 159.37500000 142.50000000 -0.782597 -0.372742 0.498603 0.000000
114.06199646 281.25000000 187.50000000 -0.044650 0.445143 0.894346 0.000000
79.68750000 231.64100647 85.00000000 -0.641473 0.523617 -0.560658 0.000000
228.90600586 140.62500000 157.50000000 0.000978 0.000978 0.999999 0.000000
77.34380341 235.93800354 92.50000000 -0.414859 -0.214073 -0.884344 0.000000
113.28099823 202.73399353 95.00000000 -0.459313 -0.727936 0.509058 0.000000
164.84399414 174.21899414 147.50000000 0.000978 0.000978 0.999999 0.000000
59.76559830 247.65600586 150.00000000 -0.987889 0.001116 -0.155160 0.000000
224.21899414 182.03100586 162.50000000 -0.537199 -0.409060 0.737622 0.000000
78.90619659 196.09399414 212.50000000 0.565590 -0.824067 0.031962 0.000000
181.25000000 114.84400177 142.50000000 -0.442309 -0.886050 0.138848 0.000000
167.96899414 137.50000000 182.50000000 -0.041039 -0.395823 0.917409 0.000000
165.62500000 170.31199646 202.50000000 0.000978 0.000978 0.999999 0.000000
156.25000000 248.43800354 157.50000000 -0.000978 -0.000978 -0.999999 0.000000
142.96899414 179.68800354 212.50000000 0.000978 0.000978 0.999999 0.000000
96.09380341 282.03100586 112.50000000 0.272546 0.635942 -0.722009 0.000000
203.12500000 135.15600586 182.50000000 0.000978 0.000978 0.999999 0.000000
233.59399414 141.40600586 162.50000000 0.000978 0.000978 0.999999 0.000000
86.32810211 160.93800354 195.00000000 -0.405823 -0.627784 0.664225 0.000000
221.09399414 169.53100586 187.50000000 0.000978 0.000978 0.999999 0.000000
68.75000000 185.93800354 197.50000000 -0.784813 -0.268944 0.558334 0.000000
99.60939789 185.15600586 55.00000000 -0.000978 -0.000978 0.999999 0.000000
126.56199646 241.40600586 207.50000000 0.001299 0.905318 0.424733 0.000000
113.28099823 214.84399414 102.50000000 -0.032371 0.657262 0.752966 0.000000
234.37500000 139.06199646 182.50000000 0.000978 0.000978 0.999999 0.000000
135.15600586 179.68800354 107.50000000 -0.786006 -0.043745 0.616669 0.000000
110.93800354 137.89100647 140.00000000 -0.621076 -0.782358 -0.046687 0.000000
169.53100586 236.71899414 187.50000000 0.189359 0.813484 0.549897 0.000000
185.93800354 210.93800354 182.50000000 0.372788 0.404246 0.835233 0.000000
171.87500000 138.28100586 147.50000000 0.000978 0.000978 0.999999 0.000000
146.87500000 224.21899414 132.50000000 0.619586 0.619586 -0.481900 0.000000
87.50000000 253.12500000 197.50000000 -0.000978 -0.000978 0.999999 0.000000
111.71900177 208.59399414 222.50000000 0.000978 0.000978 0.999999 0.000000
134.37500000 292.96899414 157.50000000 0.702740 0.702740 0.110959 0.000000
130.46899414 213.28100586 117.50000000 0.000000 0.000000 0.000000 0.000000
77.34380341 232.81199646 87.50000000 -0.558704 0.461973 -0.688790 0.000000
64.84380341 217.18800354 112.50000000 -0.000978 -0.000978 -0.999999 0.000000
58.20309830 240.62500000 150.00000000 -0.987760 0.141109 -0.066473 0.000000
213.28100586 196.87500000 192.50000000 0.000978 0.000978 0.999999 0.000000
222.65600586 132.03100586 152.50000000 0.000978 0.000978 0.999999 0.000000
100.00000000 210.93800354 87.50000000 -0.000978 -0.000978 0.999999 0.000000
210.93800354 194.53100586 192.50000000 0.000978 0.000978 0.999999 0.000000
64.84380341 222.65600586 112.50000000 -0.000978 -0.000978 -0.999999 0.000000
199.21899414 184.37500000 152.50000000 0.000978 0.000978 0.999999 0.000000
124.21900177 287.50000000 142.50000000 0.291017 0.081485 -0.953242 0.000000
91.40619659 250.78100586 202.50000000 0.000978 0.000978 0.999999 0.000000
117.18800354 167.18800354 207.50000000 0.000978 0.000978 0.999999 0.000000
160.93800354 182.81199646 207.50000000 -0.000978 -0.000978 0.999999 0.000000
100.00000000 295.70300293 130.00000000 -0.500206 0.833677 -0.234042 0.000000
87.89060211 189.06199646 55.00000000 -0.808235 0.206260 -0.551555 0.000000
75.00000000 273.43798828 122.50000000 -0.801600 0.200018 0.563410 0.000000
200.78100586 132.81199646 182.50000000 -0.014024 -0.355695 0.934497 0.000000
98.04689789 189.06199646 55.00000000 -0.000978 -0.000978 0.999999 0.000000
85.15619659 219.53100586 212.50000000 -0.523987 0.111149 0.844442 0.000000
167.18800354 226.56199646 177.50000000 -0.000978 -0.000978 -0.999999 0.000000
83.59380341 185.93800354 212.50000000 -0.319176 -0.108173 0.941502 0.000000
165.62500000 165.62500000 147.50000000 -0.000978 -0.000978 0.999999 0.000000
216.40600586 165.62500000 152.50000000 0.000978 0.000978 0.999999 0.000000
110.15599823 248.43800354 207.50000000 -0.092361 0.507273 0.856822 0.000000
196.09399414 185.93800354 192.50000000 0.000978 0.000978 0.999999 0.000000
87.89060211 190.62500000 55.00000000 -0.808235 0.206260 -0.551555 0.000000
71.48439789 172.65600586 180.00000000 -0.870342 -0.483837 -0.091689 0.000000
238.28100586 132.03100586 162.50000000 0.000978 0.000978 0.999999 0.000000
64.84380341 196.09399414 192.50000000 -0.979767 -0.165958 0.111868 0.000000
228.90600586 125.78099823 167.50000000 -0.233339 -0.920472 0.313504 0.000000
244.53100586 173.43800354 172.50000000 0.000978 0.000978 0.999999 0.000000
150.00000000 250.00000000 152.50000000 -0.000978 -0.000978 -0.999999 0.000000
162.50000000 189.06199646 147.50000000 0.000978 0.000978 0.999999 0.000000
67.96880341 221.09399414 102.50000000 -0.905318 0.001299 -0.424733 0.000000
138.28100586 247.26600647 145.00000000 -0.001371 0.788169 -0.615457 0.000000
220.31199646 200.78100586 182.50000000 -0.263329 -0.774218 0.575539 0.000000
99.21880341 262.50000000 122.50000000 0.443742 0.443742 -0.778580 0.000000
97.65619659 191.01600647 55.00000000 -0.855597 -0.290319 0.428566 0.000000
150.78100586 197.65600586 212.50000000 0.000978 0.000978 0.999999 0.000000
87.89060211 192.18800354 55.00000000 -0.808235 0.206260 -0.551555 0.000000
148.43800354 235.93800354 142.50000000 -0.000978 -0.000978 -0.999999 0.000000
217.18800354 171.09399414 192.50000000 0.000978 0.000978 0.999999 0.000000
202.34399414 203.12500000 187.50000000 -0.000978 -0.000978 0.999999 0.000000
160.93800354 257.03100586 167.50000000 0.751537 0.659512 -0.015337 0.000000
126.95300293 159.37500000 110.00000000 0.000978 0.000978 0.999999 0.000000
143.75000000 166.40600586 202.50000000 0.000978 0.000978 0.999999 0.000000
148.43800354 270.31201172 157.50000000 0.583826 -0.242609 -0.774783 0.000000
93.75000000 221.87500000 82.50000000 0.000978 0.000978 0.999999 0.000000
180.46899414 208.20300293 175.00000000 -0.999999 0.000978 0.000978 0.000000
138.28100586 230.46899414 132.50000000 -0.120534 0.739574 -0.662194 0.000000
228.90600586 147.65600586 162.50000000 0.000978 0.000978 0.999999 0.000000
231.25000000 176.56199646 187.50000000 -0.000978 -0.000978 0.999999 0.000000
222.65600586 129.68800354 152.50000000 0.000978 0.000978 0.999999 0.000000
235.93800354 146.09399414 162.50000000 0.134180 0.558837 0.818350 0.000000
132.42199707 148.43800354 110.00000000 -0.734256 -0.626417 0.261668 0.000000
60.54690170 245.31199646 140.00000000 -0.930833 0.309345 -0.194565 0.000000
150.00000000 183.59399414 207.50000000 0.266331 -0.392725 0.880247 0.000000
151.56199646 147.65600586 142.50000000 0.000978 0.000978 0.999999 0.000000
85.54689789 214.06199646 215.00000000 -0.681379 0.077000 0.727869 0.000000
109.37500000 269.53100586 192.50000000 0.000978 0.000978 0.999999 0.000000
182.81199646 142.18800354 187.50000000 0.000978 0.000978 0.999999 0.000000
189.06199646 147.65600586 147.50000000 0.000978 0.000978 0.999999 0.000000
57.42190170 218.75000000 170.00000000 -0.999336 0.027731 0.023623 0.000000
138.28100586 126.17199707 135.00000000 -0.086882 -0.995295 0.042891 0.000000
120.31199646 243.75000000 207.50000000 0.236512 0.063152 0.969574 0.000000
171.48399353 236.71899414 170.00000000 0.895734 0.385561 -0.221368 0.000000
196.87500000 178.90600586 147.50000000 0.000978 0.000978 0.999999 0.000000
110.93800354 302.34399414 142.50000000 0.048288 0.933129 -0.356285 0.000000
81.25000000 198.43800354 212.50000000 0.858356 -0.443662 -0.257659 0.000000
136.71899414 182.81199646 137.50000000 -0.147198 -0.253287 0.956127 0.000000
95.31250000 193.75000000 52.50000000 -0.843950 -0.361693 0.396140 0.000000
133.59399414 239.84399414 207.50000000 0.000978 0.000978 0.999999 0.000000
96.48439789 193.75000000 55.00000000 -0.843950 -0.361693 0.396140 0.000000
167.18800354 210.15600586 202.50000000 0.693549 0.095308 0.714077 0.000000
103.90599823 289.06201172 117.50000000 -0.000978 -0.000978 -0.999999 0.000000
152.34399414 273.04699707 175.00000000 0.881057 0.441257 0.170386 0.000000
134.76600647 177.34399414 125.00000000 -0.671037 0.671037 -0.315307 0.000000
153.51600647 272.65600586 170.00000000 0.881057 0.441257 0.170386 0.000000
103.12500000 144.14100647 100.00000000 -0.681385 -0.703115 -0.203329 0.000000
132.81199646 149.21899414 112.50000000 -0.687197 -0.693430 0.216599 0.000000
146.87500000 267.18798828 157.50000000 0.495574 0.271867 -0.824921 0.000000
128.90600586 202.34399414 107.50000000 -0.341336 -0.474695 0.811267 0.000000
170.31199646 148.43800354 187.50000000 0.000978 0.000978 0.999999 0.000000
238.28100586 166.40600586 187.50000000 0.000978 0.000978 0.999999 0.000000
190.62500000 207.81199646 182.50000000 0.000978 0.000978 0.999999 0.000000
96.48439789 221.87500000 90.00000000 -0.820197 -0.529997 0.215359 0.000000
127.34400177 284.37500000 142.50000000 0.384030 0.241687 -0.891128 0.000000
72.26560211 209.37500000 205.00000000 -0.466794 0.424506 0.775821 0.000000
84.37500000 202.34399414 217.50000000 0.188895 0.978597 0.081651 0.000000
78.12500000 216.40600586 207.50000000 0.000978 0.000978 0.999999 0.000000
85.15619659 248.43800354 202.50000000 -0.208705 -0.475968 0.854340 0.000000
91.40619659 207.03100586 217.50000000 -0.285082 -0.282187 0.916023 0.000000
132.81199646 232.81199646 132.50000000 -0.000978 -0.000978 -0.999999 0.000000
96.09380341 150.78100586 112.50000000 -0.702740 -0.702740 0.110959 0.000000
133.59399414 225.00000000 122.50000000 -0.000978 -0.000978 -0.999999 0.000000
241.40600586 150.78100586 182.50000000 0.000978 0.000978 0.999999 0.000000
114.06199646 275.78100586 132.50000000 0.987889 0.001116 -0.155160 0.000000
149.21899414 177.34399414 207.50000000 0.000978 0.000978 0.999999 0.000000
125.78099823 279.68798828 142.50000000 0.410374 0.107115 -0.905605 0.000000
150.78100586 160.15600586 197.50000000 -0.048333 -0.354003 0.933994 0.000000
89.84380341 184.37500000 212.50000000 -0.186435 -0.550210 0.813948 0.000000
203.90600586 146.87500000 152.50000000 0.000978 0.000978 0.999999 0.000000
185.93800354 178.12500000 197.50000000 0.000978 0.000978 0.999999 0.000000
215.62500000 139.06199646 182.50000000 0.296629 -0.488105 0.820832 0.000000
234.37500000 162.50000000 187.50000000 0.000978 0.000978 0.999999 0.000000
67.96880341 194.53100586 117.50000000 -0.931229 -0.340494 -0.129907 0.000000
221.09399414 142.57800293 185.00000000 0.194756 -0.834884 0.514820 0.000000
166.40600586 182.81199646 207.50000000 0.308310 -0.276164 0.910318 0.000000
162.50000000 141.40600586 182.50000000 0.000978 0.000978 0.999999 0.000000
89.45310211 196.87500000 55.00000000 -0.306649 0.443629 -0.842116 0.000000
144.53100586 162.10899353 200.00000000 0.385561 -0.895734 0.221368 0.000000
93.75000000 192.18800354 217.50000000 0.000978 0.000978 0.999999 0.000000
146.09399414 255.46899414 192.50000000 0.000978 0.000978 0.999999 0.000000
239.84399414 162.50000000 167.50000000 0.000978 0.000978 0.999999 0.000000
162.50000000 234.37500000 152.50000000 -0.240818 -0.694122 -0.678382 0.000000
178.12500000 206.64100647 155.00000000 -0.001116 0.987889 -0.155160 0.000000
179.68800354 184.37500000 197.50000000 0.000978 0.000978 0.999999 0.000000
220.31199646 175.00000000 157.50000000 -0.282408 -0.140535 0.948945 0.000000
253.90600586 166.79699707 180.00000000 0.434812 0.807049 0.399513 0.000000
91.40619659 170.31199646 207.50000000 -0.891952 -0.446663 -0.070092 0.000000
188.28100586 157.81199646 147.50000000 0.000978 0.000978 0.999999 0.000000
111.71900177 301.56201172 142.50000000 0.048288 0.933129 -0.356285 0.000000
170.31199646 156.25000000 192.50000000 -0.000978 -0.000978 0.999999 0.000000
128.90600586 253.12500000 142.50000000 -0.000978 -0.000978 -0.999999 0.000000
157.03100586 145.70300293 185.00000000 0.162521 -0.724510 0.669830 0.000000
90.62500000 198.04699707 55.00000000 0.000978 0.000978 -0.999999 0.000000
91.40619659 198.04699707 55.00000000 0.000978 0.000978 -0.999999 0.000000
184.37500000 123.43800354 137.50000000 0.000978 0.000978 0.999999 0.000000
83.59380341 166.40600586 132.50000000 -0.706663 -0.706663 0.035404 0.000000
193.75000000 142.18800354 147.50000000 0.000978 0.000978 0.999999 0.000000
153.12500000 150.78100586 142.50000000 0.000978 0.000978 0.999999 0.000000
66.40619659 200.00000000 197.50000000 -0.821007 0.015127 0.570717 0.000000
150.00000000 264.84399414 157.50000000 0.451208 0.444692 -0.773732 0.000000
147.65600586 134.76600647 115.00000000 -0.702740 -0.702740 0.110959 0.000000
58.59379959 239.06199646 142.50000000 -0.987889 0.001116 -0.155160 0.000000
144.53100586 203.90600586 212.50000000 0.000978 0.000978 0.999999 0.000000
83.59380341 166.79699707 100.00000000 -0.812307 -0.580623 0.055096 0.000000
102.34400177 162.50000000 57.50000000 -0.954848 -0.001223 0.297091 0.000000
142.18800354 229.29699707 210.00000000 0.638881 0.362963 0.678298 0.000000
125.00000000 239.06199646 212.50000000 0.361745 0.286694 0.887100 0.000000
105.46900177 271.09399414 127.50000000 0.724930 0.009740 -0.688753 0.000000
117.18800354 289.84399414 177.50000000 0.000978 0.000978 0.999999 0.000000
239.84399414 149.21899414 182.50000000 0.000978 0.000978 0.999999 0.000000
116.40599823 134.76600647 110.00000000 -0.467777 -0.882055 -0.056243 0.000000
210.15600586 186.71899414 157.50000000 -0.266487 -0.038424 0.963072 0.000000
82.81250000 244.53100586 92.50000000 -0.000978 -0.000978 -0.999999 0.000000
206.25000000 185.15600586 192.50000000 0.000978 0.000978 0.999999 0.000000
107.81199646 190.62500000 222.50000000 0.000978 0.000978 0.999999 0.000000
103.12500000 162.89100647 60.00000000 -0.954848 -0.001223 0.297091 0.000000
209.37500000 203.12500000 187.50000000 0.000978 0.000978 0.999999 0.000000
134.37500000 262.50000000 192.50000000 -0.000978 -0.000978 0.999999 0.000000
103.12500000 207.81199646 87.50000000 -0.799003 -0.467827 0.377798 0.000000
121.09400177 196.87500000 97.50000000 -0.247137 -0.441207 0.862705 0.000000
220.31199646 166.40600586 187.50000000 0.635512 -0.155481 0.756274 0.000000
119.53099823 275.78100586 192.50000000 0.000000 0.000000 0.000000 0.000000
75.39060211 278.90600586 160.00000000 -0.778629 0.606272 -0.161773 0.000000
154.68800354 242.96899414 192.50000000 0.000978 0.000978 0.999999 0.000000
214.84399414 171.87500000 192.50000000 0.000978 0.000978 0.999999 0.000000
197.65600586 118.75000000 162.50000000 0.240885 -0.640784 0.728951 0.000000
146.09399414 139.84399414 177.50000000 -0.102718 -0.554101 0.826088 0.000000
121.87500000 175.78100586 212.50000000 0.000978 0.000978 0.999999 0.000000
168.75000000 126.56199646 167.50000000 -0.158538 -0.765513 0.623583 0.000000
176.95300293 230.46899414 185.00000000 0.895712 -0.150000 0.418570 0.000000
130.46899414 269.53100586 147.50000000 0.488822 0.122566 -0.863730 0.000000
80.07810211 225.00000000 80.00000000 -0.764949 0.336578 -0.549153 0.000000
198.43800354 143.35899353 150.00000000 -0.837743 -0.274086 0.472295 0.000000
194.53100586 217.18800354 167.50000000 -0.528831 -0.525473 0.666495 0.000000
132.81199646 190.62500000 217.50000000 0.000978 0.000978 0.999999 0.000000
234.76600647 193.75000000 180.00000000 -0.314175 -0.742742 0.591294 0.000000
129.68800354 246.87500000 202.50000000 0.000978 0.000978 0.999999 0.000000
210.93800354 171.87500000 192.50000000 0.000978 0.000978 0.999999 0.000000
162.50000000 242.96899414 157.50000000 0.079838 0.645960 -0.759185 0.000000
193.75000000 218.75000000 172.50000000 -0.674661 -0.001380 0.738126 0.000000
189.84399414 174.21899414 197.50000000 0.000978 0.000978 0.999999 0.000000
91.79689789 282.03100586 115.00000000 -0.504441 0.537959 -0.675381 0.000000
95.70310211 165.62500000 60.00000000 -0.665039 -0.668291 -0.333332 0.000000
144.53100586 258.59399414 192.50000000 0.000978 0.000978 0.999999 0.000000
96.09380341 262.50000000 197.50000000 0.000978 0.000978 0.999999 0.000000
128.90600586 235.93800354 132.50000000 -0.000978 -0.000978 -0.999999 0.000000
122.65599823 204.68800354 102.50000000 -0.449086 -0.449086 0.772427 0.000000
69.53119659 198.43800354 202.50000000 0.000978 0.000978 0.999999 0.000000
195.31199646 210.93800354 157.50000000 0.420773 -0.899245 0.119618 0.000000
114.84400177 207.81199646 97.50000000 0.000978 0.000978 0.999999 0.000000
142.96899414 232.81199646 207.50000000 0.245169 0.458359 0.854283 0.000000
97.65619659 253.90600586 202.50000000 0.000978 0.000978 0.999999 0.000000
159.37500000 218.35899353 140.00000000 0.564446 0.441234 -0.697649 0.000000
195.31199646 150.00000000 192.50000000 0.000978 0.000978 0.999999 0.000000
109.37500000 210.93800354 97.50000000 -0.494619 -0.538213 0.682407 0.000000
134.37500000 162.50000000 202.50000000 -0.394536 -0.262524 0.880581 0.000000
100.00000000 269.53100586 192.50000000 -0.000978 -0.000978 0.999999 0.000000
97.65619659 166.40600586 57.50000000 -0.442535 -0.455598 -0.772394 0.000000
173.43800354 205.46899414 197.50000000 0.386959 0.908575 0.157335 0.000000
112.50000000 301.56201172 142.50000000 0.048288 0.933129 -0.356285 0.000000
145.70300293 277.34399414 160.00000000 0.491415 0.679260 -0.545085 0.000000
123.43800354 258.59399414 137.50000000 -0.000978 -0.000978 -0.999999 0.000000
125.00000000 271.87500000 142.50000000 0.564771 -0.326634 -0.757855 0.000000
92.18750000 155.85899353 90.00000000 -0.702740 -0.702740 -0.110959 0.000000
130.46899414 263.28100586 142.50000000 0.914531 0.135434 -0.381171 0.000000
175.78100586 211.71899414 192.50000000 0.184237 0.036378 0.982208 0.000000
134.37500000 257.81201172 197.50000000 0.150610 0.173391 0.973269 0.000000
174.60899353 200.78100586 145.00000000 0.104851 0.683749 0.722145 0.000000
113.28099823 190.62500000 222.50000000 0.000978 0.000978 0.999999 0.000000
64.45310211 192.18800354 185.00000000 -0.978672 -0.200047 0.046718 0.000000
132.81199646 235.93800354 132.50000000 -0.000978 -0.000978 -0.999999 0.000000
214.06199646 139.45300293 185.00000000 -0.146800 -0.899329 0.411895 0.000000
129.29699707 161.71899414 130.00000000 -0.694276 0.526981 0.490176 0.000000
161.71899414 242.96899414 187.50000000 0.000978 0.000978 0.999999 0.000000
193.75000000 217.96899414 172.50000000 -0.674661 -0.001380 0.738126 0.000000
60.54690170 244.53100586 175.00000000 -0.905318 -0.001299 0.424733 0.000000
166.40600586 221.87500000 197.50000000 0.547492 0.700590 0.457630 0.000000
157.81199646 155.46899414 192.50000000 0.000978 0.000978 0.999999 0.000000
218.75000000 142.18800354 152.50000000 -0.588486 -0.477831 0.652197 0.000000
175.00000000 190.62500000 202.50000000 0.000978 0.000978 0.999999 0.000000
179.68800354 187.50000000 202.50000000 0.000978 0.000978 0.999999 0.000000
156.25000000 254.68800354 187.50000000 -0.000978 -0.000978 0.999999 0.000000
91.40619659 264.84399414 112.50000000 0.688421 -0.058925 -0.722914 0.000000
142.96899414 156.25000000 142.50000000 0.000978 0.000978 0.999999 0.000000
242.96899414 148.43800354 167.50000000 -0.000978 -0.000978 0.999999 0.000000
87.50000000 196.87500000 217.50000000 0.000978 0.000978 0.999999 0.000000
125.00000000 195.31199646 97.50000000 0.000978 0.000978 0.999999 0.000000
137.50000000 135.93800354 172.50000000 -0.027286 -0.926419 0.375505 0.000000
105.46900177 144.14100647 85.00000000 -0.631476 -0.772443 -0.067607 0.000000
156.25000000 228.12500000 202.50000000 -0.000978 -0.000978 0.999999 0.000000
92.96880341 169.14100647 60.00000000 -0.595491 -0.774912 -0.211902 0.000000
150.78100586 150.00000000 187.50000000 0.000978 0.000978 0.999999 0.000000
138.28100586 251.56199646 197.50000000 0.000978 0.000978 0.999999 0.000000
204.68800354 122.65599823 147.50000000 0.000978 0.000978 0.999999 0.000000
155.46899414 143.75000000 182.50000000 0.208939 -0.750631 0.626816 0.000000
78.51560211 196.09399414 210.00000000 0.549846 -0.821044 0.153480 0.000000
139.84399414 188.28100586 112.50000000 -0.860973 -0.431249 0.269721 0.000000
191.40600586 121.87500000 137.50000000 -0.755098 -0.568336 0.326834 0.000000
60.15620041 224.21899414 187.50000000 -0.945965 0.018894 0.323719 0.000000
225.78100586 123.43800354 162.50000000 0.198157 -0.833469 0.515813 0.000000
89.84380341 285.15600586 177.50000000 -0.093842 0.945024 0.313246 0.000000
138.28100586 255.46899414 197.50000000 0.000978 0.000978 0.999999 0.000000
68.75000000 215.62500000 202.50000000 0.000978 0.000978 0.999999 0.000000
126.56199646 147.65600586 187.50000000 0.000978 0.000978 0.999999 0.000000
110.54699707 138.28100586 150.00000000 -0.437036 -0.875554 0.205925 0.000000
77.34380341 257.03100586 102.50000000 -0.763852 0.459620 -0.453077 0.000000
115.62500000 217.18800354 222.50000000 0.000978 0.000978 0.999999 0.000000
138.28100586 233.20300293 135.00000000 0.580392 0.667367 -0.466655 0.000000
117.96900177 272.65600586 137.50000000 0.301313 0.096052 -0.948675 0.000000
133.59399414 235.93800354 212.50000000 0.190505 0.841524 0.505514 0.000000
187.50000000 160.93800354 147.50000000 0.000978 0.000978 0.999999 0.000000
157.81199646 250.78100586 187.50000000 -0.000978 -0.000978 0.999999 0.000000
175.78100586 147.65600586 192.50000000 0.000978 0.000978 0.999999 0.000000
186.71899414 143.75000000 147.50000000 0.000978 0.000978 0.999999 0.000000
196.09399414 146.09399414 147.50000000 -0.211643 0.067286 0.975028 0.000000
116.40599823 141.40600586 172.50000000 -0.193815 -0.969075 0.152742 0.000000
159.37500000 166.40600586 197.50000000 0.033140 -0.256528 0.965969 0.000000
193.75000000 215.23399353 165.00000000 -0.530868 0.841620 -0.099268 0.000000
98.43750000 255.46899414 202.50000000 0.000978 0.000978 0.999999 0.000000
70.31250000 220.31199646 97.50000000 -0.726271 -0.020990 -0.687088 0.000000
115.62500000 135.15600586 107.50000000 -0.316601 -0.947241 -0.049990 0.000000
135.93800354 268.75000000 187.50000000 -0.000978 -0.000978 0.999999 0.000000
78.12500000 180.46899414 202.50000000 0.000978 0.000978 0.999999 0.000000
99.60939789 272.65600586 120.00000000 0.823638 -0.444227 -0.352536 0.000000
103.12500000 288.28100586 117.50000000 -0.000978 -0.000978 -0.999999 0.000000
139.84399414 168.75000000 137.50000000 -0.000978 -0.000978 0.999999 0.000000
75.00000000 209.37500000 207.50000000 -0.670084 0.104563 0.734884 0.000000
235.15600586 149.60899353 160.00000000 -0.304479 0.556351 0.773153 0.000000
147.26600647 221.87500000 130.00000000 -0.558781 0.558781 -0.612802 0.000000
171.87500000 172.65600586 147.50000000 0.000978 0.000978 0.999999 0.000000
141.40600586 152.73399353 190.00000000 -0.095330 -0.746508 0.658511 0.000000
148.43800354 132.42199707 170.00000000 -0.235555 -0.778424 0.581868 0.000000
145.31199646 253.12500000 197.50000000 0.490532 0.500509 0.713350 0.000000
103.51599884 173.43800354 60.00000000 -0.934282 -0.103809 0.341087 0.000000
186.71899414 133.20300293 145.00000000 -0.162403 -0.177748 0.970583 0.000000
150.00000000 137.50000000 132.50000000 -0.747062 -0.463409 0.476603 0.000000
169.92199707 210.93800354 200.00000000 0.639822 0.123214 0.758582 0.000000
106.25000000 151.56199646 192.50000000 -0.000978 -0.000978 0.999999 0.000000
220.31199646 141.79699707 155.00000000 -0.585344 -0.481357 0.652432 0.000000
78.90619659 270.31201172 117.50000000 -0.812315 0.543073 -0.212640 0.000000
172.65600586 213.28100586 192.50000000 0.000978 0.000978 0.999999 0.000000
119.53099823 144.53100586 182.50000000 -0.000978 -0.000978 0.999999 0.000000
125.78099823 239.84399414 132.50000000 0.443278 0.552852 -0.705592 0.000000
235.93800354 135.15600586 162.50000000 0.000978 0.000978 0.999999 0.000000
