214.49200439 118.86699677 347.25000000 0.441425 0.568022 -0.694619 0.000000
171.99200439 190.25399780 354.00000000 0.353823 0.732103 -0.582095 0.000000
59.43360138 149.41400146 385.50000000 -0.910647 -0.343121 0.230195 0.000000
164.02299500 177.63699341 408.00000000 0.155423 0.759009 0.632256 0.000000
88.32029724 124.84400177 398.25000000 -0.326856 -0.792428 0.514998 0.000000
124.18000031 132.14799500 279.75000000 0.463070 0.443434 -0.767419 0.000000
151.40600586 152.07000732 408.75000000 0.290117 -0.503393 0.813897 0.000000
166.34800720 142.10899353 307.50000000 0.640356 0.640356 -0.424132 0.000000
164.35499573 127.50000000 282.00000000 0.125503 0.804697 -0.580268 0.000000
90.31250000 163.02699280 268.50000000 0.815721 -0.115695 -0.566758 0.000000
92.63670349 118.20300293 385.50000000 -0.321409 -0.921373 0.218558 0.000000
96.95310211 231.75799561 425.25000000 -0.020784 0.103922 0.994368 0.000000
154.06199646 179.29699707 413.25000000 0.410367 0.870706 0.271054 0.000000
152.07000732 103.26200104 354.00000000 0.093992 -0.959234 0.266525 0.000000
120.85900116 204.53100586 425.25000000 0.316198 0.071567 0.945990 0.000000
79.68750000 196.89500427 432.00000000 -0.047645 0.233339 0.971228 0.000000
67.73439789 237.73399353 413.25000000 -0.486136 0.590428 0.644256 0.000000
46.48440170 217.14799500 401.25000000 -0.859899 -0.080483 0.504079 0.000000
213.82800293 140.78100586 392.25000000 0.305489 -0.323371 0.895605 0.000000
101.60199738 181.28900146 285.75000000 0.913864 0.001289 -0.406019 0.000000
64.08200073 139.45300293 367.50000000 -0.705724 -0.708486 0.001381 0.000000
96.95310211 205.19500732 429.75000000 0.264000 0.107941 0.958464 0.000000
72.71479797 130.15600586 369.00000000 -0.768018 -0.640246 0.015277 0.000000
147.42199707 139.45300293 404.25000000 0.270498 -0.577379 0.770366 0.000000
210.17599487 116.87500000 337.50000000 0.685820 0.589507 -0.426770 0.000000
162.69500732 194.90199280 357.00000000 -0.307467 0.779023 -0.546431 0.000000
60.76169968 171.99200439 418.50000000 -0.667001 -0.159533 0.727776 0.000000
90.97660065 179.29699707 431.25000000 -0.005713 -0.179385 0.983762 0.000000
50.13669968 170.66400146 385.50000000 -0.972997 -0.178869 0.145886 0.000000
165.35200500 175.97700500 345.75000000 0.199087 0.191176 -0.961154 0.000000
193.90600586 103.92600250 312.00000000 0.148842 -0.938116 -0.312705 0.000000
118.20300293 212.50000000 336.75000000 0.407024 0.720120 -0.561924 0.000000
79.68750000 225.11700439 425.25000000 -0.251137 0.155466 0.955385 0.000000
98.94529724 264.96099854 381.75000000 0.316692 0.790933 -0.523575 0.000000
183.28100586 127.16799927 294.00000000 0.408343 0.898355 -0.161905 0.000000
79.02339935 245.03900146 350.25000000 0.106749 0.476814 -0.872498 0.000000
134.14100647 210.50799561 419.25000000 0.655540 0.290105 0.697213 0.000000
48.14450073 229.76600647 385.50000000 -0.925885 0.363012 -0.104689 0.000000
191.58200073 166.67999268 408.00000000 0.122821 -0.239178 0.963176 0.000000
87.98829651 209.17999268 294.00000000 0.606097 0.793462 -0.055358 0.000000
176.64100647 136.13299561 311.25000000 0.607388 0.708893 -0.358539 0.000000
124.18000031 188.59399414 342.75000000 0.345315 -0.277141 -0.896633 0.000000
101.26999664 198.55499268 303.00000000 0.769946 0.595736 -0.228651 0.000000
191.91400146 179.29699707 410.25000000 -0.217406 -0.080751 0.972735 0.000000
166.67999268 114.55100250 384.00000000 -0.202837 -0.815925 0.541408 0.000000
129.49200439 116.87500000 294.75000000 0.831807 -0.444993 0.331779 0.000000
167.34399414 201.54299927 373.50000000 0.364484 0.873846 -0.321783 0.000000
128.82800293 170.33200073 343.50000000 0.262950 0.939107 -0.221212 0.000000
96.28910065 117.53900146 305.25000000 -0.627565 -0.767687 -0.129687 0.000000
45.82030106 201.87500000 341.25000000 -0.966452 -0.001195 -0.256844 0.000000
46.81639862 227.10899353 369.00000000 -0.909800 0.380151 0.166583 0.000000
58.76950073 156.05499268 327.00000000 -0.945305 -0.308915 -0.104739 0.000000
144.76600647 187.92999268 405.75000000 0.760612 0.519561 0.389264 0.000000
188.26199341 183.28100586 354.00000000 0.365930 0.551335 -0.749750 0.000000
199.21899414 110.23400116 375.75000000 0.159251 -0.967160 0.198093 0.000000
176.64100647 191.91400146 359.25000000 0.001289 0.913864 0.406019 0.000000
79.35549927 133.47700500 304.50000000 -0.740648 -0.652800 -0.159035 0.000000
65.07810211 228.43800354 416.25000000 -0.611747 0.289102 0.736332 0.000000
171.32800293 197.22700500 398.25000000 0.266540 0.860542 0.434079 0.000000
158.37899780 207.18800354 384.00000000 -0.499040 0.742795 -0.446336 0.000000
174.64799500 167.34399414 345.75000000 -0.441303 0.267225 -0.856646 0.000000
166.01600647 140.78100586 399.75000000 0.074141 -0.389579 0.918004 0.000000
94.29689789 255.99600220 367.50000000 0.368505 0.709167 -0.601072 0.000000
200.54699707 180.62500000 360.75000000 0.693599 0.402254 -0.597588 0.000000
133.47700500 221.79699707 360.75000000 0.486136 0.590428 -0.644256 0.000000
82.34380341 119.86299896 366.00000000 -0.558502 -0.747384 0.359851 0.000000
128.82800293 107.57800293 372.75000000 0.107920 -0.924833 0.364742 0.000000
208.18400574 189.92199707 403.50000000 0.280527 0.956866 -0.075576 0.000000
185.27299500 178.30099487 409.50000000 0.178223 0.938086 0.297038 0.000000
92.30470276 113.22299957 366.00000000 -0.469932 -0.860796 0.195432 0.000000
80.35160065 121.85500336 354.00000000 -0.767538 -0.591742 -0.246428 0.000000
170.66400146 199.88299561 372.75000000 0.390831 0.871385 -0.296545 0.000000
107.57800293 108.90599823 321.75000000 -0.313930 -0.939071 -0.139977 0.000000
74.37500000 129.49200439 351.75000000 -0.758802 -0.534574 -0.372089 0.000000
120.19499969 106.25000000 369.75000000 0.232229 -0.933138 0.274452 0.000000
50.13669968 166.67999268 363.00000000 -0.877857 -0.438191 0.193276 0.000000
93.63279724 205.19500732 431.25000000 0.322312 0.325310 0.888982 0.000000
180.95700073 154.72700500 331.50000000 0.531262 0.578486 -0.618963 0.000000
65.07810211 235.41000366 412.50000000 -0.517151 0.513804 0.684514 0.000000
42.16799927 208.51600647 363.00000000 -0.962891 0.208299 -0.171617 0.000000
105.58599854 233.75000000 423.75000000 0.291114 0.403902 0.867246 0.000000
60.76169968 213.82800293 418.50000000 -0.532805 0.185652 0.825622 0.000000
134.80499268 175.31199646 356.25000000 0.042797 0.086692 -0.995315 0.000000
64.41410065 144.76600647 336.75000000 -0.760112 -0.638612 -0.120018 0.000000
90.97660065 203.20300293 285.75000000 0.611306 0.621410 -0.490055 0.000000
85.66410065 143.43800354 279.75000000 0.068647 -0.861589 -0.502944 0.000000
149.41400146 133.80900574 400.50000000 0.241624 -0.463492 0.852522 0.000000
149.41400146 123.18399811 393.00000000 -0.032297 -0.636114 0.770919 0.000000
65.07810211 233.08599854 341.25000000 -0.376847 0.659894 -0.650020 0.000000
101.60199738 185.93800354 285.75000000 0.901198 0.152335 -0.405753 0.000000
110.89800262 253.33999634 412.50000000 -0.090294 0.434798 0.895990 0.000000
71.05470276 213.82800293 425.25000000 -0.418403 0.292729 0.859796 0.000000
130.82000732 244.04299927 384.00000000 0.837054 0.406749 -0.365917 0.000000
198.22300720 181.28900146 358.50000000 0.756167 0.281772 -0.590606 0.000000
52.46089935 161.69900513 375.00000000 -0.890265 -0.444432 -0.099541 0.000000
177.96899414 183.28100586 407.25000000 -0.421584 -0.510166 0.749665 0.000000
191.25000000 157.38299561 342.75000000 0.411682 0.580322 -0.702669 0.000000
136.13299561 200.54699707 420.75000000 0.645280 0.457563 0.611759 0.000000
100.93800354 131.81599426 409.50000000 -0.152639 -0.642294 0.751106 0.000000
146.75799561 179.96099854 419.25000000 0.096675 -0.261667 0.960304 0.000000
54.45309830 157.71499634 385.50000000 -0.637686 -0.765514 0.085703 0.000000
179.96099854 107.91000366 298.50000000 -0.001289 -0.913864 -0.406019 0.000000
127.83200073 184.60899353 349.50000000 0.530159 -0.716296 -0.453709 0.000000
71.71880341 135.46899414 348.75000000 -0.753482 -0.566321 -0.333984 0.000000
142.10899353 130.82000732 323.25000000 0.490795 -0.869605 -0.053918 0.000000
194.23800659 162.69500732 403.50000000 0.235568 -0.328061 0.914813 0.000000
86.32810211 244.37500000 351.75000000 0.235258 0.574901 -0.783673 0.000000
97.94920349 160.70300293 289.50000000 0.832027 -0.415224 -0.367860 0.000000
85.66410065 205.85899353 282.75000000 0.561479 0.726136 -0.396822 0.000000
118.20300293 213.16400146 425.25000000 0.048242 0.108825 0.992890 0.000000
162.03100586 190.91799927 352.50000000 0.082910 0.734556 -0.673464 0.000000
146.75799561 183.28100586 351.75000000 -0.467180 -0.527033 -0.709915 0.000000
197.89100647 189.25799561 386.25000000 0.014820 0.986131 -0.165305 0.000000
141.77699280 197.89100647 351.00000000 0.799624 0.458537 -0.387745 0.000000
157.38299561 107.24600220 295.50000000 0.008576 -0.956876 -0.290371 0.000000
107.57800293 143.77000427 288.00000000 0.077085 0.870364 -0.486338 0.000000
121.52300262 104.58999634 363.00000000 -0.030455 -0.968462 0.247293 0.000000
189.25799561 123.18399811 292.50000000 0.428656 0.645485 -0.632142 0.000000
76.36720276 225.44900513 424.50000000 -0.319001 0.241055 0.916587 0.000000
135.46899414 129.49200439 401.25000000 0.204384 -0.588563 0.782190 0.000000
73.71089935 175.97700500 267.75000000 -0.549469 0.275522 -0.788779 0.000000
174.64799500 197.89100647 372.75000000 0.466213 0.851939 -0.238422 0.000000
53.45700073 182.61700439 316.50000000 -0.986216 -0.045303 -0.159142 0.000000
133.47700500 150.07800293 296.25000000 0.466514 0.576872 -0.670510 0.000000
98.28119659 111.89499664 373.50000000 -0.538081 -0.807898 0.240353 0.000000
178.63299561 153.72999573 327.00000000 0.333720 0.862751 -0.379857 0.000000
193.90600586 102.59799957 324.00000000 0.001213 -0.959249 -0.282560 0.000000
175.97700500 185.93800354 399.75000000 -0.297939 0.775916 0.556046 0.000000
69.72660065 151.40600586 414.75000000 -0.538384 -0.717294 0.442303 0.000000
126.83599854 170.33200073 340.50000000 0.175483 0.983410 0.045932 0.000000
155.39100647 134.14100647 399.75000000 0.017081 -0.424406 0.905311 0.000000
168.67199707 152.07000732 405.75000000 0.236243 -0.396709 0.887024 0.000000
74.37500000 177.30499268 267.75000000 -0.549469 0.275522 -0.788779 0.000000
181.28900146 138.78900146 320.25000000 0.598970 0.598970 -0.531480 0.000000
51.46480179 173.98399353 330.00000000 -0.929586 -0.206731 -0.305174 0.000000
109.56999969 160.03900146 302.25000000 0.332660 0.165634 -0.928387 0.000000
123.51599884 147.08999634 418.50000000 0.362331 -0.380992 0.850624 0.000000
149.41400146 101.93399811 352.50000000 0.257148 -0.903690 0.342374 0.000000
121.19100189 102.26599884 348.00000000 -0.067199 -0.997324 0.028800 0.000000
117.87100220 210.50799561 426.00000000 0.334360 0.115063 0.935395 0.000000
60.09769821 146.09399414 375.00000000 -0.785661 -0.618202 0.023723 0.000000
71.05470276 132.47999573 367.50000000 -0.768018 -0.640246 0.015277 0.000000
114.88300323 193.90600586 428.25000000 0.052178 0.041530 0.997774 0.000000
51.13280106 223.45700073 345.00000000 -0.783632 0.556584 -0.275927 0.000000
200.54699707 110.23400116 375.75000000 0.191744 -0.969014 0.155711 0.000000
171.32800293 102.59799957 331.50000000 -0.029264 -0.982092 -0.186117 0.000000
90.97660065 163.35899353 426.75000000 -0.056555 -0.484163 0.873148 0.000000
126.17199707 208.51600647 423.75000000 0.320011 0.250506 0.913696 0.000000
108.90599823 118.53500366 396.00000000 -0.026227 -0.826847 0.561814 0.000000
175.64500427 191.91400146 397.50000000 -0.752963 0.049818 -0.656174 0.000000
133.47700500 181.28900146 354.75000000 0.296327 -0.732008 -0.613477 0.000000
177.96899414 113.88700104 387.00000000 -0.541840 -0.753370 0.372617 0.000000
131.48399353 129.16000366 289.50000000 0.456113 0.832289 -0.315047 0.000000
179.96099854 182.61700439 350.25000000 -0.643257 -0.107455 -0.758072 0.000000
70.72270203 253.67199707 402.00000000 -0.319263 0.701729 0.636904 0.000000
181.28900146 171.32800293 347.25000000 0.566321 0.753482 -0.333984 0.000000
215.82000732 136.13299561 362.25000000 0.837535 0.247419 -0.487154 0.000000
99.60939789 123.84799957 400.50000000 0.026559 -0.775797 0.630423 0.000000
145.42999268 179.29699707 419.25000000 0.096675 -0.261667 0.960304 0.000000
207.18800354 175.97700500 408.75000000 0.370116 -0.318330 0.872743 0.000000
65.41020203 207.18800354 294.00000000 -0.572600 0.559087 -0.599625 0.000000
140.44900513 203.86700439 361.50000000 0.916771 0.367554 -0.156316 0.000000
144.76600647 195.56599426 369.00000000 0.781002 0.624527 -0.001373 0.000000
152.73399353 103.26200104 310.50000000 -0.000978 -0.999999 -0.000978 0.000000
213.16400146 128.49600220 351.00000000 0.674976 0.674976 -0.298020 0.000000
170.66400146 102.59799957 337.50000000 0.129390 -0.986447 0.100900 0.000000
121.52300262 182.61700439 428.25000000 0.405351 0.213731 0.888825 0.000000
223.78900146 121.19100189 363.00000000 0.612105 0.591870 -0.524421 0.000000
155.39100647 104.58999634 361.50000000 0.140826 -0.988111 0.061684 0.000000
61.75780106 160.37100220 414.00000000 -0.623062 -0.420359 0.659615 0.000000
126.50399780 200.54699707 331.50000000 0.763114 0.600149 -0.239746 0.000000
122.85199738 207.18800354 425.25000000 0.284052 0.064963 0.956606 0.000000
107.91000366 159.37500000 301.50000000 0.517818 -0.335059 -0.787147 0.000000
88.32029724 160.70300293 425.25000000 -0.025972 -0.523539 0.851606 0.000000
131.48399353 246.69900513 408.00000000 0.634192 0.482794 0.603913 0.000000
81.01560211 205.19500732 278.25000000 0.194700 0.783401 -0.590233 0.000000
100.60500336 156.71899414 294.00000000 0.797589 0.177074 -0.576625 0.000000
81.67970276 220.13699341 321.00000000 0.238241 0.511834 -0.825389 0.000000
81.67970276 127.50000000 318.75000000 -0.637794 -0.734952 -0.230358 0.000000
86.99220276 252.34399414 413.25000000 -0.481846 0.360184 0.798807 0.000000
188.59399414 153.39799500 338.25000000 0.548235 0.403356 -0.732627 0.000000
111.89499664 191.91400146 429.00000000 0.171645 0.134058 0.975995 0.000000
216.15199280 119.53099823 381.00000000 0.358224 -0.623212 0.695184 0.000000
103.59400177 200.21499634 310.50000000 0.560188 0.647665 -0.516450 0.000000
110.89800262 190.58599854 429.75000000 0.269499 0.108060 0.956918 0.000000
192.57800293 106.58200073 303.00000000 -0.001213 -0.959249 -0.282560 0.000000
216.15199280 184.60899353 406.50000000 0.492361 0.442960 0.749245 0.000000
99.94139862 183.94500732 280.50000000 0.931976 -0.156020 -0.327227 0.000000
144.76600647 146.75799561 300.75000000 0.156080 0.653112 -0.741002 0.000000
86.32810211 230.76199341 340.50000000 -0.037646 0.933352 -0.356984 0.000000
183.94500732 192.91000366 375.00000000 0.684157 0.727186 -0.055937 0.000000
69.06250000 220.13699341 316.50000000 0.059238 0.933326 -0.354111 0.000000
161.36700439 205.52699280 379.50000000 0.352453 0.881890 -0.313124 0.000000
114.88300323 149.41400146 293.25000000 -0.452133 -0.126940 -0.882872 0.000000
50.46879959 232.42199707 359.25000000 -0.763281 0.501771 -0.406974 0.000000
154.06199646 175.31199646 348.75000000 0.968862 0.129267 -0.211179 0.000000
140.11700439 179.29699707 420.75000000 0.267153 0.056441 0.962000 0.000000
108.90599823 151.40600586 422.25000000 0.111700 -0.282534 0.952732 0.000000
99.60939789 217.14799500 428.25000000 0.000978 0.000978 0.999999 0.000000
105.58599854 154.72700500 423.75000000 0.190420 -0.269875 0.943879 0.000000
50.13669968 165.35200500 360.00000000 -0.881410 -0.422188 0.211835 0.000000
90.31250000 183.61300659 268.50000000 0.484165 0.353137 -0.800549 0.000000
44.16019821 208.51600647 378.00000000 -0.997364 -0.005244 0.072364 0.000000
117.20700073 181.28900146 337.50000000 0.746419 -0.596176 -0.295691 0.000000
50.13669968 200.54699707 325.50000000 -0.924742 0.090714 -0.369626 0.000000
56.11330032 225.11700439 411.00000000 -0.594290 0.235532 0.768989 0.000000
142.10899353 170.00000000 419.25000000 0.300439 -0.133379 0.944429 0.000000
104.92199707 152.40199280 297.00000000 0.266226 0.184310 -0.946126 0.000000
126.17199707 213.82800293 348.75000000 0.703222 0.703222 -0.104673 0.000000
120.85900116 221.13299561 351.75000000 0.556395 0.512690 -0.653890 0.000000
164.68800354 177.30499268 380.25000000 -0.169421 0.660895 -0.731105 0.000000
162.69500732 203.20300293 372.75000000 0.314973 0.942238 -0.113926 0.000000
225.78100586 161.36700439 386.25000000 0.332824 0.299990 -0.893999 0.000000
68.39839935 232.08999634 334.50000000 -0.291929 0.863560 -0.411146 0.000000
101.26999664 187.26600647 286.50000000 0.922128 0.248100 -0.296859 0.000000
124.84400177 195.23399353 338.25000000 0.526307 0.123923 -0.841216 0.000000
217.14799500 165.35200500 401.25000000 0.084267 -0.351779 0.932282 0.000000
168.00799561 122.85199738 392.25000000 -0.029114 -0.572568 0.819340 0.000000
52.46089935 186.60200500 408.75000000 -0.707614 -0.123646 0.695697 0.000000
61.75780106 192.57800293 420.75000000 -0.702830 -0.089132 0.705752 0.000000
183.94500732 170.33200073 409.50000000 0.939071 -0.313930 0.139977 0.000000
157.38299561 116.87500000 386.25000000 -0.058062 -0.817117 0.573540 0.000000
217.81199646 117.20700073 378.00000000 0.367921 -0.721125 0.587038 0.000000
128.16400146 127.16799927 303.00000000 0.718715 -0.473057 0.509574 0.000000
71.05470276 223.45700073 325.50000000 -0.225621 0.760886 -0.608398 0.000000
94.29689789 144.10200500 419.25000000 -0.216343 -0.367347 0.904573 0.000000
66.07420349 203.20300293 424.50000000 -0.704682 -0.104890 0.701727 0.000000
143.43800354 185.60499573 414.00000000 0.970640 0.236234 0.045288 0.000000
124.84400177 103.92600250 361.50000000 -0.054961 -0.952238 0.300370 0.000000
45.15620041 216.15199280 390.00000000 -0.993065 0.117153 -0.009854 0.000000
203.86700439 104.58999634 342.00000000 0.210541 -0.977426 -0.017643 0.000000
66.73829651 142.77299500 348.00000000 -0.743113 -0.634516 -0.212540 0.000000
197.89100647 128.82800293 332.25000000 0.735422 0.182704 -0.652514 0.000000
185.93800354 103.92600250 348.00000000 0.001108 -0.989410 0.145143 0.000000
112.89099884 219.80499268 344.25000000 0.365535 0.713039 -0.598297 0.000000
164.02299500 103.92600250 355.50000000 0.000978 -0.999999 0.000978 0.000000
194.57000732 111.56199646 381.75000000 0.140722 -0.868993 0.474392 0.000000
176.64100647 155.72300720 330.00000000 0.377134 0.775309 -0.506622 0.000000
94.29689789 168.00799561 428.25000000 0.001236 -0.317711 0.948187 0.000000
76.36720276 233.08599854 333.75000000 -0.132243 0.607725 -0.783059 0.000000
81.01560211 185.93800354 267.75000000 -0.520036 0.780859 -0.346154 0.000000
133.47700500 101.26999664 331.50000000 -0.182824 -0.919789 -0.347224 0.000000
134.80499268 193.24200439 332.25000000 0.749197 0.373783 -0.546800 0.000000
58.10549927 205.19500732 306.00000000 -0.891491 0.297164 -0.341962 0.000000
54.45309830 158.37899780 348.00000000 -0.863474 -0.479382 -0.156862 0.000000
73.04689789 223.12500000 423.75000000 -0.332525 0.302702 0.893196 0.000000
67.73439789 184.60899353 423.75000000 -0.688540 -0.101733 0.718027 0.000000
73.04689789 219.14100647 425.25000000 -0.541402 0.311426 0.780960 0.000000
154.06199646 105.58599854 299.25000000 0.001289 -0.913864 -0.406019 0.000000
73.71089935 129.16000366 369.00000000 -0.768270 -0.635161 0.079576 0.000000
203.86700439 156.38699341 351.00000000 0.733790 0.398906 -0.549932 0.000000
166.34800720 102.93000031 342.00000000 0.032696 -0.991020 0.129656 0.000000
141.77699280 101.60199738 349.50000000 0.137956 -0.973287 0.183520 0.000000
100.93800354 112.22699738 378.75000000 -0.299172 -0.747129 0.593544 0.000000
115.54699707 134.47300720 277.50000000 0.398955 0.437408 -0.805921 0.000000
110.56600189 259.64801025 408.00000000 -0.661474 0.165749 0.731423 0.000000
116.87500000 250.02000427 412.50000000 0.405370 0.607227 0.683338 0.000000
170.66400146 119.19899750 390.00000000 -0.209726 -0.700639 0.681997 0.000000
120.19499969 129.16000366 403.50000000 0.176297 -0.703654 0.688324 0.000000
63.08589935 172.65600586 420.75000000 -0.678229 -0.203313 0.706165 0.000000
103.59400177 179.29699707 294.75000000 0.867987 -0.200992 -0.454093 0.000000
188.59399414 184.60899353 354.75000000 0.365930 0.551335 -0.749750 0.000000
132.14799500 233.75000000 371.25000000 0.355520 0.689742 -0.630762 0.000000
118.86699677 102.59799957 354.00000000 -0.451292 -0.890239 -0.061727 0.000000
215.48800659 131.48399353 358.50000000 0.702792 0.587038 -0.401832 0.000000
228.10499573 153.39799500 394.50000000 0.120116 -0.513747 0.849492 0.000000
106.58200073 191.25000000 303.00000000 0.709766 0.463758 -0.530246 0.000000
86.99220276 186.27000427 268.50000000 0.164363 0.393042 -0.904711 0.000000
211.83599854 184.94099426 400.50000000 0.755431 0.654893 0.020945 0.000000
105.58599854 251.01600647 413.25000000 0.150606 0.428867 0.890725 0.000000
124.84400177 204.19900513 334.50000000 0.717632 0.593395 -0.364537 0.000000
148.41799927 146.09399414 408.00000000 0.408770 -0.402408 0.819131 0.000000
57.77339935 179.96099854 416.25000000 -0.242292 0.120498 0.962691 0.000000
205.19500732 136.13299561 393.75000000 0.228692 -0.359790 0.904572 0.000000
77.69529724 133.80900574 402.00000000 -0.503699 -0.574453 0.645206 0.000000
114.88300323 134.80499268 413.25000000 -0.029093 -0.821545 0.569401 0.000000
102.26599884 110.56600189 327.00000000 -0.418051 -0.903708 -0.092440 0.000000
108.24199677 190.91799927 304.50000000 0.680261 0.473007 -0.559920 0.000000
142.10899353 162.69500732 336.75000000 0.875302 0.225163 0.427958 0.000000
127.50000000 122.18800354 395.25000000 -0.199712 -0.726084 0.657965 0.000000
150.74200439 145.42999268 405.75000000 0.609410 -0.018046 0.792650 0.000000
72.05079651 136.13299561 337.50000000 -0.739501 -0.670576 0.058873 0.000000
78.35939789 211.17199707 428.25000000 -0.200757 0.275522 0.940098 0.000000
83.00779724 187.59800720 268.50000000 0.086156 0.492925 -0.865796 0.000000
99.27729797 268.94500732 387.00000000 0.347061 0.880535 -0.322812 0.000000
157.38299561 141.44500732 299.25000000 0.223411 0.707727 -0.670232 0.000000
88.32029724 210.50799561 429.75000000 -0.440494 0.180003 0.879525 0.000000
95.29299927 110.89800262 355.50000000 -0.516071 -0.856545 0.001340 0.000000
97.61720276 209.84399414 429.75000000 0.163838 0.095876 0.981817 0.000000
132.14799500 126.83599854 399.75000000 0.112096 -0.557571 0.822526 0.000000
203.20300293 156.05499268 350.25000000 0.731897 0.396376 -0.554268 0.000000
130.48800659 134.80499268 313.50000000 0.825450 -0.503323 0.255533 0.000000
125.50800323 135.46899414 410.25000000 0.216347 -0.630365 0.745543 0.000000
63.08589935 155.05900574 409.50000000 -0.807145 -0.540679 0.237031 0.000000
129.49200439 146.09399414 291.75000000 0.288496 0.324003 -0.900995 0.000000
145.42999268 177.30499268 356.25000000 -0.200323 -0.402107 -0.893409 0.000000
60.76169968 159.37500000 307.50000000 -0.598970 -0.598970 -0.531480 0.000000
84.33589935 121.52300262 387.75000000 -0.520036 -0.780859 0.346154 0.000000
135.80099487 188.59399414 339.00000000 -0.001354 -0.832674 -0.553762 0.000000
221.79699707 174.97999573 396.00000000 -0.357330 -0.929058 -0.095738 0.000000
210.17599487 183.28100586 385.50000000 0.788779 0.549469 -0.275522 0.000000
127.50000000 123.51599884 300.75000000 0.768883 -0.413009 0.488102 0.000000
113.55500031 105.91799927 331.50000000 -0.315874 -0.947621 0.047317 0.000000
201.21099854 189.92199707 414.75000000 0.000978 0.000978 0.999999 0.000000
124.18000031 171.99200439 345.75000000 0.748145 0.345672 -0.566383 0.000000
181.28900146 130.82000732 396.75000000 0.081053 -0.223209 0.971395 0.000000
83.33979797 120.85900116 376.50000000 -0.421349 -0.882616 0.208457 0.000000
74.70700073 239.72700500 415.50000000 -0.549940 0.358515 0.754342 0.000000
69.72660065 228.43800354 332.25000000 -0.273574 0.567706 -0.776445 0.000000
214.49200439 110.23400116 363.75000000 0.170305 -0.944171 0.282025 0.000000
89.98049927 229.76600647 337.50000000 0.100812 0.974518 -0.200380 0.000000
89.31639862 119.53099823 321.00000000 -0.602764 -0.774544 -0.191719 0.000000
138.78900146 154.72700500 416.25000000 0.381904 -0.282277 0.880039 0.000000
92.96880341 116.54299927 379.50000000 -0.427641 -0.868882 0.249331 0.000000
68.39839935 144.76600647 303.75000000 -0.785194 -0.602730 -0.142083 0.000000
47.81250000 187.26600647 333.75000000 -0.977446 -0.200346 -0.066782 0.000000
119.53099823 183.94500732 428.25000000 -0.071031 0.298330 0.951816 0.000000
92.30470276 120.19499969 308.25000000 -0.650488 -0.744062 -0.152435 0.000000
49.80469894 197.89100647 326.25000000 -0.946870 0.066061 -0.314760 0.000000
116.21099854 103.92600250 340.50000000 -0.273073 -0.929582 -0.247606 0.000000
100.27300262 207.52000427 318.00000000 0.129791 0.762334 -0.634035 0.000000
159.37500000 164.35499573 348.00000000 -0.353780 0.817025 -0.455313 0.000000
146.09399414 192.24600220 382.50000000 0.680953 0.702669 0.206302 0.000000
140.44900513 155.39100647 339.00000000 0.908999 -0.264091 0.322454 0.000000
55.11719894 243.37899780 393.00000000 -0.705724 0.708486 -0.001381 0.000000
94.96089935 115.21499634 325.50000000 -0.558873 -0.803859 -0.203644 0.000000
115.54699707 116.87500000 390.75000000 0.530675 -0.707012 0.467460 0.000000
138.12500000 178.63299561 356.25000000 -0.102285 -0.262833 -0.959404 0.000000
130.82000732 247.03100586 407.25000000 0.634192 0.482794 0.603913 0.000000
94.29689789 133.47700500 410.25000000 -0.236955 -0.726556 0.644956 0.000000
50.13669968 167.34399414 382.50000000 -0.991741 -0.085989 0.095161 0.000000
201.21099854 122.18800354 329.25000000 0.728826 0.657946 -0.189525 0.000000
45.82030106 189.25799561 344.25000000 -0.961571 -0.109709 -0.251686 0.000000
56.44530106 237.07000732 354.75000000 -0.710685 0.534262 -0.457701 0.000000
48.80860138 169.33599854 355.50000000 -0.939071 -0.313930 -0.139977 0.000000
112.22699738 109.23799896 307.50000000 -0.427947 -0.902847 -0.041587 0.000000
170.66400146 153.39799500 323.25000000 0.199503 0.685116 -0.700581 0.000000
199.21899414 151.73800659 343.50000000 0.570499 0.570499 -0.590814 0.000000
106.25000000 258.32000732 410.25000000 0.327377 0.218728 0.919229 0.000000
106.91400146 228.43800354 348.75000000 0.439564 0.630097 -0.640126 0.000000
77.69529724 244.37500000 350.25000000 -0.156876 -0.045320 -0.986578 0.000000
201.87500000 105.91799927 349.50000000 0.161415 -0.972302 0.169041 0.000000
73.04689789 241.05499268 347.25000000 -0.001379 0.748548 -0.663079 0.000000
165.35200500 177.30499268 345.75000000 0.186011 -0.001141 -0.982547 0.000000
124.84400177 249.68800354 384.75000000 0.913864 0.001289 0.406019 0.000000
82.01170349 140.78100586 283.50000000 0.055297 -0.599762 0.798265 0.000000
106.25000000 211.50399780 327.00000000 0.400389 0.713451 -0.575045 0.000000
231.75799561 125.17600250 373.50000000 0.817280 0.452281 -0.357064 0.000000
89.64839935 119.86299896 388.50000000 -0.484515 -0.874782 0.001327 0.000000
57.10940170 174.64799500 416.25000000 -0.716370 -0.182544 0.673418 0.000000
57.77339935 229.10200500 411.75000000 -0.711821 0.314751 0.627887 0.000000
67.40229797 136.13299561 366.00000000 -0.705724 -0.708486 0.001381 0.000000
148.75000000 156.05499268 411.75000000 0.562392 0.081568 0.822838 0.000000
157.38299561 168.00799561 416.25000000 0.490829 0.001330 0.871255 0.000000
71.71880341 144.76600647 408.75000000 -0.474643 -0.608818 0.635653 0.000000
150.74200439 158.71099854 324.75000000 -0.066942 0.816121 -0.573991 0.000000
50.13669968 221.79699707 345.00000000 -0.830294 0.497560 -0.251091 0.000000
172.65600586 179.96099854 348.75000000 0.381148 0.381148 -0.842290 0.000000
55.78120041 219.14100647 413.25000000 -0.610159 0.354972 0.708308 0.000000
92.96880341 206.85499573 303.00000000 0.607438 0.735657 -0.299712 0.000000
143.10499573 200.54699707 381.00000000 0.605499 0.394317 -0.691292 0.000000
107.57800293 204.53100586 428.25000000 0.216376 0.146410 0.965270 0.000000
177.30499268 108.90599823 375.75000000 -0.049372 -0.955783 0.289900 0.000000
70.05860138 136.13299561 396.00000000 -0.757317 -0.641265 0.123492 0.000000
124.84400177 205.19500732 335.25000000 0.635040 0.425027 -0.645040 0.000000
97.61720276 164.02299500 426.75000000 -0.082657 -0.313571 0.945960 0.000000
132.81199646 237.40199280 376.50000000 0.505282 0.663077 -0.552285 0.000000
185.93800354 187.26600647 401.25000000 -0.550942 0.825682 0.121295 0.000000
60.42969894 250.68400574 376.50000000 -0.530996 0.845969 -0.048779 0.000000
116.87500000 225.11700439 423.75000000 0.000978 0.000978 0.999999 0.000000
70.05860138 133.47700500 369.00000000 -0.767083 -0.640872 0.029449 0.000000
148.08599854 102.59799957 316.50000000 0.171223 -0.972803 -0.156004 0.000000
125.50800323 179.96099854 348.75000000 0.000978 0.000978 -0.999999 0.000000
119.53099823 105.58599854 318.75000000 -0.413388 -0.889588 -0.194278 0.000000
230.42999268 149.74600220 385.50000000 0.619379 0.064370 -0.782449 0.000000
181.95300293 182.61700439 383.25000000 -0.232271 0.970071 -0.070799 0.000000
156.05499268 101.93399811 340.50000000 0.169374 -0.984704 0.040883 0.000000
92.63670349 121.52300262 301.50000000 -0.612805 -0.756260 -0.229217 0.000000
112.89099884 231.09399414 354.75000000 0.514693 0.514693 -0.685698 0.000000
51.13280106 235.07800293 381.75000000 -0.939071 0.313930 -0.139977 0.000000
204.53100586 111.23000336 375.00000000 0.224511 -0.957826 0.179343 0.000000
62.08980179 143.43800354 372.00000000 -0.898989 -0.428024 -0.092808 0.000000
96.28910065 206.52299500 311.25000000 0.674976 0.674976 -0.298020 0.000000
83.00779724 245.70300293 351.75000000 0.232021 0.429612 -0.872697 0.000000
134.14100647 124.84400177 398.25000000 0.170302 -0.562148 0.809312 0.000000
105.58599854 167.67599487 336.00000000 0.720524 0.681738 -0.126800 0.000000
211.17199707 114.21900177 378.75000000 0.459958 -0.820337 0.339831 0.000000
209.84399414 112.89099884 375.75000000 0.418735 -0.854467 0.307485 0.000000
136.46499634 228.43800354 369.00000000 0.433626 0.760890 -0.482715 0.000000
91.64060211 127.83200073 403.50000000 -0.223271 -0.719776 0.657322 0.000000
123.51599884 247.03100586 378.75000000 0.548355 0.695028 -0.465019 0.000000
201.87500000 190.25399780 394.50000000 0.089894 0.976516 -0.195796 0.000000
73.04689789 224.45300293 326.25000000 -0.233172 0.740203 -0.630659 0.000000
179.29699707 102.26599884 321.75000000 0.034890 -0.991552 -0.124929 0.000000
90.97660065 139.45300293 414.75000000 0.001379 -0.671779 0.740750 0.000000
112.55899811 205.85899353 324.00000000 0.251365 0.548008 -0.797812 0.000000
82.34380341 122.85199738 387.75000000 -0.520036 -0.780859 0.346154 0.000000
72.38279724 212.50000000 426.75000000 -0.135983 0.385518 0.912625 0.000000
140.11700439 162.69500732 417.75000000 0.337770 -0.233394 0.911833 0.000000
190.58599854 110.56600189 381.00000000 0.074654 -0.857822 0.508496 0.000000
130.15600586 185.60499573 351.00000000 0.530159 -0.716296 -0.453709 0.000000
103.59400177 166.34800720 427.50000000 0.107982 -0.184934 0.976801 0.000000
214.49200439 140.78100586 362.25000000 0.809597 0.206608 -0.549424 0.000000
146.75799561 156.05499268 351.75000000 0.370724 0.389495 -0.843124 0.000000
214.82400513 171.32800293 378.00000000 0.674976 0.674976 -0.298020 0.000000
99.27729797 223.12500000 340.50000000 -0.062462 0.973672 -0.219229 0.000000
127.16799927 110.89800262 298.50000000 0.662238 -0.432039 -0.612195 0.000000
132.14799500 136.13299561 291.75000000 -0.000978 -0.000978 -0.999999 0.000000
187.26600647 184.94099426 381.00000000 -0.387038 0.915944 -0.106057 0.000000
56.77730179 168.67199707 411.00000000 -0.895286 -0.293463 0.335174 0.000000
182.61700439 103.26200104 343.50000000 0.042143 -0.946297 0.320541 0.000000
51.13280106 179.96099854 404.25000000 -0.812469 -0.250110 0.526629 0.000000
208.51600647 157.71499634 399.00000000 0.182779 -0.041273 0.982287 0.000000
59.10160065 168.67199707 416.25000000 -0.742578 -0.237060 0.626403 0.000000
124.84400177 175.97700500 348.75000000 0.980829 -0.005763 -0.194783 0.000000
121.52300262 247.36300659 378.00000000 0.549287 0.660152 -0.512332 0.000000
129.49200439 123.51599884 396.75000000 -0.078294 -0.832767 0.548060 0.000000
112.22699738 118.20300293 395.25000000 0.199743 -0.812694 0.547386 0.000000
117.53900146 109.56999969 297.75000000 -0.129175 -0.936858 -0.324977 0.000000
69.72660065 218.14500427 312.00000000 -0.042312 0.944975 -0.324394 0.000000
217.81199646 121.52300262 381.75000000 0.428660 -0.554445 0.713331 0.000000
119.53099823 234.74600220 420.00000000 -0.254047 0.378843 0.889909 0.000000
166.01600647 205.85899353 384.75000000 0.355364 0.826024 -0.437493 0.000000
60.76169968 251.01600647 375.00000000 -0.530996 0.845969 -0.048779 0.000000
124.84400177 173.98399353 348.75000000 0.940389 0.108352 -0.322381 0.000000
184.60899353 151.07400513 402.00000000 0.019463 -0.385372 0.922556 0.000000
197.89100647 105.25399780 310.50000000 0.185672 -0.942112 -0.279195 0.000000
54.78519821 234.41400146 405.00000000 -0.729777 0.498102 0.468315 0.000000
113.55500031 227.44099426 352.50000000 0.443610 0.543298 -0.712767 0.000000
203.20300293 132.14799500 392.25000000 0.216004 -0.363872 0.906057 0.000000
47.48049927 221.79699707 351.00000000 -0.847815 0.476420 -0.232883 0.000000
118.86699677 148.75000000 291.75000000 -0.453987 -0.028123 -0.890564 0.000000
101.93399811 112.89099884 316.50000000 -0.417819 -0.884359 -0.208171 0.000000
152.07000732 181.62100220 403.50000000 0.848380 -0.507264 0.151444 0.000000
173.98399353 141.77699280 315.00000000 0.407917 0.522592 -0.748666 0.000000
96.95310211 204.19900513 430.50000000 0.293882 0.369236 0.881645 0.000000
144.43400574 152.07000732 412.50000000 0.396332 -0.346596 0.850172 0.000000
93.63279724 264.96099854 404.25000000 -0.177102 0.846813 0.501540 0.000000
175.31199646 121.19100189 391.50000000 -0.032169 -0.597225 0.801428 0.000000
57.77339935 221.79699707 413.25000000 -0.651280 0.255124 0.714665 0.000000
65.74220276 143.43800354 338.25000000 -0.741929 -0.666723 -0.070866 0.000000
45.48830032 183.94500732 360.00000000 -0.993804 -0.001079 -0.111142 0.000000
125.17600250 196.56199646 322.50000000 0.595768 0.413221 -0.688701 0.000000
192.57800293 188.92599487 390.00000000 -0.315418 0.938060 -0.143372 0.000000
170.66400146 107.24600220 366.00000000 0.188780 -0.949333 0.251254 0.000000
226.44500732 156.71899414 383.25000000 0.629387 0.366458 -0.685260 0.000000
139.12100220 104.25800323 309.00000000 -0.056751 -0.870651 -0.488617 0.000000
47.48049927 174.64799500 358.50000000 -0.999999 0.000978 0.000978 0.000000
123.51599884 135.46899414 410.25000000 0.067559 -0.642531 0.763275 0.000000
144.76600647 142.44099426 297.00000000 0.098035 0.621864 -0.776965 0.000000
220.46899414 147.42199707 393.75000000 0.402930 -0.412486 0.817008 0.000000
224.45300293 129.16000366 369.00000000 0.573826 0.440765 -0.690254 0.000000
132.81199646 245.70300293 405.75000000 0.776735 0.599021 0.194567 0.000000
124.84400177 145.42999268 290.25000000 0.183200 0.552628 -0.813044 0.000000
88.32029724 217.81199646 321.75000000 -0.219212 0.436933 -0.872374 0.000000
83.67189789 205.52699280 279.00000000 0.351778 0.785477 -0.509194 0.000000
142.77299500 169.00399780 357.00000000 0.113256 0.307790 -0.944689 0.000000
71.71880341 247.69500732 354.75000000 -0.315093 0.615642 -0.722289 0.000000
73.71089935 259.31600952 376.50000000 -0.643773 0.751819 0.142561 0.000000
109.56999969 110.56600189 306.00000000 -0.446689 -0.894688 0.001310 0.000000
100.27300262 213.16400146 428.25000000 0.281557 0.164582 0.945325 0.000000
156.05499268 144.76600647 302.25000000 -0.287667 0.576924 -0.764464 0.000000
188.92599487 149.41400146 336.00000000 0.555535 0.455439 -0.695670 0.000000
97.94920349 130.82000732 408.00000000 -0.196120 -0.696456 0.690279 0.000000
54.45309830 163.35899353 399.75000000 -0.652858 -0.488385 0.579013 0.000000
68.06639862 199.88299561 426.00000000 -0.704682 -0.104890 0.701727 0.000000
199.88299561 116.87500000 386.25000000 0.356567 -0.390822 0.848598 0.000000
144.43400574 185.27299500 409.50000000 0.821454 0.447922 0.352956 0.000000
170.33200073 110.89800262 288.00000000 0.142606 -0.749054 -0.646979 0.000000
135.46899414 231.75799561 410.25000000 0.262293 0.262293 0.928658 0.000000
53.12500000 163.35899353 398.25000000 -0.652858 -0.488385 0.579013 0.000000
151.40600586 103.26200104 313.50000000 0.057959 -0.996232 -0.064520 0.000000
65.07810211 237.07000732 411.75000000 -0.503086 0.506429 0.700310 0.000000
86.99220276 122.51999664 315.00000000 -0.752722 -0.654854 0.067644 0.000000
57.44139862 164.68800354 315.00000000 -0.708486 -0.705724 -0.001381 0.000000
140.78100586 165.68400574 334.50000000 0.702627 0.597315 0.386692 0.000000
217.47999573 120.19499969 381.00000000 0.343933 -0.607996 0.715577 0.000000
195.89799500 189.58999634 405.00000000 -0.633061 0.773429 -0.032285 0.000000
225.11700439 126.83599854 380.25000000 -0.735174 -0.493971 0.464233 0.000000
194.23800659 103.59400177 318.00000000 0.206319 -0.974764 -0.085246 0.000000
96.62110138 269.60900879 387.00000000 0.347061 0.880535 -0.322812 0.000000
45.82030106 177.96899414 366.75000000 -0.977694 -0.177199 -0.112763 0.000000
188.59399414 156.71899414 339.75000000 0.437753 0.486938 -0.755820 0.000000
183.94500732 170.00000000 348.75000000 0.530213 0.800826 -0.278480 0.000000
49.80469894 234.08200073 390.00000000 -0.939478 0.340577 -0.037271 0.000000
81.67970276 130.82000732 305.25000000 -0.728680 -0.675253 -0.114274 0.000000
194.57000732 177.30499268 353.25000000 0.328570 0.343711 -0.879719 0.000000
200.54699707 189.25799561 386.25000000 0.014820 0.986131 -0.165305 0.000000
201.87500000 151.40600586 345.75000000 0.570499 0.570499 -0.590814 0.000000
128.49600220 252.34399414 396.00000000 0.283791 0.469884 -0.835866 0.000000
124.84400177 219.80499268 353.25000000 0.379139 0.398018 -0.835365 0.000000
128.82800293 251.34800720 405.00000000 0.756225 0.580359 0.302170 0.000000
108.90599823 152.40199280 423.00000000 0.136709 -0.235661 0.962172 0.000000
186.60200500 117.53900146 389.25000000 0.054288 -0.374721 0.925547 0.000000
102.93000031 196.56199646 303.75000000 0.769946 0.595736 -0.228651 0.000000
207.85200500 125.50800323 342.75000000 0.691702 0.301511 -0.656231 0.000000
56.77730179 245.70300293 372.00000000 -0.857386 0.513331 0.037158 0.000000
80.35160065 253.00799561 357.75000000 -0.514693 0.514693 -0.685698 0.000000
44.16019821 203.86700439 375.00000000 -0.976541 -0.001164 0.215328 0.000000
67.73439789 199.55099487 283.50000000 -0.654398 0.279999 -0.702398 0.000000
162.69500732 153.39799500 408.75000000 0.150658 -0.490003 0.858603 0.000000
207.18800354 189.92199707 399.75000000 0.694716 0.694716 -0.186387 0.000000
140.44900513 161.36700439 349.50000000 0.915594 0.261805 -0.305198 0.000000
219.14100647 136.13299561 368.25000000 0.845121 0.253076 -0.470875 0.000000
126.83599854 102.26599884 332.25000000 -0.180539 -0.899805 -0.397185 0.000000
181.28900146 102.59799957 318.00000000 0.111631 -0.988231 -0.104581 0.000000
163.35899353 144.10200500 402.75000000 0.338239 -0.381484 0.860270 0.000000
49.14059830 216.48399353 341.25000000 -0.956819 0.263814 -0.122063 0.000000
144.76600647 134.80499268 329.25000000 0.659022 -0.575177 0.484624 0.000000
89.64839935 205.85899353 288.75000000 0.607142 0.695992 -0.383372 0.000000
67.73439789 141.11300659 349.50000000 -0.796802 -0.558535 -0.230531 0.000000
106.91400146 110.89800262 380.25000000 -0.260864 -0.889920 0.374154 0.000000
141.44500732 104.58999634 366.00000000 0.001289 -0.913864 0.406019 0.000000
133.80900574 197.89100647 336.00000000 0.564374 0.678253 -0.470590 0.000000
101.93399811 183.28100586 286.50000000 0.916130 0.082791 -0.392239 0.000000
58.43750000 221.79699707 326.25000000 -0.246928 0.881457 -0.402567 0.000000
94.96089935 237.73399353 422.25000000 0.000978 0.000978 0.999999 0.000000
49.80469894 215.82000732 333.75000000 -0.785097 0.494917 -0.372397 0.000000
101.60199738 217.81199646 335.25000000 0.274333 0.597823 -0.753226 0.000000
144.76600647 201.21099854 390.75000000 0.999999 0.000978 0.000978 0.000000
191.25000000 102.59799957 324.00000000 -0.001164 -0.976541 -0.215328 0.000000
129.82400513 202.53900146 337.50000000 0.432440 0.720733 -0.541793 0.000000
159.37500000 162.36300659 342.00000000 -0.097566 0.875270 -0.473692 0.000000
171.99200439 199.21899414 372.75000000 0.433690 0.850403 -0.297873 0.000000
94.62889862 203.86700439 295.50000000 0.469932 0.860796 0.195432 0.000000
53.78910065 242.05099487 396.00000000 -0.840125 0.537962 -0.069187 0.000000
104.25800323 198.55499268 429.75000000 0.360265 0.051092 0.931450 0.000000
147.42199707 156.05499268 353.25000000 0.137655 0.323013 -0.936330 0.000000
95.62500000 268.94500732 386.25000000 0.162903 0.674450 -0.720124 0.000000
122.18800354 255.33200073 406.50000000 0.466380 0.312490 0.827550 0.000000
65.41020203 205.85899353 292.50000000 -0.599892 0.603272 -0.525540 0.000000
107.57800293 110.56600189 313.50000000 -0.292558 -0.874641 -0.386540 0.000000
55.78120041 155.72300720 370.50000000 -0.914294 -0.333652 -0.229657 0.000000
128.82800293 167.34399414 422.25000000 0.203609 -0.444373 0.872397 0.000000
70.05860138 136.13299561 391.50000000 -0.584600 -0.809989 0.046486 0.000000
161.36700439 202.53900146 396.75000000 -0.432405 0.036145 0.900955 0.000000
107.57800293 267.94900513 400.50000000 -0.636181 0.763122 0.113657 0.000000
152.07000732 155.05900574 352.50000000 -0.164658 0.225252 -0.960286 0.000000
63.08589935 236.07400513 411.00000000 -0.467988 0.537937 0.701150 0.000000
131.48399353 207.52000427 345.00000000 0.674976 0.674976 -0.298020 0.000000
210.83999634 163.35899353 364.50000000 0.913864 -0.001289 -0.406019 0.000000
63.75000000 142.44099426 384.00000000 -0.810529 -0.515791 0.277493 0.000000
210.50799561 130.48800659 349.50000000 0.686172 0.469135 -0.555950 0.000000
84.33589935 205.85899353 429.75000000 0.131575 0.569171 0.811623 0.000000
113.55500031 154.39500427 298.50000000 -0.563357 0.788075 -0.248127 0.000000
92.96880341 159.37500000 275.25000000 0.953006 0.001227 -0.302950 0.000000
88.98439789 179.96099854 431.25000000 -0.003679 -0.295548 0.955321 0.000000
70.39060211 231.09399414 419.25000000 -0.546353 0.479521 0.686701 0.000000
141.77699280 155.39100647 334.50000000 0.917658 -0.299142 0.261569 0.000000
75.03910065 135.80099487 402.00000000 -0.506425 -0.580454 0.637658 0.000000
180.62500000 158.37899780 336.00000000 0.503813 0.641983 -0.577953 0.000000
111.56199646 247.03100586 414.75000000 0.828255 0.540811 0.146686 0.000000
158.04699707 144.43400574 403.50000000 0.212640 -0.543073 0.812315 0.000000
205.19500732 158.71099854 354.75000000 0.865466 0.194470 -0.461681 0.000000
76.03520203 133.47700500 315.00000000 -0.703969 -0.709612 -0.029626 0.000000
107.57800293 105.91799927 360.00000000 -0.313930 -0.939071 0.139977 0.000000
94.62889862 171.99200439 270.00000000 0.954361 0.264142 0.139371 0.000000
95.95700073 122.18800354 292.50000000 -0.673582 -0.719404 -0.169541 0.000000
203.86700439 128.16400146 390.75000000 0.154849 -0.396357 0.904944 0.000000
137.46099854 239.39500427 402.00000000 0.839080 0.486268 0.243901 0.000000
93.63279724 152.73399353 284.25000000 0.913864 -0.001289 -0.406019 0.000000
101.60199738 150.74200439 422.25000000 -0.353743 0.001259 0.935342 0.000000
95.95700073 220.46899414 333.00000000 0.980227 -0.048833 -0.191758 0.000000
122.85199738 193.24200439 336.75000000 0.209707 0.024880 -0.977448 0.000000
132.47999573 247.69500732 399.00000000 0.690873 0.711764 -0.126834 0.000000
193.24200439 132.14799500 327.75000000 0.784216 0.480231 -0.392916 0.000000
208.51600647 128.16400146 344.25000000 0.817922 0.162986 -0.551761 0.000000
143.43800354 204.86300659 376.50000000 0.979538 -0.196384 0.044038 0.000000
216.48399353 110.23400116 360.75000000 0.233087 -0.930937 0.281117 0.000000
123.51599884 170.66400146 344.25000000 -0.250061 0.905192 -0.343651 0.000000
50.13669968 173.32000732 345.00000000 -0.947991 -0.276441 -0.157774 0.000000
125.50800323 161.69900513 304.50000000 0.001367 0.600218 -0.799835 0.000000
42.83200073 188.59399414 367.50000000 -0.441684 -0.353031 -0.824794 0.000000
166.01600647 103.26200104 313.50000000 0.131356 -0.980875 -0.143632 0.000000
118.86699677 231.75799561 420.75000000 -0.166453 0.342697 0.924582 0.000000
169.33599854 103.26200104 316.50000000 0.034581 -0.998650 -0.038772 0.000000
212.83200073 141.44500732 360.00000000 0.800976 0.226866 -0.554047 0.000000
85.66410065 202.53900146 276.75000000 0.447408 0.696892 -0.560507 0.000000
141.44500732 138.78900146 407.25000000 0.347834 -0.615649 0.707098 0.000000
193.24200439 137.46099854 396.75000000 0.042804 -0.351512 0.935204 0.000000
174.64799500 171.99200439 410.25000000 -0.001228 0.305890 0.952066 0.000000
194.23800659 187.92999268 373.50000000 0.231427 0.946250 -0.225950 0.000000
136.79699707 233.75000000 375.75000000 0.714624 0.538870 -0.446018 0.000000
142.10899353 138.78900146 294.75000000 0.063357 0.533609 -0.843355 0.000000
97.61720276 268.61300659 400.50000000 -0.123909 0.911918 0.391220 0.000000
76.03520203 193.24200439 430.50000000 -0.452678 -0.047579 0.890404 0.000000
115.87899780 179.96099854 336.00000000 0.727769 -0.660070 -0.186173 0.000000
215.82000732 175.31199646 404.25000000 0.752874 -0.243623 0.611415 0.000000
68.73049927 194.57000732 277.50000000 -0.674165 0.308790 -0.670932 0.000000
93.63279724 175.97700500 269.25000000 0.800852 0.088340 -0.592312 0.000000
215.82000732 122.51999664 384.00000000 0.366126 -0.615682 0.697773 0.000000
108.24199677 175.31199646 338.25000000 0.172867 -0.965718 -0.193664 0.000000
204.53100586 161.36700439 401.25000000 0.387322 -0.431952 0.814493 0.000000
69.06250000 166.01600647 422.25000000 -0.598970 -0.598970 0.531480 0.000000
122.85199738 140.11700439 288.75000000 0.380143 0.380143 -0.843198 0.000000
160.70300293 115.54699707 384.75000000 0.073709 -0.660491 0.747207 0.000000
119.53099823 156.71899414 422.25000000 0.286245 0.023544 0.957867 0.000000
139.78500366 161.36700439 343.50000000 0.863656 0.403449 0.302203 0.000000
70.39060211 219.80499268 317.25000000 0.280633 0.919613 -0.274876 0.000000
156.05499268 115.87899780 385.50000000 -0.058062 -0.817117 0.573540 0.000000
212.16799927 114.88300323 339.00000000 0.743513 0.592563 -0.309931 0.000000
114.88300323 197.89100647 428.25000000 0.123495 0.044186 0.991361 0.000000
219.80499268 144.10200500 392.25000000 0.409129 -0.460876 0.787532 0.000000
109.56999969 253.67199707 375.75000000 0.530675 0.707012 -0.467460 0.000000
160.70300293 131.48399353 398.25000000 0.032225 -0.354470 0.934512 0.000000
98.28119659 209.84399414 320.25000000 0.499334 0.769332 -0.398491 0.000000
98.94529724 248.02699280 361.50000000 0.424772 0.664643 -0.614670 0.000000
208.18400574 187.92999268 396.00000000 0.672312 0.718256 -0.179181 0.000000
152.73399353 127.83200073 283.50000000 -0.213778 0.795130 -0.567510 0.000000
68.06639862 144.76600647 306.00000000 -0.815229 -0.565520 -0.124855 0.000000
105.58599854 241.05499268 359.25000000 0.598970 0.598970 -0.531480 0.000000
136.13299561 157.38299561 417.75000000 0.302571 -0.262035 0.916400 0.000000
219.80499268 138.12500000 369.75000000 0.771162 0.135736 -0.622001 0.000000
151.40600586 158.71099854 335.25000000 0.316413 -0.563762 -0.762926 0.000000
181.95300293 183.61300659 387.00000000 0.361203 0.902275 -0.235440 0.000000
214.49200439 122.18800354 384.75000000 0.401788 -0.682874 0.610122 0.000000
77.69529724 213.16400146 426.75000000 -0.152776 0.365822 0.918060 0.000000
67.07029724 239.06199646 347.25000000 -0.340782 0.702761 -0.624495 0.000000
70.05860138 190.58599854 427.50000000 -0.600218 -0.001367 0.799835 0.000000
203.86700439 129.82400513 340.50000000 0.436933 0.219212 -0.872374 0.000000
65.41020203 147.42199707 405.00000000 -0.625695 -0.629050 0.461304 0.000000
209.17999268 148.08599854 356.25000000 0.839452 0.223956 -0.495140 0.000000
90.31250000 256.66000366 366.00000000 0.314862 0.728220 -0.608734 0.000000
57.44139862 166.67999268 411.00000000 -0.901605 -0.270039 0.337917 0.000000
189.92199707 162.69500732 345.75000000 0.345285 0.518730 -0.782111 0.000000
42.83200073 205.85899353 357.00000000 -0.913864 -0.001289 -0.406019 0.000000
85.00000000 227.77299500 425.25000000 0.082352 0.153962 0.984639 0.000000
147.75399780 187.26600647 396.00000000 0.748548 0.591465 0.299740 0.000000
94.96089935 191.91400146 432.75000000 -0.000978 -0.000978 0.999999 0.000000
171.32800293 179.62899780 406.50000000 -0.201176 0.412631 0.888405 0.000000
69.72660065 138.12500000 399.75000000 -0.380951 -0.795656 0.470964 0.000000
