153.12500000 286.15200806 88.75000000 -0.060520 0.834616 -0.547497 0.000000
131.11300659 204.80499268 68.75000000 -0.428980 0.095792 0.898220 0.000000
198.10499573 286.63101196 102.50000000 0.762312 0.566518 -0.312949 0.000000
164.60899353 210.54699707 76.25000000 -0.240461 0.645943 0.724525 0.000000
210.54699707 250.26400757 107.50000000 0.951649 0.259052 -0.165096 0.000000
243.08599854 145.46899414 171.25000000 -0.124147 -0.836894 0.533100 0.000000
233.51600647 200.97700500 191.25000000 0.239330 0.332161 0.912354 0.000000
166.04499817 242.12899780 40.00000000 0.682323 0.682323 -0.262432 0.000000
110.53700256 217.24600220 82.50000000 -0.994173 -0.075095 -0.077337 0.000000
181.83599854 242.12899780 38.75000000 0.926702 0.056845 -0.371474 0.000000
149.29699707 198.58399963 75.00000000 -0.454390 0.102695 0.884864 0.000000
111.01599884 211.50399780 98.75000000 0.000978 -0.999999 0.000978 0.000000
139.24800110 190.44900513 187.50000000 -0.549053 -0.549053 0.630144 0.000000
312.94900513 186.62100220 163.75000000 -0.735323 -0.061877 0.674886 0.000000
133.98399353 216.28900146 68.75000000 -0.561415 0.454796 0.691357 0.000000
118.67199707 190.92799377 170.00000000 -0.655632 -0.581852 0.481244 0.000000
215.80999756 234.47300720 112.50000000 0.932508 0.306176 -0.191535 0.000000
200.97700500 211.50399780 131.25000000 0.264021 0.343670 0.901212 0.000000
202.89100647 202.89100647 103.75000000 -0.130118 -0.988194 0.080884 0.000000
178.96499634 144.99000549 162.50000000 -0.339517 -0.903908 0.260149 0.000000
184.70700073 270.83999634 171.25000000 0.195233 0.770172 0.607222 0.000000
194.27699280 161.73800659 183.75000000 0.286938 -0.562779 0.775208 0.000000
313.90600586 162.69500732 168.75000000 0.708687 -0.386407 0.590298 0.000000
181.35699463 300.50799561 130.00000000 0.035798 0.999271 -0.013296 0.000000
188.53500366 282.80300903 77.50000000 0.525045 0.708393 -0.471707 0.000000
181.83599854 245.00000000 38.75000000 0.934187 -0.001261 -0.356781 0.000000
131.59199524 165.56599426 132.50000000 -0.579251 -0.810373 -0.088115 0.000000
160.78100586 229.20899963 65.00000000 0.411724 0.513425 0.752913 0.000000
154.08200073 158.38900757 167.50000000 -0.274465 -0.750417 0.601285 0.000000
132.54899597 245.95700073 40.00000000 -0.234017 0.934666 0.267648 0.000000
171.30900574 276.58200073 168.75000000 0.066647 0.554448 0.829545 0.000000
194.27699280 156.47500610 87.50000000 -0.394317 -0.605499 0.691292 0.000000
117.71499634 261.74798584 160.00000000 -0.676821 0.430704 0.596999 0.000000
306.25000000 170.35200500 171.25000000 0.396408 0.085820 0.914054 0.000000
211.98199463 218.20300293 162.50000000 0.649982 0.759482 -0.026673 0.000000
133.98399353 265.57598877 75.00000000 -0.242814 0.970072 0.001184 0.000000
182.79299927 294.28698730 100.00000000 0.167122 0.885022 -0.434518 0.000000
209.58999634 282.32400513 131.25000000 0.841437 0.504260 -0.194178 0.000000
245.47799683 214.37500000 185.00000000 0.231023 0.789199 0.569029 0.000000
204.80499268 280.41000366 156.25000000 0.555297 0.558673 0.616059 0.000000
193.32000732 251.69900513 71.25000000 0.934187 -0.001261 -0.356781 0.000000
313.42800903 194.27699280 165.00000000 -0.763955 -0.123123 0.633415 0.000000
160.78100586 170.35200500 181.25000000 -0.061424 -0.438160 0.896796 0.000000
131.11300659 221.07400513 186.25000000 -0.483940 0.020220 0.874867 0.000000
294.76599121 219.16000366 166.25000000 0.001377 -0.758770 0.651358 0.000000
134.94099426 246.91400146 38.75000000 -0.544453 0.387493 -0.743922 0.000000
135.89799500 163.17399597 117.50000000 -0.682323 -0.682323 -0.262432 0.000000
125.37100220 231.60200500 56.25000000 -0.496238 0.401872 0.769576 0.000000
259.35501099 216.28900146 178.75000000 0.381787 0.923845 -0.027364 0.000000
141.64100647 272.75399780 76.25000000 -0.354270 0.913644 -0.199367 0.000000
119.62899780 255.52699280 86.25000000 -0.818100 0.463643 -0.340216 0.000000
149.29699707 262.22698975 176.25000000 -0.225739 0.396887 0.889676 0.000000
158.86700439 152.16799927 111.25000000 -0.267098 -0.962797 -0.040997 0.000000
140.68400574 246.43499756 40.00000000 -0.242814 0.970072 0.001184 0.000000
185.66400146 150.25399780 173.75000000 0.088878 -0.770765 0.630890 0.000000
217.24600220 201.93400574 193.75000000 0.695895 0.552377 0.458923 0.000000
232.55900574 203.36900330 135.00000000 -0.073648 0.755255 0.651281 0.000000
115.80100250 263.18399048 156.25000000 -0.777220 0.435048 0.454601 0.000000
174.17999268 178.00799561 96.25000000 -0.585068 0.317516 0.746243 0.000000
296.20098877 212.46099854 160.00000000 -0.443434 -0.139201 0.885432 0.000000
114.36499786 267.96899414 120.00000000 -0.768823 0.590318 -0.245836 0.000000
262.22698975 140.20500183 142.50000000 -0.044709 -0.989323 0.138712 0.000000
169.39399719 178.96499634 86.25000000 -0.132183 0.592594 0.794581 0.000000
195.71299744 213.41799927 195.00000000 0.223275 0.366288 0.903317 0.000000
103.83799744 247.87100220 137.50000000 -0.980579 0.164855 0.106240 0.000000
188.53500366 153.12500000 176.25000000 -0.119564 -0.597819 0.792664 0.000000
204.32600403 196.19099426 132.50000000 -0.452044 -0.521590 0.723602 0.000000
295.24398804 178.96499634 147.50000000 -0.456118 -0.174528 0.872638 0.000000
136.85499573 162.69500732 161.25000000 -0.488195 -0.736429 0.468336 0.000000
205.28300476 283.28100586 152.50000000 0.605402 0.638943 0.474595 0.000000
208.63299561 153.60299683 115.00000000 0.165311 -0.986241 0.001125 0.000000
245.00000000 224.42399597 155.00000000 -0.084153 0.995632 -0.040437 0.000000
162.69500732 279.45300293 168.75000000 0.047085 0.697710 0.714832 0.000000
200.49800110 201.93400574 97.50000000 0.358194 -0.831579 -0.424468 0.000000
194.27699280 142.11900330 162.50000000 0.001261 -0.934187 0.356781 0.000000
192.36300659 295.24398804 142.50000000 0.188634 0.961635 0.199186 0.000000
171.30900574 274.18899536 55.00000000 0.150026 0.869569 -0.470470 0.000000
128.24200439 179.92199707 173.75000000 -0.655374 -0.537440 0.530701 0.000000
137.33399963 178.96499634 60.00000000 -0.587089 -0.670720 0.453279 0.000000
234.47300720 208.63299561 131.25000000 -0.129267 -0.075697 0.988716 0.000000
142.59800720 197.14799500 71.25000000 -0.126062 -0.505696 0.853452 0.000000
116.75800323 262.70498657 102.50000000 -0.702627 0.597315 -0.386692 0.000000
137.33399963 181.83599854 182.50000000 -0.539136 -0.391652 0.745614 0.000000
198.10499573 153.12500000 86.25000000 -0.325192 -0.424773 0.844878 0.000000
213.89599609 204.80499268 107.50000000 0.865876 -0.433694 -0.249336 0.000000
119.62899780 207.67599487 178.75000000 -0.548304 0.243863 0.799933 0.000000
151.21099854 267.96899414 173.75000000 -0.001378 0.657235 0.753685 0.000000
155.99600220 155.03900146 76.25000000 -0.398112 -0.915524 0.057639 0.000000
185.66400146 176.09399414 191.25000000 0.018557 -0.103701 0.994435 0.000000
139.72700500 289.98001099 113.75000000 -0.455620 0.783147 -0.423191 0.000000
151.21099854 218.20300293 193.75000000 -0.419420 0.419420 0.805093 0.000000
159.82400513 202.89100647 196.25000000 0.000978 0.000978 0.999999 0.000000
183.27099609 271.79699707 170.00000000 0.109841 0.804033 0.584352 0.000000
203.84800720 287.58801270 145.00000000 0.682323 0.682323 0.262432 0.000000
164.60899353 287.58801270 85.00000000 -0.166004 0.893536 -0.417176 0.000000
257.44100952 220.11700439 151.25000000 0.504209 0.776580 -0.377752 0.000000
186.62100220 279.45300293 163.75000000 0.241485 0.559310 0.793005 0.000000
208.63299561 171.30900574 186.25000000 -0.000978 -0.000978 0.999999 0.000000
106.23000336 236.38699341 158.75000000 -0.933047 0.067497 0.353367 0.000000
125.84999847 176.09399414 105.00000000 -0.744573 -0.647521 0.162259 0.000000
132.54899597 173.22300720 72.50000000 -0.682323 -0.682323 0.262432 0.000000
245.95700073 206.71899414 186.25000000 0.000978 0.000978 0.999999 0.000000
222.03100586 144.03300476 127.50000000 -0.313151 -0.942140 -0.119616 0.000000
130.15600586 265.09799194 168.75000000 -0.651433 0.377666 0.658030 0.000000
154.08200073 232.55900574 63.75000000 -0.063771 0.559769 0.826191 0.000000
115.80100250 186.14300537 130.00000000 -0.853223 -0.518078 -0.060047 0.000000
153.12500000 224.90199280 68.75000000 0.241234 0.564955 0.789070 0.000000
315.34201050 194.27699280 167.50000000 -0.803760 -0.032150 0.594084 0.000000
147.38299561 290.93701172 153.75000000 -0.220015 0.700616 0.678771 0.000000
251.69900513 148.33999634 93.75000000 0.257812 0.615270 -0.744967 0.000000
127.28500366 236.38699341 181.25000000 -0.606074 0.318391 0.728905 0.000000
286.15200806 140.20500183 130.00000000 0.307308 -0.921923 0.235841 0.000000
310.07800293 210.54699707 168.75000000 -0.603036 -0.379567 0.701624 0.000000
256.48400879 192.36300659 183.75000000 -0.000978 -0.000978 0.999999 0.000000
152.16799927 167.47999573 66.25000000 -0.446819 -0.637595 0.627555 0.000000
271.79699707 175.13699341 136.25000000 -0.264028 -0.444116 0.856183 0.000000
164.60899353 149.77499390 160.00000000 0.001379 -0.745961 0.665988 0.000000
108.62300110 260.31201172 122.50000000 -0.892327 0.407462 -0.194238 0.000000
260.31201172 189.49200439 138.75000000 -0.219035 -0.005857 0.975699 0.000000
188.53500366 208.15400696 72.50000000 0.071313 0.490804 0.868346 0.000000
274.66799927 216.28900146 181.25000000 -0.475004 0.356653 0.804468 0.000000
170.35200500 293.32998657 152.50000000 -0.012332 0.826252 0.563166 0.000000
163.65199280 262.22698975 178.75000000 0.045119 0.474432 0.879135 0.000000
190.44900513 233.51600647 61.25000000 0.908926 0.227594 -0.349364 0.000000
187.57800293 247.87100220 56.25000000 0.937792 0.067079 -0.340657 0.000000
140.68400574 253.61300659 38.75000000 -0.373945 0.670465 -0.640813 0.000000
298.59399414 144.03300476 142.50000000 0.349269 -0.932723 -0.089659 0.000000
201.93400574 185.66400146 193.75000000 0.301770 -0.154299 0.940812 0.000000
129.67799377 254.57000732 175.00000000 -0.102700 0.448784 0.887720 0.000000
174.17999268 149.29699707 168.75000000 -0.198338 -0.901930 0.383646 0.000000
167.47999573 201.93400574 86.25000000 0.046769 0.619334 0.783734 0.000000
207.67599487 285.67401123 135.00000000 0.760740 0.646127 -0.061604 0.000000
124.41400146 221.55299377 60.00000000 -0.615361 0.329600 0.716027 0.000000
172.26600647 146.90400696 150.00000000 -0.357250 -0.905518 -0.228931 0.000000
161.73800659 229.20899963 65.00000000 0.411724 0.513425 0.752913 0.000000
129.19900513 171.78700256 102.50000000 -0.758582 -0.639822 0.123214 0.000000
138.77000427 161.25999451 137.50000000 -0.572215 -0.818055 -0.057928 0.000000
170.35200500 288.06600952 83.75000000 -0.244317 0.924404 -0.292895 0.000000
162.69500732 163.65199280 176.25000000 0.001261 -0.934187 0.356781 0.000000
177.05099487 187.57800293 191.25000000 0.000978 0.000978 0.999999 0.000000
181.83599854 279.45300293 166.25000000 0.393344 0.514122 0.762206 0.000000
173.22300720 274.18899536 55.00000000 0.283630 0.816415 -0.503012 0.000000
133.02699280 164.60899353 143.75000000 -0.513021 -0.839081 -0.180978 0.000000
171.30900574 155.99600220 173.75000000 -0.426770 -0.589507 0.685820 0.000000
156.95300293 170.35200500 181.25000000 -0.186131 -0.543260 0.818672 0.000000
224.90199280 175.13699341 186.25000000 -0.000978 -0.000978 0.999999 0.000000
200.01899719 273.71099854 93.75000000 0.992091 0.001091 -0.125512 0.000000
137.81199646 169.39399719 171.25000000 -0.442605 -0.669753 0.596264 0.000000
150.25399780 191.40600586 191.25000000 -0.340465 -0.377438 0.861176 0.000000
257.44100952 213.41799927 163.75000000 0.091296 0.943390 0.318874 0.000000
178.96499634 215.33200073 196.25000000 -0.242381 0.432071 0.868658 0.000000
106.23000336 206.71899414 153.75000000 -0.965718 -0.193664 0.172867 0.000000
158.86700439 190.44900513 193.75000000 -0.483408 -0.550316 0.680786 0.000000
201.93400574 160.78100586 93.75000000 -0.891491 -0.297164 0.341962 0.000000
204.80499268 210.54699707 193.75000000 0.375377 0.188408 0.907521 0.000000
209.11099243 270.83999634 117.50000000 0.926553 0.139466 -0.349356 0.000000
279.45300293 212.93899536 162.50000000 0.340374 -0.794206 0.503370 0.000000
129.19900513 237.34399414 53.75000000 -0.361595 0.496590 0.789080 0.000000
200.97700500 196.66999817 125.00000000 -0.441474 -0.881491 0.167556 0.000000
201.93400574 287.10900879 151.25000000 0.487638 0.782489 0.387194 0.000000
165.56599426 149.77499390 122.50000000 -0.000978 -0.000978 -0.999999 0.000000
144.51199341 256.96301270 40.00000000 -0.414657 0.712021 -0.566643 0.000000
113.88700104 192.84199524 105.00000000 -0.848583 -0.524911 -0.066142 0.000000
136.37699890 285.19500732 155.00000000 -0.346770 0.730984 0.587718 0.000000
294.76599121 167.47999573 146.25000000 -0.523809 -0.074830 0.848543 0.000000
181.83599854 251.22099304 182.50000000 0.380303 0.546788 0.745917 0.000000
152.16799927 250.74200439 183.75000000 -0.243901 0.486268 0.839080 0.000000
253.61300659 224.42399597 157.50000000 0.510173 0.850288 -0.129360 0.000000
139.72700500 283.76000977 160.00000000 -0.362541 0.697195 0.618453 0.000000
304.33599854 224.90199280 181.25000000 -0.571588 -0.691572 0.441606 0.000000
127.28500366 284.71701050 125.00000000 -0.609810 0.788572 -0.079290 0.000000
317.25601196 169.39399719 165.00000000 -0.918149 -0.201336 0.341272 0.000000
222.03100586 172.26600647 186.25000000 0.000978 0.000978 0.999999 0.000000
206.24000549 270.83999634 110.00000000 0.919835 0.203932 -0.335134 0.000000
229.68699646 203.36900330 135.00000000 0.084040 0.428466 0.899641 0.000000
229.68699646 218.20300293 166.25000000 -0.639955 0.765942 0.061562 0.000000
170.35200500 259.83401489 180.00000000 -0.017826 0.549857 0.835069 0.000000
151.21099854 258.39801025 38.75000000 -0.269353 0.865887 -0.421530 0.000000
112.93000031 222.98800659 171.25000000 -0.434442 0.358612 0.826231 0.000000
181.35699463 143.55499268 147.50000000 -0.298545 -0.950390 -0.087347 0.000000
196.19099426 243.08599854 183.75000000 0.314123 0.607304 0.729732 0.000000
241.17199707 181.83599854 121.25000000 0.339858 -0.596784 0.726874 0.000000
206.24000549 233.51600647 165.00000000 0.930223 -0.147896 0.335875 0.000000
156.95300293 174.65800476 77.50000000 -0.444724 -0.510854 0.735696 0.000000
166.52299500 164.60899353 178.75000000 -0.294734 -0.575130 0.763123 0.000000
161.25999451 187.57800293 192.50000000 -0.330662 -0.476216 0.814789 0.000000
264.14099121 139.24800110 132.50000000 -0.087231 -0.989779 0.112819 0.000000
140.68400574 160.30299377 112.50000000 -0.496740 -0.853449 -0.157719 0.000000
289.02301025 179.44299316 177.50000000 0.291051 -0.215125 0.932207 0.000000
177.05099487 236.38699341 188.75000000 0.358694 0.334272 0.871551 0.000000
257.44100952 215.33200073 143.75000000 0.098658 0.301236 0.948432 0.000000
185.66400146 161.73800659 183.75000000 -0.090379 -0.549447 0.830626 0.000000
182.79299927 200.97700500 81.25000000 0.504440 0.451515 0.735986 0.000000
154.08200073 259.35501099 38.75000000 -0.156050 0.701468 -0.695407 0.000000
267.48999023 202.89100647 145.00000000 -0.409557 -0.464597 0.785120 0.000000
155.99600220 259.35501099 38.75000000 -0.268498 0.640264 -0.719702 0.000000
259.35501099 137.33399963 100.00000000 0.001261 -0.934187 -0.356781 0.000000
156.95300293 289.50201416 92.50000000 -0.254751 0.700961 -0.666150 0.000000
207.67599487 268.92599487 113.75000000 0.930336 0.138795 -0.339428 0.000000
183.75000000 246.91400146 183.75000000 0.314040 0.490786 0.812716 0.000000
135.89799500 231.60200500 186.25000000 -0.265537 0.221049 0.938417 0.000000
199.06199646 169.39399719 186.25000000 0.120569 -0.527307 0.841077 0.000000
175.13699341 259.35501099 38.75000000 0.329301 0.702401 -0.631026 0.000000
170.35200500 272.75399780 51.25000000 0.285644 0.822591 -0.491682 0.000000
269.40399170 178.00799561 137.50000000 -0.492249 -0.423563 0.760451 0.000000
157.91000366 279.93200684 72.50000000 -0.252526 0.932512 -0.258169 0.000000
103.35900116 242.60699463 142.50000000 -0.967826 0.244752 0.058393 0.000000
156.95300293 179.44299316 187.50000000 -0.121390 -0.545525 0.829257 0.000000
265.09799194 139.24800110 130.00000000 0.000978 -0.999999 0.000978 0.000000
210.54699707 215.80999756 177.50000000 0.006634 0.884928 0.465682 0.000000
200.97700500 149.29699707 176.25000000 0.000978 0.000978 0.999999 0.000000
199.06199646 220.11700439 191.25000000 0.464599 0.497666 0.732446 0.000000
160.78100586 222.98800659 193.75000000 0.000978 0.000978 0.999999 0.000000
117.23600006 179.92199707 145.00000000 -0.885233 -0.464714 -0.020088 0.000000
111.97299957 238.30099487 166.25000000 -0.766185 0.181988 0.616312 0.000000
158.86700439 281.36700439 166.25000000 0.001369 0.792878 0.609379 0.000000
257.44100952 200.01899719 183.75000000 0.000978 0.000978 0.999999 0.000000
169.39399719 261.26901245 178.75000000 0.058255 0.601025 0.797104 0.000000
121.54299927 184.70700073 81.25000000 -0.827162 -0.551924 -0.105749 0.000000
115.80100250 222.03100586 53.75000000 -0.934187 0.001261 -0.356781 0.000000
164.60899353 166.04499817 75.00000000 -0.756124 -0.351347 0.552116 0.000000
192.36300659 256.48400879 176.25000000 0.092168 0.651028 0.753437 0.000000
236.38699341 228.72999573 166.25000000 -0.811384 0.583919 -0.026353 0.000000
211.50399780 278.49600220 133.75000000 0.928182 0.346172 -0.136538 0.000000
245.95700073 148.33999634 91.25000000 0.253246 0.586714 -0.769177 0.000000
139.72700500 222.03100586 71.25000000 -0.792878 0.001369 0.609379 0.000000
255.52699280 165.56599426 181.25000000 -0.269986 -0.269986 0.924238 0.000000
277.53900146 213.89599609 165.00000000 0.150956 -0.912791 0.379507 0.000000
143.07600403 213.41799927 192.50000000 -0.513969 0.377776 0.770144 0.000000
171.30900574 222.98800659 193.75000000 0.277030 0.160813 0.947309 0.000000
157.91000366 151.21099854 151.25000000 -0.323987 -0.943103 0.074766 0.000000
274.66799927 180.87899780 181.25000000 -0.001369 -0.792878 0.609379 0.000000
281.36700439 189.49200439 178.75000000 0.614099 -0.769528 0.175239 0.000000
207.67599487 211.50399780 191.25000000 0.475914 0.388797 0.788887 0.000000
262.22698975 206.24000549 145.00000000 -0.377518 -0.560557 0.737059 0.000000
169.39399719 283.28100586 163.75000000 0.104468 0.657709 0.745992 0.000000
153.12500000 194.27699280 193.75000000 -0.246498 -0.336930 0.908690 0.000000
184.22799683 268.92599487 57.50000000 0.777196 0.370016 -0.508974 0.000000
300.50799561 179.92199707 173.75000000 0.303237 -0.388570 0.870092 0.000000
120.10700226 277.53900146 130.00000000 -0.832674 0.553762 0.001354 0.000000
131.11300659 225.85899353 63.75000000 -0.619148 -0.155164 0.769792 0.000000
274.66799927 186.62100220 143.75000000 0.208177 -0.978085 -0.003489 0.000000
213.89599609 241.17199707 112.50000000 0.921946 0.276727 -0.270992 0.000000
154.08200073 274.66799927 171.25000000 -0.064381 0.447929 0.891748 0.000000
107.18699646 227.77299500 98.75000000 -0.987738 -0.095360 -0.123614 0.000000
175.13699341 270.83999634 51.25000000 0.302093 0.798728 -0.520359 0.000000
269.40399170 199.06199646 182.50000000 0.359552 -0.167791 0.917915 0.000000
111.01599884 255.04899597 102.50000000 -0.756251 0.421598 -0.500340 0.000000
164.60899353 177.52900696 82.50000000 -0.266331 -0.392725 0.880247 0.000000
164.60899353 246.91400146 186.25000000 0.033595 0.452864 0.890946 0.000000
243.08599854 187.57800293 138.75000000 0.077041 -0.707906 0.702092 0.000000
106.70899963 249.78500366 150.00000000 -0.934187 -0.001261 0.356781 0.000000
171.78700256 261.26901245 40.00000000 0.328600 0.723567 -0.607019 0.000000
216.76800537 243.08599854 125.00000000 0.979636 0.034352 -0.197822 0.000000
265.09799194 137.33399963 112.50000000 0.032307 -0.975196 0.218971 0.000000
216.76800537 228.72999573 117.50000000 0.974786 -0.179864 0.132068 0.000000
288.06600952 174.17999268 176.25000000 0.062392 -0.158922 0.985318 0.000000
211.50399780 163.65199280 181.25000000 0.266290 -0.367451 0.891106 0.000000
166.52299500 272.75399780 171.25000000 0.000978 0.000978 0.999999 0.000000
194.75599670 248.82800293 180.00000000 0.523053 0.249886 0.814845 0.000000
104.31600189 227.77299500 153.75000000 -0.974806 0.121694 0.186932 0.000000
199.54100037 184.70700073 192.50000000 0.130400 -0.454252 0.881278 0.000000
117.71499634 201.93400574 173.75000000 -0.754885 -0.209260 0.621578 0.000000
232.55900574 185.66400146 188.75000000 0.709089 -0.234267 0.665066 0.000000
241.17199707 180.87899780 121.25000000 0.321523 -0.486245 0.812520 0.000000
134.94099426 178.96499634 178.75000000 -0.519293 -0.462884 0.718383 0.000000
190.44900513 206.71899414 73.75000000 -0.084829 0.370284 0.925037 0.000000
111.49400330 213.41799927 92.50000000 -0.980133 -0.192206 0.048947 0.000000
307.20700073 213.41799927 183.75000000 0.142272 -0.304869 0.941708 0.000000
166.52299500 283.28100586 166.25000000 0.023773 0.650262 0.759338 0.000000
169.39399719 164.13099670 87.50000000 -0.318298 -0.712534 0.625285 0.000000
191.40600586 200.01899719 196.25000000 0.000978 0.000978 0.999999 0.000000
240.21499634 178.48599243 185.00000000 0.253053 -0.340817 0.905432 0.000000
174.17999268 272.75399780 53.75000000 0.285644 0.822591 -0.491682 0.000000
253.61300659 137.81199646 106.25000000 0.001261 -0.934187 -0.356781 0.000000
241.17199707 155.99600220 98.75000000 0.043680 0.793280 -0.607289 0.000000
158.86700439 286.15200806 161.25000000 -0.191176 0.199087 0.961154 0.000000
143.55499268 237.34399414 186.25000000 -0.221150 0.420037 0.880149 0.000000
138.77000427 180.39999390 182.50000000 -0.692358 -0.156046 0.704478 0.000000
313.90600586 200.01899719 178.75000000 0.623672 -0.311030 0.717142 0.000000
103.83799744 212.46099854 142.50000000 -0.999999 -0.000978 -0.000978 0.000000
132.07000732 164.13099670 155.00000000 -0.530525 -0.834949 -0.146301 0.000000
199.54100037 271.79699707 90.00000000 0.904705 0.235311 -0.355159 0.000000
127.28500366 224.90199280 183.75000000 -0.403501 0.267489 0.875007 0.000000
169.87300110 177.05099487 87.50000000 -0.763732 0.253528 0.593664 0.000000
200.97700500 230.64399719 186.25000000 0.512293 0.805482 0.297918 0.000000
184.70700073 146.90400696 102.50000000 -0.170497 -0.984178 0.048209 0.000000
213.41799927 176.09399414 106.25000000 -0.190592 -0.368286 0.909967 0.000000
117.71499634 210.54699707 176.25000000 -0.644937 0.055771 0.762198 0.000000
115.80100250 247.87100220 168.75000000 -0.735627 0.339395 0.586228 0.000000
245.00000000 223.46699524 150.00000000 0.121694 0.974806 -0.186932 0.000000
219.16000366 251.22099304 147.50000000 0.963949 0.260628 0.053622 0.000000
232.55900574 141.16200256 105.00000000 -0.001261 -0.934187 -0.356781 0.000000
112.45099640 215.33200073 67.50000000 -0.893792 0.293952 -0.338716 0.000000
259.35501099 137.33399963 110.00000000 -0.098469 -0.990484 0.096152 0.000000
283.28100586 167.47999573 138.75000000 -0.343956 -0.284397 0.894881 0.000000
151.21099854 297.15798950 125.00000000 -0.326703 0.945060 -0.011266 0.000000
134.94099426 238.30099487 183.75000000 -0.335188 0.390796 0.857279 0.000000
183.75000000 229.68699646 41.25000000 0.206434 -0.069626 0.975980 0.000000
200.97700500 198.58399963 195.00000000 0.252031 -0.327785 0.910515 0.000000
201.45500183 212.46099854 122.50000000 -0.185974 -0.821007 0.539778 0.000000
309.12100220 151.68899536 167.50000000 0.415583 -0.477514 0.774126 0.000000
122.50000000 227.77299500 56.25000000 -0.537534 0.368641 0.758394 0.000000
178.96499634 193.32000732 86.25000000 0.476671 0.162802 0.863875 0.000000
134.94099426 288.06600952 116.25000000 -0.458264 0.860936 -0.220868 0.000000
245.95700073 192.36300659 186.25000000 0.000978 0.000978 0.999999 0.000000
212.93899536 272.75399780 130.00000000 0.934187 0.001261 -0.356781 0.000000
241.17199707 198.10499573 138.75000000 0.204565 0.375761 0.903857 0.000000
106.70899963 226.81599426 102.50000000 -0.991085 -0.113430 -0.069892 0.000000
125.84999847 180.87899780 70.00000000 -0.799350 -0.591840 -0.103755 0.000000
203.84800720 147.86099243 120.00000000 0.345574 -0.522379 -0.779550 0.000000
214.85299683 238.30099487 112.50000000 0.933723 0.304747 -0.187858 0.000000
291.89401245 158.38900757 175.00000000 0.293781 -0.165337 0.941465 0.000000
138.77000427 292.85198975 126.25000000 -0.682323 0.682323 -0.262432 0.000000
197.62699890 293.80899048 125.00000000 0.557248 0.829619 -0.034741 0.000000
255.04899597 173.22300720 182.50000000 0.345980 -0.192211 0.918342 0.000000
259.83401489 219.16000366 152.50000000 0.504209 0.776580 -0.377752 0.000000
200.97700500 270.36099243 165.00000000 0.269986 0.269986 0.924238 0.000000
184.70700073 232.55900574 41.25000000 0.206434 -0.069626 0.975980 0.000000
197.14799500 180.87899780 191.25000000 0.039934 -0.341367 0.939081 0.000000
155.99600220 176.09399414 78.75000000 -0.444832 -0.484227 0.753424 0.000000
178.96499634 233.03700256 42.50000000 0.359971 0.896224 0.259238 0.000000
307.20700073 177.05099487 156.25000000 -0.486755 0.222907 0.844619 0.000000
199.54100037 288.06600952 110.00000000 0.617726 0.732652 -0.285718 0.000000
223.94500732 215.33200073 156.25000000 -0.089823 0.994707 0.049902 0.000000
154.08200073 237.34399414 61.25000000 0.017727 0.535908 0.844090 0.000000
157.43200684 298.59399414 137.50000000 -0.213822 0.965438 0.149027 0.000000
160.78100586 200.97700500 81.25000000 -0.327046 0.404545 0.854040 0.000000
296.67999268 150.25399780 128.75000000 -0.681060 -0.543844 0.490296 0.000000
238.30099487 182.79299927 186.25000000 0.076001 -0.179748 0.980772 0.000000
270.83999634 197.14799500 143.75000000 -0.310255 -0.412130 0.856674 0.000000
120.58599854 264.61898804 97.50000000 -0.729576 0.603396 -0.321919 0.000000
276.58200073 163.65199280 178.75000000 0.166501 0.163959 0.972314 0.000000
114.36499786 204.80499268 90.00000000 -0.944087 -0.300330 -0.136024 0.000000
188.53500366 182.79299927 193.75000000 -0.124801 -0.307307 0.943391 0.000000
242.12899780 224.42399597 165.00000000 0.825271 0.536652 -0.175877 0.000000
303.85699463 208.63299561 162.50000000 -0.618604 -0.520841 0.588264 0.000000
165.56599426 174.17999268 81.25000000 -0.415165 -0.415165 0.809491 0.000000
311.99200439 196.19099426 178.75000000 0.582850 -0.239078 0.776613 0.000000
235.42999268 221.55299377 147.50000000 0.790594 -0.588033 0.170817 0.000000
108.14499664 231.60200500 93.75000000 -0.934187 0.001261 -0.356781 0.000000
268.92599487 158.86700439 181.25000000 0.000978 0.000978 0.999999 0.000000
210.54699707 241.17199707 101.25000000 0.889169 0.105352 -0.445287 0.000000
127.76399994 178.00799561 70.00000000 -0.800146 -0.599766 0.006862 0.000000
113.40799713 204.80499268 80.00000000 -0.951266 -0.307946 -0.016208 0.000000
246.91400146 144.51199341 171.25000000 -0.233158 -0.886593 0.399487 0.000000
120.58599854 260.31201172 163.75000000 -0.658867 0.464392 0.591806 0.000000
219.16000366 245.00000000 136.25000000 0.514458 0.857430 0.012153 0.000000
211.50399780 252.17799377 167.50000000 0.620325 0.708245 0.337027 0.000000
115.32199860 255.52699280 162.50000000 -0.750797 0.487936 0.445221 0.000000
191.88499451 219.16000366 120.00000000 0.435844 0.745047 -0.504921 0.000000
178.96499634 286.15200806 76.25000000 0.046330 0.821309 -0.568599 0.000000
168.43699646 173.70100403 185.00000000 0.110108 -0.354792 0.928439 0.000000
287.10900879 221.55299377 175.00000000 0.415384 -0.700029 0.580875 0.000000
204.80499268 195.71299744 130.00000000 -0.522360 -0.840190 0.145672 0.000000
107.18699646 242.12899780 158.75000000 -0.845503 0.282865 0.452893 0.000000
277.53900146 148.33999634 176.25000000 0.116635 -0.783965 0.609750 0.000000
295.72299194 149.29699707 126.25000000 -0.518337 -0.682729 0.514983 0.000000
227.29499817 176.09399414 115.00000000 -0.644570 -0.384104 0.661055 0.000000
202.41200256 290.93701172 135.00000000 0.705724 0.708486 0.001381 0.000000
234.47300720 206.71899414 131.25000000 -0.169004 0.656224 0.735397 0.000000
238.77900696 155.03900146 97.50000000 -0.136493 0.706463 -0.694464 0.000000
150.25399780 206.71899414 73.75000000 0.000978 0.000978 0.999999 0.000000
191.40600586 208.63299561 108.75000000 0.245249 -0.576414 0.779487 0.000000
249.78500366 223.46699524 162.50000000 0.682323 0.682323 -0.262432 0.000000
169.39399719 241.17199707 188.75000000 0.110833 0.513864 0.850682 0.000000
260.79098511 218.20300293 162.50000000 0.984464 0.031308 0.172774 0.000000
249.78500366 157.43200684 102.50000000 0.212824 0.846769 -0.487533 0.000000
129.19900513 172.74400330 105.00000000 -0.761667 -0.642247 0.085924 0.000000
147.38299561 191.40600586 76.25000000 -0.798183 0.271288 0.537872 0.000000
177.05099487 202.89100647 83.75000000 0.335590 0.534696 0.775551 0.000000
174.17999268 236.86500549 190.00000000 0.337212 0.129697 0.932452 0.000000
205.76199341 170.35200500 186.25000000 0.117811 -0.530876 0.839221 0.000000
155.03900146 222.03100586 193.75000000 0.000978 0.000978 0.999999 0.000000
298.59399414 203.36900330 155.00000000 -0.674836 -0.283720 0.681248 0.000000
141.64100647 228.72999573 66.25000000 -0.319776 0.380977 0.867525 0.000000
199.06199646 186.62100220 193.75000000 0.010344 -0.185042 0.982676 0.000000
193.79899597 190.44900513 90.00000000 0.618883 -0.782578 0.067488 0.000000
255.52699280 151.21099854 98.75000000 0.465656 0.685966 -0.559121 0.000000
222.98800659 244.52099609 147.50000000 0.000978 0.000978 0.999999 0.000000
232.55900574 189.01400757 135.00000000 0.049135 -0.917622 0.394405 0.000000
313.90600586 151.68899536 165.00000000 0.426384 -0.562429 0.708428 0.000000
196.19099426 258.39801025 173.75000000 0.419455 0.455084 0.785466 0.000000
213.41799927 162.69500732 181.25000000 0.193013 -0.290214 0.937295 0.000000
122.50000000 211.50399780 61.25000000 -0.792638 0.116175 0.598522 0.000000
203.36900330 211.50399780 87.50000000 0.999295 -0.001015 -0.037537 0.000000
184.70700073 291.89401245 91.25000000 0.424113 0.633675 -0.646981 0.000000
210.54699707 222.50999451 145.00000000 0.735317 0.663138 0.139846 0.000000
183.75000000 212.46099854 123.75000000 -0.769868 -0.439691 0.462575 0.000000
170.83000183 179.92199707 92.50000000 -0.382697 0.883955 0.268638 0.000000
193.32000732 199.06199646 81.25000000 0.000978 0.000978 0.999999 0.000000
157.91000366 193.32000732 193.75000000 -0.341036 -0.328911 0.880632 0.000000
295.72299194 194.27699280 148.75000000 -0.505777 -0.006708 0.862638 0.000000
145.46899414 175.13699341 181.25000000 -0.001261 -0.934187 -0.356781 0.000000
203.84800720 193.32000732 193.75000000 0.000978 0.000978 0.999999 0.000000
146.90400696 155.99600220 157.50000000 -0.271567 -0.937254 0.218646 0.000000
142.59800720 232.55900574 188.75000000 -0.261162 0.352643 0.898575 0.000000
236.38699341 207.19700623 132.50000000 -0.179226 0.644909 0.742947 0.000000
235.42999268 140.20500183 112.50000000 0.000978 -0.999999 0.000978 0.000000
182.79299927 221.07400513 193.75000000 -0.069554 0.421413 0.904198 0.000000
209.58999634 236.38699341 96.25000000 0.854340 0.208705 -0.475968 0.000000
195.23399353 270.83999634 78.75000000 0.934187 -0.001261 -0.356781 0.000000
165.56599426 168.43699646 78.75000000 -0.972139 0.070409 0.223580 0.000000
200.01899719 180.87899780 191.25000000 -0.027336 -0.384009 0.922924 0.000000
158.86700439 154.56100464 82.50000000 -0.242814 -0.970072 -0.001184 0.000000
154.08200073 260.31201172 178.75000000 -0.158278 0.516252 0.841684 0.000000
235.42999268 167.47999573 106.25000000 0.213580 -0.915955 0.339720 0.000000
132.54899597 208.63299561 187.50000000 -0.238659 -0.211384 0.947818 0.000000
121.54299927 187.10000610 70.00000000 -0.822008 -0.547508 -0.156644 0.000000
255.52699280 168.43699646 181.25000000 0.399914 -0.139899 0.905813 0.000000
160.78100586 276.10299683 60.00000000 -0.283774 0.904252 -0.319061 0.000000
190.44900513 189.01400757 92.50000000 0.557931 -0.794157 0.240889 0.000000
197.14799500 209.58999634 196.25000000 0.231834 0.207430 0.950382 0.000000
123.45700073 252.65600586 171.25000000 -0.496472 0.355082 0.792106 0.000000
177.05099487 182.79299927 101.25000000 -0.447024 -0.154795 0.881027 0.000000
257.92001343 219.16000366 150.00000000 0.504209 0.776580 -0.377752 0.000000
106.23000336 244.52099609 107.50000000 -0.986178 0.108515 -0.125210 0.000000
211.02499390 242.12899780 165.00000000 0.671783 -0.726130 0.146434 0.000000
140.68400574 246.43499756 42.50000000 -0.150197 0.984089 0.094924 0.000000
193.32000732 163.65199280 183.75000000 0.243537 -0.488605 0.837828 0.000000
161.73800659 153.12500000 163.75000000 -0.392318 -0.792708 0.466584 0.000000
285.19500732 170.83000183 140.00000000 -0.026762 -0.335166 0.941779 0.000000
167.47999573 290.45901489 90.00000000 -0.205067 0.857689 -0.471505 0.000000
188.53500366 179.92199707 191.25000000 0.001195 -0.254611 0.967043 0.000000
257.44100952 149.77499390 97.50000000 0.357346 0.732641 -0.579259 0.000000
276.58200073 140.20500183 137.50000000 0.148474 -0.976936 0.153465 0.000000
157.91000366 246.43499756 42.50000000 0.200810 0.931030 0.304726 0.000000
118.19300079 190.44900513 80.00000000 -0.935850 -0.325572 -0.134860 0.000000
266.05499268 144.99000549 175.00000000 0.001378 -0.657235 0.753685 0.000000
170.35200500 150.73199463 87.50000000 -0.313151 -0.942140 0.119616 0.000000
106.70899963 223.94500732 162.50000000 -0.836494 -0.353116 0.419031 0.000000
152.16799927 156.47500610 70.00000000 -0.514100 -0.857729 -0.001342 0.000000
178.48599243 221.07400513 55.00000000 0.573879 0.567107 0.590807 0.000000
167.47999573 186.14300537 192.50000000 0.169611 -0.307506 0.936308 0.000000
113.88700104 266.05499268 113.75000000 -0.622628 0.760310 -0.185106 0.000000
150.25399780 276.10299683 170.00000000 -0.148478 0.388870 0.909249 0.000000
112.45099640 208.63299561 92.50000000 -0.945596 -0.324457 -0.023987 0.000000
293.80899048 176.09399414 146.25000000 -0.490131 -0.116424 0.863838 0.000000
184.70700073 223.46699524 192.50000000 0.088664 0.326867 0.940902 0.000000
192.36300659 207.67599487 196.25000000 0.000978 0.000978 0.999999 0.000000
286.15200806 221.55299377 175.00000000 0.415384 -0.700029 0.580875 0.000000
121.06400299 234.47300720 177.50000000 -0.682323 -0.682323 -0.262432 0.000000
178.96499634 161.25999451 87.50000000 -0.153723 -0.816375 0.556687 0.000000
160.78100586 175.13699341 78.75000000 -0.312733 -0.434092 0.844845 0.000000
250.74200439 155.03900146 98.75000000 0.167373 0.794646 -0.583544 0.000000
285.67401123 189.49200439 145.00000000 -0.527188 -0.560874 0.638352 0.000000
181.83599854 216.28900146 196.25000000 0.033432 0.434618 0.899994 0.000000
169.39399719 300.98599243 112.50000000 0.005974 0.968919 -0.247307 0.000000
111.97299957 266.05499268 138.75000000 -0.848754 0.507487 0.148569 0.000000
179.92199707 300.50799561 121.25000000 0.506939 0.861931 -0.009413 0.000000
153.12500000 258.87701416 180.00000000 -0.192439 0.543982 0.816731 0.000000
153.12500000 298.11499023 130.00000000 -0.255585 0.961976 -0.096326 0.000000
105.75199890 230.64399719 110.00000000 -0.977778 -0.196043 -0.074277 0.000000
286.15200806 164.60899353 138.75000000 -0.445533 -0.375270 0.812818 0.000000
180.87899780 181.83599854 101.25000000 -0.308919 -0.571421 0.760294 0.000000
125.84999847 180.87899780 67.50000000 -0.799478 -0.594187 -0.088188 0.000000
124.41400146 177.52900696 102.50000000 -0.785365 -0.608547 0.113458 0.000000
243.08599854 151.68899536 95.00000000 0.070470 0.631350 -0.772289 0.000000
196.19099426 240.21499634 183.75000000 0.192751 0.550935 0.811984 0.000000
130.15600586 274.18899536 95.00000000 -0.594469 0.674398 -0.437942 0.000000
113.88700104 254.09199524 97.50000000 -0.788822 0.372633 -0.488779 0.000000
140.68400574 214.37500000 191.25000000 -0.469049 0.369796 0.802025 0.000000
167.47999573 292.85198975 93.75000000 -0.203874 0.838148 -0.505909 0.000000
105.27300262 240.21499634 111.25000000 -0.974931 0.121397 -0.186476 0.000000
202.41200256 258.39801025 95.00000000 0.905172 0.225929 -0.360028 0.000000
194.75599670 248.82800293 75.00000000 0.934187 -0.001261 -0.356781 0.000000
118.67199707 266.05499268 103.75000000 -0.743040 0.570694 -0.349570 0.000000
186.62100220 215.33200073 116.25000000 -0.393340 0.390181 -0.832492 0.000000
125.37100220 180.39999390 75.00000000 -0.829183 -0.539486 -0.146326 0.000000
158.86700439 294.76599121 151.25000000 0.000978 0.000978 0.999999 0.000000
126.32800293 281.36700439 113.75000000 -0.674719 0.699884 -0.234343 0.000000
107.66600037 243.08599854 100.00000000 -0.951132 0.134356 -0.278023 0.000000
292.85198975 194.27699280 178.75000000 0.000978 0.000978 0.999999 0.000000
134.94099426 251.69900513 41.25000000 -0.679356 0.340492 -0.650031 0.000000
254.57000732 169.39399719 116.25000000 -0.573484 -0.607318 0.549800 0.000000
180.87899780 251.69900513 41.25000000 0.834985 0.257749 -0.486174 0.000000
150.25399780 229.20899963 67.50000000 0.061796 0.460039 0.885746 0.000000
313.42800903 149.29699707 162.50000000 0.485823 0.653928 -0.579961 0.000000
155.99600220 210.54699707 196.25000000 0.000978 0.000978 0.999999 0.000000
198.10499573 243.08599854 181.25000000 0.192554 0.636199 0.747110 0.000000
259.35501099 199.06199646 183.75000000 0.000978 0.000978 0.999999 0.000000
179.92199707 252.65600586 41.25000000 0.834985 0.257749 -0.486174 0.000000
192.36300659 194.27699280 81.25000000 0.955035 -0.216260 0.202827 0.000000
135.41999817 169.39399719 70.00000000 -0.743042 -0.664827 0.076767 0.000000
230.16600037 189.49200439 135.00000000 -0.038986 -0.954534 0.295541 0.000000
120.58599854 269.88299561 106.25000000 -0.743267 0.585262 -0.324071 0.000000
150.25399780 293.80899048 148.75000000 -0.289936 0.857536 0.424933 0.000000
188.53500366 275.62500000 68.75000000 0.736423 0.657467 -0.159432 0.000000
137.81199646 220.11700439 191.25000000 -0.292594 -0.115184 0.949274 0.000000
105.75199890 205.76199341 150.00000000 -0.965718 -0.193664 0.172867 0.000000
286.15200806 170.35200500 176.25000000 0.194783 -0.005763 0.980829 0.000000
274.66799927 169.39399719 133.75000000 -0.377748 -0.551087 0.744049 0.000000
277.53900146 208.63299561 156.25000000 -0.074761 -0.850580 0.520504 0.000000
283.28100586 217.72500610 170.00000000 0.811680 -0.270560 0.517661 0.000000
155.03900146 298.11499023 115.00000000 -0.335475 0.893108 -0.299691 0.000000
178.96499634 204.80499268 81.25000000 0.445135 0.477986 0.757222 0.000000
221.07400513 146.42599487 168.75000000 0.001369 -0.792878 0.609379 0.000000
210.54699707 221.07400513 151.25000000 0.725173 0.681045 0.101495 0.000000
179.92199707 254.57000732 41.25000000 0.826350 0.295236 -0.479564 0.000000
169.39399719 177.05099487 93.75000000 -0.736494 0.123493 0.665076 0.000000
229.68699646 178.96499634 118.75000000 -0.229075 -0.593724 0.771373 0.000000
153.12500000 214.37500000 73.75000000 0.106050 0.099058 0.989414 0.000000
206.71899414 237.82200623 172.50000000 0.904198 -0.421413 -0.069554 0.000000
257.44100952 176.09399414 128.75000000 -0.537867 -0.750398 0.384191 0.000000
251.69900513 201.93400574 186.25000000 0.000978 0.000978 0.999999 0.000000
134.94099426 222.98800659 66.25000000 -0.349756 0.393281 0.850295 0.000000
211.02499390 220.11700439 157.50000000 0.642514 0.748840 0.162527 0.000000
133.98399353 283.76000977 107.50000000 -0.513258 0.775553 -0.367538 0.000000
218.68200684 214.37500000 122.50000000 -0.908926 0.227594 0.349364 0.000000
138.77000427 256.00601196 42.50000000 -0.292823 0.731258 -0.616049 0.000000
245.95700073 224.90199280 173.75000000 -0.901102 0.361906 -0.238829 0.000000
221.07400513 144.03300476 155.00000000 -0.059507 -0.993655 0.095436 0.000000
136.85499573 175.61500549 177.50000000 -0.412639 -0.581672 0.700990 0.000000
248.82800293 216.28900146 181.25000000 0.020383 0.860179 0.509585 0.000000
192.36300659 200.01899719 121.25000000 -0.441534 -0.831216 0.337829 0.000000
176.09399414 170.35200500 93.75000000 -0.155142 -0.604001 0.781737 0.000000
115.80100250 222.98800659 53.75000000 -0.892997 0.278782 -0.353323 0.000000
162.69500732 232.55900574 191.25000000 0.682323 0.682323 0.262432 0.000000
191.88499451 290.93701172 152.50000000 0.238350 0.780481 0.577961 0.000000
131.11300659 206.71899414 68.75000000 -0.425904 -0.185875 0.885470 0.000000
129.19900513 200.01899719 68.75000000 -0.313869 -0.099326 0.944257 0.000000
305.29299927 219.16000366 171.25000000 -0.531063 -0.710859 0.461142 0.000000
144.99000549 197.14799500 72.50000000 -0.439825 -0.141833 0.886813 0.000000
155.99600220 172.74400330 75.00000000 -0.499740 -0.610794 0.614159 0.000000
219.16000366 210.54699707 126.25000000 -0.546923 0.443855 0.709836 0.000000
106.70899963 229.68699646 162.50000000 -0.907563 0.095026 0.409023 0.000000
311.03500366 211.50399780 171.25000000 -0.666912 -0.446279 0.596711 0.000000
210.06799316 282.32400513 132.50000000 0.866595 0.489321 -0.097864 0.000000
180.87899780 300.02899170 132.50000000 0.150305 0.973824 0.170514 0.000000
283.28100586 213.41799927 183.75000000 -0.091861 0.278170 0.956129 0.000000
258.39801025 203.84800720 141.25000000 0.197953 0.374233 0.905961 0.000000
217.24600220 245.95700073 128.75000000 0.949165 0.186031 -0.253925 0.000000
238.30099487 215.80999756 140.00000000 0.165309 -0.756781 0.632420 0.000000
255.04899597 223.94500732 160.00000000 0.536791 0.841113 -0.066218 0.000000
269.88299561 159.82400513 181.25000000 0.110122 -0.034483 0.993320 0.000000
201.45500183 151.21099854 87.50000000 -0.583955 -0.287999 0.758982 0.000000
133.02699280 203.84800720 186.25000000 -0.269986 -0.269986 0.924238 0.000000
161.73800659 174.65800476 80.00000000 -0.339792 -0.427480 0.837736 0.000000
136.37699890 164.60899353 102.50000000 -0.707106 -0.707106 -0.001384 0.000000
307.20700073 164.60899353 156.25000000 0.242822 -0.160554 0.956692 0.000000
196.19099426 144.99000549 132.50000000 0.000978 -0.999999 0.000978 0.000000
252.65600586 195.23399353 138.75000000 0.000978 0.000978 0.999999 0.000000
122.97799683 185.66400146 172.50000000 -0.767736 -0.312544 0.559373 0.000000
106.70899963 202.89100647 142.50000000 -0.939530 -0.342446 0.003763 0.000000
281.36700439 147.38299561 173.75000000 0.239221 -0.773949 0.586325 0.000000
218.68200684 251.69900513 152.50000000 0.938128 0.289614 0.189843 0.000000
211.50399780 218.20300293 151.25000000 0.654453 0.754260 0.052755 0.000000
264.14099121 197.14799500 141.25000000 -0.395213 -0.459738 0.795266 0.000000
156.95300293 178.48599243 80.00000000 -0.322294 -0.503287 0.801766 0.000000
256.48400879 148.33999634 178.75000000 -0.233458 -0.622032 0.747378 0.000000
146.42599487 259.83401489 42.50000000 -0.682323 0.682323 -0.262432 0.000000
146.90400696 260.31201172 42.50000000 -0.682323 0.682323 -0.262432 0.000000
210.54699707 234.47300720 138.75000000 0.933345 -0.340014 0.115144 0.000000
137.81199646 190.44900513 68.75000000 -0.540861 -0.314306 0.780180 0.000000
120.58599854 189.49200439 171.25000000 -0.801649 -0.547354 0.240340 0.000000
180.87899780 251.69900513 181.25000000 0.626285 0.293121 0.722390 0.000000
174.17999268 260.31201172 41.25000000 0.216004 0.756793 -0.616934 0.000000
136.85499573 199.06199646 71.25000000 -0.375800 -0.223726 0.899289 0.000000
120.58599854 244.04299927 71.25000000 -0.900864 0.384427 -0.201643 0.000000
227.77299500 169.39399719 183.75000000 0.000978 0.000978 0.999999 0.000000
116.27899933 213.41799927 175.00000000 -0.657881 0.046890 0.751661 0.000000
302.42199707 218.20300293 168.75000000 -0.197529 -0.785522 0.586462 0.000000
147.38299561 166.04499817 62.50000000 -0.260784 -0.538745 0.801090 0.000000
200.01899719 224.42399597 187.50000000 0.903359 0.003911 0.428867 0.000000
117.71499634 189.97099304 92.50000000 -0.993471 0.091134 -0.068632 0.000000
279.45300293 187.57800293 143.75000000 0.000978 0.000978 0.999999 0.000000
192.36300659 186.14300537 107.50000000 -0.001317 -0.462431 0.886654 0.000000
302.42199707 176.09399414 153.75000000 -0.592798 0.046466 0.804009 0.000000
115.80100250 226.81599426 53.75000000 0.000978 0.000978 0.999999 0.000000
180.87899780 197.14799500 196.25000000 -0.124223 -0.184452 0.974960 0.000000
293.80899048 226.81599426 183.75000000 -0.243918 0.907024 0.343238 0.000000
155.03900146 172.74400330 182.50000000 -0.135419 -0.593759 0.793166 0.000000
245.95700073 154.56100464 97.50000000 0.083156 0.698798 -0.710469 0.000000
127.28500366 217.24600220 183.75000000 0.000978 0.000978 0.999999 0.000000
185.66400146 189.49200439 193.75000000 -0.077337 -0.075095 0.994173 0.000000
146.42599487 238.77900696 60.00000000 -0.104611 0.752902 0.649765 0.000000
207.19700623 233.51600647 150.00000000 0.999999 0.000978 0.000978 0.000000
102.88099670 222.98800659 140.00000000 -0.983614 -0.176606 -0.036257 0.000000
133.98399353 263.66198730 172.50000000 -0.362151 0.113428 0.925192 0.000000
286.15200806 196.19099426 146.25000000 0.000978 0.000978 0.999999 0.000000
218.20300293 200.97700500 193.75000000 -0.674612 0.196054 0.711661 0.000000
187.57800293 273.71099854 166.25000000 0.138590 0.497466 0.856341 0.000000
113.40799713 193.32000732 162.50000000 -0.878379 -0.186858 0.439925 0.000000
191.40600586 147.38299561 171.25000000 -0.623672 0.311030 0.717142 0.000000
138.77000427 183.75000000 183.75000000 -0.470303 -0.392728 0.790304 0.000000
109.10199738 257.92001343 147.50000000 -0.682323 0.682323 0.262432 0.000000
241.17199707 168.43699646 183.75000000 0.000978 0.000978 0.999999 0.000000
193.32000732 271.79699707 166.25000000 0.524195 0.464287 0.713903 0.000000
152.16799927 243.08599854 186.25000000 -0.277876 0.301154 0.912190 0.000000
210.54699707 255.52699280 113.75000000 0.938700 0.257273 -0.229460 0.000000
299.07199097 158.86700439 172.50000000 0.284945 -0.375404 0.881974 0.000000
222.98800659 215.33200073 148.75000000 -0.001261 0.934187 0.356781 0.000000
219.16000366 206.24000549 190.00000000 0.297829 0.502685 0.811545 0.000000
298.59399414 223.94500732 176.25000000 -0.176310 -0.812231 0.556054 0.000000
231.60200500 155.03900146 178.75000000 -0.200866 -0.511982 0.835181 0.000000
129.67799377 167.47999573 127.50000000 -0.609142 -0.781906 -0.132552 0.000000
122.50000000 175.61500549 160.00000000 -0.845517 -0.502538 0.180437 0.000000
278.49600220 208.15400696 155.00000000 0.029219 -0.813950 0.580200 0.000000
133.02699280 203.84800720 68.75000000 -0.319680 -0.050070 0.946202 0.000000
233.51600647 180.39999390 120.00000000 -0.257761 -0.729004 0.634123 0.000000
155.03900146 263.18399048 41.25000000 -0.319695 0.570310 -0.756665 0.000000
155.03900146 217.72500610 72.50000000 0.330146 0.184039 0.925815 0.000000
103.83799744 245.00000000 137.50000000 0.000978 0.000978 0.999999 0.000000
200.97700500 291.41598511 125.00000000 0.581753 0.813364 0.001362 0.000000
259.83401489 220.11700439 160.00000000 0.874207 0.484155 0.036823 0.000000
178.00799561 226.81599426 191.25000000 0.254023 0.001193 0.967197 0.000000
190.44900513 296.67999268 116.25000000 0.409850 0.912078 -0.011710 0.000000
186.62100220 270.83999634 61.25000000 0.796860 0.381527 -0.468457 0.000000
131.59199524 285.19500732 112.50000000 -0.349798 0.861397 -0.368289 0.000000
286.15200806 144.51199341 166.25000000 0.422217 -0.845993 0.325621 0.000000
265.09799194 215.80999756 180.00000000 -0.001261 0.934187 0.356781 0.000000
114.84400177 245.95700073 168.75000000 -0.776591 0.287450 0.560606 0.000000
215.33200073 253.61300659 126.25000000 0.918438 0.183120 -0.350625 0.000000
140.20500183 292.85198975 142.50000000 -0.442095 0.855125 0.270764 0.000000
228.72999573 143.07600403 135.00000000 -0.000978 -0.999999 -0.000978 0.000000
176.09399414 283.76000977 72.50000000 0.090371 0.836289 -0.540790 0.000000
117.71499634 180.87899780 136.25000000 -0.863073 -0.472248 -0.179128 0.000000
165.56599426 183.75000000 83.75000000 -0.128539 0.023472 0.991427 0.000000
154.08200073 291.89401245 101.25000000 -0.396140 0.843950 -0.361693 0.000000
206.24000549 229.68699646 165.00000000 0.885998 0.160434 0.435050 0.000000
253.61300659 187.57800293 138.75000000 -0.297260 -0.456006 0.838865 0.000000
219.16000366 214.85299683 170.00000000 0.125435 0.977403 -0.170145 0.000000
266.05499268 188.53500366 141.25000000 -0.568377 -0.381648 0.728898 0.000000
176.09399414 224.90199280 53.75000000 0.716412 0.400202 0.571482 0.000000
297.63699341 229.20899963 185.00000000 -0.360404 0.515556 0.777374 0.000000
238.30099487 160.78100586 181.25000000 0.152973 -0.896392 0.416029 0.000000
155.99600220 212.46099854 73.75000000 0.256986 0.442503 0.859156 0.000000
111.01599884 264.61898804 122.50000000 -0.804501 0.539965 -0.247419 0.000000
187.10000610 198.10499573 112.50000000 -0.699924 -0.156382 0.696887 0.000000
161.73800659 289.98001099 91.25000000 -0.212993 0.813664 -0.540911 0.000000
213.89599609 243.08599854 152.50000000 0.239943 -0.812710 0.530971 0.000000
