243.67199707 130.42700195 268.39999390 -0.139731 0.695648 -0.704663 0.000000
123.78900146 235.08099365 276.79998779 -0.301238 0.906652 -0.295360 0.000000
142.92300415 225.70899963 266.79998779 0.716252 0.321748 -0.619243 0.000000
151.51400757 199.93600464 352.39999390 0.295312 0.516401 0.803817 0.000000
89.81500244 133.94099426 278.39999390 -0.573879 -0.815962 -0.069777 0.000000
226.49000549 94.11049652 313.60000610 0.271059 -0.962562 0.001205 0.000000
126.52200317 204.62199402 250.00000000 0.369613 0.178385 -0.911902 0.000000
110.12100220 226.10000610 264.00000000 -0.137075 0.829821 -0.540932 0.000000
163.22900391 141.75199890 275.20001221 0.745642 0.601942 -0.285803 0.000000
292.48400879 116.36900330 314.39999390 0.975239 0.199509 0.095417 0.000000
170.25799561 121.83599854 347.60000610 -0.381845 -0.571948 0.725996 0.000000
153.85699463 217.11799622 282.79998779 0.545407 0.102716 -0.831854 0.000000
94.50099945 203.45100403 341.60000610 -0.706293 0.350700 0.614948 0.000000
248.35800171 137.45599365 354.00000000 0.278782 0.353323 0.892997 0.000000
112.85399628 136.67500305 249.60000610 -0.340817 -0.905432 0.253053 0.000000
265.54000854 129.64599609 346.00000000 0.625737 0.336435 0.703751 0.000000
146.43800354 104.65399933 331.20001221 0.049338 -0.913412 0.404035 0.000000
110.12100220 133.16099548 256.00000000 -0.135257 -0.598995 -0.789247 0.000000
175.33500671 215.55599976 318.39999390 0.990567 -0.028173 -0.134104 0.000000
235.86199951 93.32949829 304.00000000 -0.872584 -0.349950 -0.340781 0.000000
76.14749908 193.68800354 311.20001221 -0.909484 0.412425 0.052393 0.000000
179.63000488 128.86500549 358.79998779 -0.438191 -0.193276 0.877857 0.000000
209.30799866 169.08700562 348.79998779 0.282541 0.958129 -0.046462 0.000000
95.28199768 221.80400085 318.79998779 -0.583380 0.774191 0.245552 0.000000
235.08099365 103.09200287 350.00000000 -0.648154 -0.747407 0.145872 0.000000
72.63300323 172.21099854 309.60000610 -0.945306 -0.093608 0.312465 0.000000
158.93400574 179.63000488 260.79998779 0.713858 0.136760 -0.686807 0.000000
108.55899811 230.78599548 292.00000000 -0.360572 0.925423 0.116535 0.000000
273.35000610 100.74900055 324.39999390 0.446915 -0.865239 0.227219 0.000000
149.95199585 159.32400513 268.39999390 0.051899 -0.556862 -0.828982 0.000000
89.03399658 160.49499512 344.00000000 -0.644037 -0.402316 0.650660 0.000000
234.30000305 94.11049652 307.20001221 -0.241163 -0.963363 0.117357 0.000000
165.57200623 134.33200073 355.60000610 -0.451157 -0.123819 0.883813 0.000000
253.04400635 127.30300140 351.60000610 0.331666 -0.219675 0.917464 0.000000
179.24000549 174.16299438 304.79998779 0.920033 0.314333 -0.233955 0.000000
108.55899811 230.00500488 301.60000610 -0.369548 0.928440 -0.037869 0.000000
284.28399658 122.22699738 277.60000610 0.636562 0.765338 -0.095118 0.000000
282.72198486 105.43499756 319.60000610 0.501674 -0.862990 0.059756 0.000000
164.39999390 98.40599823 322.39999390 -0.231192 -0.964808 0.125283 0.000000
106.60600281 141.36099243 241.60000610 -0.719331 -0.676929 0.155981 0.000000
89.81500244 222.19500732 270.39999390 -0.534074 0.836765 0.120785 0.000000
75.75700378 199.54600525 245.60000610 -0.906652 0.301238 -0.295360 0.000000
164.79100037 126.52200317 346.00000000 -0.294685 -0.834160 0.466194 0.000000
165.18200684 189.00199890 280.00000000 0.886812 0.320698 -0.332743 0.000000
122.61699677 110.51200104 332.00000000 -0.491969 -0.870612 -0.001333 0.000000
266.32101440 114.02600098 343.60000610 0.419218 -0.258795 0.870219 0.000000
129.64599609 162.05799866 248.80000305 0.739451 0.559893 -0.373806 0.000000
261.63500977 137.84599304 296.00000000 0.226482 0.955511 -0.188958 0.000000
69.50900269 165.96299744 260.00000000 -0.955177 0.262905 -0.136076 0.000000
131.98899841 190.56399536 362.79998779 0.033575 0.282277 0.958745 0.000000
240.54800415 100.74900055 270.00000000 0.225542 -0.974198 0.008266 0.000000
123.39800262 183.14500427 364.00000000 -0.099615 0.223188 0.969672 0.000000
150.73300171 232.73800659 285.20001221 0.783774 0.552601 -0.283426 0.000000
70.68049622 160.10499573 275.20001221 -0.961693 -0.271756 -0.035986 0.000000
89.03399658 212.04200745 240.00000000 -0.158729 0.633405 -0.757365 0.000000
88.25299835 135.50399780 280.79998779 -0.611277 -0.788791 -0.064420 0.000000
233.51899719 139.79899597 292.39999390 -0.097340 0.984214 -0.147812 0.000000
177.67799377 170.25799561 295.20001221 0.837480 0.500056 -0.220389 0.000000
164.79100037 195.64100647 348.00000000 0.511588 0.384909 0.768194 0.000000
109.33999634 162.44799805 360.39999390 -0.716707 0.001381 0.697373 0.000000
169.86799622 213.99400330 293.60000610 0.850419 0.288618 -0.439872 0.000000
129.64599609 210.86999512 351.60000610 0.098372 0.679793 0.726777 0.000000
281.16000366 108.16899872 284.00000000 0.204923 -0.925685 -0.317983 0.000000
158.54299927 159.32400513 268.39999390 0.162637 -0.691586 -0.703746 0.000000
129.64599609 194.46899414 361.20001221 -0.245933 0.257176 0.934547 0.000000
83.56700134 138.62800598 302.39999390 -0.743772 -0.666978 0.044086 0.000000
117.15000153 117.15000153 281.20001221 -0.392701 -0.901917 -0.179808 0.000000
251.48199463 121.05500031 254.80000305 0.067076 0.583703 -0.809192 0.000000
142.14199829 184.70599365 363.20001221 0.153048 0.473721 0.867274 0.000000
220.24200439 142.53300476 304.00000000 0.218932 0.920087 -0.324821 0.000000
137.45599365 108.94999695 346.39999390 0.403597 -0.729769 0.551857 0.000000
271.78799438 103.48300171 332.79998779 0.526679 -0.807991 0.264121 0.000000
112.07399750 174.16299438 361.60000610 -0.512590 0.051398 0.857094 0.000000
225.70899963 99.96800232 262.00000000 0.109578 -0.962998 -0.246228 0.000000
199.15499878 93.32949829 284.79998779 -0.003746 -0.942776 -0.333406 0.000000
142.14199829 203.45100403 259.20001221 0.462992 0.472877 -0.749684 0.000000
238.98599243 133.55099487 272.39999390 -0.157906 0.786521 -0.597034 0.000000
89.81500244 210.08900452 330.00000000 -0.731494 0.520137 0.440878 0.000000
153.85699463 188.22099304 258.79998779 0.678758 0.189313 -0.709541 0.000000
74.58550262 179.63000488 316.00000000 -0.961334 0.226891 0.156069 0.000000
99.96800232 224.92799377 319.60000610 -0.558346 0.794749 0.237958 0.000000
228.05200195 153.07600403 339.60000610 -0.068452 0.969527 -0.235225 0.000000
147.60899353 106.99700165 336.39999390 0.197572 -0.840058 0.505241 0.000000
199.54600525 153.85699463 296.00000000 0.700459 0.384017 -0.601571 0.000000
267.49200439 120.27400208 344.79998779 0.544204 -0.121096 0.830167 0.000000
261.63500977 105.43499756 273.20001221 0.314120 -0.878626 -0.359645 0.000000
233.51899719 135.50399780 277.60000610 -0.208171 0.884359 -0.417819 0.000000
69.89949799 163.22900391 280.79998779 -0.999999 -0.000978 -0.000978 0.000000
177.67799377 201.49800110 304.79998779 0.900653 0.420305 -0.110312 0.000000
128.86500549 110.51200104 287.20001221 -0.197080 -0.975485 -0.097920 0.000000
78.49050140 199.93600464 308.00000000 -0.873667 0.390491 0.290210 0.000000
191.34500122 169.86799622 348.00000000 -0.827986 0.530452 0.181826 0.000000
99.18699646 145.65699768 238.39999390 -0.156942 0.985315 0.067261 0.000000
178.06799316 164.00999451 358.00000000 -0.316083 0.208359 0.925569 0.000000
135.89399719 107.38800049 293.60000610 -0.321452 -0.934005 -0.155897 0.000000
118.71199799 112.07399750 304.79998779 -0.452982 -0.891352 0.017269 0.000000
187.44000244 168.30599976 340.00000000 0.152215 0.974934 0.162279 0.000000
237.42399597 104.26399994 248.80000305 0.081609 -0.968004 -0.237293 0.000000
165.57200623 98.01550293 308.79998779 -0.795668 -0.597842 0.097458 0.000000
149.95199585 112.46399689 270.79998779 -0.237292 -0.834349 -0.497548 0.000000
247.57699585 105.82599640 258.39999390 0.286967 -0.933691 -0.214175 0.000000
87.08149719 154.63800049 338.39999390 -0.622032 -0.471135 0.625386 0.000000
174.94400024 202.66999817 300.79998779 0.743326 0.275365 -0.609623 0.000000
235.86199951 139.40899658 290.39999390 -0.072264 0.939428 -0.335041 0.000000
150.73300171 230.78599548 281.60000610 0.760355 0.556948 -0.334169 0.000000
146.82800293 212.43200684 280.39999390 0.374859 0.387407 -0.842257 0.000000
107.77799988 176.50599670 358.79998779 -0.507291 -0.083371 0.857732 0.000000
147.60899353 108.55899811 275.60000610 -0.092175 -0.860770 -0.500579 0.000000
231.95700073 126.52200317 358.00000000 0.242862 -0.175773 0.954003 0.000000
155.02900696 217.11799622 283.20001221 0.293980 0.118390 -0.948451 0.000000
129.64599609 181.97300720 364.39999390 -0.056378 0.190727 0.980023 0.000000
161.66700745 140.58000183 355.60000610 0.000978 0.000978 0.999999 0.000000
79.66200256 188.22099304 226.00000000 -0.350585 0.118680 -0.928981 0.000000
112.46399689 175.72500610 361.20001221 -0.495827 -0.025810 0.868038 0.000000
253.04400635 140.18899536 302.39999390 0.039102 0.979922 -0.195510 0.000000
108.55899811 172.60099792 358.79998779 -0.507291 -0.083371 0.857732 0.000000
216.33700562 129.64599609 360.39999390 -0.007415 -0.079448 0.996811 0.000000
131.20799255 109.73000336 291.20001221 -0.284805 -0.937772 -0.198669 0.000000
244.45300293 103.87300110 262.00000000 0.264991 -0.906239 -0.329408 0.000000
146.82800293 231.95700073 326.00000000 0.290698 0.853637 0.432202 0.000000
71.07099915 191.73599243 272.00000000 -0.934515 0.355090 -0.024356 0.000000
167.91499329 157.76199341 263.60000610 -0.734368 -0.392649 -0.553651 0.000000
178.06799316 116.36900330 281.20001221 0.364964 0.789415 -0.493585 0.000000
173.77299500 120.27400208 271.20001221 0.864253 -0.012135 -0.502912 0.000000
97.62500000 163.61999512 353.60000610 -0.655679 -0.123404 0.744887 0.000000
228.83299255 94.11049652 320.00000000 0.075091 -0.990052 0.118991 0.000000
269.44500732 107.38800049 339.20001221 0.442037 -0.534748 0.720172 0.000000
271.39700317 133.55099487 301.60000610 0.591812 0.806018 -0.009612 0.000000
187.44000244 166.74299622 347.20001221 -0.159672 0.986752 0.028718 0.000000
173.77299500 189.78300476 309.60000610 0.983589 -0.092474 0.154924 0.000000
99.96800232 129.25599670 269.60000610 -0.487607 -0.864460 -0.122261 0.000000
146.82800293 139.40899658 367.20001221 0.113961 -0.738525 0.664525 0.000000
87.47200012 189.78300476 226.00000000 0.083738 0.338941 -0.937073 0.000000
168.30599976 227.27099609 306.39999390 0.751545 0.657065 -0.058692 0.000000
106.99700165 229.22399902 306.39999390 -0.428192 0.903072 -0.033348 0.000000
191.34500122 144.48500061 360.39999390 -0.832662 0.194943 -0.518336 0.000000
145.26600647 200.71699524 354.00000000 0.261836 0.633168 0.728382 0.000000
142.53300476 215.55599976 275.20001221 0.871069 -0.488514 0.050916 0.000000
161.66700745 148.78100586 370.39999390 0.711053 -0.258133 0.654042 0.000000
84.73850250 202.27900696 328.79998779 -0.840361 0.381697 0.384838 0.000000
236.64300537 144.87600708 352.79998779 0.432826 0.501947 0.748806 0.000000
180.80099487 171.82000732 308.79998779 0.882415 0.461550 -0.091188 0.000000
173.38200378 127.30300140 273.20001221 0.819512 0.486044 -0.303581 0.000000
100.35900116 177.28700256 232.00000000 0.732433 0.064753 -0.677753 0.000000
186.26899719 139.01800537 358.39999390 0.138664 -0.433146 0.890594 0.000000
75.75700378 195.25000000 250.00000000 -0.355830 -0.864159 -0.355830 0.000000
126.52200317 160.88600159 370.79998779 -0.329559 0.138114 0.933978 0.000000
156.58999634 141.36099243 265.60000610 0.653474 0.666577 -0.358674 0.000000
103.09200287 205.40299988 239.60000610 0.641730 0.269113 -0.718165 0.000000
72.24250031 177.28700256 309.60000610 -0.952910 0.076285 0.293501 0.000000
171.03900146 183.14500427 287.20001221 0.814414 0.485485 -0.317859 0.000000
135.11300659 199.54600525 252.80000305 0.216789 0.653486 -0.725230 0.000000
211.65100098 90.98650360 320.79998779 0.208826 -0.962699 0.172051 0.000000
167.91499329 171.03900146 266.00000000 0.579575 0.582954 -0.569436 0.000000
115.58799744 206.96499634 241.19999695 0.484807 0.809072 -0.332212 0.000000
247.96699524 96.84400177 320.79998779 0.209284 -0.977058 0.039465 0.000000
106.21600342 222.19500732 332.79998779 -0.454235 0.811247 0.368169 0.000000
149.95199585 148.38999939 372.39999390 -0.199738 -0.133583 0.970701 0.000000
70.68049622 160.10499573 272.00000000 -0.932937 -0.355592 -0.056422 0.000000
172.60099792 186.65899658 313.20001221 0.938481 0.122880 0.322729 0.000000
80.83350372 192.12600708 226.39999390 -0.324143 0.102712 -0.940416 0.000000
152.29499817 146.04699707 373.20001221 -0.100592 -0.480290 0.871323 0.000000
124.95999908 131.98899841 359.60000610 0.079971 -0.743007 0.664489 0.000000
270.22601318 114.80699921 342.00000000 0.393450 -0.269837 0.878855 0.000000
208.52699280 167.52499390 336.00000000 0.767270 0.587663 -0.256807 0.000000
258.90200806 126.52200317 349.60000610 0.269363 -0.122199 0.955254 0.000000
170.25799561 99.57749939 275.20001221 0.196558 -0.980491 0.001149 0.000000
231.17599487 139.79899597 292.39999390 -0.120902 0.933256 -0.338254 0.000000
240.54800415 139.01800537 354.79998779 0.502538 0.180437 0.845517 0.000000
142.53300476 214.77499390 278.39999390 0.827803 -0.049024 -0.558872 0.000000
221.02299500 142.53300476 303.20001221 0.029073 0.823734 -0.566231 0.000000
81.61450195 192.90699768 226.39999390 -0.324143 0.102712 -0.940416 0.000000
122.61699677 140.58000183 369.20001221 -0.289453 -0.263532 0.920200 0.000000
69.11849976 171.82000732 277.60000610 -0.960123 -0.253348 0.118229 0.000000
159.71499634 108.55899811 335.20001221 -0.114783 -0.541948 0.832537 0.000000
232.34800720 96.06300354 282.39999390 0.179510 -0.951540 -0.249695 0.000000
221.02299500 137.84599304 284.00000000 0.820177 0.409292 0.399737 0.000000
110.90200043 126.13200378 352.79998779 -0.963208 -0.192642 0.187400 0.000000
166.35299683 179.24000549 270.39999390 0.878120 0.231084 -0.418933 0.000000
177.28700256 104.26399994 340.00000000 -0.260059 -0.478571 0.838653 0.000000
138.23699951 160.49499512 264.00000000 0.048557 -0.981807 -0.183571 0.000000
143.70399475 137.84599304 358.39999390 0.372963 -0.681848 0.629272 0.000000
235.86199951 137.84599304 281.60000610 -0.072774 0.958830 -0.274499 0.000000
82.39550018 160.88600159 337.60000610 -0.726041 -0.290096 0.623465 0.000000
142.14199829 174.16299438 250.00000000 0.059684 -0.370042 -0.927096 0.000000
252.26300049 126.91300201 261.60000610 0.162985 0.861914 -0.480146 0.000000
143.31399536 115.58799744 348.79998779 0.882871 -0.436328 0.173656 0.000000
91.37699890 148.38999939 247.60000610 -0.155759 -0.323923 -0.933174 0.000000
267.49200439 128.86500549 268.00000000 0.375247 0.824909 -0.422746 0.000000
200.32699585 151.51400757 298.39999390 0.878751 0.003988 -0.477264 0.000000
256.94900513 98.79650116 311.20001221 0.180080 -0.982789 -0.041195 0.000000
103.87300110 192.90699768 235.60000610 0.280194 -0.049003 -0.958692 0.000000
252.26300049 98.79650116 329.60000610 0.119946 -0.986881 0.108070 0.000000
224.14700317 103.48300171 352.00000000 0.138411 -0.584897 0.799211 0.000000
171.82000732 102.70099640 338.39999390 -0.281655 -0.412587 0.866281 0.000000
165.57200623 125.74099731 346.00000000 -0.420553 -0.757650 0.499100 0.000000
92.93900299 221.41299438 313.60000610 -0.651474 0.734640 0.189436 0.000000
169.86799622 184.31599426 288.00000000 0.821199 0.450948 -0.349682 0.000000
144.48500061 180.80099487 364.79998779 0.126246 0.503534 0.854702 0.000000
280.76998901 104.65399933 324.79998779 0.587515 -0.783865 0.200952 0.000000
149.95199585 233.51899719 314.00000000 0.368901 0.883857 0.287592 0.000000
177.67799377 123.39800262 284.00000000 0.971712 0.107128 -0.210475 0.000000
168.69599915 189.00199890 350.00000000 0.340865 0.699671 0.627910 0.000000
218.67999268 156.58999634 353.60000610 0.210639 0.943055 0.257447 0.000000
78.49050140 143.70399475 293.60000610 -0.759898 -0.629457 0.162294 0.000000
269.05499268 135.11300659 298.39999390 0.567808 0.812629 -0.131259 0.000000
185.87800598 117.15000153 286.79998779 0.235698 0.944172 -0.230185 0.000000
81.61450195 144.48500061 268.00000000 -0.828565 -0.550931 -0.099775 0.000000
150.73300171 214.38499451 343.20001221 0.336584 0.606502 0.720323 0.000000
84.73850250 212.43200684 246.39999390 -0.601795 0.710020 -0.365669 0.000000
128.86500549 109.33999634 294.79998779 -0.348131 -0.891992 -0.288366 0.000000
171.42999268 146.04699707 295.20001221 0.479461 -0.775263 -0.411198 0.000000
168.30599976 182.75399780 281.60000610 0.847981 0.418545 -0.325189 0.000000
95.67250061 147.60899353 342.39999390 -0.707356 -0.544248 0.451044 0.000000
242.89100647 101.13999939 268.00000000 0.237799 -0.971308 -0.003549 0.000000
154.24699402 103.09200287 284.79998779 0.088410 -0.972511 0.215422 0.000000
141.36099243 118.71199799 262.79998779 -0.098514 -0.503992 -0.858072 0.000000
192.12600708 142.92300415 357.20001221 -0.997687 -0.050151 -0.045883 0.000000
217.89900208 98.79650116 264.00000000 -0.115221 -0.991356 -0.062744 0.000000
81.22399902 149.95199585 226.80000305 -0.896696 -0.401268 -0.186872 0.000000
147.99899292 168.69599915 256.79998779 0.363101 -0.655553 -0.662125 0.000000
94.11049652 158.54299927 347.20001221 -0.602804 -0.391410 0.695289 0.000000
263.19699097 108.94999695 259.20001221 0.213622 -0.968336 -0.129197 0.000000
89.03399658 138.23699951 251.60000610 -0.145550 -0.391429 -0.908625 0.000000
131.20799255 239.37699890 288.79998779 -0.003116 0.998116 0.061279 0.000000
190.56399536 132.77000427 357.20001221 -0.001075 0.106419 0.994321 0.000000
227.27099609 154.24699402 344.79998779 -0.015119 0.980379 -0.196541 0.000000
132.77000427 144.48500061 370.79998779 -0.146419 -0.316102 0.937358 0.000000
98.79650116 227.27099609 285.60000610 -0.535582 0.843988 -0.028913 0.000000
178.45899963 155.41900635 266.39999390 0.561415 -0.454796 -0.691357 0.000000
110.90200043 136.67500305 253.19999695 -0.319326 -0.698628 -0.640274 0.000000
73.41400146 197.20199585 262.39999390 -0.942348 0.276514 0.188470 0.000000
90.59600067 215.55599976 244.39999390 -0.354290 0.818204 -0.452792 0.000000
121.83599854 131.59800720 248.00000000 -0.499187 -0.822648 -0.272143 0.000000
156.58999634 108.55899811 273.60000610 -0.304527 -0.668671 -0.678338 0.000000
276.47399902 109.73000336 270.39999390 -0.000978 -0.999999 -0.000978 0.000000
134.33200073 109.33999634 349.20001221 0.047317 -0.947621 0.315874 0.000000
231.95700073 149.95199585 334.79998779 -0.001137 0.983522 -0.180786 0.000000
210.86999512 145.26600647 306.00000000 0.306810 0.931637 -0.194733 0.000000
271.00698853 101.92099762 305.60000610 0.130788 -0.985110 -0.111590 0.000000
130.42700195 228.05200195 334.00000000 0.037014 0.865021 0.500369 0.000000
128.08399963 228.44299316 333.60000610 0.014880 0.861665 0.507260 0.000000
115.58799744 133.16099548 246.39999390 -0.459958 -0.820337 0.339831 0.000000
261.63500977 139.40899658 302.39999390 0.332420 0.885953 -0.323395 0.000000
279.59799194 127.69400024 281.60000610 0.628965 0.771978 -0.091937 0.000000
169.08700562 222.58500671 320.79998779 0.158972 0.836462 0.524460 0.000000
192.12600708 146.43800354 288.00000000 0.733811 -0.482029 -0.478716 0.000000
259.29199219 106.21600342 342.79998779 0.259549 -0.465344 0.846220 0.000000
204.62199402 116.36900330 358.79998779 -0.083005 -0.164807 0.982827 0.000000
147.60899353 193.68800354 255.60000610 0.478889 0.407462 -0.777586 0.000000
270.22601318 124.95999908 263.60000610 0.505898 0.721526 -0.472724 0.000000
122.61699677 235.86199951 294.79998779 -0.424944 0.904505 0.035967 0.000000
135.89399719 157.76199341 246.80000305 -0.284104 0.346578 -0.893962 0.000000
121.05500031 124.95999908 357.20001221 -0.349902 -0.422079 0.836312 0.000000
209.69900513 167.13400269 344.00000000 0.717617 0.684795 -0.126814 0.000000
70.68049622 174.16299438 304.79998779 -0.919193 0.040882 0.391679 0.000000
89.03399658 143.31399536 249.60000610 -0.119635 -0.426463 -0.896558 0.000000
135.11300659 202.27900696 356.39999390 0.281215 0.402822 0.871007 0.000000
100.74900055 171.03900146 355.60000610 -0.264436 -0.177647 0.947901 0.000000
166.74299622 187.44000244 281.60000610 0.885969 0.326410 -0.329418 0.000000
103.09200287 185.87800598 235.60000610 0.831715 -0.139846 -0.537302 0.000000
151.51400757 170.64799500 256.79998779 0.400007 -0.719355 -0.567911 0.000000
80.44300079 148.78100586 246.39999390 -0.156513 -0.818340 -0.553013 0.000000
77.31900024 158.54299927 226.80000305 -0.924944 -0.160435 -0.344587 0.000000
173.38200378 112.46399689 342.79998779 -0.264734 -0.493861 0.828262 0.000000
70.68049622 161.66700745 244.80000305 -0.941184 -0.157092 -0.299157 0.000000
85.91000366 204.62199402 234.80000305 -0.079849 0.672185 -0.736065 0.000000
126.52200317 142.53300476 370.39999390 -0.086271 -0.176187 0.980569 0.000000
156.19999695 185.48800659 359.20001221 0.115434 0.556711 0.822647 0.000000
274.91198730 130.81799316 298.39999390 0.524893 0.840705 -0.133051 0.000000
161.66700745 172.99200439 263.20001221 0.736236 -0.317371 -0.597689 0.000000
104.26399994 121.83599854 315.20001221 -0.569452 -0.821932 0.012350 0.000000
169.47700500 157.76199341 368.39999390 0.675298 -0.501027 0.541244 0.000000
181.19200134 159.71499634 280.00000000 0.814241 0.566876 -0.125155 0.000000
157.76199341 104.26399994 276.79998779 -0.570488 -0.641168 -0.513271 0.000000
276.47399902 107.38800049 333.60000610 0.327027 -0.752323 0.571894 0.000000
209.30799866 135.89399719 278.79998779 0.037158 0.857386 -0.513331 0.000000
203.84100342 149.17100525 330.79998779 0.123819 -0.248941 0.960571 0.000000
205.40299988 162.05799866 360.00000000 0.541902 0.826957 0.149951 0.000000
91.76750183 132.77000427 283.20001221 -0.593911 -0.798205 -0.100688 0.000000
164.79100037 141.75199890 278.39999390 0.778152 0.531069 -0.335328 0.000000
73.80449677 170.25799561 236.00000000 -0.955378 0.023605 -0.294440 0.000000
153.85699463 106.99700165 276.39999390 -0.286655 -0.670996 -0.683808 0.000000
203.05999756 99.57749939 340.79998779 0.337657 -0.673684 0.657372 0.000000
192.12600708 137.84599304 289.60000610 0.476474 -0.876989 0.062149 0.000000
271.78799438 133.16099548 312.79998779 0.604296 0.794828 0.055453 0.000000
95.28199768 144.48500061 248.39999390 -0.126549 -0.379646 -0.916436 0.000000
72.24250031 185.09700012 298.39999390 -0.981537 0.001145 0.191268 0.000000
164.79100037 226.88099670 322.39999390 0.503800 0.802584 0.319444 0.000000
99.18699646 128.47500610 281.60000610 -0.445479 -0.886688 -0.123823 0.000000
74.58550262 190.56399536 308.79998779 -0.909484 0.412425 0.052393 0.000000
86.30049896 137.45599365 276.79998779 -0.751398 -0.659730 -0.012500 0.000000
122.61699677 115.19799805 349.60000610 -0.495058 -0.751634 0.435849 0.000000
101.13999939 210.08900452 342.39999390 -0.564394 0.415434 0.713354 0.000000
214.77499390 146.43800354 317.60000610 0.444301 0.470533 0.762362 0.000000
71.07099915 192.51699829 277.60000610 -0.933324 0.357581 -0.032273 0.000000
156.19999695 162.05799866 264.79998779 0.026627 -0.772182 -0.634843 0.000000
138.23699951 158.93400574 269.60000610 -0.430908 -0.866351 -0.252497 0.000000
176.89599609 176.50599670 333.60000610 0.974541 0.223059 0.022664 0.000000
279.98800659 126.52200317 321.60000610 0.709089 0.665066 0.234267 0.000000
149.17100525 105.82599640 283.20001221 -0.036922 -0.945980 -0.322117 0.000000
168.69599915 210.47999573 334.39999390 0.664215 0.421169 0.617604 0.000000
206.18400574 153.85699463 362.79998779 -0.080951 0.343710 0.935580 0.000000
145.26600647 212.82299805 347.20001221 0.299952 0.541183 0.785589 0.000000
248.35800171 139.01800537 296.39999390 0.174374 0.930459 -0.322243 0.000000
276.08300781 108.55899811 278.39999390 0.315895 -0.925019 -0.211069 0.000000
269.83599854 134.33200073 313.60000610 0.545310 0.830325 0.114879 0.000000
242.89100647 98.79650116 333.60000610 0.086147 -0.957901 0.273870 0.000000
178.84899902 128.47500610 297.60000610 0.967251 0.250130 -0.043126 0.000000
69.89949799 164.79100037 280.00000000 -0.999999 -0.000978 -0.000978 0.000000
124.17900085 212.82299805 350.39999390 -0.113420 0.620125 0.776261 0.000000
286.23699951 120.27400208 288.79998779 0.738078 0.672152 -0.058760 0.000000
242.89100647 134.33200073 272.39999390 0.037764 0.815415 -0.577644 0.000000
155.41900635 100.35900116 292.79998779 -0.399425 -0.916173 -0.032956 0.000000
98.79650116 160.10499573 353.60000610 -0.699365 -0.185985 0.690143 0.000000
137.84599304 164.00999451 256.79998779 0.447781 -0.503960 -0.738591 0.000000
132.77000427 115.97899628 266.39999390 -0.168762 -0.749546 -0.640079 0.000000
182.75399780 102.70099640 340.79998779 -0.209710 -0.484294 0.849400 0.000000
185.87800598 94.89150238 280.79998779 -0.447295 -0.850014 -0.278214 0.000000
260.85400391 139.40899658 327.20001221 0.707106 0.707106 0.001384 0.000000
179.63000488 175.33500671 326.39999390 0.791128 0.579956 0.194339 0.000000
175.33500671 148.38999939 273.60000610 -0.466767 -0.884331 0.009309 0.000000
81.61450195 140.58000183 292.79998779 -0.707106 -0.707106 0.001384 0.000000
232.73800659 141.75199890 360.00000000 0.504260 0.598704 0.622315 0.000000
170.64799500 189.00199890 348.79998779 0.447429 0.741313 0.500262 0.000000
101.52999878 201.49800110 237.19999695 0.587995 0.285233 -0.756904 0.000000
147.60899353 188.22099304 253.19999695 0.541224 0.243473 -0.804858 0.000000
257.73001099 107.77799988 258.79998779 0.191826 -0.974175 -0.119108 0.000000
130.42700195 162.44799805 247.60000610 0.739451 0.559893 -0.373806 0.000000
77.70950317 206.96499634 262.39999390 -0.850564 0.320704 0.416761 0.000000
111.68299866 208.52699280 350.79998779 -0.314738 0.605265 0.731160 0.000000
111.68299866 230.78599548 280.79998779 -0.236761 0.961433 -0.139964 0.000000
89.81500244 133.16099548 291.20001221 -0.548079 -0.836399 0.006800 0.000000
111.68299866 118.71199799 293.20001221 -0.587903 -0.800079 -0.119349 0.000000
85.51950073 138.23699951 280.79998779 -0.728647 -0.682838 -0.052966 0.000000
284.28399658 105.82599640 311.20001221 0.420899 -0.903494 -0.080889 0.000000
121.83599854 230.00500488 259.20001221 -0.156756 0.813637 -0.559842 0.000000
171.82000732 178.06799316 282.79998779 0.857181 0.406196 -0.316616 0.000000
108.55899811 135.11300659 355.60000610 -0.606285 -0.391525 0.692190 0.000000
156.98100281 181.97300720 362.00000000 0.049772 0.629972 0.775022 0.000000
111.68299866 231.95700073 292.39999390 -0.308898 0.940301 0.142882 0.000000
126.91300201 110.90200043 348.00000000 -0.279958 -0.842968 0.459379 0.000000
210.86999512 90.20549774 300.00000000 0.045932 -0.983410 -0.175483 0.000000
189.39300537 171.03900146 332.79998779 -0.414308 0.906554 0.080674 0.000000
108.94999695 117.93099976 313.60000610 -0.650967 -0.758285 -0.035302 0.000000
259.29199219 103.87300110 342.00000000 0.264771 -0.546776 0.794313 0.000000
187.83099365 170.25799561 333.60000610 -0.228538 0.970351 0.078677 0.000000
201.49800110 88.64350128 308.79998779 -0.000978 -0.999999 -0.000978 0.000000
108.94999695 230.39500427 308.00000000 -0.174963 0.928005 -0.328931 0.000000
168.69599915 188.61199951 350.39999390 0.340865 0.699671 0.627910 0.000000
120.27400208 200.71699524 357.20001221 -0.158205 0.394799 0.905044 0.000000
188.22099304 169.86799622 336.79998779 0.005880 0.974966 0.222278 0.000000
208.13699341 167.91499329 336.79998779 0.773251 0.566839 -0.284213 0.000000
205.40299988 96.45349884 335.20001221 0.014612 -0.888683 0.458289 0.000000
195.25000000 123.39800262 266.00000000 -0.576235 0.620170 -0.532299 0.000000
269.83599854 104.65399933 282.39999390 0.421328 -0.821987 -0.383170 0.000000
94.89150238 131.98899841 275.20001221 -0.573711 -0.804394 -0.154288 0.000000
193.68800354 176.50599670 344.39999390 -0.918403 0.390154 0.065696 0.000000
135.89399719 201.49800110 254.80000305 0.377983 0.554702 -0.741239 0.000000
238.20500183 96.45349884 284.00000000 -0.001381 -0.716707 -0.697373 0.000000
81.61450195 140.58000183 255.19999695 -0.817760 -0.573695 -0.046288 0.000000
81.22399902 209.69900513 292.00000000 -0.822012 0.548503 0.153105 0.000000
121.83599854 210.47999573 352.00000000 -0.109465 0.567761 0.815883 0.000000
173.77299500 94.50099945 304.79998779 -0.407641 -0.912214 0.041162 0.000000
219.46099854 156.58999634 341.60000610 0.001351 0.838844 -0.544370 0.000000
208.52699280 122.22699738 256.00000000 0.253942 0.892510 -0.372745 0.000000
220.24200439 139.40899658 292.79998779 0.050775 0.967192 -0.248919 0.000000
195.64100647 122.61699677 295.20001221 -0.856340 0.405797 -0.319392 0.000000
134.72300720 104.65399933 328.00000000 -0.255886 -0.945548 0.201151 0.000000
218.67999268 155.02900696 339.20001221 0.459620 0.763852 -0.453077 0.000000
183.92599487 169.47700500 340.79998779 0.444371 0.892870 0.072915 0.000000
174.55299377 213.99400330 312.79998779 0.970995 0.232596 0.055380 0.000000
275.69299316 121.83599854 266.00000000 0.441371 0.677879 -0.587939 0.000000
210.08900452 160.49499512 328.00000000 0.926927 0.366210 -0.081827 0.000000
73.80449677 154.63800049 275.20001221 -0.786306 -0.615060 0.058509 0.000000
170.64799500 174.16299438 274.39999390 0.720699 0.565675 -0.400755 0.000000
91.37699890 145.26600647 334.00000000 -0.636524 -0.541974 0.548727 0.000000
84.34799957 146.04699707 248.39999390 -0.113572 -0.615061 -0.780257 0.000000
92.15799713 183.53500366 226.80000305 0.557429 0.210379 -0.803127 0.000000
156.98100281 201.49800110 349.20001221 0.464710 0.464710 0.753717 0.000000
103.09200287 133.94099426 348.00000000 -0.814899 -0.409841 0.409841 0.000000
156.98100281 127.30300140 349.20001221 -0.040192 -0.841263 -0.539129 0.000000
150.73300171 199.93600464 353.20001221 0.264121 0.526679 0.807991 0.000000
234.30000305 94.89150238 324.79998779 0.093665 -0.822808 0.560547 0.000000
73.41400146 192.51699829 295.20001221 -0.893395 0.444646 0.064303 0.000000
77.31900024 185.09700012 226.80000305 -0.564246 0.112266 -0.817938 0.000000
98.40599823 197.20199585 348.79998779 -0.613154 0.325182 0.719930 0.000000
271.78799438 109.73000336 270.39999390 0.000978 -0.999999 0.000978 0.000000
231.95700073 149.56199646 332.00000000 0.001149 0.980491 -0.196558 0.000000
193.68800354 90.98650360 327.20001221 -0.046336 -0.960538 0.274261 0.000000
133.55099487 170.25799561 250.80000305 0.309453 -0.582028 -0.751986 0.000000
223.36599731 143.31399536 308.79998779 0.260020 0.913701 -0.312314 0.000000
144.48500061 237.03399658 312.00000000 0.178966 0.980051 0.086439 0.000000
111.68299866 187.04899597 360.79998779 -0.466127 0.198067 0.862261 0.000000
246.79600525 147.21899414 341.60000610 0.574517 0.807869 -0.131445 0.000000
80.05249786 146.04699707 272.79998779 -0.859487 -0.495469 -0.125673 0.000000
153.46699524 142.14199829 261.60000610 0.675232 0.615506 -0.406466 0.000000
77.70950317 186.65899658 227.19999695 -0.551471 0.075524 -0.830768 0.000000
76.14749908 174.94400024 328.79998779 -0.908659 0.258158 0.328167 0.000000
93.32949829 210.86999512 335.20001221 -0.679749 0.518624 0.518624 0.000000
154.63800049 110.12100220 272.39999390 -0.197983 -0.775048 -0.600087 0.000000
84.73850250 213.99400330 292.00000000 -0.744315 0.643443 0.178819 0.000000
133.55099487 213.60400391 268.79998779 0.564040 -0.783999 0.259238 0.000000
169.47700500 149.56199646 283.20001221 0.298979 -0.896937 -0.325753 0.000000
180.41099548 174.55299377 316.79998779 0.879135 0.474432 -0.045119 0.000000
114.02600098 221.80400085 341.20001221 -0.293612 0.726810 0.620917 0.000000
84.73850250 215.55599976 280.00000000 -0.782554 0.611600 0.116425 0.000000
157.37199402 234.30000305 308.00000000 0.334093 0.881342 0.334093 0.000000
110.51200104 124.95999908 349.60000610 -0.666628 -0.646876 0.370349 0.000000
99.96800232 144.48500061 350.79998779 -0.890306 -0.036367 0.453908 0.000000
206.18400574 167.91499329 353.20001221 0.584076 0.580690 0.567146 0.000000
216.33700562 124.17900085 360.39999390 0.000978 0.000978 0.999999 0.000000
106.99700165 138.23699951 252.39999390 -0.155423 -0.632256 -0.759009 0.000000
164.79100037 213.99400330 286.79998779 0.416599 0.360005 -0.834771 0.000000
140.18899536 149.17100525 372.79998779 -0.010888 -0.264944 0.964202 0.000000
206.18400574 133.94099426 276.79998779 -0.012486 0.761640 -0.647880 0.000000
133.55099487 173.38200378 368.39999390 -0.183388 0.290939 0.939001 0.000000
174.16299438 196.03100586 338.00000000 0.646014 0.538064 0.541437 0.000000
94.89150238 144.48500061 337.60000610 -0.772920 -0.414936 0.480024 0.000000
131.98899841 105.04499817 320.00000000 -0.377282 -0.901690 -0.211220 0.000000
233.51899719 153.46699524 341.60000610 0.290332 0.939796 0.180254 0.000000
79.66200256 189.78300476 226.80000305 -0.349809 0.115696 -0.929649 0.000000
236.64300537 115.19799805 246.39999390 0.110924 0.720267 -0.684771 0.000000
189.00199890 130.42700195 290.00000000 -0.655907 -0.678693 0.330395 0.000000
186.65899658 93.32949829 332.00000000 -0.100695 -0.986810 0.126757 0.000000
135.11300659 239.37699890 284.79998779 -0.178494 0.973487 -0.143048 0.000000
199.15499878 135.11300659 357.20001221 -0.621705 0.783043 0.018081 0.000000
176.89599609 210.08900452 323.20001221 0.948924 0.135178 0.285079 0.000000
188.22099304 91.76750183 292.00000000 -0.228138 -0.969271 -0.092011 0.000000
72.24250031 189.00199890 242.39999390 -0.912501 0.157035 0.377733 0.000000
143.31399536 139.01800537 368.00000000 0.162626 -0.743217 0.648985 0.000000
274.52200317 110.12100220 337.60000610 0.763123 -0.294734 0.575130 0.000000
176.89599609 199.15499878 307.20001221 0.796051 0.180438 0.577706 0.000000
281.16000366 127.30300140 298.79998779 0.504406 0.853274 -0.132279 0.000000
156.98100281 233.12899780 297.60000610 0.564262 0.746387 -0.352867 0.000000
122.61699677 235.08099365 310.79998779 -0.474116 0.856998 -0.201911 0.000000
87.47200012 160.10499573 342.00000000 -0.658030 -0.377666 0.651433 0.000000
128.86500549 181.19200134 244.39999390 0.360512 -0.073167 -0.929881 0.000000
256.94900513 139.01800537 296.39999390 0.114714 0.971916 -0.205476 0.000000
185.09700012 92.54850006 296.00000000 -0.309727 -0.947478 -0.079719 0.000000
144.48500061 227.66099548 270.39999390 0.741084 0.402584 -0.537327 0.000000
71.07099915 153.85699463 253.19999695 -0.920019 -0.227501 0.319074 0.000000
186.65899658 110.51200104 272.00000000 -0.624886 0.709286 -0.326239 0.000000
96.84400177 127.69400024 310.39999390 -0.649765 -0.758297 0.052838 0.000000
138.23699951 237.81399536 296.79998779 0.138967 0.980146 0.141426 0.000000
169.47700500 169.47700500 367.60000610 0.488835 0.379129 0.785685 0.000000
106.21600342 149.17100525 358.79998779 -0.767687 -0.129687 0.627565 0.000000
263.97799683 138.23699951 310.79998779 0.526840 0.828754 0.188696 0.000000
196.03100586 149.95199585 291.60000610 0.929464 -0.150986 -0.336602 0.000000
168.69599915 98.79650116 335.20001221 0.493367 -0.591031 0.638178 0.000000
90.20549774 192.12600708 227.19999695 0.421276 0.144233 -0.895390 0.000000
202.27900696 143.70399475 298.00000000 0.283349 0.818737 -0.499383 0.000000
131.20799255 111.29299927 279.20001221 -0.419740 -0.876824 0.234517 0.000000
209.69900513 155.41900635 313.60000610 0.902312 0.323415 -0.285018 0.000000
239.76699829 100.35900116 346.39999390 0.001368 -0.797530 0.603278 0.000000
111.29299927 206.96499634 352.00000000 -0.239048 0.595275 0.767140 0.000000
161.66700745 151.51400757 355.60000610 0.368598 0.206704 0.906316 0.000000
124.17900085 116.36900330 354.00000000 -0.392245 -0.653741 0.647121 0.000000
213.99400330 132.77000427 361.20001221 -0.007575 -0.104963 0.994447 0.000000
174.16299438 131.20799255 357.20001221 -0.328440 -0.454158 0.828171 0.000000
181.19200134 139.79899597 360.39999390 0.433910 0.017145 0.900793 0.000000
194.46899414 111.29299927 353.60000610 -0.668729 -0.743494 0.004154 0.000000
92.15799713 222.97599792 278.39999390 -0.616103 0.761249 0.202279 0.000000
258.51098633 98.79650116 332.00000000 0.160307 -0.984406 0.072435 0.000000
78.88099670 193.68800354 226.80000305 -0.324143 0.102712 -0.940416 0.000000
129.64599609 180.41099548 245.19999695 0.301717 -0.169458 -0.938217 0.000000
174.55299377 208.52699280 305.60000610 0.938766 0.254510 -0.232258 0.000000
132.38000488 217.89900208 259.20001221 0.726333 -0.080057 -0.682665 0.000000
71.46150208 176.50599670 248.00000000 -0.926693 0.142675 -0.347683 0.000000
260.07299805 107.38800049 343.20001221 0.304555 -0.399442 0.864692 0.000000
276.08300781 102.31099701 319.20001221 0.376876 -0.926002 -0.022017 0.000000
69.11849976 162.44799805 264.79998779 -0.997490 -0.007358 -0.070423 0.000000
118.71199799 116.76000214 280.00000000 -0.388133 -0.899828 -0.199154 0.000000
165.57200623 153.46699524 272.00000000 -0.430375 -0.784419 -0.446615 0.000000
229.61399841 98.79650116 344.79998779 -0.055290 -0.998348 0.015648 0.000000
144.48500061 234.69099426 276.00000000 0.624942 0.648273 -0.434960 0.000000
94.89150238 162.44799805 350.39999390 -0.670211 -0.380390 0.637276 0.000000
195.25000000 90.20549774 324.00000000 0.023420 -0.991465 0.128255 0.000000
72.63300323 155.80999756 270.39999390 -0.854788 -0.518834 0.012192 0.000000
167.13400269 183.92599487 280.00000000 0.858164 0.391199 -0.332442 0.000000
79.27149963 194.46899414 227.19999695 -0.340783 0.172495 -0.924182 0.000000
147.60899353 217.89900208 341.20001221 0.192618 0.639492 0.744277 0.000000
138.23699951 137.84599304 360.79998779 0.756904 -0.587995 0.285233 0.000000
267.88299561 130.03599548 343.20001221 0.690474 0.469790 0.550039 0.000000
261.63500977 124.95999908 260.39999390 0.092244 0.745272 -0.660349 0.000000
78.09999847 202.66999817 235.19999695 -0.403330 0.880129 -0.250395 0.000000
98.01550293 186.65899658 232.00000000 0.466523 0.109186 -0.877744 0.000000
104.65399933 187.44000244 236.39999390 0.497353 -0.054030 -0.865864 0.000000
115.58799744 233.91000366 315.20001221 -0.416342 0.909207 -0.001297 0.000000
170.25799561 217.11799622 297.20001221 0.862077 0.337737 -0.377833 0.000000
135.89399719 230.00500488 264.00000000 0.325165 0.457116 -0.827836 0.000000
71.46150208 189.00199890 292.00000000 -0.970603 0.220305 0.096934 0.000000
131.98899841 125.35099792 256.00000000 -0.149386 -0.725806 -0.671483 0.000000
121.83599854 171.82000732 365.20001221 -0.438338 0.281459 0.853605 0.000000
130.42700195 135.50399780 368.00000000 -0.120252 -0.892695 0.434322 0.000000
286.62701416 122.22699738 296.00000000 0.724905 0.666913 -0.172451 0.000000
105.43499756 220.63299561 336.00000000 -0.356311 0.839765 0.409680 0.000000
126.52200317 220.24200439 343.60000610 0.023766 0.761897 0.647263 0.000000
247.57699585 137.84599304 291.20001221 0.262084 0.934813 -0.239660 0.000000
144.48500061 234.69099426 320.79998779 0.253899 0.922356 0.291195 0.000000
287.40798950 112.07399750 325.60000610 0.949263 0.163387 0.268710 0.000000
168.30599976 137.45599365 281.60000610 0.793785 0.506297 -0.336999 0.000000
110.90200043 209.69900513 241.60000610 0.326735 0.651845 -0.684356 0.000000
135.89399719 213.21299744 269.20001221 0.372815 -0.903750 -0.210343 0.000000
283.11300659 121.05500031 325.60000610 0.667648 0.533109 0.519655 0.000000
121.05500031 134.72300720 364.00000000 -0.012550 -0.715368 0.698635 0.000000
88.25299835 154.24699402 244.00000000 -0.151485 0.601441 -0.784424 0.000000
128.86500549 188.22099304 245.19999695 0.465206 0.248618 -0.849572 0.000000
164.79100037 176.11599731 365.60000610 0.228889 0.432347 0.872173 0.000000
78.88099670 145.65699768 279.20001221 -0.820664 -0.555458 -0.134076 0.000000
127.30300140 236.25300598 305.60000610 -0.230547 0.973026 0.008276 0.000000
190.95399475 135.11300659 296.00000000 -0.979406 0.096596 0.177296 0.000000
205.79400635 169.47700500 352.00000000 0.584076 0.580690 0.567146 0.000000
80.44300079 210.47999573 274.39999390 -0.849890 0.520717 0.080874 0.000000
71.46150208 153.85699463 253.60000610 -0.920019 -0.227501 0.319074 0.000000
169.47700500 178.06799316 362.79998779 0.208939 0.750631 0.626816 0.000000
116.36900330 117.54100037 348.00000000 -0.700489 -0.700489 0.136498 0.000000
183.53500366 158.54299927 358.79998779 0.256087 0.101663 0.961293 0.000000
85.91000366 145.26600647 227.60000610 -0.523499 -0.661527 -0.536965 0.000000
251.48199463 98.79650116 334.39999390 0.022393 -0.997038 0.073578 0.000000
181.97300720 97.62500000 337.20001221 -0.185291 -0.614064 0.767198 0.000000
240.93899536 100.74900055 272.00000000 0.241687 -0.970319 0.008334 0.000000
170.25799561 119.10299683 344.79998779 -0.199513 -0.737734 0.644937 0.000000
193.29800415 146.82800293 360.79998779 -0.395217 0.689563 -0.606882 0.000000
276.47399902 125.35099792 270.39999390 0.498730 0.708898 -0.498730 0.000000
267.49200439 136.67500305 304.79998779 0.681751 0.681751 -0.265390 0.000000
166.74299622 173.38200378 366.39999390 0.305211 0.464860 0.831114 0.000000
174.55299377 178.84899902 293.60000610 0.813948 -0.186435 -0.550210 0.000000
132.77000427 118.32199860 264.00000000 -0.169112 -0.726726 -0.665785 0.000000
158.54299927 98.79650116 311.20001221 -0.716707 -0.001381 0.697373 0.000000
75.36650085 149.95199585 298.39999390 -0.958721 -0.259572 0.116090 0.000000
86.69100189 142.92300415 250.00000000 -0.174740 -0.459609 -0.870761 0.000000
71.85199738 193.68800354 258.79998779 -0.998399 0.041030 0.038926 0.000000
117.93099976 113.63600159 314.39999390 -0.553762 -0.832674 0.001354 0.000000
74.97599792 195.64100647 294.39999390 -0.902314 0.430740 0.017124 0.000000
170.25799561 143.31399536 357.60000610 -0.206773 -0.087909 0.974432 0.000000
128.86500549 228.44299316 333.60000610 0.014880 0.861665 0.507260 0.000000
199.54600525 177.28700256 332.79998779 0.288157 0.587458 -0.756213 0.000000
189.78300476 90.20549774 309.60000610 -0.202399 -0.978856 0.029591 0.000000
262.41598511 101.52999878 284.39999390 0.131332 -0.899557 -0.416592 0.000000
192.12600708 172.99200439 332.79998779 -0.577502 0.814716 -0.052243 0.000000
255.38699341 98.40599823 326.00000000 0.102975 -0.976404 0.189822 0.000000
163.22900391 208.91799927 283.20001221 0.500886 0.279310 -0.819206 0.000000
119.49299622 113.63600159 287.20001221 -0.575996 -0.784038 -0.231330 0.000000
76.53800201 194.85899353 308.79998779 -0.917391 0.390465 0.077012 0.000000
241.32899475 127.69400024 355.20001221 0.305637 -0.756891 0.577670 0.000000
284.28399658 124.56999969 296.79998779 0.665213 0.726382 -0.172802 0.000000
128.08399963 152.68600464 265.60000610 -0.670654 -0.735225 -0.098323 0.000000
158.54299927 169.47700500 261.20001221 0.582359 -0.134846 -0.801670 0.000000
224.92799377 125.74099731 262.79998779 -0.043656 0.961682 -0.270668 0.000000
84.34799957 141.36099243 233.19999695 -0.588315 -0.662063 -0.464282 0.000000
69.89949799 158.54299927 260.79998779 -0.980569 -0.176187 -0.086271 0.000000
201.49800110 90.20549774 295.20001221 0.055182 -0.985049 -0.163196 0.000000
271.78799438 105.04499817 284.00000000 0.456113 -0.832289 -0.315047 0.000000
238.98599243 116.76000214 248.80000305 0.186089 0.733590 -0.653618 0.000000
212.43200684 151.12399292 328.00000000 0.373381 0.924753 -0.073606 0.000000
154.24699402 203.05999756 269.60000610 0.512857 0.782951 -0.352087 0.000000
141.36099243 103.48300171 327.20001221 -0.092892 -0.951164 0.294377 0.000000
69.89949799 167.91499329 251.19999695 -0.915190 0.386291 -0.114918 0.000000
94.50099945 144.87600708 337.60000610 -0.772920 -0.414936 0.480024 0.000000
206.18400574 138.23699951 285.20001221 0.001248 0.941995 -0.335625 0.000000
265.54000854 106.60600281 274.39999390 0.301769 -0.878012 -0.371525 0.000000
79.66200256 206.57499695 290.39999390 -0.834755 0.547588 0.057715 0.000000
174.16299438 146.43800354 298.39999390 0.447021 -0.871766 -0.200491 0.000000
117.15000153 112.85399628 325.60000610 -0.425671 -0.855952 0.293513 0.000000
130.03599548 207.74600220 255.19999695 0.768883 0.413009 -0.488102 0.000000
190.56399536 119.10299683 278.39999390 -0.730096 -0.597351 0.331862 0.000000
211.65100098 135.89399719 278.79998779 0.025474 0.886225 -0.462553 0.000000
261.63500977 124.17900085 348.39999390 0.290874 -0.217804 0.931640 0.000000
77.70950317 205.40299988 271.20001221 -0.885213 0.441887 -0.145376 0.000000
82.00499725 159.32400513 336.39999390 -0.739979 -0.338415 0.581297 0.000000
140.58000183 105.04499817 331.20001221 0.978200 -0.046695 0.202345 0.000000
89.42449951 220.24200439 280.00000000 -0.624702 0.749331 0.219658 0.000000
98.01550293 152.29499817 350.39999390 -0.870330 -0.267910 0.413218 0.000000
191.73599243 135.11300659 280.79998779 -0.630552 0.748296 -0.206053 0.000000
162.44799805 196.42199707 278.39999390 0.897366 0.345597 -0.274401 0.000000
156.58999634 219.46099854 284.00000000 0.321153 0.055460 -0.945402 0.000000
199.93600464 90.98650360 290.39999390 -0.001120 -0.987081 -0.160219 0.000000
257.73001099 122.61699677 257.20001221 0.162349 0.738915 -0.653947 0.000000
213.21299744 140.18899536 293.60000610 0.157490 0.964462 -0.212156 0.000000
174.16299438 206.96499634 327.60000610 0.865174 0.272173 0.421183 0.000000
203.84100342 105.04499817 351.20001221 -0.525707 -0.814147 0.246570 0.000000
105.04499817 134.33200073 256.00000000 -0.145899 -0.630222 -0.762584 0.000000
77.70950317 157.76199341 228.00000000 -0.896239 -0.351089 -0.271094 0.000000
208.91799927 160.10499573 356.79998779 0.483585 0.843605 0.233402 0.000000
156.19999695 100.35900116 291.20001221 -0.277765 -0.960555 -0.013460 0.000000
221.80400085 121.05500031 254.00000000 0.017387 0.881367 -0.472113 0.000000
206.18400574 152.29499817 362.79998779 -0.072557 0.339041 0.937969 0.000000
89.42449951 215.55599976 245.60000610 -0.515893 0.763262 -0.388954 0.000000
189.00199890 128.47500610 275.20001221 -0.479229 0.633927 -0.607023 0.000000
120.27400208 112.07399750 303.20001221 -0.469290 -0.877981 -0.094422 0.000000
252.65400696 97.62500000 320.79998779 0.245605 -0.969369 0.001186 0.000000
76.14749908 146.04699707 256.79998779 -0.697963 -0.649606 0.301430 0.000000
158.54299927 156.58999634 270.39999390 -0.231330 -0.575996 -0.784038 0.000000
92.93900299 213.60400391 240.80000305 -0.132746 0.774104 -0.618985 0.000000
121.05500031 150.73300171 370.00000000 -0.287016 -0.115071 0.950989 0.000000
240.15800476 103.87300110 258.39999390 0.322488 -0.918731 -0.227891 0.000000
169.86799622 180.41099548 280.79998779 0.800877 0.481165 -0.356478 0.000000
135.89399719 238.98599243 291.60000610 0.048928 0.991072 0.124026 0.000000
280.37899780 119.10299683 332.00000000 0.457905 0.738930 0.494273 0.000000
224.92799377 125.74099731 360.39999390 0.210777 0.210777 0.954540 0.000000
169.08700562 209.30799866 334.39999390 0.676993 0.420833 0.603804 0.000000
214.77499390 144.09399414 308.79998779 0.281628 0.959486 0.008534 0.000000
121.44599915 121.05500031 265.60000610 -0.322385 -0.688511 -0.649631 0.000000
134.33200073 165.57200623 254.00000000 0.581438 -0.238499 -0.777849 0.000000
195.25000000 131.20799255 358.00000000 0.108261 0.124916 0.986243 0.000000
137.45599365 144.48500061 371.60000610 -0.039934 -0.341367 0.939081 0.000000
115.58799744 224.14700317 254.00000000 -0.097894 0.612205 -0.784616 0.000000
108.16899872 125.74099731 268.79998779 -0.331593 -0.848441 -0.412545 0.000000
146.82800293 235.47200012 280.00000000 0.562800 0.750940 -0.345465 0.000000
127.30300140 236.25300598 276.79998779 -0.255649 0.930788 -0.261299 0.000000
190.56399536 142.92300415 362.00000000 -0.918181 -0.213430 -0.333754 0.000000
75.36650085 177.28700256 324.79998779 -0.929043 0.310618 0.200988 0.000000
210.08900452 164.79100037 335.60000610 0.793931 0.553724 -0.251125 0.000000
110.51200104 120.27400208 288.79998779 -0.569213 -0.809977 -0.141189 0.000000
273.74099731 131.20799255 313.60000610 0.525194 0.850895 0.012214 0.000000
82.00499725 141.75199890 308.79998779 -0.745908 -0.653230 0.130048 0.000000
126.13200378 108.55899811 336.00000000 -0.416557 -0.907259 0.057968 0.000000
94.50099945 133.55099487 252.39999390 -0.150350 -0.332426 -0.931068 0.000000
120.27400208 201.49800110 244.39999390 0.948406 0.129389 -0.289457 0.000000
148.38999939 197.20199585 258.39999390 0.477082 0.513653 -0.713129 0.000000
74.58550262 150.73300171 261.60000610 -0.672247 -0.588841 0.448721 0.000000
164.00999451 198.37399292 346.79998779 0.595421 0.478014 0.645738 0.000000
176.50599670 207.74600220 313.20001221 0.936812 0.184041 -0.297510 0.000000
176.89599609 201.49800110 303.20001221 0.890698 0.200371 -0.408054 0.000000
164.79100037 155.02900696 270.39999390 -0.106211 -0.914516 -0.390359 0.000000
156.19999695 142.92300415 365.20001221 0.342861 -0.929443 0.136318 0.000000
189.78300476 142.53300476 304.79998779 -0.605428 -0.046571 0.794536 0.000000
103.48300171 208.52699280 241.60000610 0.632866 0.322098 -0.704084 0.000000
