128.17399597 170.65400696 101.25000000 -0.530727 0.111351 0.840197 0.000000
68.84770203 130.37100220 151.25000000 0.776298 0.408492 -0.480100 0.000000
53.46680069 209.47300720 138.75000000 0.757393 -0.455093 -0.468237 0.000000
272.46099854 103.27100372 141.25000000 -0.390221 0.352909 -0.850402 0.000000
185.66900635 117.18800354 120.00000000 0.444502 -0.157820 0.881765 0.000000
194.82400513 142.45599365 132.50000000 -0.042513 -0.333665 0.941733 0.000000
265.86898804 141.35699463 143.75000000 -0.109721 -0.589568 0.800232 0.000000
208.74000549 94.11620331 100.00000000 0.494420 -0.776482 0.390673 0.000000
257.81298828 135.49800110 158.75000000 -0.632633 0.478251 -0.609140 0.000000
246.09399414 97.41210175 106.25000000 -0.141670 -0.788879 0.597997 0.000000
224.12100220 108.39800262 111.25000000 -0.017367 -0.468922 0.883069 0.000000
174.68299866 120.11699677 147.50000000 -0.947115 0.320697 -0.011231 0.000000
58.95999908 191.89500427 62.50000000 0.913701 -0.260020 0.312314 0.000000
151.61099243 197.38800049 160.00000000 -0.597478 -0.739197 -0.310817 0.000000
103.27100372 190.79600525 95.00000000 -0.381472 -0.551743 0.741660 0.000000
69.58010101 147.94900513 36.25000000 -0.049660 0.787461 0.614361 0.000000
73.24220276 169.92199707 166.25000000 0.539479 -0.048790 -0.840584 0.000000
90.82029724 202.88099670 93.75000000 -0.650720 -0.485938 0.583462 0.000000
63.35449982 148.68200684 37.50000000 0.869337 0.445852 0.213234 0.000000
123.77899933 220.45899963 156.25000000 -0.274641 -0.525741 -0.805090 0.000000
251.22099304 135.49800110 136.25000000 -0.144586 -0.585796 0.797457 0.000000
66.65039825 232.91000366 128.75000000 0.704008 -0.595192 -0.387452 0.000000
187.50000000 129.63900757 131.25000000 0.680892 -0.463408 0.567132 0.000000
57.86130142 233.64300537 106.25000000 0.873725 -0.486001 0.020194 0.000000
145.02000427 147.21699524 136.25000000 -0.544248 -0.451044 0.707356 0.000000
176.88000488 169.18899536 177.50000000 0.128743 -0.318471 -0.939149 0.000000
129.63900757 132.56799316 186.25000000 0.126852 0.255011 -0.958581 0.000000
234.37500000 150.14700317 138.75000000 -0.453279 -0.587089 0.670720 0.000000
165.52699280 153.07600403 191.25000000 -0.273738 -0.059289 -0.959975 0.000000
195.55700684 166.62600708 132.50000000 -0.292780 -0.076097 0.953147 0.000000
121.58200073 124.51200104 183.75000000 0.065038 0.159639 -0.985031 0.000000
110.59600067 93.38379669 112.50000000 0.363721 0.928621 0.073277 0.000000
134.03300476 194.82400513 173.75000000 -0.109438 -0.473285 -0.874085 0.000000
139.89300537 186.03500366 176.25000000 -0.163602 -0.568854 -0.806002 0.000000
50.53710175 185.30299377 83.75000000 0.959249 -0.001213 0.282560 0.000000
184.93699646 168.45700073 127.50000000 -0.379127 -0.251265 0.890578 0.000000
57.12889862 184.57000732 63.75000000 0.962415 -0.161057 0.218671 0.000000
62.98830032 150.87899780 36.25000000 0.850014 0.285395 0.442748 0.000000
73.24220276 237.30499268 136.25000000 0.531610 -0.419692 -0.735696 0.000000
223.02200317 162.59800720 155.00000000 0.156517 -0.986640 0.045216 0.000000
251.95300293 101.07399750 151.25000000 -0.443119 0.291810 -0.847639 0.000000
95.94730377 137.32899475 177.50000000 0.474401 -0.053628 -0.878674 0.000000
280.51800537 148.68200684 158.75000000 -0.325338 0.496736 -0.804617 0.000000
134.03300476 117.91999817 181.25000000 0.129807 0.514854 -0.847394 0.000000
59.69240189 154.54100037 75.00000000 0.999999 0.000978 0.000978 0.000000
63.72069931 228.51600647 86.25000000 0.677172 -0.627744 0.383896 0.000000
287.84201050 153.80900574 148.75000000 0.096892 0.568335 0.817072 0.000000
66.65039825 140.25900269 155.00000000 0.411666 -0.795887 -0.443953 0.000000
58.22750092 164.06300354 60.00000000 0.980527 0.196105 0.010443 0.000000
83.12989807 198.48599243 77.50000000 -0.915641 -0.229271 0.330207 0.000000
119.75099945 160.39999390 95.00000000 -0.752743 -0.070795 0.654496 0.000000
82.03130341 109.49700165 137.50000000 0.565023 0.824741 -0.023485 0.000000
88.62310028 255.24899292 120.00000000 0.109887 -0.993423 -0.032189 0.000000
156.37199402 191.89500427 155.00000000 -0.898824 -0.438291 0.003925 0.000000
92.28520203 174.31599426 176.25000000 0.512769 -0.107724 -0.851742 0.000000
106.20099640 186.76800537 176.25000000 0.200909 -0.250111 -0.947143 0.000000
147.21699524 201.05000305 160.00000000 -0.589026 -0.713722 -0.379011 0.000000
97.41210175 120.84999847 171.25000000 0.475334 0.592907 -0.650015 0.000000
183.10499573 145.02000427 143.75000000 0.536724 0.743536 0.398850 0.000000
199.21899414 134.76600647 126.25000000 0.352685 -0.520171 0.777840 0.000000
202.14799500 168.09100342 145.00000000 -0.692396 -0.692396 0.202917 0.000000
187.50000000 123.04699707 151.25000000 -0.322477 -0.659538 0.678984 0.000000
60.79100037 196.28900146 153.75000000 0.691132 -0.123896 -0.712030 0.000000
145.02000427 160.39999390 188.75000000 0.025565 -0.118931 -0.992573 0.000000
277.58801270 97.04589844 130.00000000 -0.666618 0.692196 0.276559 0.000000
65.18560028 139.89300537 153.75000000 0.821728 0.211911 -0.529016 0.000000
59.69240189 156.00599670 70.00000000 0.989154 0.140654 0.042311 0.000000
177.24600220 125.97699738 178.75000000 0.032876 0.398462 -0.916595 0.000000
64.08689880 208.00799561 65.00000000 0.739766 -0.420134 0.525580 0.000000
150.14700317 105.46900177 166.25000000 0.062763 0.500708 -0.863338 0.000000
153.80900574 108.39800262 121.25000000 -0.044962 -0.224810 0.973365 0.000000
90.08789825 165.52699280 66.25000000 -0.720022 -0.282581 0.633811 0.000000
180.17599487 129.63900757 151.25000000 -0.517863 -0.142302 0.843545 0.000000
105.46900177 152.34399414 183.75000000 0.155586 -0.057321 -0.986158 0.000000
49.43849945 197.02200317 90.00000000 0.909420 -0.196825 0.366354 0.000000
224.12100220 149.41400146 131.25000000 -0.392684 -0.516518 0.760926 0.000000
179.44299316 186.03500366 136.25000000 0.904808 0.098379 0.414300 0.000000
245.36099243 143.55499268 141.25000000 -0.417660 -0.463164 0.781690 0.000000
283.81399536 115.72299957 137.50000000 -0.774318 0.269671 -0.572459 0.000000
66.65039825 157.83700562 37.50000000 -0.577877 0.221545 0.785478 0.000000
60.79100037 158.93600464 36.25000000 0.520400 -0.129736 0.844010 0.000000
262.20700073 122.31400299 151.25000000 -0.080237 0.082497 -0.993356 0.000000
261.47500610 115.72299957 151.25000000 -0.193773 0.029359 -0.980607 0.000000
147.21699524 136.22999573 131.25000000 -0.176310 -0.812231 0.556054 0.000000
98.51080322 204.34599304 102.50000000 -0.589843 -0.346106 0.729586 0.000000
79.83399963 113.89199829 150.00000000 0.589070 0.656200 -0.471591 0.000000
120.84999847 97.41210175 116.25000000 -0.708787 -0.446519 0.546115 0.000000
116.45500183 133.30099487 103.75000000 -0.928009 0.353983 0.116172 0.000000
115.72299957 200.31700134 110.00000000 -0.089254 -0.677455 0.730129 0.000000
165.52699280 104.73600006 121.25000000 -0.289117 -0.174018 0.941344 0.000000
156.73800659 118.65200043 123.75000000 -0.216882 -0.340404 0.914925 0.000000
45.77640152 196.28900146 130.00000000 0.984973 -0.074853 -0.155647 0.000000
237.30499268 123.77899933 163.75000000 -0.568582 0.345037 -0.746769 0.000000
257.07998657 127.44100189 153.75000000 -0.508211 0.359781 -0.782483 0.000000
166.99200439 128.90600586 181.25000000 -0.172688 0.548098 -0.818393 0.000000
113.15899658 116.45500183 95.00000000 -0.988187 -0.107181 0.109537 0.000000
185.30299377 126.70899963 123.75000000 -0.230903 -0.689567 0.686426 0.000000
132.56799316 198.11999512 120.00000000 -0.499522 -0.450064 0.740216 0.000000
87.89060211 227.05099487 151.25000000 0.216130 -0.642170 -0.735463 0.000000
147.21699524 166.99200439 118.75000000 -0.004047 0.851234 0.524770 0.000000
65.91799927 133.66700745 105.00000000 0.705724 0.708486 -0.001381 0.000000
284.91198730 132.93499756 137.50000000 -0.166304 -0.543860 0.822532 0.000000
206.54299927 147.94900513 176.25000000 -0.000978 -0.000978 -0.999999 0.000000
189.69700623 144.28700256 181.25000000 -0.324635 -0.114498 -0.938883 0.000000
77.27050018 244.62899780 135.00000000 0.563411 -0.607402 -0.560028 0.000000
113.52500153 161.86500549 183.75000000 0.107132 -0.173628 -0.978967 0.000000
76.90429688 119.01899719 112.50000000 0.742672 0.609086 0.278303 0.000000
169.92199707 137.69500732 186.25000000 -0.293444 0.311139 -0.903926 0.000000
279.78500366 146.48399353 156.25000000 -0.316141 0.516311 -0.795913 0.000000
235.83999634 153.44200134 142.50000000 -0.458699 -0.548770 0.698890 0.000000
58.59379959 228.14900208 95.00000000 0.780406 -0.516516 0.352389 0.000000
85.69339752 153.80900574 173.75000000 0.374681 -0.008951 -0.927111 0.000000
262.93899536 158.20300293 163.75000000 -0.668475 -0.312386 -0.674949 0.000000
186.76800537 129.63900757 156.25000000 -0.609357 -0.202090 0.766710 0.000000
225.58599854 154.54100037 138.75000000 -0.467951 -0.732518 0.494408 0.000000
61.88970184 153.07600403 155.00000000 0.838295 0.263994 -0.477041 0.000000
82.76370239 229.24800110 93.75000000 -0.879486 0.076659 0.469710 0.000000
142.08999634 105.46900177 166.25000000 -0.006889 0.624176 -0.781253 0.000000
62.98830032 221.92399597 78.75000000 0.701851 -0.488462 0.518469 0.000000
272.46099854 146.48399353 163.75000000 -0.176042 0.385002 -0.905971 0.000000
272.46099854 93.75000000 131.25000000 -0.500627 0.860051 -0.098414 0.000000
82.03130341 227.05099487 91.25000000 -0.838220 0.093136 0.537320 0.000000
153.80900574 184.57000732 138.75000000 -0.813549 -0.203006 -0.544910 0.000000
147.94900513 134.03300476 188.75000000 -0.013877 0.334305 -0.942363 0.000000
94.48239899 250.48800659 108.75000000 -0.050833 -0.254164 0.965824 0.000000
257.81298828 161.86500549 156.25000000 -0.374289 -0.477098 0.795164 0.000000
56.76269913 224.12100220 127.50000000 0.713922 -0.620028 -0.325393 0.000000
158.56900024 172.85200500 180.00000000 -0.250959 0.645548 -0.721309 0.000000
225.58599854 158.56900024 145.00000000 -0.470026 -0.747095 0.470026 0.000000
245.36099243 130.00500488 162.50000000 -0.071005 0.477546 -0.875733 0.000000
168.45700073 121.21600342 177.50000000 -0.090985 0.376163 -0.922075 0.000000
136.96299744 170.65400696 186.25000000 0.110111 -0.257789 -0.959907 0.000000
77.63670349 173.58399963 171.25000000 0.562521 -0.078724 -0.823027 0.000000
50.53710175 183.83799744 141.25000000 0.895015 0.107850 -0.432801 0.000000
136.96299744 152.34399414 136.25000000 -0.392903 -0.177022 0.902381 0.000000
245.36099243 156.73800659 148.75000000 -0.220508 -0.683418 0.695929 0.000000
280.51800537 131.10400391 136.25000000 -0.011828 -0.429750 0.902870 0.000000
103.27100372 206.54299927 106.25000000 -0.580659 -0.364752 0.727868 0.000000
163.33000183 157.47099304 188.75000000 -0.204036 -0.305351 -0.930124 0.000000
159.66799927 114.98999786 173.75000000 -0.034963 0.597169 -0.801353 0.000000
107.66600037 227.05099487 113.75000000 -0.628377 -0.082719 0.773499 0.000000
186.03500366 160.39999390 178.75000000 -0.000978 -0.000978 -0.999999 0.000000
174.31599426 103.63800049 170.00000000 0.225087 0.512953 -0.828381 0.000000
54.56539917 207.27499390 82.50000000 0.867916 -0.243016 0.433203 0.000000
112.06099701 204.71200562 170.00000000 -0.064912 -0.470957 -0.879765 0.000000
131.83599854 197.02200317 118.75000000 -0.464727 -0.645920 0.605654 0.000000
51.63570023 216.06399536 130.00000000 0.611489 0.700016 0.368861 0.000000
125.24400330 152.34399414 188.75000000 0.700851 -0.186380 -0.688528 0.000000
109.13099670 116.45500183 83.75000000 -0.670100 0.086135 0.737256 0.000000
255.61500549 90.08789825 138.75000000 -0.608912 0.725203 -0.321415 0.000000
61.52339935 172.85200500 36.25000000 0.685875 0.012521 0.727612 0.000000
164.79499817 171.02099609 150.00000000 -0.308006 -0.691803 -0.653101 0.000000
200.31700134 132.56799316 125.00000000 0.351298 -0.642141 0.681355 0.000000
140.62500000 98.14450073 118.75000000 0.361931 -0.500270 0.786598 0.000000
193.35899353 125.97699738 143.75000000 0.625429 0.303871 -0.718680 0.000000
138.42799377 155.27299500 136.25000000 -0.385541 -0.192048 0.902483 0.000000
57.86130142 142.82200623 141.25000000 0.866825 0.452062 -0.210366 0.000000
280.51800537 126.70899963 136.25000000 0.068508 -0.385523 0.920151 0.000000
129.63900757 139.16000366 188.75000000 0.144416 0.164508 -0.975747 0.000000
68.84770203 173.58399963 36.25000000 0.813504 -0.049346 -0.579463 0.000000
70.31250000 121.58200073 123.75000000 0.865594 0.432039 0.253160 0.000000
177.61199951 181.64100647 145.00000000 0.967190 -0.215074 0.135226 0.000000
131.47000122 232.91000366 132.50000000 -0.824922 -0.472955 0.309542 0.000000
153.07600403 197.38800049 155.00000000 -0.692396 -0.692396 -0.202917 0.000000
131.10400391 208.00799561 163.75000000 -0.365476 -0.621145 -0.693257 0.000000
278.68701172 149.41400146 147.50000000 0.058215 -0.586414 0.807917 0.000000
164.06300354 86.42579651 151.25000000 0.209574 0.875454 -0.435498 0.000000
202.88099670 83.86229706 137.50000000 -0.018088 0.996978 -0.075545 0.000000
160.39999390 142.82200623 188.75000000 -0.000978 -0.000978 -0.999999 0.000000
145.02000427 147.94900513 138.75000000 -0.495211 -0.354180 0.793299 0.000000
186.03500366 152.34399414 178.75000000 -0.394508 -0.173584 -0.902348 0.000000
134.03300476 93.75000000 153.75000000 0.147256 0.810650 -0.566711 0.000000
90.08789825 204.71200562 95.00000000 -0.627328 -0.417664 0.657280 0.000000
62.98830032 175.78100586 36.25000000 0.386644 0.051818 0.920772 0.000000
178.71099854 189.69700623 156.25000000 -0.411521 -0.834079 -0.367373 0.000000
46.50880051 202.88099670 127.50000000 0.904427 -0.155248 -0.397378 0.000000
238.03700256 86.05960083 122.50000000 -0.216898 0.971655 -0.094031 0.000000
188.23199463 126.70899963 156.25000000 -0.257096 -0.610405 0.749205 0.000000
273.92599487 120.11699677 133.75000000 0.040210 -0.235165 0.971123 0.000000
298.82800293 156.37199402 150.00000000 -0.973948 -0.052415 0.220631 0.000000
118.65200043 117.18800354 121.25000000 -0.703232 -0.350800 0.618388 0.000000
83.49610138 159.66799927 61.25000000 -0.698214 -0.092217 0.709924 0.000000
49.07229996 197.02200317 91.25000000 0.902932 -0.220263 0.369050 0.000000
54.93159866 180.17599487 151.25000000 0.563126 -0.001357 -0.826370 0.000000
147.94900513 205.07800293 136.25000000 -0.793458 -0.151492 0.589469 0.000000
251.58700562 106.93399811 152.50000000 -0.444102 0.206455 -0.871866 0.000000
143.55499268 180.90800476 111.25000000 -0.381845 0.571948 0.725996 0.000000
112.06099701 199.21899414 108.75000000 -0.111135 -0.724602 0.680148 0.000000
111.69400024 118.65200043 90.00000000 -0.967773 -0.097665 0.232113 0.000000
74.70700073 246.09399414 131.25000000 0.560340 -0.657937 -0.503128 0.000000
199.95100403 167.35800171 137.50000000 -0.001314 -0.889912 0.456129 0.000000
47.60739899 199.21899414 96.25000000 0.967245 -0.020580 0.253009 0.000000
162.23100281 119.38500214 125.00000000 -0.135672 -0.223535 0.965207 0.000000
64.45310211 203.61300659 61.25000000 0.748433 -0.426031 0.508277 0.000000
152.34399414 184.57000732 128.75000000 -0.979212 -0.089242 -0.182151 0.000000
192.26100159 174.31599426 167.50000000 -0.688093 -0.540764 -0.483841 0.000000
150.87899780 122.31400299 181.25000000 -0.060616 0.554005 -0.830303 0.000000
153.07600403 181.27400208 122.50000000 -0.857869 -0.480228 0.182873 0.000000
172.85200500 84.22850037 143.75000000 0.063121 0.990422 -0.122799 0.000000
191.89500427 114.98999786 146.25000000 -0.492923 0.867154 0.071216 0.000000
69.58010101 180.17599487 36.25000000 0.741434 -0.497042 -0.450805 0.000000
90.82029724 186.03500366 173.75000000 0.329479 -0.162654 -0.930047 0.000000
114.98999786 243.89700317 118.75000000 -0.942627 -0.096782 0.319512 0.000000
50.17089844 166.99200439 92.50000000 0.909843 0.336278 0.243110 0.000000
233.64300537 160.39999390 171.25000000 -0.198034 -0.521539 -0.829927 0.000000
108.76499939 167.72500610 85.00000000 -0.771720 -0.148928 0.618279 0.000000
58.22750092 140.62500000 125.00000000 0.801968 0.583384 0.128492 0.000000
239.86799622 119.38500214 160.00000000 -0.728948 0.130223 -0.672069 0.000000
151.97799683 180.90800476 175.00000000 -0.843541 -0.292531 -0.450404 0.000000
205.07800293 95.21489716 171.25000000 -0.164622 0.358791 -0.918787 0.000000
175.78100586 128.90600586 141.25000000 -0.527947 -0.445196 -0.723237 0.000000
171.38699341 82.76370239 121.25000000 -0.033741 0.995910 -0.083809 0.000000
151.61099243 139.16000366 188.75000000 -0.218728 0.327377 -0.919229 0.000000
265.86898804 134.03300476 151.25000000 -0.349763 0.444721 -0.824554 0.000000
179.44299316 169.18899536 178.75000000 0.008611 -0.293988 -0.955770 0.000000
88.62310028 238.77000427 98.75000000 -0.707592 0.268726 0.653529 0.000000
264.40399170 116.45500183 128.75000000 -0.137621 -0.362818 0.921642 0.000000
79.83399963 194.09199524 63.75000000 -0.896232 -0.307662 0.319552 0.000000
256.34799194 164.06300354 166.25000000 -0.000978 -0.000978 -0.999999 0.000000
183.10499573 176.51400757 171.25000000 -0.296638 -0.623741 -0.723155 0.000000
175.78100586 143.55499268 183.75000000 -0.223939 0.413769 -0.882410 0.000000
186.03500366 121.58200073 121.25000000 0.420122 -0.338909 0.841806 0.000000
56.39649963 190.42999268 68.75000000 0.928714 -0.107421 0.354896 0.000000
173.58399963 147.94900513 146.25000000 0.886561 0.443995 -0.129915 0.000000
235.83999634 144.28700256 133.75000000 -0.366816 -0.565712 0.738523 0.000000
269.53100586 100.34200287 141.25000000 -0.263220 0.521767 -0.811464 0.000000
95.21489716 169.92199707 73.75000000 -0.564617 -0.157254 0.810234 0.000000
116.82099915 102.53900146 112.50000000 -0.857397 -0.234385 0.458186 0.000000
105.46900177 112.06099701 78.75000000 -0.385541 -0.192048 0.902483 0.000000
110.59600067 147.94900513 186.25000000 0.592701 0.097570 -0.799491 0.000000
104.73600006 189.33099365 95.00000000 -0.361222 -0.583512 0.727347 0.000000
131.10400391 92.28520203 151.25000000 0.174021 0.800499 -0.573514 0.000000
150.87899780 92.28520203 156.25000000 0.322284 0.720685 -0.613797 0.000000
234.37500000 145.02000427 133.75000000 -0.426572 -0.525391 0.736207 0.000000
75.80570221 144.28700256 165.00000000 0.698444 0.156051 -0.698444 0.000000
88.62310028 247.55900574 101.25000000 -0.529500 -0.670700 0.519414 0.000000
132.56799316 85.32720184 125.00000000 0.314048 0.939425 -0.137311 0.000000
61.52339935 190.42999268 53.75000000 0.879983 -0.294334 0.372823 0.000000
220.45899963 85.32720184 140.00000000 -0.103988 0.979933 -0.170051 0.000000
53.46680069 221.55799866 112.50000000 0.878743 -0.387370 -0.278846 0.000000
210.20500183 109.49700165 175.00000000 -0.273758 0.212614 -0.938004 0.000000
236.57200623 135.49800110 128.75000000 -0.435164 -0.052870 0.898797 0.000000
157.47099304 142.82200623 188.75000000 -0.175658 0.245384 -0.953379 0.000000
66.28420258 136.96299744 90.00000000 0.761563 0.544897 0.350869 0.000000
73.24220276 135.86399841 40.00000000 0.951861 0.301060 -0.057650 0.000000
244.62899780 136.96299744 136.25000000 -0.467283 -0.648167 0.601271 0.000000
220.45899963 83.86229706 125.00000000 -0.128603 0.987526 -0.090848 0.000000
161.86500549 123.04699707 123.75000000 -0.613694 0.085598 0.784890 0.000000
200.68400574 134.03300476 126.25000000 0.352685 -0.520171 0.777840 0.000000
49.43849945 158.93600464 127.50000000 0.963446 0.262985 0.051101 0.000000
161.86500549 92.28520203 158.75000000 0.321133 0.420421 -0.848599 0.000000
125.97699738 168.45700073 98.75000000 -0.644552 0.182189 0.742536 0.000000
238.77000427 155.27299500 146.25000000 -0.293027 -0.622883 0.725363 0.000000
56.39649963 224.85400391 96.25000000 0.738484 -0.527958 0.419406 0.000000
96.67970276 112.79299927 163.75000000 0.384881 0.501807 -0.774633 0.000000
263.67199707 135.86399841 155.00000000 -0.411331 0.573220 -0.708679 0.000000
93.01760101 120.11699677 66.25000000 -0.759163 0.076639 0.646373 0.000000
273.55999756 95.21489716 132.50000000 -0.498234 0.800676 -0.332687 0.000000
240.23399353 162.59800720 168.75000000 -0.323455 -0.410123 -0.852746 0.000000
48.70610046 167.72500610 97.50000000 0.932748 0.312770 0.179321 0.000000
73.24220276 137.32899475 40.00000000 0.972510 0.232788 -0.005908 0.000000
116.45500183 216.06399536 161.25000000 -0.136164 -0.629944 -0.764611 0.000000
63.72069931 158.20300293 158.75000000 0.739881 0.152818 -0.655151 0.000000
246.09399414 145.75199890 166.25000000 -0.437577 0.236081 -0.867636 0.000000
243.89700317 159.66799927 168.75000000 -0.566697 -0.392581 -0.724386 0.000000
270.99600220 109.13099670 143.75000000 -0.258731 0.278744 -0.924857 0.000000
106.93399811 236.57200623 148.75000000 0.009600 -0.585614 -0.810533 0.000000
86.05960083 156.73800659 175.00000000 0.322895 -0.037012 -0.945711 0.000000
125.97699738 143.55499268 121.25000000 -0.714640 0.429447 0.552146 0.000000
253.41799927 90.08789825 141.25000000 -0.366230 0.807626 -0.462186 0.000000
295.16598511 160.39999390 156.25000000 -0.775190 -0.391658 -0.495666 0.000000
155.27299500 122.68099976 182.50000000 -0.038078 0.624758 -0.779890 0.000000
200.31700134 100.34200287 115.00000000 0.593928 -0.380048 0.709094 0.000000
259.64401245 135.49800110 157.50000000 -0.537959 0.504441 -0.675381 0.000000
79.10160065 141.72399902 167.50000000 0.674710 0.172885 -0.717549 0.000000
142.08999634 162.96400452 135.00000000 0.001213 0.959249 0.282560 0.000000
134.76600647 178.71099854 181.25000000 0.023324 -0.544695 -0.838310 0.000000
123.77899933 208.74000549 121.25000000 -0.376118 -0.495572 0.782907 0.000000
54.19919968 153.07600403 141.25000000 0.879478 0.276063 -0.387695 0.000000
72.14360046 139.89300537 40.00000000 0.934021 0.312265 -0.173481 0.000000
238.77000427 166.99200439 168.75000000 -0.000978 -0.000978 -0.999999 0.000000
112.79299927 155.27299500 86.25000000 -0.762071 0.246691 0.598658 0.000000
142.82200623 181.27400208 180.00000000 0.042546 -0.866018 -0.498200 0.000000
106.20099640 242.79800415 145.00000000 0.041213 -0.689247 -0.723354 0.000000
194.09199524 106.93399811 173.75000000 0.239317 0.471013 -0.849043 0.000000
222.65600586 83.86229706 117.50000000 -0.133892 0.989885 -0.046919 0.000000
76.90429688 122.31400299 106.25000000 0.797773 0.572017 0.190672 0.000000
246.09399414 108.03199768 120.00000000 -0.043067 -0.161792 0.985885 0.000000
232.17799377 151.61099243 138.75000000 -0.388594 -0.646555 0.656476 0.000000
45.77640152 193.35899353 130.00000000 0.984973 -0.074853 -0.155647 0.000000
83.49610138 164.06300354 61.25000000 -0.800158 0.004117 0.599775 0.000000
249.75599670 155.27299500 166.25000000 -0.000978 -0.000978 -0.999999 0.000000
71.77739716 140.99099731 40.00000000 0.934021 0.312265 -0.173481 0.000000
269.53100586 104.73600006 143.75000000 -0.360822 0.342397 -0.867509 0.000000
82.76370239 111.32800293 116.25000000 0.757628 0.585367 0.288696 0.000000
229.97999573 125.97699738 171.25000000 -0.395245 0.100533 -0.913058 0.000000
84.96099854 118.28600311 160.00000000 0.513667 0.584401 -0.628189 0.000000
71.04489899 142.08999634 38.75000000 0.821128 0.557665 -0.121486 0.000000
274.65798950 134.03300476 138.75000000 0.101341 -0.503848 0.857827 0.000000
200.68400574 152.34399414 131.25000000 -0.149007 -0.064530 0.986728 0.000000
249.38999939 96.67970276 150.00000000 -0.420553 0.499100 -0.757650 0.000000
95.21489716 125.97699738 68.75000000 -0.775034 -0.061602 0.628909 0.000000
77.63670349 119.38500214 111.25000000 0.742782 0.605407 0.285931 0.000000
275.39099121 126.70899963 136.25000000 -0.142561 -0.643773 0.751819 0.000000
275.39099121 109.86299896 143.75000000 -0.181608 0.517808 -0.835998 0.000000
208.74000549 104.73600006 111.25000000 0.339889 -0.321761 0.883711 0.000000
75.43949890 204.34599304 58.75000000 -0.857811 -0.350853 0.375582 0.000000
123.77899933 233.64300537 148.75000000 -0.139599 -0.836126 -0.530477 0.000000
109.86299896 178.71099854 91.25000000 -0.579337 -0.525288 0.623251 0.000000
179.44299316 159.66799927 178.75000000 -0.095837 -0.166199 -0.981424 0.000000
62.25590134 233.27600098 95.00000000 0.754491 -0.522088 0.397703 0.000000
138.42799377 219.72700500 133.75000000 -0.485235 -0.288645 0.825367 0.000000
202.88099670 112.79299927 176.25000000 -0.000978 -0.000978 -0.999999 0.000000
100.34200287 158.20300293 181.25000000 0.489521 -0.183012 -0.852570 0.000000
103.27100372 136.96299744 76.25000000 -0.785791 0.100968 0.610195 0.000000
254.14999390 125.61000061 155.00000000 -0.418272 0.550532 -0.722470 0.000000
72.50980377 244.26300049 130.00000000 0.675085 -0.494169 -0.547774 0.000000
56.39649963 164.06300354 151.25000000 0.821908 0.087805 -0.562813 0.000000
59.69240189 152.34399414 80.00000000 0.887197 0.422405 0.185624 0.000000
125.24400330 121.58200073 183.75000000 0.012694 0.188104 -0.982067 0.000000
191.16200256 130.37100220 178.75000000 -0.000978 -0.000978 -0.999999 0.000000
65.91799927 145.75199890 38.75000000 0.700848 0.672499 0.237816 0.000000
183.83799744 104.73600006 121.25000000 0.349950 -0.340781 0.872584 0.000000
109.13099670 241.69900513 146.25000000 -0.031816 -0.546413 -0.836911 0.000000
91.18650055 151.61099243 177.50000000 0.400093 -0.094867 -0.911551 0.000000
181.27400208 188.96499634 145.00000000 0.674976 -0.674976 -0.298020 0.000000
58.95999908 160.39999390 62.50000000 0.975820 0.216185 0.032249 0.000000
90.82029724 177.24600220 176.25000000 0.467513 -0.073526 -0.880923 0.000000
191.16200256 93.75000000 168.75000000 0.343917 0.425578 -0.837021 0.000000
268.79901123 144.28700256 163.75000000 0.003983 0.479313 -0.877635 0.000000
270.99600220 143.55499268 161.25000000 -0.212253 0.823052 -0.526815 0.000000
155.27299500 191.89500427 138.75000000 -0.878302 -0.294783 0.376415 0.000000
97.77829742 104.73600006 72.50000000 0.017567 0.504045 0.863499 0.000000
123.04699707 121.21600342 182.50000000 0.012694 0.188104 -0.982067 0.000000
85.69339752 109.86299896 111.25000000 0.692396 0.692396 0.202917 0.000000
183.10499573 113.89199829 145.00000000 0.723761 0.455456 -0.518392 0.000000
180.17599487 123.04699707 178.75000000 -0.024675 0.383115 -0.923371 0.000000
108.39800262 188.96499634 96.25000000 -0.308070 -0.659689 0.685495 0.000000
106.20099640 181.27400208 90.00000000 -0.509056 -0.492365 0.706002 0.000000
166.99200439 164.06300354 123.75000000 0.203609 0.444373 0.872397 0.000000
218.26199341 88.62310028 161.25000000 -0.242503 0.919790 -0.308510 0.000000
233.64300537 134.03300476 171.25000000 -0.419001 -0.075065 -0.904878 0.000000
172.85200500 83.12989807 115.00000000 -0.109783 0.978179 0.176393 0.000000
213.13499451 98.87699890 103.75000000 0.303822 -0.781029 0.545607 0.000000
71.77739716 136.96299744 158.75000000 0.742529 0.271890 -0.612149 0.000000
230.71299744 132.56799316 126.25000000 -0.411780 -0.174826 0.894356 0.000000
198.48599243 151.61099243 131.25000000 0.000978 0.000978 0.999999 0.000000
99.60939789 100.34200287 88.75000000 0.495186 0.858226 0.135051 0.000000
133.30099487 213.50100708 127.50000000 -0.572021 -0.263161 0.776877 0.000000
156.00599670 132.93499756 127.50000000 0.244167 -0.660037 0.710446 0.000000
175.78100586 93.01760101 118.75000000 0.031525 -0.519471 0.853906 0.000000
170.65400696 109.49700165 172.50000000 0.131484 0.361236 -0.923158 0.000000
76.53810120 125.97699738 75.00000000 0.707106 0.707106 -0.001384 0.000000
85.69339752 177.97900391 68.75000000 -0.735447 -0.279183 0.617393 0.000000
211.66999817 156.00599670 133.75000000 -0.137995 -0.864283 0.483708 0.000000
250.85499573 95.21489716 147.50000000 -0.423964 0.539440 -0.727502 0.000000
121.58200073 158.20300293 186.25000000 0.138696 -0.333695 -0.932422 0.000000
117.91999817 232.17799377 121.25000000 -0.370345 0.246405 0.895616 0.000000
119.75099945 161.13299561 95.00000000 -0.750756 -0.155589 0.641995 0.000000
142.08999634 150.51300049 137.50000000 -0.381421 -0.359625 0.851580 0.000000
181.64100647 119.38500214 148.75000000 0.337288 -0.470302 0.815508 0.000000
85.69339752 116.08899689 75.00000000 0.753874 0.639055 0.152588 0.000000
187.50000000 171.38699341 176.25000000 -0.463892 -0.671554 -0.577771 0.000000
161.86500549 171.75300598 125.00000000 -0.516839 -0.827856 0.218017 0.000000
157.10499573 180.17599487 137.50000000 -0.745326 -0.532376 -0.401329 0.000000
84.96099854 173.58399963 173.75000000 0.301778 -0.298834 -0.905333 0.000000
160.03399658 161.13299561 190.00000000 -0.538373 -0.354065 -0.764717 0.000000
73.60839844 174.31599426 167.50000000 0.605905 0.006870 -0.795508 0.000000
242.43200684 155.27299500 171.25000000 -0.198836 -0.167646 -0.965588 0.000000
273.92599487 124.51200104 146.25000000 -0.360117 0.037702 -0.932145 0.000000
112.06099701 218.26199341 161.25000000 -0.097514 -0.601092 -0.793208 0.000000
102.17299652 199.95100403 102.50000000 -0.563460 -0.433814 0.703078 0.000000
281.25000000 136.22999573 148.75000000 -0.206529 0.725181 -0.656855 0.000000
97.77829742 149.41400146 70.00000000 -0.719757 -0.067793 0.690909 0.000000
202.88099670 159.30200195 175.00000000 -0.176235 -0.382560 -0.906967 0.000000
213.86700439 93.01760101 168.75000000 -0.506322 0.576971 -0.640892 0.000000
183.83799744 186.76800537 156.25000000 -0.514515 -0.834389 -0.197658 0.000000
166.25999451 139.16000366 146.25000000 -0.252562 -0.519069 0.816566 0.000000
153.80900574 143.55499268 141.25000000 -0.636623 -0.123169 0.761276 0.000000
74.34079742 125.24400330 100.00000000 0.842234 0.535711 -0.060461 0.000000
145.02000427 102.90499878 165.00000000 0.037860 0.590332 -0.806272 0.000000
99.24320221 133.30099487 72.50000000 -0.761640 0.012486 0.647880 0.000000
135.13200378 204.34599304 165.00000000 -0.424301 -0.597349 -0.680546 0.000000
211.66999817 128.90600586 121.25000000 0.142375 -0.444383 0.884451 0.000000
90.82029724 166.99200439 176.25000000 0.415374 0.033177 -0.909045 0.000000
150.51300049 201.41600037 152.50000000 -0.699700 -0.617768 -0.358863 0.000000
97.41210175 195.92300415 95.00000000 -0.501247 -0.544834 0.672241 0.000000
248.29100037 165.52699280 166.25000000 -0.000978 -0.000978 -0.999999 0.000000
67.38279724 155.27299500 38.75000000 -0.829357 -0.214568 0.515875 0.000000
109.86299896 206.54299927 111.25000000 -0.533369 -0.523273 0.664608 0.000000
104.00399780 176.51400757 178.75000000 0.110357 -0.036786 -0.993211 0.000000
98.87699890 229.24800110 153.75000000 0.232674 -0.361450 -0.902893 0.000000
98.51080322 113.52500153 70.00000000 -0.700058 0.012526 0.713976 0.000000
76.17189789 210.57099915 65.00000000 -0.908482 -0.296976 0.294050 0.000000
119.38500214 137.69500732 186.25000000 0.322310 0.134636 -0.937011 0.000000
256.34799194 161.13299561 156.25000000 -0.269007 -0.424028 0.864775 0.000000
71.04489899 182.37300110 163.75000000 0.497996 -0.119808 -0.858863 0.000000
204.34599304 115.72299957 148.75000000 0.795092 0.391901 -0.462863 0.000000
248.29100037 143.55499268 141.25000000 -0.170984 -0.509977 0.843023 0.000000
211.66999817 153.80900574 131.25000000 -0.441724 -0.668420 0.598411 0.000000
164.06300354 100.34200287 121.25000000 -0.084727 -0.112582 0.990024 0.000000
254.14999390 112.79299927 153.75000000 -0.439591 0.176713 -0.880643 0.000000
57.86130142 209.10600281 77.50000000 0.870330 -0.267910 0.413218 0.000000
44.31150055 188.96499634 117.50000000 0.959249 0.001213 -0.282560 0.000000
60.79100037 157.47099304 38.75000000 -0.026518 -0.607133 0.794158 0.000000
70.67870331 249.02299500 115.00000000 0.157906 -0.786521 -0.597034 0.000000
200.68400574 105.46900177 176.25000000 0.228240 0.225507 -0.947129 0.000000
151.24499512 180.17599487 147.50000000 -0.940612 0.338212 0.029354 0.000000
121.21600342 242.43200684 125.00000000 -0.735945 -0.579984 0.349290 0.000000
131.10400391 100.34200287 121.25000000 -0.001223 -0.297091 0.954848 0.000000
137.69500732 199.95100403 166.25000000 -0.376847 -0.650020 -0.659894 0.000000
212.40199280 93.75000000 171.25000000 -0.201684 0.317335 -0.926619 0.000000
184.57000732 180.90800476 166.25000000 -0.330699 -0.759801 -0.559768 0.000000
139.89300537 160.39999390 188.75000000 0.294271 -0.054778 -0.954151 0.000000
114.25800323 241.69900513 118.75000000 -0.908224 -0.001296 0.418483 0.000000
133.30099487 142.82200623 191.25000000 0.554658 -0.254674 -0.792146 0.000000
154.54100037 123.04699707 183.75000000 0.040111 0.524216 -0.850640 0.000000
96.67970276 194.09199524 173.75000000 0.345043 -0.173226 -0.922463 0.000000
278.32000732 125.97699738 133.75000000 -0.036103 -0.434578 0.899910 0.000000
122.31400299 206.17700195 167.50000000 -0.160249 -0.489569 -0.857113 0.000000
83.12989807 107.66600037 127.50000000 0.613004 0.786087 -0.079330 0.000000
125.24400330 158.20300293 186.25000000 0.281366 -0.346869 -0.894715 0.000000
289.30700684 135.49800110 141.25000000 -0.631551 0.009674 0.775274 0.000000
246.09399414 141.35699463 166.25000000 -0.339427 -0.003757 -0.940625 0.000000
159.66799927 105.46900177 168.75000000 0.169142 0.668950 -0.723807 0.000000
227.78300476 100.34200287 103.75000000 0.052490 -0.787347 0.614272 0.000000
105.10299683 95.21489716 125.00000000 0.398782 0.910113 0.112548 0.000000
124.51200104 139.16000366 188.75000000 0.125757 0.237253 -0.963274 0.000000
224.12100220 123.77899933 118.75000000 -0.252188 -0.460052 0.851325 0.000000
185.30299377 175.04899597 131.25000000 -0.608134 -0.641640 0.467409 0.000000
119.01899719 246.82600403 127.50000000 -0.679959 -0.593509 0.430585 0.000000
193.35899353 171.02099609 170.00000000 -0.669528 -0.528575 -0.521863 0.000000
287.10900879 150.87899780 156.25000000 -0.497146 0.537319 -0.681274 0.000000
82.03130341 154.54100037 173.75000000 0.463655 0.025535 -0.885648 0.000000
95.21489716 186.76800537 86.25000000 -0.479050 -0.539140 0.692704 0.000000
200.68400574 150.87899780 176.25000000 -0.101816 -0.076648 -0.991846 0.000000
198.48599243 148.68200684 131.25000000 0.000978 0.000978 0.999999 0.000000
91.55269623 246.09399414 103.75000000 -0.303532 -0.945360 -0.119006 0.000000
97.41210175 237.30499268 108.75000000 -0.637809 0.098237 0.763904 0.000000
233.64300537 118.65200043 166.25000000 -0.537428 0.264797 -0.800658 0.000000
191.16200256 175.78100586 141.25000000 -0.722666 -0.605741 0.332914 0.000000
120.84999847 88.98930359 137.50000000 0.213088 0.959556 -0.183970 0.000000
76.53810120 120.84999847 110.00000000 0.758315 0.579512 0.298537 0.000000
175.04899597 98.14450073 121.25000000 0.024120 -0.331328 0.943207 0.000000
100.34200287 111.32800293 71.25000000 -0.676192 -0.038275 0.735731 0.000000
91.91899872 109.86299896 72.50000000 0.733494 0.646653 0.209348 0.000000
284.17999268 160.39999390 161.25000000 -0.335103 0.069649 -0.939604 0.000000
233.64300537 144.28700256 171.25000000 -0.717343 -0.494317 -0.490989 0.000000
67.38279724 163.33000183 38.75000000 0.946411 -0.031759 -0.321399 0.000000
58.95999908 160.39999390 55.00000000 0.970853 0.239437 -0.010721 0.000000
228.51600647 105.83499908 110.00000000 -0.132311 -0.611010 0.780487 0.000000
142.08999634 193.35899353 121.25000000 -0.429280 -0.785663 0.445479 0.000000
147.21699524 180.17599487 113.75000000 -0.564885 -0.338284 0.752641 0.000000
62.62210083 131.83599854 135.00000000 0.880653 0.459533 -0.115239 0.000000
219.72700500 92.28520203 166.25000000 -0.600618 0.450045 -0.660847 0.000000
136.96299744 85.32720184 137.50000000 0.114247 0.992029 -0.053165 0.000000
179.44299316 113.15899658 175.00000000 0.050151 0.322765 -0.945149 0.000000
136.96299744 97.77829742 160.00000000 0.035214 0.776106 -0.629618 0.000000
111.32800293 114.25800323 86.25000000 -0.862055 -0.249981 0.440875 0.000000
76.17189789 243.16400146 136.25000000 0.679733 -0.417147 -0.603284 0.000000
177.97900391 187.50000000 161.25000000 -0.277234 -0.812906 -0.512178 0.000000
260.01000977 93.01760101 111.25000000 -0.793906 -0.535058 0.288837 0.000000
59.69240189 166.25999451 40.00000000 0.978984 -0.086776 0.184553 0.000000
101.07399750 169.92199707 178.75000000 -0.000978 -0.000978 -0.999999 0.000000
153.07600403 184.20399475 125.00000000 -0.991085 -0.113430 -0.069892 0.000000
202.14799500 105.46900177 176.25000000 0.228240 0.225507 -0.947129 0.000000
134.03300476 111.69400024 175.00000000 -0.041132 0.721938 -0.690734 0.000000
94.48239899 122.31400299 66.25000000 -0.628565 -0.110404 0.769881 0.000000
229.24800110 167.72500610 168.75000000 0.048466 -0.180859 -0.982314 0.000000
80.56639862 169.92199707 58.75000000 -0.716040 -0.365394 0.594789 0.000000
48.70610046 210.20500183 127.50000000 0.944470 -0.315704 -0.091145 0.000000
183.83799744 176.51400757 171.25000000 -0.290850 -0.682935 -0.670080 0.000000
223.38900757 109.13099670 171.25000000 -0.431373 0.644561 -0.631236 0.000000
138.42799377 154.54100037 136.25000000 -0.385541 -0.192048 0.902483 0.000000
239.50199890 145.02000427 136.25000000 -0.366816 -0.565712 0.738523 0.000000
257.81298828 131.83599854 156.25000000 -0.560237 0.411502 -0.718888 0.000000
132.56799316 201.41600037 168.75000000 -0.516863 -0.463681 -0.719620 0.000000
60.79100037 148.68200684 151.25000000 0.802774 0.250964 -0.540898 0.000000
133.30099487 110.59600067 173.75000000 0.139925 0.726709 -0.672544 0.000000
125.24400330 120.48300171 182.50000000 -0.074339 0.316917 -0.945535 0.000000
170.65400696 100.34200287 121.25000000 -0.057093 -0.381063 0.922784 0.000000
67.74900055 169.18899536 40.00000000 0.973132 -0.178429 -0.145527 0.000000
112.06099701 111.32800293 168.75000000 0.199454 0.641653 -0.740607 0.000000
190.06399536 144.28700256 180.00000000 -0.270633 -0.125416 -0.954478 0.000000
143.55499268 112.79299927 123.75000000 0.440220 -0.411195 0.798201 0.000000
114.25800323 132.56799316 183.75000000 0.289951 0.087115 -0.953068 0.000000
68.11519623 169.92199707 38.75000000 0.945791 -0.242968 -0.215514 0.000000
279.78500366 111.32800293 131.25000000 0.015179 -0.597499 0.801726 0.000000
225.58599854 120.84999847 118.75000000 -0.299093 -0.307933 0.903172 0.000000
244.99499512 153.07600403 170.00000000 -0.557437 0.020646 -0.829962 0.000000
95.21489716 185.30299377 83.75000000 -0.530611 -0.557562 0.638417 0.000000
194.09199524 171.38699341 138.75000000 -0.565574 -0.659557 0.495087 0.000000
184.20399475 125.97699738 152.50000000 -0.558673 -0.616059 0.555297 0.000000
176.14700317 173.58399963 140.00000000 0.923065 -0.209076 0.322859 0.000000
174.31599426 148.68200684 186.25000000 -0.531799 0.123844 -0.837766 0.000000
181.27400208 179.44299316 132.50000000 -0.539095 -0.623593 0.566135 0.000000
203.61300659 99.60939789 173.75000000 0.209853 0.493683 -0.843942 0.000000
154.54100037 150.14700317 141.25000000 -0.301909 0.101515 0.947916 0.000000
93.75000000 169.92199707 178.75000000 0.352362 -0.006315 -0.935843 0.000000
93.75000000 242.06500244 145.00000000 0.366383 -0.404123 -0.838122 0.000000
81.66510010 213.13499451 87.50000000 -0.907477 -0.154797 0.390542 0.000000
125.24400330 112.06099701 173.75000000 0.044112 0.675904 -0.735668 0.000000
119.38500214 140.99099731 107.50000000 -0.923844 0.352538 0.149097 0.000000
215.33200073 109.13099670 111.25000000 0.123730 -0.178721 0.976089 0.000000
164.06300354 155.27299500 191.25000000 -0.164622 -0.505730 -0.846839 0.000000
75.43949890 219.72700500 73.75000000 -0.936768 -0.216392 0.275027 0.000000
60.79100037 173.58399963 38.75000000 0.882871 -0.436328 0.173656 0.000000
166.25999451 154.90699768 190.00000000 -0.075010 -0.525067 -0.847749 0.000000
294.43399048 156.00599670 146.25000000 -0.220712 -0.569529 0.791785 0.000000
243.89700317 88.25689697 142.50000000 -0.288438 0.909238 -0.300151 0.000000
148.68200684 168.82299805 187.50000000 0.167051 -0.489327 -0.855952 0.000000
255.61500549 91.55269623 141.25000000 -0.431304 0.779602 -0.454090 0.000000
273.55999756 94.48239899 125.00000000 -0.946670 0.141395 0.289522 0.000000
195.55700684 158.93600464 176.25000000 -0.490073 -0.402153 -0.773371 0.000000
134.39900208 225.58599854 150.00000000 -0.591806 -0.658867 -0.464392 0.000000
88.62310028 240.96699524 98.75000000 -0.675370 0.142896 0.723503 0.000000
160.39999390 167.35800171 167.50000000 -0.705197 -0.686841 -0.175917 0.000000
147.21699524 160.39999390 188.75000000 0.222185 -0.110458 -0.968727 0.000000
197.02200317 94.48239899 171.25000000 0.321981 0.421530 -0.847727 0.000000
215.33200073 83.86229706 102.50000000 -0.029080 0.947010 0.319885 0.000000
213.13499451 111.32800293 173.75000000 -0.290207 0.316724 -0.903031 0.000000
240.23399353 120.48300171 160.00000000 -0.742131 0.143007 -0.654821 0.000000
128.90600586 145.02000427 123.75000000 -0.719298 0.315198 0.619081 0.000000
273.19299316 99.60939789 126.25000000 -0.522528 -0.522528 0.673742 0.000000
185.30299377 142.82200623 181.25000000 -0.081212 -0.003164 -0.996692 0.000000
157.47099304 134.76600647 136.25000000 -0.312128 -0.872435 0.376076 0.000000
131.10400391 119.38500214 181.25000000 0.079690 0.630277 -0.772270 0.000000
94.11620331 104.00399780 95.00000000 0.707106 0.707106 0.001384 0.000000
218.99400330 94.11620331 95.00000000 0.626958 0.145839 0.765280 0.000000
69.58010101 124.51200104 146.25000000 0.772582 0.519914 -0.364426 0.000000
265.13699341 143.18899536 145.00000000 -0.101403 -0.642217 0.759786 0.000000
125.97699738 110.59600067 126.25000000 -0.584653 -0.500409 0.638569 0.000000
202.14799500 84.59470367 147.50000000 0.001108 0.989410 -0.145143 0.000000
120.84999847 102.53900146 163.75000000 0.058708 0.640066 -0.766074 0.000000
71.77739716 153.07600403 163.75000000 0.643792 0.175858 -0.744719 0.000000
67.38279724 226.31799316 78.75000000 0.499424 -0.586865 0.637312 0.000000
197.02200317 121.21600342 150.00000000 0.727551 0.622016 0.289421 0.000000
145.75199890 101.80699921 118.75000000 0.304767 -0.467309 0.829903 0.000000
224.12100220 85.69339752 141.25000000 -0.103988 0.979933 -0.170051 0.000000
227.05099487 164.79499817 168.75000000 0.094733 -0.396782 -0.913011 0.000000
172.11900330 151.61099243 188.75000000 -0.516252 -0.158278 -0.841684 0.000000
249.75599670 90.45410156 142.50000000 -0.265699 0.849316 -0.456143 0.000000
69.58010101 177.97900391 38.75000000 0.776961 0.023713 -0.629102 0.000000
161.13299561 170.28799438 152.50000000 -0.449196 -0.532073 -0.717719 0.000000
142.82200623 162.23100281 127.50000000 0.389069 0.569650 0.723964 0.000000
177.97900391 150.14700317 136.25000000 0.472185 0.050640 0.880044 0.000000
129.63900757 161.49899292 127.50000000 -0.982460 0.184865 0.024416 0.000000
124.51200104 225.58599854 153.75000000 -0.410346 -0.305839 -0.859115 0.000000
68.48149872 133.30099487 152.50000000 0.796412 0.319519 -0.513455 0.000000
100.34200287 179.80999756 85.00000000 -0.540791 -0.527314 0.655351 0.000000
110.59600067 93.38379669 147.50000000 0.251358 0.887934 -0.385218 0.000000
96.67970276 138.42799377 68.75000000 -0.726247 -0.009720 0.687365 0.000000
50.53710175 165.52699280 141.25000000 0.855125 0.270764 -0.442095 0.000000
145.02000427 85.32720184 142.50000000 -0.001108 0.989410 -0.145143 0.000000
235.10699463 127.44100189 168.75000000 -0.437266 -0.001305 -0.899331 0.000000
101.80699921 229.97999573 111.25000000 -0.493754 -0.101027 0.863713 0.000000
217.52900696 136.96299744 126.25000000 -0.076914 -0.744474 0.663206 0.000000
103.27100372 178.71099854 86.25000000 -0.519858 -0.503143 0.690358 0.000000
185.30299377 125.97699738 123.75000000 -0.230903 -0.689567 0.686426 0.000000
177.24600220 148.68200684 186.25000000 -0.496518 0.128834 -0.858412 0.000000
212.40199280 136.96299744 176.25000000 -0.000978 -0.000978 -0.999999 0.000000
96.67970276 213.13499451 163.75000000 0.123732 -0.528410 -0.839925 0.000000
155.27299500 83.86229706 137.50000000 0.099519 0.984402 -0.145082 0.000000
193.35899353 161.86500549 131.25000000 -0.439250 -0.011872 0.898286 0.000000
71.77739716 158.93600464 166.25000000 0.610658 0.155303 -0.776516 0.000000
51.63570023 165.52699280 90.00000000 0.888126 0.403425 0.220184 0.000000
192.62699890 175.78100586 143.75000000 -0.736062 -0.593703 0.325161 0.000000
74.34079742 199.21899414 162.50000000 0.533061 -0.201986 -0.821613 0.000000
270.99600220 92.65139771 127.50000000 -0.523487 0.832479 0.181495 0.000000
180.17599487 91.55269623 163.75000000 0.189213 0.746084 -0.638402 0.000000
235.10699463 99.60939789 158.75000000 -0.426810 0.810460 -0.401233 0.000000
116.45500183 91.18650055 122.50000000 0.277368 0.958757 0.062060 0.000000
153.07600403 94.48239899 116.25000000 -0.119915 -0.110417 0.986625 0.000000
88.62310028 109.49700165 90.00000000 0.692396 0.692396 -0.202917 0.000000
213.13499451 133.30099487 176.25000000 -0.000978 -0.000978 -0.999999 0.000000
254.88299561 110.59600067 151.25000000 -0.260428 0.271813 -0.926442 0.000000
243.89700317 95.21489716 151.25000000 -0.435706 0.612659 -0.659401 0.000000
233.64300537 99.24320221 160.00000000 -0.384921 0.642636 -0.662461 0.000000
99.60939789 199.95100403 101.25000000 -0.595948 -0.514913 0.616207 0.000000
183.83799744 128.53999329 135.00000000 -0.564792 -0.200509 -0.800504 0.000000
274.65798950 110.23000336 130.00000000 -0.151179 -0.268912 0.951226 0.000000
69.58010101 148.68200684 161.25000000 0.528414 0.222087 -0.819424 0.000000
268.79901123 91.91899872 130.00000000 -0.375939 0.885180 -0.274091 0.000000
177.97900391 120.11699677 176.25000000 -0.024174 0.339702 -0.940223 0.000000
211.66999817 106.93399811 173.75000000 -0.329665 0.209787 -0.920494 0.000000
71.04489899 182.37300110 38.75000000 0.932574 -0.290290 -0.214562 0.000000
165.16099548 161.86500549 170.00000000 -0.700263 -0.496368 -0.513080 0.000000
64.45310211 183.10499573 38.75000000 0.807816 -0.443099 0.388711 0.000000
80.56639862 180.17599487 171.25000000 0.472424 -0.208467 -0.856363 0.000000
96.67970276 169.55599976 75.00000000 -0.527362 -0.081023 0.845769 0.000000
185.30299377 90.82029724 163.75000000 0.162015 0.527665 -0.833859 0.000000
186.03500366 158.20300293 178.75000000 -0.000978 -0.000978 -0.999999 0.000000
62.62210083 235.10699463 97.50000000 0.557835 -0.694380 0.454594 0.000000
257.07998657 120.48300171 130.00000000 -0.386470 -0.573949 0.721958 0.000000
50.90330124 204.34599304 90.00000000 0.909534 -0.212562 0.357162 0.000000
114.98999786 117.91999817 176.25000000 0.206192 0.434634 -0.876686 0.000000
92.28520203 169.92199707 176.25000000 0.438689 -0.102314 -0.892795 0.000000
97.77829742 253.41799927 115.00000000 -0.204409 -0.916265 0.344493 0.000000
249.02299500 112.79299927 121.25000000 -0.301386 -0.200457 0.932193 0.000000
197.75399780 169.18899536 166.25000000 -0.586369 -0.747018 -0.313266 0.000000
277.58801270 125.24400330 133.75000000 -0.008874 -0.356245 0.934350 0.000000
168.45700073 160.39999390 168.75000000 -0.220594 -0.955907 -0.193855 0.000000
96.67970276 247.92500305 140.00000000 0.079635 -0.763045 -0.641421 0.000000
202.88099670 158.93600464 133.75000000 -0.675381 -0.504441 0.537959 0.000000
265.86898804 91.91899872 132.50000000 -0.326874 0.867059 -0.375981 0.000000
84.22850037 168.45700073 61.25000000 -0.760023 -0.142411 0.634102 0.000000
276.12298584 105.46900177 128.75000000 0.052605 -0.050457 0.997340 0.000000
142.08999634 164.79499817 188.75000000 0.214613 -0.132366 -0.967688 0.000000
252.68600464 106.20099640 151.25000000 -0.433694 0.249336 -0.865876 0.000000
199.21899414 85.32720184 152.50000000 0.001108 0.989410 -0.145143 0.000000
75.43949890 225.95199585 147.50000000 0.877136 0.059397 -0.476554 0.000000
84.96099854 147.21699524 58.75000000 -0.464621 -0.100268 0.879815 0.000000
144.28700256 211.66999817 151.25000000 -0.844462 0.470508 -0.255944 0.000000
139.16000366 202.14799500 163.75000000 -0.377522 -0.634699 -0.674265 0.000000
217.52900696 124.51200104 176.25000000 -0.183586 0.320925 -0.929141 0.000000
120.11699677 216.43099976 122.50000000 -0.533298 -0.346402 0.771751 0.000000
134.76600647 186.76800537 176.25000000 -0.261153 -0.450528 -0.853712 0.000000
193.72599792 127.44100189 147.50000000 0.969913 0.223244 -0.097117 0.000000
120.48300171 104.73600006 120.00000000 -0.711699 -0.429674 0.555756 0.000000
149.41400146 100.34200287 116.25000000 0.247451 -0.444805 0.860765 0.000000
76.17189789 172.11900330 168.75000000 0.644587 -0.018099 -0.764316 0.000000
244.62899780 160.76699829 152.50000000 -0.296397 -0.597601 0.744998 0.000000
80.56639862 196.28900146 68.75000000 -0.936520 -0.239380 0.256178 0.000000
142.08999634 174.31599426 111.25000000 -0.366387 0.625979 0.688412 0.000000
135.49800110 193.35899353 116.25000000 -0.423862 -0.764261 0.486051 0.000000
56.76269913 208.00799561 145.00000000 0.799472 -0.493088 -0.343087 0.000000
122.31400299 224.85400391 123.75000000 -0.640813 -0.373945 0.670465 0.000000
114.62400055 141.35699463 92.50000000 -0.849530 0.205992 0.485660 0.000000
176.88000488 172.85200500 162.50000000 0.941714 -0.324500 0.088741 0.000000
45.04399872 196.28900146 125.00000000 0.985677 -0.067286 -0.154639 0.000000
