161.15199280 156.09399414 331.87500000 -0.725632 -0.202682 -0.657555 0.000000
184.27699280 158.26199341 376.87500000 -0.172901 0.477325 0.861549 0.000000
172.71499634 166.93400574 365.62500000 0.237369 0.730970 0.639796 0.000000
117.06999969 125.74199677 313.12500000 0.422217 0.845993 -0.325621 0.000000
75.15619659 205.59599304 348.75000000 -0.588136 0.655160 0.474195 0.000000
192.94900513 137.30499268 384.37500000 0.082122 0.197339 0.976890 0.000000
194.39399719 76.60150146 294.37500000 0.821182 0.411385 -0.395502 0.000000
115.62500000 222.57800293 339.37500000 0.288861 0.604852 0.742101 0.000000
135.13699341 153.92599487 331.87500000 0.441125 -0.444381 -0.779701 0.000000
217.51899719 125.74199677 376.87500000 -0.434240 -0.809192 0.395783 0.000000
178.85699463 175.60499573 360.00000000 0.001372 0.791857 0.610705 0.000000
125.01899719 158.98399353 324.37500000 0.823498 -0.165895 -0.542522 0.000000
227.27499390 114.90200043 371.25000000 0.522301 -0.208616 0.826850 0.000000
79.49220276 141.64100647 399.37500000 -0.831107 0.156111 0.533752 0.000000
56.36719894 185.00000000 286.87500000 -0.993599 0.097456 -0.057129 0.000000
113.45700073 185.72300720 294.37500000 0.826891 0.422141 -0.371548 0.000000
52.03120041 168.37899780 245.62500000 -0.933019 0.001263 0.359825 0.000000
126.82599640 188.61300659 378.75000000 0.380390 0.670211 0.637276 0.000000
195.11700439 86.71869659 365.62500000 0.023240 -0.851663 0.523574 0.000000
195.11700439 140.55700684 382.50000000 0.618352 0.297130 0.727567 0.000000
211.73800659 105.50800323 343.12500000 0.630771 0.499570 -0.593766 0.000000
99.72650146 199.45300293 286.87500000 0.407526 -0.100845 -0.907608 0.000000
79.49220276 214.62899780 268.12500000 -0.327304 0.837835 -0.436927 0.000000
97.55860138 142.36300659 271.87500000 0.669166 -0.501456 -0.548415 0.000000
98.28119659 180.66400146 388.12500000 -0.140027 0.703145 0.697122 0.000000
114.54100037 144.53100586 300.00000000 0.876016 -0.394888 -0.276875 0.000000
104.06199646 234.14100647 301.87500000 0.580454 0.506425 -0.637658 0.000000
137.30499268 182.83200073 380.62500000 -0.447955 0.447955 0.773740 0.000000
76.60150146 121.76799774 371.25000000 -0.700489 -0.700489 -0.136498 0.000000
96.11329651 175.24400330 393.75000000 -0.037295 0.526274 0.849497 0.000000
69.37500000 169.10200500 245.62500000 0.469946 0.009319 -0.882646 0.000000
246.42599487 106.59200287 360.00000000 0.787328 -0.262443 0.557887 0.000000
203.78900146 127.18699646 350.62500000 0.232630 0.436744 -0.868986 0.000000
195.11700439 145.97700500 358.12500000 0.117469 0.445815 -0.887384 0.000000
132.96899414 133.69099426 403.12500000 0.067423 -0.787556 0.612544 0.000000
125.74199677 224.74600220 313.12500000 -0.000978 -0.000978 -0.999999 0.000000
106.23000336 172.71499634 399.37500000 -0.177164 0.446570 0.877034 0.000000
94.66790009 130.43899536 408.75000000 -0.388954 -0.506129 0.769771 0.000000
162.59800720 179.94099426 365.62500000 0.287471 0.464616 0.837551 0.000000
96.11329651 232.69500732 324.37500000 -0.228409 0.926403 0.299343 0.000000
68.65229797 169.82400513 245.62500000 0.740578 0.281898 -0.609982 0.000000
75.87889862 179.94099426 369.37500000 -0.520631 0.444603 0.728884 0.000000
171.99200439 74.79489899 333.75000000 0.001143 -0.982047 0.188635 0.000000
70.82029724 169.82400513 245.62500000 0.701902 0.311419 -0.640587 0.000000
67.56829834 208.84800720 281.25000000 -0.854543 0.459905 -0.241336 0.000000
144.16999817 188.61300659 371.25000000 0.252730 0.820208 0.513212 0.000000
149.58999634 187.89100647 328.12500000 0.760442 -0.015292 -0.649226 0.000000
94.66790009 195.11700439 369.37500000 -0.972537 -0.217361 -0.083218 0.000000
133.69099426 76.96289825 300.00000000 -0.176625 -0.982700 -0.055714 0.000000
91.77729797 239.92199707 294.37500000 -0.227414 0.679105 -0.697925 0.000000
140.91799927 180.66400146 384.37500000 0.687277 0.496645 0.530089 0.000000
88.16400146 104.42400360 337.50000000 -0.665988 -0.745961 0.001379 0.000000
140.19500732 174.88299561 309.37500000 0.597526 0.110109 -0.794254 0.000000
108.39800262 113.45700073 309.37500000 -0.075031 0.842331 -0.533712 0.000000
148.14399719 166.21099854 388.12500000 0.000978 0.000978 0.999999 0.000000
198.72999573 148.14399719 376.87500000 0.640782 0.417756 0.644110 0.000000
136.58200073 166.21099854 320.62500000 0.744862 -0.545141 -0.384709 0.000000
80.21479797 197.28500366 264.37500000 0.821447 0.309417 -0.479047 0.000000
61.06439972 141.64100647 307.50000000 -0.915502 -0.378780 -0.135578 0.000000
140.19500732 152.47999573 335.62500000 0.668926 -0.554923 -0.494569 0.000000
181.38699341 93.22260284 294.37500000 0.408930 0.581111 -0.703624 0.000000
145.97700500 96.11329651 290.62500000 0.346558 0.864085 -0.365041 0.000000
113.45700073 177.77299500 290.62500000 -0.000978 -0.000978 -0.999999 0.000000
181.38699341 103.33999634 384.37500000 0.375230 -0.365888 0.851662 0.000000
80.93750000 108.39800262 305.62500000 -0.288817 -0.059799 -0.955515 0.000000
242.81199646 124.29699707 358.12500000 0.483144 0.499747 -0.718905 0.000000
100.81099701 177.05099487 281.25000000 0.831503 0.328514 -0.447974 0.000000
187.16799927 146.69900513 384.37500000 0.001352 0.547504 0.836802 0.000000
53.47650146 165.48800659 339.37500000 -0.877107 -0.224861 0.424407 0.000000
120.68399811 236.30900574 320.62500000 0.230804 0.910151 0.344028 0.000000
86.71869659 135.13699341 264.37500000 0.671588 -0.412902 -0.615208 0.000000
99.72650146 164.04299927 403.12500000 -0.312949 0.566518 0.762312 0.000000
199.45300293 152.84199524 375.00000000 0.182338 0.733949 0.654272 0.000000
153.92599487 95.39060211 290.62500000 -0.040776 0.802864 -0.594766 0.000000
170.54699707 170.54699707 331.87500000 -0.000978 -0.000978 -0.999999 0.000000
104.06199646 143.08599854 283.12500000 0.865851 0.001334 -0.500299 0.000000
59.25780106 152.47999573 365.62500000 -0.905138 0.213572 0.367576 0.000000
107.67600250 102.61699677 298.12500000 0.766533 0.382453 -0.515904 0.000000
125.74199677 191.50399780 376.87500000 0.346689 0.839269 0.418850 0.000000
105.50800323 156.81599426 283.12500000 0.638440 0.076729 -0.765838 0.000000
189.33599854 148.14399719 354.37500000 0.388334 0.846848 -0.363380 0.000000
166.21099854 85.99610138 365.62500000 0.016881 -0.918071 0.396056 0.000000
239.19900513 110.56600189 350.62500000 -0.434381 -0.597482 -0.674039 0.000000
163.32000732 106.23000336 388.12500000 0.000978 0.000978 0.999999 0.000000
64.67769623 116.34799957 270.00000000 -0.855597 -0.428566 0.290319 0.000000
91.05470276 113.45700073 309.37500000 0.440763 -0.145007 -0.885833 0.000000
110.20500183 88.16400146 345.00000000 -0.367505 -0.865712 0.339827 0.000000
103.70099640 157.53900146 281.25000000 0.638440 0.076729 -0.765838 0.000000
158.26199341 112.01200104 388.12500000 0.000978 0.000978 0.999999 0.000000
88.88670349 146.69900513 406.87500000 -0.411511 0.576776 0.705683 0.000000
75.51760101 217.51899719 333.75000000 -0.551482 0.645925 0.527871 0.000000
116.34799957 118.15399933 401.25000000 0.531262 -0.618963 0.578486 0.000000
142.72500610 138.75000000 393.75000000 0.756964 -0.032421 0.652652 0.000000
175.60499573 159.70700073 380.62500000 0.333853 0.503175 0.797093 0.000000
118.51599884 148.14399719 410.62500000 0.000978 0.000978 0.999999 0.000000
187.89100647 71.18160248 307.50000000 -0.013192 -0.999538 0.027398 0.000000
111.28900146 123.57399750 410.62500000 0.389655 0.071459 0.918184 0.000000
213.18400574 109.84400177 376.87500000 0.331254 -0.275309 0.902483 0.000000
170.54699707 122.12899780 391.87500000 0.000978 0.000978 0.999999 0.000000
62.87110138 158.98399353 369.37500000 -0.788814 0.337606 0.513609 0.000000
131.52299500 165.48800659 320.62500000 -0.000978 -0.000978 -0.999999 0.000000
96.83589935 132.24600220 298.12500000 0.948187 -0.317711 -0.001236 0.000000
206.67999268 132.96899414 354.37500000 0.504628 0.484643 -0.714473 0.000000
200.17599487 112.01200104 380.62500000 0.381680 -0.410187 0.828292 0.000000
173.43699646 159.70700073 380.62500000 0.435570 0.302264 0.847889 0.000000
125.74199677 114.90200043 388.12500000 0.061840 -0.665855 0.743514 0.000000
52.75389862 174.88299561 324.37500000 -0.894688 0.446689 0.001310 0.000000
215.35099792 120.68399811 354.37500000 0.401347 -0.057719 -0.914105 0.000000
114.18000031 211.01600647 305.62500000 0.000978 0.000978 -0.999999 0.000000
127.91000366 168.37899780 399.37500000 0.446689 0.894688 0.001310 0.000000
102.61699677 131.52299500 309.37500000 0.549945 -0.664307 -0.506218 0.000000
109.12100220 196.56199646 294.37500000 -0.000978 -0.000978 -0.999999 0.000000
135.85899353 91.77729797 286.87500000 -0.126232 0.779667 -0.613338 0.000000
123.57399750 194.39399719 305.62500000 0.435783 0.326447 -0.838765 0.000000
83.82810211 149.58999634 256.87500000 0.270820 -0.085995 -0.958781 0.000000
162.59800720 90.33200073 373.12500000 0.001286 -0.916599 0.399807 0.000000
55.64450073 175.60499573 245.62500000 -0.865867 -0.166117 -0.471890 0.000000
179.94099426 128.63299561 331.87500000 0.681518 0.510720 -0.524116 0.000000
117.79299927 84.55079651 294.37500000 0.570383 0.284397 -0.770573 0.000000
160.42999268 153.92599487 331.87500000 -0.528412 -0.306257 -0.791825 0.000000
118.51599884 215.35099792 305.62500000 0.880885 -0.199195 -0.429376 0.000000
143.80900574 195.83999634 320.62500000 0.347666 0.495063 -0.796267 0.000000
133.69099426 78.40820313 322.50000000 -0.309039 -0.950007 0.044512 0.000000
221.85499573 131.52299500 373.12500000 0.791990 -0.278692 0.543214 0.000000
114.54100037 150.31199646 292.50000000 0.982047 0.001143 -0.188635 0.000000
67.20700073 207.04100037 337.50000000 -0.661307 0.648113 0.377654 0.000000
110.92800140 222.57800293 303.75000000 0.524368 -0.020430 -0.851247 0.000000
212.46099854 78.76950073 313.12500000 0.535611 0.804198 -0.257656 0.000000
72.62689972 209.57000732 270.00000000 -0.654738 0.654738 -0.377670 0.000000
57.81250000 130.07800293 271.87500000 -0.767309 -0.541155 0.344077 0.000000
235.58599854 112.01200104 354.37500000 -0.272796 0.030859 -0.961577 0.000000
55.28319931 163.32000732 307.50000000 -0.999999 -0.000978 -0.000978 0.000000
240.64399719 111.28900146 350.62500000 -0.434381 -0.597482 -0.674039 0.000000
95.02929688 85.27339935 296.25000000 -0.514193 -0.856989 0.034280 0.000000
103.33999634 189.33599854 376.87500000 -0.173330 0.903894 0.391067 0.000000
120.68399811 225.46899414 335.62500000 0.445781 0.582688 0.679524 0.000000
203.78900146 93.22260284 373.12500000 0.156862 -0.479382 0.863474 0.000000
149.58999634 155.37100220 339.37500000 -0.723348 -0.428712 -0.541270 0.000000
148.14399719 152.47999573 343.12500000 0.207025 -0.568936 -0.795897 0.000000
53.83789825 193.67199707 307.50000000 -0.960928 -0.001209 -0.276796 0.000000
136.58200073 162.59800720 320.62500000 0.981956 0.165879 -0.090810 0.000000
126.46499634 116.34799957 309.37500000 -0.033754 0.460409 -0.887065 0.000000
120.68399811 148.14399719 320.62500000 0.737207 -0.443644 -0.509613 0.000000
142.36300659 205.59599304 348.75000000 0.495288 0.673256 0.549014 0.000000
114.90200043 218.96499634 346.87500000 -0.999999 0.000978 0.000978 0.000000
164.76600647 108.39800262 309.37500000 0.594709 0.618295 -0.513842 0.000000
150.31199646 123.57399750 388.12500000 0.000978 0.000978 0.999999 0.000000
124.29699707 88.52539825 363.75000000 -0.422217 -0.845993 0.325621 0.000000
79.85350037 174.88299561 378.75000000 -0.654738 0.654738 0.377670 0.000000
117.79299927 237.03100586 320.62500000 0.183594 0.846322 0.500032 0.000000
99.00389862 185.72300720 283.12500000 0.621531 0.387427 -0.680882 0.000000
166.21099854 180.66400146 331.87500000 -0.000978 -0.000978 -0.999999 0.000000
117.06999969 91.05470276 294.37500000 0.675682 0.199458 -0.709698 0.000000
139.47300720 174.16000366 309.37500000 0.752726 0.178639 -0.633634 0.000000
101.17199707 202.34399414 361.87500000 0.001334 0.865851 0.500299 0.000000
138.02699280 96.83589935 380.62500000 -0.198138 0.054038 0.978683 0.000000
110.56600189 207.40199280 301.87500000 0.468520 0.626373 -0.623014 0.000000
71.54290009 201.62100220 260.62500000 -0.721447 0.532378 -0.442819 0.000000
68.65229797 178.49600220 245.62500000 0.761417 0.222664 -0.608822 0.000000
91.05470276 218.96499634 343.12500000 -0.139982 0.717974 0.681849 0.000000
192.22700500 138.75000000 384.37500000 0.055148 0.229169 0.971823 0.000000
146.69900513 115.62500000 388.12500000 0.000978 0.000978 0.999999 0.000000
68.65229797 122.85199738 294.37500000 -0.941038 -0.316372 0.119817 0.000000
138.02699280 211.73800659 320.62500000 0.947359 -0.047432 -0.316641 0.000000
77.32420349 162.59800720 253.12500000 -0.000978 -0.000978 -0.999999 0.000000
187.89100647 86.71869659 369.37500000 0.000978 0.000978 0.999999 0.000000
113.45700073 236.66999817 322.50000000 0.016474 0.939035 0.343426 0.000000
75.15619659 205.23399353 350.62500000 -0.779222 0.536015 0.324809 0.000000
56.72850037 164.04299927 288.75000000 -0.983805 -0.154958 -0.090092 0.000000
145.25399780 127.18699646 320.62500000 -0.000978 -0.000978 -0.999999 0.000000
147.42199707 204.51199341 343.12500000 0.692377 0.643732 0.325920 0.000000
161.15199280 83.82810211 361.87500000 0.000978 0.000978 0.999999 0.000000
88.16400146 102.61699677 286.87500000 -0.025697 -0.872333 0.488236 0.000000
216.79699707 119.96099854 376.87500000 0.494980 -0.189917 0.847896 0.000000
187.89100647 95.39060211 376.87500000 -0.297327 -0.721620 0.625189 0.000000
197.28500366 113.45700073 335.62500000 0.467698 0.665505 -0.581689 0.000000
125.01899719 187.89100647 380.62500000 0.237604 0.719106 0.653017 0.000000
80.93750000 169.10200500 391.87500000 0.000978 0.000978 0.999999 0.000000
125.01899719 141.64100647 324.37500000 -0.000978 -0.000978 -0.999999 0.000000
177.05099487 135.85899353 388.12500000 0.024199 0.169394 0.985251 0.000000
198.72999573 93.94529724 373.12500000 0.000978 0.000978 0.999999 0.000000
58.17380142 200.89799500 296.25000000 -0.933557 0.310258 -0.179477 0.000000
116.34799957 156.09399414 290.62500000 -0.001351 0.544370 -0.838844 0.000000
76.96289825 156.81599426 393.75000000 -0.417776 0.241082 0.875981 0.000000
148.14399719 138.75000000 388.12500000 0.000978 0.000978 0.999999 0.000000
203.78900146 72.62689972 326.25000000 0.272778 -0.950019 0.151842 0.000000
193.67199707 81.29879761 356.25000000 -0.001334 -0.865851 0.500299 0.000000
172.71499634 82.38279724 358.12500000 0.141655 -0.857232 0.495063 0.000000
134.41400146 144.53100586 403.12500000 0.865851 -0.001334 0.500299 0.000000
218.96499634 95.39060211 369.37500000 0.444045 -0.741175 0.503471 0.000000
156.09399414 179.94099426 331.87500000 -0.000978 -0.000978 -0.999999 0.000000
99.72650146 187.16799927 283.12500000 0.711499 0.272184 -0.647831 0.000000
121.40599823 208.84800720 354.37500000 0.000978 0.000978 0.999999 0.000000
103.33999634 91.77729797 286.87500000 0.192699 0.679841 -0.707590 0.000000
139.47300720 129.35499573 391.87500000 0.564166 -0.651738 0.506907 0.000000
206.67999268 86.71869659 313.12500000 -0.000978 -0.000978 -0.999999 0.000000
104.06199646 99.36519623 360.00000000 -0.672512 -0.712708 0.199435 0.000000
159.34599304 178.49600220 367.50000000 0.347459 0.347459 0.870944 0.000000
107.67600250 192.22700500 290.62500000 0.345840 -0.024247 -0.937980 0.000000
57.45119858 169.10200500 270.00000000 -0.991258 0.099930 0.086146 0.000000
99.72650146 108.76000214 378.75000000 -0.160743 -0.963153 0.215631 0.000000
59.25780106 182.10899353 245.62500000 -0.234343 0.699884 -0.674719 0.000000
200.17599487 147.42199707 361.87500000 0.511355 0.595738 -0.619365 0.000000
71.54290009 120.68399811 350.62500000 -0.459905 -0.854543 0.241336 0.000000
99.72650146 185.72300720 283.12500000 0.711372 0.247639 -0.657743 0.000000
111.28900146 229.08200073 305.62500000 0.341001 0.236524 -0.909821 0.000000
203.78900146 93.94529724 316.87500000 0.439285 0.823064 -0.359992 0.000000
151.03500366 83.10540009 361.87500000 0.103348 -0.813681 0.572051 0.000000
73.71089935 181.38699341 365.62500000 -0.611570 0.493636 0.618309 0.000000
57.45119858 173.43699646 262.50000000 -0.980573 0.141134 -0.136225 0.000000
167.65600586 84.55079651 279.37500000 0.001263 0.933019 0.359825 0.000000
60.70309830 140.91799927 335.62500000 -0.893808 -0.447572 -0.028057 0.000000
94.66790009 113.09600067 390.00000000 -0.278282 -0.831738 0.480387 0.000000
74.43360138 205.95700073 260.62500000 -0.422217 0.845993 -0.325621 0.000000
112.73400116 128.27099609 412.50000000 -0.040845 -0.604221 0.795769 0.000000
101.17199707 90.33200073 283.12500000 0.162986 0.817922 -0.551761 0.000000
56.36719894 152.47999573 343.12500000 -0.935625 -0.350046 0.045545 0.000000
61.42580032 182.83200073 245.62500000 -0.397638 0.595633 -0.697930 0.000000
182.83200073 133.69099426 388.12500000 0.000978 0.000978 0.999999 0.000000
174.16000366 166.21099854 365.62500000 0.000978 0.000978 0.999999 0.000000
89.60929871 100.44899750 328.12500000 -0.925314 -0.275170 0.260913 0.000000
85.27339935 115.62500000 305.62500000 0.616220 -0.622937 -0.481894 0.000000
60.70309830 186.08399963 266.25000000 0.000978 0.000978 -0.999999 0.000000
79.13079834 120.68399811 386.25000000 -0.001369 -0.792878 0.609379 0.000000
80.57610321 145.25399780 255.00000000 0.462939 -0.336539 -0.820018 0.000000
111.28900146 88.88670349 346.87500000 -0.343910 -0.848104 0.403044 0.000000
117.79299927 165.48800659 403.12500000 0.377408 0.680652 0.627914 0.000000
71.54290009 179.21899414 365.62500000 -0.552489 0.255115 0.793519 0.000000
114.18000031 149.58999634 410.62500000 0.000978 0.000978 0.999999 0.000000
143.80900574 187.89100647 373.12500000 0.200573 0.791573 0.577220 0.000000
97.19719696 132.96899414 296.25000000 0.700489 -0.700489 -0.136498 0.000000
171.26899719 148.86700439 384.37500000 -0.037800 0.242649 0.969377 0.000000
121.40599823 109.12100220 384.37500000 -0.272213 -0.920338 0.280854 0.000000
218.24200439 114.18000031 373.12500000 0.503776 -0.006717 0.863808 0.000000
147.42199707 75.87889862 339.37500000 -0.163719 -0.968135 0.189502 0.000000
61.06439972 153.92599487 367.50000000 -0.916445 0.162390 0.365731 0.000000
182.10899353 166.93400574 354.37500000 0.933557 0.310258 0.179477 0.000000
72.98829651 200.17599487 256.87500000 -0.001263 0.933019 -0.359825 0.000000
179.94099426 157.53900146 380.62500000 0.145925 0.452224 0.879886 0.000000
67.20700073 127.54900360 311.25000000 -0.810309 -0.578378 -0.094222 0.000000
139.47300720 76.24019623 307.50000000 -0.090878 -0.995283 -0.033943 0.000000
199.45300293 94.66790009 316.87500000 0.459028 0.824988 -0.329680 0.000000
109.12100220 170.18499756 401.25000000 0.153697 0.565546 0.810268 0.000000
100.44899750 83.46679688 311.25000000 -0.513469 -0.658250 0.550506 0.000000
117.79299927 223.30099487 339.37500000 0.237414 0.547760 0.802243 0.000000
186.44500732 99.72650146 380.62500000 0.000978 0.000978 0.999999 0.000000
143.80900574 123.57399750 316.87500000 0.000978 0.000978 -0.999999 0.000000
85.99610138 139.47300720 260.62500000 0.412684 -0.106992 -0.904569 0.000000
214.62899780 77.32420349 313.12500000 0.393653 0.588009 -0.706599 0.000000
191.14300537 115.62500000 333.75000000 0.001263 0.933019 0.359825 0.000000
60.34180069 194.39399719 281.25000000 -0.584042 0.584042 0.563728 0.000000
159.70700073 90.33200073 373.12500000 0.001334 -0.865851 0.500299 0.000000
96.83589935 84.91210175 303.75000000 -0.597101 -0.798533 0.076256 0.000000
148.86700439 161.87500000 331.87500000 0.332686 -0.347877 -0.876528 0.000000
182.10899353 98.28119659 384.37500000 0.682323 0.682323 0.262432 0.000000
169.82400513 130.80099487 328.12500000 0.235070 0.271667 -0.933241 0.000000
68.65229797 183.91600037 247.50000000 0.167777 -0.597043 -0.784469 0.000000
187.16799927 81.66010284 358.12500000 0.001334 -0.865851 0.500299 0.000000
195.11700439 147.42199707 358.12500000 0.272935 0.659194 -0.700693 0.000000
186.44500732 150.31199646 380.62500000 0.250471 0.347144 0.903745 0.000000
72.98829651 208.84800720 268.12500000 -0.654738 0.654738 -0.377670 0.000000
175.60499573 185.00000000 335.62500000 0.934399 0.208110 -0.289119 0.000000
149.58999634 112.73400116 309.37500000 -0.093055 0.533990 -0.840354 0.000000
108.76000214 91.05470276 288.75000000 0.682018 0.409875 -0.605685 0.000000
177.05099487 162.59800720 365.62500000 -0.640404 -0.165805 0.749927 0.000000
64.31639862 191.14300537 258.75000000 -0.830294 0.497560 -0.251091 0.000000
177.05099487 126.46499634 328.12500000 0.185365 0.467121 -0.864545 0.000000
126.46499634 120.68399811 395.62500000 0.509413 -0.496052 0.703158 0.000000
141.64100647 166.57200623 318.75000000 0.552830 -0.721155 0.417511 0.000000
177.05099487 91.77729797 290.62500000 -0.000978 -0.000978 -0.999999 0.000000
138.02699280 147.42199707 335.62500000 0.483030 0.125444 -0.866571 0.000000
106.95300293 164.76600647 406.87500000 0.000978 0.000978 0.999999 0.000000
144.53100586 156.81599426 335.62500000 0.413432 -0.759866 -0.501675 0.000000
63.59370041 185.72300720 245.62500000 -0.000978 -0.000978 -0.999999 0.000000
64.31639862 185.72300720 245.62500000 0.267398 -0.293415 -0.917827 0.000000
90.33200073 179.58000183 386.25000000 -0.311191 0.813519 0.491271 0.000000
137.30499268 120.68399811 388.12500000 0.000978 0.000978 0.999999 0.000000
231.25000000 87.80269623 352.50000000 0.341198 -0.845984 0.409749 0.000000
153.92599487 99.72650146 294.37500000 0.173584 0.394508 -0.902348 0.000000
239.19900513 101.17199707 361.87500000 0.507830 -0.619181 0.598935 0.000000
107.67600250 147.42199707 414.37500000 -0.407229 0.197046 0.891817 0.000000
211.01600647 155.37100220 373.12500000 0.924136 0.184827 -0.334382 0.000000
84.55079651 126.46499634 264.37500000 0.897159 -0.202772 -0.392416 0.000000
240.64399719 122.85199738 369.37500000 0.186078 -0.118640 0.975346 0.000000
106.95300293 239.92199707 316.87500000 0.865876 0.433694 -0.249336 0.000000
116.34799957 202.34399414 301.87500000 -0.000978 -0.000978 -0.999999 0.000000
128.63299561 149.58999634 331.87500000 0.000978 0.000978 -0.999999 0.000000
65.76170349 186.44500732 245.62500000 0.168604 -0.458897 -0.872345 0.000000
212.46099854 151.75799561 373.12500000 -0.117519 0.169475 0.978503 0.000000
118.51599884 150.31199646 301.87500000 0.797903 -0.401369 -0.449727 0.000000
196.56199646 100.08799744 318.75000000 0.431559 0.678165 -0.594852 0.000000
101.89499664 143.08599854 279.37500000 0.865851 0.001334 -0.500299 0.000000
233.41799927 95.39060211 339.37500000 -0.000978 -0.000978 -0.999999 0.000000
156.81599426 172.71499634 331.87500000 -0.000978 -0.000978 -0.999999 0.000000
179.94099426 100.44899750 384.37500000 0.000978 0.000978 0.999999 0.000000
61.06439972 191.50399780 273.75000000 -0.953609 0.238066 -0.184266 0.000000
195.47799683 103.33999634 322.50000000 0.573880 0.651295 -0.496465 0.000000
158.98399353 97.55860138 380.62500000 -0.210191 -0.695965 0.686624 0.000000
108.39800262 229.08200073 301.87500000 0.544779 -0.558272 -0.625737 0.000000
192.94900513 153.92599487 365.62500000 0.020761 0.812434 -0.582683 0.000000
106.95300293 106.95300293 305.62500000 0.211266 0.578283 -0.788007 0.000000
60.70309830 180.30299377 352.50000000 -0.914485 0.226101 0.335551 0.000000
188.25199890 135.85899353 386.25000000 0.719425 0.001381 0.694569 0.000000
194.39399719 121.40599823 343.12500000 0.172548 0.713095 -0.679502 0.000000
199.45300293 73.71089935 298.12500000 -0.000978 -0.000978 -0.999999 0.000000
135.13699341 163.32000732 324.37500000 0.808900 0.585071 0.058082 0.000000
200.89799500 147.42199707 361.87500000 0.511355 0.595738 -0.619365 0.000000
102.61699677 180.66400146 388.12500000 -0.100932 0.621683 0.776738 0.000000
135.85899353 94.66790009 290.62500000 0.001369 0.792878 -0.609379 0.000000
89.60929871 215.71299744 345.00000000 -0.271259 0.594867 0.756671 0.000000
183.91600037 163.32000732 345.00000000 0.894688 0.446689 0.001310 0.000000
179.21899414 155.37100220 328.12500000 0.553897 0.483614 -0.677729 0.000000
61.42580032 192.22700500 346.87500000 -0.744420 0.463818 0.480324 0.000000
151.75799561 96.11329651 380.62500000 0.001381 -0.719425 0.694569 0.000000
182.83200073 165.48800659 343.12500000 0.891764 0.410124 -0.191196 0.000000
156.81599426 129.35499573 324.37500000 -0.131728 0.490724 -0.861300 0.000000
169.82400513 127.18699646 324.37500000 -0.001263 0.933019 -0.359825 0.000000
132.96899414 208.12500000 350.62500000 0.226051 0.872767 0.432641 0.000000
114.90200043 105.50800323 376.87500000 -0.313189 -0.473719 0.823106 0.000000
65.03900146 142.36300659 373.12500000 -0.921907 -0.161369 0.352205 0.000000
137.30499268 117.06999969 313.12500000 0.325154 0.094228 -0.940955 0.000000
237.03100586 123.57399750 358.12500000 -0.055916 0.451417 -0.890560 0.000000
80.93750000 208.12500000 268.12500000 0.901582 0.229414 -0.366770 0.000000
113.45700073 109.84400177 305.62500000 0.073657 0.769792 -0.634031 0.000000
195.11700439 88.16400146 369.37500000 0.128628 -0.805773 0.578087 0.000000
100.44899750 235.58599854 320.62500000 -0.544370 0.001351 0.838844 0.000000
116.34799957 119.23799896 313.12500000 -0.000978 -0.000978 -0.999999 0.000000
119.96099854 201.62100220 365.62500000 0.175400 0.748884 0.639068 0.000000
132.24600220 160.42999268 328.12500000 0.133129 -0.519351 -0.844128 0.000000
171.26899719 102.61699677 301.87500000 0.632060 0.561269 -0.534301 0.000000
55.64450073 168.74000549 292.50000000 -0.991846 -0.076648 -0.101816 0.000000
54.19919968 158.26199341 320.62500000 -0.982047 -0.001143 0.188635 0.000000
117.43199921 87.44139862 352.50000000 -0.433594 -0.891356 0.132211 0.000000
217.51899719 123.57399750 354.37500000 0.149332 0.731575 -0.665205 0.000000
67.92970276 175.24400330 363.75000000 -0.472508 0.221913 0.852931 0.000000
195.11700439 90.33200073 369.37500000 0.426823 -0.797273 0.426823 0.000000
74.43360138 123.57399750 373.12500000 -0.756345 -0.648918 -0.082748 0.000000
127.18699646 214.62899780 346.87500000 0.389637 0.834486 0.389637 0.000000
212.46099854 103.33999634 343.12500000 0.253554 0.484057 -0.837496 0.000000
130.07800293 200.89799500 361.87500000 0.480445 0.473841 0.738003 0.000000
76.24019623 182.10899353 255.00000000 0.756113 0.477286 -0.447763 0.000000
186.44500732 76.60150146 290.62500000 0.933019 -0.001263 -0.359825 0.000000
188.61300659 145.25399780 384.37500000 0.042843 0.349236 0.936055 0.000000
82.38279724 97.19719696 296.25000000 -0.740788 0.335543 0.581932 0.000000
101.89499664 222.57800293 298.12500000 0.810370 0.029190 -0.585190 0.000000
120.68399811 217.51899719 309.37500000 0.580329 0.218204 -0.784605 0.000000
106.23000336 211.73800659 298.12500000 0.584042 0.584042 -0.563728 0.000000
72.98829651 227.63699341 309.37500000 -0.603977 0.765451 0.222027 0.000000
145.61500549 208.12500000 337.50000000 0.884227 0.456874 0.096998 0.000000
177.77299500 156.09399414 361.87500000 -0.694442 -0.685079 0.220037 0.000000
57.81250000 205.95700073 316.87500000 -0.901446 0.390867 0.186058 0.000000
55.28319931 163.32000732 303.75000000 -0.999999 0.000978 0.000978 0.000000
58.53509903 147.42199707 358.12500000 -0.981571 -0.157295 0.108521 0.000000
182.10899353 107.31400299 315.00000000 0.495042 0.498376 -0.711727 0.000000
100.44899750 102.61699677 294.37500000 -0.072632 0.827435 -0.556845 0.000000
130.80099487 82.74410248 352.50000000 -0.345881 -0.883582 0.315673 0.000000
177.05099487 79.49220276 350.62500000 0.001211 -0.960094 0.279674 0.000000
94.66790009 227.63699341 331.87500000 -0.048749 0.536237 0.842658 0.000000
106.95300293 187.16799927 286.87500000 -0.051244 -0.928969 -0.366594 0.000000
71.18160248 121.40599823 315.00000000 -0.700489 -0.700489 -0.136498 0.000000
179.94099426 166.57200623 363.75000000 0.392854 0.392854 0.831463 0.000000
207.40199280 82.38279724 309.37500000 0.914033 0.256393 -0.314335 0.000000
156.81599426 100.44899750 294.37500000 0.234371 0.693675 -0.681091 0.000000
110.56600189 229.08200073 331.87500000 0.000978 0.000978 0.999999 0.000000
213.90600586 111.28900146 376.87500000 0.444306 -0.102316 0.890013 0.000000
123.57399750 131.52299500 316.87500000 -0.240518 0.721553 -0.649240 0.000000
89.60929871 175.60499573 268.12500000 0.676726 0.169563 -0.716443 0.000000
178.49600220 170.54699707 335.62500000 0.688941 -0.643337 -0.333884 0.000000
177.77299500 140.91799927 335.62500000 0.682323 0.682323 -0.262432 0.000000
132.96899414 153.20300293 331.87500000 0.363316 -0.568598 -0.738037 0.000000
153.20300293 74.43360138 316.87500000 -0.106381 -0.993265 -0.045912 0.000000
201.62100220 79.85350037 352.50000000 0.041279 -0.959420 0.278945 0.000000
121.04499817 152.47999573 303.75000000 0.753777 -0.376074 -0.538877 0.000000
137.30499268 109.84400177 309.37500000 0.064207 0.794739 -0.603545 0.000000
142.36300659 198.72999573 358.12500000 0.450684 0.700141 0.553793 0.000000
84.55079651 146.69900513 403.12500000 -0.704755 0.179643 0.686330 0.000000
244.97999573 100.44899750 354.37500000 0.721309 -0.645548 0.250959 0.000000
173.43699646 146.69900513 328.12500000 -0.085819 0.754913 0.650185 0.000000
182.10899353 156.09399414 331.87500000 0.709508 0.073998 -0.700802 0.000000
113.45700073 140.55700684 307.50000000 0.696456 -0.690279 -0.196120 0.000000
86.71869659 203.06599426 358.12500000 -0.298912 0.573846 0.762464 0.000000
85.27339935 185.00000000 373.12500000 -0.485748 0.489063 0.724477 0.000000
71.54290009 132.96899414 384.37500000 -0.880159 -0.275332 0.386668 0.000000
59.25780106 194.39399719 339.37500000 0.000978 0.000978 0.999999 0.000000
149.58999634 194.39399719 328.12500000 0.855857 0.031496 -0.516253 0.000000
242.81199646 126.46499634 361.87500000 0.630351 0.630351 -0.453117 0.000000
183.19299316 164.76600647 345.00000000 0.884857 0.453013 -0.108667 0.000000
135.13699341 103.33999634 380.62500000 -0.001368 -0.603278 0.797530 0.000000
143.80900574 203.78900146 324.37500000 0.786669 0.588092 -0.187884 0.000000
64.31639862 211.37699890 292.50000000 -0.724522 0.611568 -0.317886 0.000000
122.12899780 108.03700256 382.50000000 -0.449239 -0.817519 0.360343 0.000000
176.32800293 162.59800720 331.87500000 0.343678 0.721561 -0.601029 0.000000
92.13860321 117.06999969 311.25000000 0.693991 -0.089123 -0.714446 0.000000
225.46899414 148.14399719 373.12500000 0.522297 -0.822503 -0.225154 0.000000
59.61909866 165.48800659 356.25000000 -0.901327 0.134421 0.411752 0.000000
100.44899750 220.41000366 294.37500000 0.593812 0.386553 -0.705666 0.000000
57.45119858 151.75799561 311.25000000 -0.948846 -0.221896 -0.224619 0.000000
205.23399353 127.18699646 350.62500000 0.232630 0.436744 -0.868986 0.000000
60.34180069 138.75000000 326.25000000 -0.839243 -0.534064 0.102206 0.000000
64.31639862 131.52299500 358.12500000 -0.780960 -0.541402 0.311426 0.000000
180.66400146 119.59999847 326.25000000 0.487518 0.541128 -0.685206 0.000000
101.17199707 114.18000031 399.37500000 0.160747 -0.906159 0.391199 0.000000
218.96499634 122.85199738 373.12500000 0.737035 -0.367701 0.567076 0.000000
70.09760284 224.74600220 309.37500000 -0.736065 0.672185 0.079849 0.000000
155.37100220 109.12100220 388.12500000 0.000978 0.000978 0.999999 0.000000
59.25780106 198.00799561 335.62500000 -0.740619 0.483299 0.466804 0.000000
55.28319931 184.27699280 296.25000000 -0.994675 0.102600 -0.009720 0.000000
125.74199677 93.22260284 373.12500000 -0.329575 -0.821571 0.465189 0.000000
239.19900513 91.77729797 339.37500000 0.510737 -0.510737 -0.691589 0.000000
55.28319931 164.76600647 311.25000000 -0.999999 -0.000978 -0.000978 0.000000
145.61500549 206.67999268 330.00000000 0.872653 0.178062 -0.454721 0.000000
99.00389862 232.69500732 328.12500000 -0.270420 0.857094 0.438478 0.000000
177.77299500 113.81800079 318.75000000 0.360994 0.596212 -0.717088 0.000000
56.36719894 184.27699280 343.12500000 -0.865851 0.001334 0.500299 0.000000
143.80900574 104.78500366 384.37500000 -0.000978 -0.000978 0.999999 0.000000
130.07800293 188.61300659 309.37500000 0.401052 0.701428 -0.589200 0.000000
90.69329834 127.18699646 292.50000000 0.700489 -0.700489 -0.136498 0.000000
89.60929871 129.35499573 271.87500000 0.720987 -0.538668 -0.435907 0.000000
97.55860138 242.08999634 305.62500000 0.271991 0.919590 -0.283504 0.000000
135.85899353 143.80900574 331.87500000 0.424199 0.899859 -0.101530 0.000000
106.95300293 190.78100586 290.62500000 0.345840 -0.024247 -0.937980 0.000000
143.80900574 184.27699280 376.87500000 0.209542 0.659668 0.721755 0.000000
66.84570313 155.37100220 378.75000000 -0.869249 0.274580 0.411111 0.000000
245.70300293 101.89499664 350.62500000 0.995021 0.003213 0.099609 0.000000
73.71089935 161.87500000 388.12500000 -0.654738 0.654738 0.377670 0.000000
138.75000000 82.74410248 360.00000000 0.584042 -0.584042 0.563728 0.000000
159.70700073 111.28900146 388.12500000 0.000978 0.000978 0.999999 0.000000
102.61699677 211.73800659 354.37500000 -0.097620 0.788242 0.607573 0.000000
77.68550110 109.84400177 307.50000000 -0.140300 -0.982103 -0.125660 0.000000
146.33799744 151.75799561 341.25000000 0.234440 -0.557376 -0.796473 0.000000
156.81599426 90.69329834 285.00000000 0.179013 0.732883 -0.656382 0.000000
109.84400177 156.81599426 286.87500000 0.692363 -0.035397 -0.720681 0.000000
127.18699646 224.74600220 313.12500000 0.453193 -0.224338 -0.862722 0.000000
53.83789825 165.48800659 341.25000000 -0.784937 0.616226 0.064339 0.000000
159.70700073 106.23000336 388.12500000 0.000978 0.000978 0.999999 0.000000
141.64100647 99.36519623 382.50000000 -0.531371 0.159262 0.832034 0.000000
68.65229797 204.14999390 270.00000000 -0.751322 0.584717 -0.305975 0.000000
74.43360138 132.96899414 249.37500000 0.974674 0.193934 -0.111356 0.000000
174.88299561 167.65600586 365.62500000 0.000978 0.000978 0.999999 0.000000
191.86500549 126.46499634 386.25000000 0.717329 0.336706 0.609974 0.000000
182.83200073 128.63299561 335.62500000 0.652022 0.113845 -0.749604 0.000000
91.77729797 161.15199280 264.37500000 0.844758 0.084048 -0.528508 0.000000
156.81599426 164.76600647 331.87500000 -0.000978 -0.000978 -0.999999 0.000000
215.35099792 89.97070313 367.50000000 -0.272335 -0.785521 0.555689 0.000000
114.18000031 119.23799896 403.12500000 0.556759 -0.573681 0.600758 0.000000
159.70700073 77.68550110 345.00000000 -0.041940 -0.949363 0.311371 0.000000
149.58999634 200.17599487 335.62500000 0.885088 0.359144 -0.296031 0.000000
105.50800323 93.22260284 346.87500000 0.000978 0.000978 0.999999 0.000000
165.48800659 97.91989899 382.50000000 -0.177416 -0.790030 0.586836 0.000000
122.12899780 192.58799744 375.00000000 0.073526 0.880923 0.467513 0.000000
55.64450073 194.39399719 331.87500000 -0.808647 0.523978 0.267464 0.000000
90.69329834 131.52299500 270.00000000 0.720987 -0.538668 -0.435907 0.000000
186.44500732 109.48200226 386.25000000 0.165755 -0.825786 0.539076 0.000000
96.11329651 104.42400360 360.00000000 -0.416592 -0.859318 0.296688 0.000000
173.79899597 152.47999573 345.00000000 -0.045425 -0.036973 0.998283 0.000000
127.18699646 151.03500366 406.87500000 0.271284 0.297397 0.915402 0.000000
117.06999969 110.92800140 386.25000000 -0.210387 -0.944677 0.251639 0.000000
73.71089935 222.93899536 292.50000000 -0.880946 0.473125 -0.009329 0.000000
95.39060211 186.08399963 378.75000000 -0.682323 0.682323 0.262432 0.000000
59.98040009 178.49600220 350.62500000 -0.800494 0.436487 0.410716 0.000000
125.38099670 217.51899719 311.25000000 0.530525 0.146301 -0.834949 0.000000
191.50399780 114.18000031 384.37500000 0.000978 0.000978 0.999999 0.000000
119.96099854 177.05099487 391.87500000 0.169230 0.681495 0.711987 0.000000
183.55499268 120.68399811 388.12500000 0.000978 0.000978 0.999999 0.000000
95.39060211 101.17199707 346.87500000 -0.261794 -0.788518 0.556509 0.000000
73.71089935 136.58200073 249.37500000 0.787347 -0.052490 -0.614272 0.000000
216.07400513 123.57399750 354.37500000 0.192352 0.737091 -0.647840 0.000000
122.85199738 117.79299927 395.62500000 0.620847 -0.604022 0.499706 0.000000
99.72650146 190.78100586 283.12500000 0.281250 0.092022 -0.955212 0.000000
53.83789825 137.30499268 251.25000000 -0.983523 -0.143606 0.109817 0.000000
66.48439789 139.47300720 376.87500000 -0.938198 -0.166211 0.303575 0.000000
150.67399597 197.28500366 333.75000000 0.832367 0.438999 -0.338297 0.000000
111.28900146 148.14399719 286.87500000 0.605493 -0.073350 -0.792463 0.000000
83.82810211 98.64250183 311.25000000 0.316419 -0.793433 0.519945 0.000000
237.03100586 101.89499664 365.62500000 0.514358 -0.524410 0.678550 0.000000
60.70309830 195.83999634 339.37500000 -0.684192 0.536982 0.493488 0.000000
99.00389862 148.14399719 410.62500000 0.000978 0.000978 0.999999 0.000000
189.33599854 82.74410248 360.00000000 0.229069 -0.891151 0.391634 0.000000
119.23799896 132.24600220 410.62500000 0.000978 0.000978 0.999999 0.000000
130.80099487 134.41400146 403.12500000 0.626715 -0.532117 0.569280 0.000000
203.78900146 121.40599823 380.62500000 0.000978 0.000978 0.999999 0.000000
69.37500000 194.39399719 253.12500000 -0.586626 0.482412 -0.650499 0.000000
166.93400574 79.85350037 348.75000000 0.001381 -0.719425 0.694569 0.000000
100.44899750 230.88900757 330.00000000 0.015359 0.733055 0.679996 0.000000
221.85499573 136.58200073 376.87500000 0.000978 0.000978 0.999999 0.000000
112.01200104 215.35099792 301.87500000 0.001334 0.500299 -0.865851 0.000000
229.08200073 99.72650146 346.87500000 -0.963679 0.192736 -0.184869 0.000000
76.60150146 114.18000031 346.87500000 -0.547885 -0.547885 0.632175 0.000000
88.88670349 229.08200073 328.12500000 -0.033800 0.955152 0.294182 0.000000
78.76950073 190.05900574 365.62500000 -0.615875 0.195053 0.763317 0.000000
54.19919968 177.77299500 301.87500000 -0.982047 -0.001143 -0.188635 0.000000
109.12100220 180.30299377 390.00000000 0.052979 0.723087 0.688722 0.000000
183.55499268 122.12899780 331.87500000 0.677183 0.473192 -0.563483 0.000000
220.41000366 109.12100220 373.12500000 0.172609 0.122937 0.977288 0.000000
109.84400177 151.03500366 286.87500000 0.676903 0.337636 -0.654068 0.000000
75.15619659 203.78900146 350.62500000 -0.684432 0.628627 0.369298 0.000000
161.87500000 143.08599854 331.87500000 -0.638387 0.425036 -0.641721 0.000000
76.24019623 140.19500732 251.25000000 0.831459 -0.234279 -0.503775 0.000000
108.39800262 143.08599854 286.87500000 0.000978 0.000978 -0.999999 0.000000
172.71499634 156.81599426 358.12500000 -0.268157 -0.534746 0.801335 0.000000
177.05099487 146.69900513 343.12500000 -0.417185 0.178794 0.891061 0.000000
126.46499634 125.74199677 403.12500000 0.821578 -0.492947 0.286379 0.000000
168.37899780 159.70700073 331.87500000 -0.405013 -0.226985 -0.885687 0.000000
117.79299927 180.30299377 390.00000000 0.079799 0.744305 0.663055 0.000000
94.30660248 172.71499634 273.75000000 0.723806 0.286007 -0.627937 0.000000
92.50000000 188.61300659 373.12500000 -0.365535 0.713039 0.598297 0.000000
221.85499573 138.02699280 376.87500000 0.000978 0.000978 0.999999 0.000000
75.15619659 141.64100647 249.37500000 0.881334 -0.108929 -0.459765 0.000000
75.87889862 127.91000366 256.87500000 0.287419 -0.162099 -0.943988 0.000000
205.95700073 92.50000000 373.12500000 0.260503 -0.443312 0.857679 0.000000
71.18160248 200.89799500 258.75000000 -0.721447 0.532378 -0.442819 0.000000
109.12100220 111.65000153 393.75000000 0.142206 -0.910965 0.387195 0.000000
63.59370041 141.64100647 369.37500000 -0.868871 -0.159171 0.468752 0.000000
114.18000031 195.11700439 298.12500000 0.431272 0.621098 -0.654401 0.000000
87.44139862 120.68399811 395.62500000 -0.865876 0.433694 0.249336 0.000000
230.52699280 93.22260284 361.87500000 0.420905 -0.755009 0.502793 0.000000
69.37500000 205.23399353 343.12500000 -0.729059 0.517450 0.448016 0.000000
90.33200073 232.33399963 322.50000000 -0.261018 0.835566 0.483424 0.000000
188.61300659 154.64799500 376.87500000 0.184815 0.597212 0.780500 0.000000
162.59800720 108.39800262 305.62500000 0.831738 0.278282 -0.480387 0.000000
104.78500366 165.48800659 406.87500000 -0.157668 -0.957930 0.239814 0.000000
224.74600220 125.38099670 360.00000000 0.284397 0.570383 -0.770573 0.000000
86.71869659 114.18000031 309.37500000 0.430490 -0.336565 -0.837498 0.000000
126.46499634 214.62899780 313.12500000 0.915228 0.180768 -0.360113 0.000000
171.99200439 132.24600220 391.87500000 0.488176 0.676065 0.551924 0.000000
66.12300110 196.56199646 262.50000000 -0.801872 0.489413 -0.342748 0.000000
179.94099426 78.76950073 346.87500000 -0.001143 -0.982047 0.188635 0.000000
83.10540009 141.64100647 256.87500000 0.597226 -0.246101 -0.763384 0.000000
64.67769623 202.34399414 277.50000000 -0.820208 0.510111 -0.258932 0.000000
83.10540009 127.54900360 397.50000000 -0.392854 -0.392854 0.831463 0.000000
169.10200500 111.28900146 388.12500000 0.000978 0.000978 0.999999 0.000000
99.36519623 182.10899353 281.25000000 0.389264 0.519561 -0.760612 0.000000
171.99200439 157.17799377 330.00000000 -0.495626 0.017556 -0.868359 0.000000
87.44139862 164.76600647 395.62500000 -0.242388 0.965746 0.092641 0.000000
156.81599426 151.75799561 343.12500000 0.700489 -0.700489 -0.136498 0.000000
104.78500366 193.67199707 373.12500000 -0.127861 0.818605 0.559944 0.000000
104.06199646 210.29299927 294.37500000 0.549219 0.417274 -0.724045 0.000000
116.34799957 78.76950073 320.62500000 -0.249427 -0.918410 0.307098 0.000000
182.10899353 130.07800293 388.12500000 0.000978 0.000978 0.999999 0.000000
190.05900574 134.41400146 384.37500000 0.205285 0.189392 0.960203 0.000000
148.14399719 104.06199646 298.12500000 -0.000978 -0.000978 -0.999999 0.000000
188.61300659 143.08599854 384.37500000 0.042843 0.349236 0.936055 0.000000
76.24019623 145.25399780 251.25000000 0.627116 -0.079657 -0.774843 0.000000
182.10899353 86.71869659 290.62500000 -0.000978 -0.000978 -0.999999 0.000000
117.79299927 202.34399414 301.87500000 0.587742 0.365088 -0.721990 0.000000
64.67769623 177.77299500 360.00000000 -0.700489 0.700489 0.136498 0.000000
114.18000031 111.28900146 391.87500000 0.890875 -0.297957 0.342875 0.000000
95.39060211 93.94529724 331.87500000 -0.295395 -0.752059 0.589193 0.000000
99.36519623 125.01899719 408.75000000 -0.781135 -0.119607 0.612799 0.000000
169.10200500 87.44139862 369.37500000 0.001263 -0.933019 0.359825 0.000000
87.44139862 104.06199646 324.37500000 -0.832862 -0.363688 0.417218 0.000000
231.25000000 132.24600220 373.12500000 0.000978 0.000978 0.999999 0.000000
78.76950073 113.81800079 318.75000000 -0.795890 -0.598009 -0.094576 0.000000
146.69900513 101.89499664 298.12500000 -0.000978 -0.000978 -0.999999 0.000000
52.75389862 178.13499451 337.50000000 -0.620587 0.620587 0.479315 0.000000
95.02929688 129.35499573 408.75000000 -0.388954 -0.506129 0.769771 0.000000
63.95510101 192.94900513 262.50000000 -0.822690 0.470333 -0.319323 0.000000
75.15619659 219.68699646 283.12500000 -0.696589 0.587385 -0.411997 0.000000
120.68399811 216.79699707 346.87500000 0.001143 0.982047 0.188635 0.000000
122.12899780 114.18000031 309.37500000 -0.237033 0.217851 -0.946761 0.000000
245.70300293 106.95300293 350.62500000 0.183605 0.163061 -0.969381 0.000000
221.13299561 145.25399780 369.37500000 0.732889 -0.535256 -0.419970 0.000000
225.46899414 134.41400146 365.62500000 -0.000978 -0.000978 -0.999999 0.000000
110.56600189 147.42199707 414.37500000 -0.000978 -0.000978 0.999999 0.000000
178.49600220 135.85899353 388.12500000 0.000978 0.000978 0.999999 0.000000
114.90200043 133.69099426 320.62500000 -0.357004 0.725419 -0.588486 0.000000
85.63469696 154.64799500 401.25000000 -0.491810 -0.163937 0.855130 0.000000
183.55499268 102.61699677 309.37500000 -0.000978 -0.000978 -0.999999 0.000000
184.27699280 160.79100037 371.25000000 0.094091 0.917726 -0.385909 0.000000
87.44139862 173.43699646 391.87500000 -0.402281 0.657224 0.637359 0.000000
177.77299500 104.78500366 388.12500000 0.000978 0.000978 0.999999 0.000000
195.83999634 97.19719696 315.00000000 0.541931 0.595955 -0.592578 0.000000
84.91210175 213.90600586 345.00000000 -0.247492 0.647892 0.720405 0.000000
123.57399750 138.75000000 410.62500000 0.570283 0.081879 0.817357 0.000000
175.60499573 98.28119659 298.12500000 0.152289 0.767476 -0.622726 0.000000
130.80099487 170.54699707 395.62500000 0.309103 0.574964 0.757543 0.000000
129.35499573 151.03500366 406.87500000 0.271284 0.297397 0.915402 0.000000
242.81199646 99.00389862 354.37500000 0.642249 -0.645568 0.413230 0.000000
128.63299561 168.01800537 397.50000000 0.197983 0.600087 0.775048 0.000000
136.58200073 218.24200439 320.62500000 0.817441 0.199413 -0.540394 0.000000
127.91000366 135.85899353 320.62500000 -0.000978 -0.000978 -0.999999 0.000000
190.05900574 157.53900146 369.37500000 0.321643 0.735416 -0.596414 0.000000
74.43360138 148.86700439 249.37500000 0.784323 0.155058 -0.600662 0.000000
135.13699341 182.83200073 309.37500000 -0.000978 -0.000978 -0.999999 0.000000
84.55079651 161.15199280 256.87500000 -0.000978 -0.000978 -0.999999 0.000000
244.25799561 120.32199860 367.50000000 0.467212 -0.165502 0.868517 0.000000
76.96289825 148.86700439 251.25000000 0.551682 -0.051940 -0.832436 0.000000
104.78500366 127.91000366 410.62500000 0.000978 0.000978 0.999999 0.000000
203.06599426 117.06999969 380.62500000 0.000978 0.000978 0.999999 0.000000
165.48800659 163.32000732 384.37500000 0.126444 0.288825 0.948995 0.000000
75.87889862 119.96099854 354.37500000 -0.568265 -0.704118 0.425784 0.000000
170.54699707 100.44899750 298.12500000 0.597903 0.687340 -0.412404 0.000000
108.39800262 194.39399719 373.12500000 0.009452 0.857455 0.514473 0.000000
123.57399750 119.23799896 313.12500000 -0.043364 0.560939 -0.826721 0.000000
122.85199738 209.57000732 354.37500000 -0.526238 0.844562 0.098938 0.000000
168.37899780 77.32420349 343.12500000 0.001143 -0.982047 0.188635 0.000000
146.69900513 91.77729797 376.87500000 0.517440 -0.605085 0.605085 0.000000
102.61699677 164.76600647 279.37500000 -0.000978 -0.000978 -0.999999 0.000000
114.18000031 105.50800323 376.87500000 -0.258661 -0.390235 0.883635 0.000000
95.39060211 127.91000366 305.62500000 0.585662 -0.725959 -0.360533 0.000000
133.69099426 98.28119659 294.37500000 -0.088056 0.812713 -0.575972 0.000000
114.90200043 227.63699341 305.62500000 -0.000978 -0.000978 -0.999999 0.000000
82.38279724 176.32800293 260.62500000 0.830827 0.093594 -0.548605 0.000000
140.55700684 185.00000000 315.00000000 0.830736 -0.539611 -0.136741 0.000000
116.34799957 154.64799500 410.62500000 0.261715 0.658254 0.705838 0.000000
92.50000000 178.49600220 388.12500000 -0.322809 0.803046 0.500910 0.000000
114.18000031 81.66010284 331.87500000 -0.723014 -0.372164 -0.582018 0.000000
56.00579834 146.69900513 330.00000000 -0.841495 -0.467841 -0.270205 0.000000
185.72300720 145.25399780 346.87500000 0.793348 0.333621 -0.509211 0.000000
91.05470276 98.28119659 331.87500000 -0.847624 -0.394933 0.354347 0.000000
63.95510101 213.90600586 322.50000000 -0.610552 0.617279 0.496178 0.000000
130.80099487 131.52299500 316.87500000 0.020792 0.270297 -0.962552 0.000000
95.39060211 148.14399719 268.12500000 0.620587 0.620587 -0.479315 0.000000
213.90600586 118.51599884 376.87500000 0.000978 0.000978 0.999999 0.000000
114.18000031 138.75000000 316.87500000 0.744597 -0.629083 -0.223223 0.000000
166.21099854 74.07219696 326.25000000 -0.422217 -0.845993 -0.325621 0.000000
100.44899750 219.68699646 343.12500000 -0.185952 0.855379 0.483475 0.000000
135.85899353 169.82400513 301.87500000 0.609851 -0.049524 -0.790967 0.000000
142.72500610 175.60499573 315.00000000 0.737035 0.367701 -0.567076 0.000000
70.45899963 204.51199341 266.25000000 -0.746356 0.589059 -0.309778 0.000000
106.23000336 220.41000366 343.12500000 -0.145925 0.879886 0.452224 0.000000
172.71499634 109.84400177 313.12500000 0.124207 0.932237 -0.339864 0.000000
89.60929871 192.22700500 369.37500000 -0.297809 0.565359 0.769207 0.000000
104.06199646 217.51899719 346.87500000 -0.070642 0.753991 0.653075 0.000000
84.18939972 229.08200073 285.00000000 -0.600403 0.788122 -0.135575 0.000000
140.91799927 208.84800720 324.37500000 0.726420 0.451737 -0.517926 0.000000
119.23799896 78.76950073 328.12500000 -0.654738 -0.654738 -0.377670 0.000000
87.44139862 206.67999268 354.37500000 -0.229407 0.849263 0.475526 0.000000
169.10200500 174.16000366 331.87500000 -0.000978 -0.000978 -0.999999 0.000000
118.51599884 230.52699280 309.37500000 0.703010 -0.086232 -0.705933 0.000000
193.67199707 150.31199646 361.87500000 0.307170 0.741389 -0.596649 0.000000
160.42999268 74.79489899 296.25000000 -0.238066 -0.953609 -0.184266 0.000000
