213.75000000 91.40619659 347.50000000 -0.136098 -0.339557 0.930687 0.000000
98.43750000 203.90600586 307.50000000 -0.570894 -0.316806 0.757439 0.000000
48.16410065 182.10899353 305.00000000 0.990125 0.001104 0.140185 0.000000
78.04689789 215.85899353 292.50000000 -0.845055 0.051681 0.532175 0.000000
98.43750000 217.26600647 412.50000000 -0.107115 -0.410374 -0.905605 0.000000
138.51600647 210.93800354 397.50000000 -0.271826 -0.881557 -0.385963 0.000000
192.65600586 132.18800354 412.50000000 -0.304849 0.275677 -0.911630 0.000000
70.31250000 145.54699707 417.50000000 0.314613 0.363249 -0.876966 0.000000
125.85900116 113.90599823 357.50000000 0.528410 0.123732 0.839925 0.000000
209.53100586 149.76600647 362.50000000 -0.160678 -0.806394 0.569131 0.000000
157.50000000 86.48439789 362.50000000 0.000978 0.000978 0.999999 0.000000
90.70310211 174.37500000 432.50000000 -0.000978 -0.000978 -0.999999 0.000000
156.79699707 161.01600647 362.50000000 0.511578 0.406974 0.756743 0.000000
99.14060211 209.53100586 417.50000000 0.080094 -0.392326 -0.916332 0.000000
116.71900177 160.31199646 437.50000000 0.844549 -0.249839 -0.473622 0.000000
63.28120041 230.27299500 325.00000000 0.610415 -0.764951 0.205532 0.000000
182.10899353 86.48439789 377.50000000 0.106401 0.936060 -0.335365 0.000000
125.85900116 208.82800293 332.50000000 -0.846613 -0.321558 0.424083 0.000000
61.17190170 141.32800293 382.50000000 0.000978 0.000978 0.999999 0.000000
156.79699707 164.53100586 362.50000000 0.306907 0.229823 0.923575 0.000000
158.20300293 137.81199646 422.50000000 -0.507110 0.473857 -0.719930 0.000000
208.12500000 138.51600647 357.50000000 -0.532900 -0.420710 0.734181 0.000000
172.26600647 165.23399353 362.50000000 -0.279802 -0.265453 0.922630 0.000000
170.15600586 135.00000000 417.50000000 -0.000978 -0.000978 -0.999999 0.000000
156.09399414 165.93800354 427.50000000 -0.428874 0.322825 -0.843713 0.000000
134.29699707 217.26600647 352.50000000 -0.919328 0.225171 0.322697 0.000000
62.57809830 201.44500732 415.00000000 0.537901 -0.457965 -0.707764 0.000000
184.21899414 139.21899414 417.50000000 -0.000978 -0.000978 -0.999999 0.000000
83.67189789 241.87500000 327.50000000 0.381613 -0.865910 0.323375 0.000000
118.12500000 185.62500000 427.50000000 -0.000978 -0.000978 -0.999999 0.000000
215.15600586 132.18800354 407.50000000 -0.000978 -0.000978 -0.999999 0.000000
109.68800354 123.75000000 412.50000000 0.243039 0.815806 -0.524778 0.000000
259.45300293 143.78900146 395.00000000 -0.541905 0.268596 0.796364 0.000000
127.96900177 167.34399414 327.50000000 -0.467837 0.014662 0.883693 0.000000
172.96899414 176.48399353 382.50000000 -0.313252 -0.910615 0.269542 0.000000
177.18800354 152.57800293 417.50000000 -0.000978 -0.000978 -0.999999 0.000000
99.14060211 151.17199707 432.50000000 -0.000978 -0.000978 -0.999999 0.000000
106.17199707 211.28900146 415.00000000 -0.058537 -0.618211 -0.783829 0.000000
61.87500000 227.10899353 392.50000000 0.435639 -0.723856 -0.535024 0.000000
88.59380341 125.85900116 412.50000000 0.107640 0.741682 -0.662058 0.000000
125.15599823 193.35899353 422.50000000 -0.440563 -0.367401 -0.819098 0.000000
202.50000000 158.90600586 367.50000000 -0.320241 -0.580939 0.748302 0.000000
64.68750000 167.34399414 422.50000000 0.197544 0.066656 -0.978025 0.000000
158.20300293 154.68800354 372.50000000 0.123086 0.985881 0.113526 0.000000
243.98399353 127.26599884 377.50000000 0.000978 0.000978 0.999999 0.000000
139.92199707 122.34400177 352.50000000 0.000978 0.000978 0.999999 0.000000
135.00000000 158.20300293 362.50000000 -0.223056 -0.132802 0.965717 0.000000
99.84380341 225.70300293 402.50000000 -0.705724 -0.708486 0.001381 0.000000
232.03100586 157.50000000 397.50000000 0.000978 0.000978 0.999999 0.000000
143.08599854 217.96899414 385.00000000 -0.907477 -0.154797 -0.390542 0.000000
102.65599823 138.86700439 425.00000000 0.229754 0.632996 -0.739276 0.000000
83.67189789 151.17199707 427.50000000 -0.000978 -0.000978 -0.999999 0.000000
120.23400116 137.81199646 327.50000000 -0.714242 0.569085 0.407432 0.000000
54.49219894 137.81199646 310.00000000 0.916833 0.320964 -0.237484 0.000000
206.01600647 125.85900116 407.50000000 -0.000978 -0.000978 -0.999999 0.000000
132.89100647 160.31199646 362.50000000 -0.239330 -0.332161 0.912354 0.000000
116.71900177 212.34399414 412.50000000 -0.361713 -0.617039 -0.698875 0.000000
116.01599884 205.31199646 417.50000000 -0.344726 -0.638804 -0.687818 0.000000
79.45310211 189.84399414 427.50000000 -0.000978 -0.000978 -0.999999 0.000000
241.17199707 107.57800293 387.50000000 0.000978 0.000978 -0.999999 0.000000
189.14100647 117.42199707 347.50000000 0.642636 -0.384921 0.662461 0.000000
101.95300293 192.65600586 307.50000000 0.000978 0.000978 0.999999 0.000000
199.68800354 121.64099884 347.50000000 0.000978 0.000978 0.999999 0.000000
113.20300293 225.70300293 402.50000000 -0.087319 -0.433825 -0.896756 0.000000
137.10899353 151.17199707 362.50000000 -0.737721 -0.496765 0.457156 0.000000
85.07810211 130.07800293 307.50000000 -0.556448 0.443498 0.702620 0.000000
203.20300293 97.73439789 342.50000000 0.000978 0.000978 0.999999 0.000000
98.43750000 251.71899414 347.50000000 0.094357 -0.979106 0.180136 0.000000
71.01560211 142.03100586 292.50000000 -0.102183 0.435329 0.894454 0.000000
190.54699707 163.12500000 372.50000000 -0.323753 -0.866920 0.378990 0.000000
182.81199646 172.26600647 382.50000000 -0.478355 -0.856867 0.192236 0.000000
204.60899353 120.23400116 347.50000000 -0.105223 -0.268904 0.957402 0.000000
122.34400177 244.33599854 365.00000000 -0.779993 -0.614852 0.116483 0.000000
87.89060211 197.57800293 302.50000000 0.000978 0.000978 0.999999 0.000000
118.82800293 206.36700439 415.00000000 -0.374710 -0.561247 -0.737966 0.000000
52.73440170 139.21899414 282.50000000 0.067903 0.877190 0.475318 0.000000
163.12500000 165.93800354 357.50000000 0.068126 -0.871733 0.485223 0.000000
134.64799500 161.71899414 345.00000000 -0.838994 0.442151 0.317162 0.000000
197.57800293 108.28099823 402.50000000 -0.016024 0.287198 -0.957737 0.000000
119.88300323 137.10899353 330.00000000 -0.714242 0.569085 0.407432 0.000000
226.40600586 151.52299500 410.00000000 0.249885 0.605068 -0.755943 0.000000
55.89839935 139.21899414 285.00000000 -0.515759 0.330533 0.790405 0.000000
206.01600647 99.14060211 392.50000000 -0.524105 0.652182 -0.547698 0.000000
148.00799561 204.60899353 375.00000000 -0.945905 -0.166924 0.278207 0.000000
132.89100647 213.75000000 347.50000000 -0.931607 -0.042997 0.360916 0.000000
49.92190170 157.50000000 392.50000000 0.867916 0.433203 0.243016 0.000000
211.64100647 119.53099823 407.50000000 0.000978 0.000978 -0.999999 0.000000
75.23439789 241.87500000 382.50000000 0.091295 -0.880643 -0.464901 0.000000
260.85900879 137.10899353 382.50000000 0.000978 0.000978 0.999999 0.000000
101.25000000 217.26600647 317.50000000 -0.269020 -0.148563 0.951608 0.000000
142.73399353 215.15600586 367.50000000 -0.000978 -0.000978 0.999999 0.000000
207.42199707 90.00000000 377.50000000 -0.355605 0.907156 -0.224975 0.000000
82.26560211 119.88300323 395.00000000 0.651091 0.734209 -0.192403 0.000000
44.29690170 212.34399414 387.50000000 0.780068 -0.475177 -0.407063 0.000000
94.57029724 205.31199646 305.00000000 -0.630034 -0.097940 0.770367 0.000000
137.81199646 130.07800293 352.50000000 0.000978 0.000978 0.999999 0.000000
165.23399353 134.29699707 417.50000000 -0.000978 -0.000978 -0.999999 0.000000
53.43750000 140.62500000 282.50000000 -0.474707 0.615610 0.629029 0.000000
55.19530106 206.01600647 295.00000000 0.897778 -0.361175 0.252085 0.000000
165.93800354 108.28099823 407.50000000 0.022238 0.914393 -0.404217 0.000000
106.87500000 249.60899353 342.50000000 -0.405311 -0.834278 0.373769 0.000000
118.82800293 125.85900116 417.50000000 0.242857 0.812103 -0.530574 0.000000
104.76599884 113.90599823 397.50000000 -0.563495 0.563495 -0.604108 0.000000
120.93800354 195.46899414 422.50000000 -0.116933 -0.271969 -0.955175 0.000000
51.32809830 141.32800293 282.50000000 -0.541203 -0.034604 0.840180 0.000000
142.73399353 213.75000000 387.50000000 -0.891104 -0.212867 -0.400777 0.000000
121.64099884 138.86700439 330.00000000 -0.761674 0.489765 0.424244 0.000000
192.65600586 164.53100586 377.50000000 -0.294334 -0.879983 0.372823 0.000000
145.54699707 119.18000031 410.00000000 0.153783 0.481854 -0.862651 0.000000
41.48440170 175.07800293 357.50000000 0.903714 0.284530 0.319912 0.000000
111.09400177 246.79699707 342.50000000 0.000978 0.000978 0.999999 0.000000
201.79699707 90.70310211 342.50000000 0.000978 0.000978 0.999999 0.000000
157.50000000 150.46899414 422.50000000 -0.363694 -0.439927 -0.821091 0.000000
48.16410065 160.31199646 370.00000000 0.891947 0.438223 0.111317 0.000000
141.32800293 164.53100586 427.50000000 -0.000978 -0.000978 -0.999999 0.000000
228.51600647 145.54699707 407.50000000 -0.000978 -0.000978 -0.999999 0.000000
155.39100647 124.45300293 352.50000000 0.000978 0.000978 0.999999 0.000000
206.71899414 123.75000000 407.50000000 -0.000978 -0.000978 -0.999999 0.000000
61.17190170 210.93800354 292.50000000 0.766744 -0.398837 0.503023 0.000000
134.29699707 162.42199707 432.50000000 -0.000978 -0.000978 -0.999999 0.000000
52.38280106 155.39100647 340.00000000 0.854781 0.513995 0.071819 0.000000
229.92199707 88.94529724 365.00000000 -0.511578 0.756743 -0.406974 0.000000
97.03119659 125.15599823 412.50000000 0.205721 0.617163 -0.759466 0.000000
254.53100586 139.92199707 387.50000000 0.000978 0.000978 0.999999 0.000000
46.40620041 222.18800354 362.50000000 0.921899 -0.001279 -0.387428 0.000000
174.37500000 172.96899414 412.50000000 -0.064428 -0.625664 -0.777427 0.000000
252.42199707 104.06199646 362.50000000 -0.164063 0.080235 0.983181 0.000000
259.45300293 142.03100586 402.50000000 -0.799069 0.400339 -0.448572 0.000000
73.12500000 131.48399353 407.50000000 0.542618 0.762904 -0.351487 0.000000
235.54699707 130.07800293 402.50000000 -0.158316 0.097890 -0.982524 0.000000
72.77339935 190.54699707 425.00000000 0.466924 -0.352185 -0.811140 0.000000
64.68750000 180.70300293 422.50000000 -0.000978 -0.000978 -0.999999 0.000000
115.31199646 131.83599854 330.00000000 -0.680626 0.674220 0.286664 0.000000
127.96900177 203.20300293 332.50000000 -0.878784 -0.253871 0.404090 0.000000
132.89100647 168.04699707 332.50000000 -0.863917 0.400501 0.305363 0.000000
91.40619659 177.89100647 432.50000000 -0.000978 -0.000978 -0.999999 0.000000
44.29690170 182.81199646 397.50000000 0.444357 0.887295 0.123511 0.000000
262.26599121 130.78100586 382.50000000 0.000978 0.000978 0.999999 0.000000
153.98399353 98.43750000 362.50000000 0.000978 0.000978 0.999999 0.000000
161.71899414 121.64099884 352.50000000 0.000978 0.000978 0.999999 0.000000
77.34380341 185.62500000 427.50000000 -0.000978 -0.000978 -0.999999 0.000000
180.70300293 173.67199707 382.50000000 -0.390068 -0.841231 0.374403 0.000000
100.54699707 196.87500000 307.50000000 -0.484061 -0.196322 0.852727 0.000000
85.78119659 245.39100647 377.50000000 -0.000978 -0.000978 -0.999999 0.000000
80.85939789 234.84399414 312.50000000 0.134203 -0.922819 0.361103 0.000000
133.59399414 90.00000000 382.50000000 0.243539 0.740044 -0.626916 0.000000
90.70310211 104.06199646 362.50000000 0.735527 0.514043 -0.441316 0.000000
46.40620041 174.37500000 332.50000000 0.990125 0.001104 0.140185 0.000000
220.07800293 97.03119659 382.50000000 -0.194814 0.780790 -0.593646 0.000000
105.46900177 157.50000000 307.50000000 -0.536030 0.336427 0.774266 0.000000
141.32800293 111.09400177 407.50000000 0.332824 0.299990 -0.893999 0.000000
88.59380341 155.39100647 432.50000000 -0.000978 -0.000978 -0.999999 0.000000
161.01600647 118.82800293 352.50000000 0.000978 0.000978 0.999999 0.000000
141.32800293 206.71899414 362.50000000 -0.703673 0.703673 -0.098426 0.000000
230.62500000 151.17199707 382.50000000 -0.565798 -0.562421 0.602955 0.000000
254.53100586 135.70300293 382.50000000 0.000978 0.000978 0.999999 0.000000
120.93800354 236.95300293 387.50000000 -0.181217 -0.787302 -0.589335 0.000000
187.73399353 139.92199707 352.50000000 0.601485 -0.329114 0.727942 0.000000
61.87500000 238.71099854 375.00000000 0.602958 -0.676043 -0.423565 0.000000
111.09400177 144.49200439 430.00000000 0.193759 0.451119 -0.871177 0.000000
53.78910065 216.56199646 320.00000000 0.944977 -0.314992 0.088303 0.000000
113.20300293 132.18800354 422.50000000 -0.001366 0.586138 -0.810210 0.000000
114.60900116 217.96899414 407.50000000 -0.092421 -0.412448 -0.906281 0.000000
164.53100586 113.90599823 412.50000000 -0.000978 -0.000978 -0.999999 0.000000
263.67199707 115.31199646 372.50000000 0.000978 0.000978 0.999999 0.000000
116.01599884 177.18800354 432.50000000 -0.000978 -0.000978 -0.999999 0.000000
142.73399353 90.70310211 362.50000000 0.000978 0.000978 0.999999 0.000000
42.53910065 196.17199707 395.00000000 0.817758 -0.001361 -0.575560 0.000000
139.21899414 129.02299500 415.00000000 -0.015282 0.643247 -0.765506 0.000000
227.10899353 150.46899414 407.50000000 -0.829278 -0.031842 -0.557928 0.000000
93.51560211 112.14800262 385.00000000 0.354622 0.894715 -0.271530 0.000000
67.50000000 191.95300293 422.50000000 0.333568 -0.559169 -0.758988 0.000000
201.79699707 137.10899353 412.50000000 -0.000978 -0.000978 -0.999999 0.000000
242.57800293 111.79699707 387.50000000 -0.421252 0.728518 -0.540193 0.000000
256.64099121 121.64099884 392.50000000 -0.108085 0.151805 -0.982483 0.000000
95.27339935 226.40600586 310.00000000 -0.675713 -0.279550 0.682103 0.000000
56.25000000 144.84399414 282.50000000 -0.561560 0.216932 0.798493 0.000000
153.28100586 169.45300293 362.50000000 0.000978 0.000978 0.999999 0.000000
139.21899414 95.62500000 362.50000000 0.000978 0.000978 0.999999 0.000000
103.35900116 134.64799500 315.00000000 -0.542688 0.398408 0.739433 0.000000
161.01600647 106.87500000 367.50000000 -0.260164 -0.404532 0.876737 0.000000
57.65620041 185.62500000 417.50000000 0.068826 -0.244021 -0.967324 0.000000
217.26600647 101.25000000 347.50000000 0.000978 0.000978 0.999999 0.000000
135.00000000 221.48399353 392.50000000 -0.561221 -0.248563 -0.789461 0.000000
251.01600647 120.23400116 372.50000000 0.837352 -0.394325 0.378615 0.000000
84.37500000 238.35899353 387.50000000 0.187421 -0.844144 -0.502288 0.000000
156.79699707 97.38279724 400.00000000 0.098283 0.740789 -0.664509 0.000000
233.43800354 118.12500000 362.50000000 -0.304939 -0.643760 0.701844 0.000000
83.67189789 178.59399414 432.50000000 -0.000978 -0.000978 -0.999999 0.000000
146.25000000 142.03100586 422.50000000 0.026713 0.177697 -0.983723 0.000000
176.83599854 177.18800354 410.00000000 -0.185583 -0.470638 -0.862589 0.000000
270.00000000 130.78100586 382.50000000 -0.836036 -0.114864 0.536517 0.000000
97.03119659 154.68800354 432.50000000 -0.000978 -0.000978 -0.999999 0.000000
116.01599884 236.25000000 337.50000000 -0.676903 -0.654068 0.337636 0.000000
66.09380341 233.43800354 327.50000000 0.610415 -0.764951 0.205532 0.000000
168.75000000 163.12500000 422.50000000 -0.125456 0.041819 -0.991217 0.000000
222.89100647 130.07800293 362.50000000 -0.524862 -0.271048 0.806878 0.000000
101.25000000 142.03100586 427.50000000 0.043251 0.258267 -0.965105 0.000000
130.07800293 208.82800293 407.50000000 -0.337657 -0.657372 -0.673684 0.000000
117.06999969 187.03100586 315.00000000 -0.640711 -0.070550 0.764534 0.000000
230.62500000 125.15599823 402.50000000 -0.097456 0.057129 -0.993599 0.000000
161.36700439 97.73439789 400.00000000 -0.041998 0.890088 -0.453850 0.000000
82.96880341 192.65600586 427.50000000 0.201103 -0.206431 -0.957572 0.000000
248.90600586 142.03100586 387.50000000 0.000978 0.000978 0.999999 0.000000
198.98399353 160.31199646 367.50000000 -0.368609 -0.926214 -0.079083 0.000000
246.09399414 126.56199646 377.50000000 0.000978 0.000978 0.999999 0.000000
120.23400116 104.41400146 390.00000000 0.262980 0.518180 -0.813838 0.000000
80.15619659 210.93800354 417.50000000 0.245659 -0.927255 -0.282578 0.000000
152.57800293 155.39100647 367.50000000 -0.415784 0.310679 0.854753 0.000000
106.17199707 181.05499268 305.00000000 -0.637947 -0.172048 0.750615 0.000000
115.31199646 104.76599884 352.50000000 -0.644657 0.255012 0.720685 0.000000
217.96899414 94.21880341 347.50000000 0.000978 0.000978 0.999999 0.000000
165.23399353 158.90600586 422.50000000 -0.000978 -0.000978 -0.999999 0.000000
161.01600647 135.70300293 357.50000000 0.027807 -0.238172 0.970825 0.000000
113.20300293 165.23399353 312.50000000 -0.646567 -0.168868 0.743932 0.000000
143.43800354 133.59399414 352.50000000 0.000978 0.000978 0.999999 0.000000
195.46899414 121.64099884 347.50000000 0.000978 0.000978 0.999999 0.000000
52.03120041 146.95300293 282.50000000 -0.271133 0.231798 0.934215 0.000000
131.48399353 92.10939789 382.50000000 -0.000978 -0.000978 -0.999999 0.000000
117.06999969 188.43800354 315.00000000 -0.584819 -0.072924 0.807879 0.000000
67.50000000 142.73399353 292.50000000 0.361861 0.896530 0.255519 0.000000
161.71899414 152.92999268 370.00000000 0.538868 0.501936 0.676522 0.000000
115.66400146 229.92199707 330.00000000 -0.524619 -0.477986 0.704488 0.000000
236.95300293 130.78100586 402.50000000 -0.236761 0.139964 -0.961433 0.000000
108.98400116 183.51600647 307.50000000 -0.540831 -0.120994 0.832384 0.000000
239.06199646 96.32810211 352.50000000 0.000978 0.000978 0.999999 0.000000
202.50000000 100.54699707 342.50000000 0.000978 0.000978 0.999999 0.000000
64.33589935 140.62500000 350.00000000 0.285034 0.852021 -0.439107 0.000000
197.57800293 119.53099823 347.50000000 0.000978 0.000978 0.999999 0.000000
102.30500031 126.56199646 415.00000000 0.133120 0.755343 -0.641667 0.000000
101.60199738 97.03119659 365.00000000 0.612195 0.432039 -0.662238 0.000000
123.75000000 121.64099884 357.50000000 -0.440674 0.050169 0.896264 0.000000
73.82810211 125.15599823 347.50000000 0.815149 0.263404 -0.515897 0.000000
198.98399353 136.40600586 352.50000000 0.000978 0.000978 0.999999 0.000000
184.21899414 167.34399414 372.50000000 -0.632924 -0.632924 0.445886 0.000000
104.06199646 248.20300293 337.50000000 -0.077122 -0.945071 0.317638 0.000000
116.71900177 227.81199646 327.50000000 -0.664623 -0.526650 0.530015 0.000000
182.10899353 84.37500000 372.50000000 -0.069564 0.901604 -0.426932 0.000000
63.28120041 191.25000000 417.50000000 0.808487 -0.379428 -0.449871 0.000000
159.60899353 139.21899414 357.50000000 0.389710 -0.205802 0.897648 0.000000
248.20300293 142.03100586 387.50000000 0.000978 0.000978 0.999999 0.000000
188.43800354 104.76599884 407.50000000 0.000978 0.000978 -0.999999 0.000000
103.35900116 212.34399414 412.50000000 -0.157883 -0.500210 -0.851389 0.000000
150.46899414 136.05499268 420.00000000 -0.110646 0.753865 -0.647645 0.000000
197.57800293 83.67189789 367.50000000 -0.036851 0.869412 -0.492712 0.000000
66.09380341 123.75000000 302.50000000 0.000978 0.000978 0.999999 0.000000
160.31199646 157.50000000 367.50000000 0.520218 0.761574 0.386495 0.000000
108.98400116 122.34400177 337.50000000 -0.663730 0.402210 0.630626 0.000000
114.25800323 123.04699707 345.00000000 -0.807486 0.482580 0.339240 0.000000
102.65599823 143.43800354 427.50000000 0.079749 0.382526 -0.920496 0.000000
72.42189789 246.09399414 352.50000000 0.544627 -0.836039 0.066487 0.000000
69.96089935 127.96900177 380.00000000 0.887295 0.444357 0.123511 0.000000
82.26560211 244.68800354 377.50000000 0.250548 -0.923448 -0.290636 0.000000
202.50000000 107.57800293 347.50000000 0.195930 -0.164789 0.966673 0.000000
89.29689789 239.06199646 387.50000000 0.401981 -0.699745 -0.590565 0.000000
111.79699707 114.60900116 347.50000000 -0.873818 0.232319 0.427166 0.000000
64.68750000 222.18800354 402.50000000 0.683963 -0.543491 -0.486634 0.000000
160.31199646 136.40600586 417.50000000 -0.095244 0.675501 -0.731182 0.000000
148.35899353 87.18750000 362.50000000 0.000978 0.000978 0.999999 0.000000
262.96899414 126.56199646 392.50000000 -0.104588 -0.027523 -0.994135 0.000000
83.67189789 140.62500000 302.50000000 -0.158545 0.168692 0.972834 0.000000
108.28099823 200.74200439 315.00000000 -0.285669 -0.598468 0.748484 0.000000
160.31199646 139.21899414 357.50000000 0.389710 -0.205802 0.897648 0.000000
217.26600647 103.35900116 387.50000000 -0.117943 0.211789 -0.970173 0.000000
161.71899414 127.26599884 352.50000000 -0.042580 -0.336767 0.940625 0.000000
125.15599823 95.62500000 357.50000000 -0.582790 0.345778 0.735387 0.000000
63.98440170 208.12500000 287.50000000 0.238381 -0.505982 0.828949 0.000000
267.18798828 113.90599823 372.50000000 -0.545177 -0.612691 0.572182 0.000000
81.56250000 185.62500000 427.50000000 -0.000978 -0.000978 -0.999999 0.000000
97.03119659 157.50000000 297.50000000 -0.821987 -0.421328 0.383170 0.000000
111.09400177 139.92199707 427.50000000 0.098150 0.243463 -0.964931 0.000000
148.35899353 156.79699707 427.50000000 0.000978 0.000978 -0.999999 0.000000
60.46879959 225.00000000 392.50000000 0.355280 -0.699100 -0.620512 0.000000
87.89060211 215.15600586 412.50000000 -0.000978 -0.000978 -0.999999 0.000000
104.06199646 182.81199646 432.50000000 -0.000978 -0.000978 -0.999999 0.000000
198.98399353 130.07800293 412.50000000 -0.000978 -0.000978 -0.999999 0.000000
236.25000000 127.96900177 372.50000000 -0.120949 -0.118554 0.985554 0.000000
183.51600647 129.37500000 352.50000000 0.000978 0.000978 0.999999 0.000000
189.14100647 163.82800293 412.50000000 -0.319568 -0.679691 -0.660225 0.000000
97.73439789 176.48399353 302.50000000 -0.717307 -0.644145 0.265610 0.000000
98.43750000 101.95300293 337.50000000 -0.642840 0.697895 0.315753 0.000000
54.84379959 149.76600647 282.50000000 -0.215125 0.291051 0.932207 0.000000
88.59380341 143.43800354 427.50000000 -0.000978 -0.000978 -0.999999 0.000000
131.48399353 213.75000000 342.50000000 -0.916747 -0.304620 0.258422 0.000000
112.50000000 121.64099884 412.50000000 0.372357 0.756096 -0.538210 0.000000
57.65620041 149.76600647 282.50000000 -0.365822 0.152776 0.918060 0.000000
73.82810211 142.73399353 292.50000000 -0.102183 0.435329 0.894454 0.000000
187.03100586 123.75000000 352.50000000 0.000978 0.000978 0.999999 0.000000
173.67199707 82.61720276 370.00000000 0.131073 0.925790 -0.354587 0.000000
59.76559830 149.76600647 282.50000000 -0.387544 0.830452 0.400199 0.000000
192.65600586 90.70310211 342.50000000 -0.170257 -0.571040 0.803072 0.000000
213.04699707 120.23400116 352.50000000 0.000978 0.000978 0.999999 0.000000
95.62500000 167.34399414 432.50000000 -0.000978 -0.000978 -0.999999 0.000000
66.09380341 218.32000732 295.00000000 0.505118 -0.748628 0.429433 0.000000
166.64100647 164.53100586 357.50000000 -0.551876 -0.833916 -0.004068 0.000000
209.53100586 87.89060211 342.50000000 -0.058355 -0.599205 0.798466 0.000000
59.06250000 127.96900177 312.50000000 0.894754 0.413518 -0.168577 0.000000
75.23439789 120.93800354 347.50000000 0.892058 0.218973 -0.395327 0.000000
98.43750000 118.82800293 402.50000000 -0.286225 0.957026 -0.046653 0.000000
143.43800354 217.96899414 382.50000000 -0.873386 0.091713 -0.478316 0.000000
160.31199646 94.92189789 362.50000000 -0.521602 -0.006739 0.853162 0.000000
57.65620041 156.09399414 412.50000000 0.954982 0.097713 -0.280111 0.000000
222.18800354 130.78100586 402.50000000 -0.302702 0.332525 -0.893196 0.000000
189.14100647 142.03100586 417.50000000 -0.448421 0.350181 -0.822370 0.000000
91.40619659 251.71899414 367.50000000 0.121516 -0.909272 -0.398068 0.000000
125.15599823 113.90599823 357.50000000 0.150197 0.094924 0.984089 0.000000
97.73439789 177.89100647 302.50000000 -0.079839 -0.200212 0.976494 0.000000
81.56250000 183.51600647 292.50000000 -0.800079 0.119349 0.587903 0.000000
71.71880341 205.31199646 417.50000000 0.469701 -0.566650 -0.676971 0.000000
41.83589935 208.82800293 385.00000000 0.909522 -0.349593 -0.224842 0.000000
73.12500000 187.73399353 427.50000000 0.333515 -0.114772 -0.935732 0.000000
161.01600647 113.90599823 352.50000000 0.000978 0.000978 0.999999 0.000000
67.50000000 146.25000000 417.50000000 0.554918 0.548171 -0.625759 0.000000
198.28100586 108.28099823 402.50000000 -0.016024 0.287198 -0.957737 0.000000
95.97660065 145.54699707 305.00000000 -0.391780 0.404469 0.826386 0.000000
228.51600647 135.00000000 367.50000000 -0.631984 0.226266 0.741215 0.000000
81.56250000 141.32800293 422.50000000 0.128200 0.314428 -0.940585 0.000000
259.45300293 133.59399414 397.50000000 -0.000978 -0.000978 -0.999999 0.000000
63.28120041 125.85900116 297.50000000 -0.336097 0.541936 0.770289 0.000000
238.35899353 96.32810211 352.50000000 0.000978 0.000978 0.999999 0.000000
77.34380341 220.07800293 292.50000000 -0.875205 0.115647 0.469726 0.000000
90.00000000 241.17199707 387.50000000 0.752294 -0.246577 -0.610945 0.000000
104.06199646 220.78100586 317.50000000 -0.202308 -0.215706 0.955271 0.000000
78.39839935 195.46899414 425.00000000 0.292473 -0.605723 -0.739973 0.000000
126.56199646 194.41400146 420.00000000 -0.375314 -0.588374 -0.716210 0.000000
144.14100647 113.90599823 352.50000000 -0.009623 0.597991 0.801445 0.000000
101.95300293 150.46899414 307.50000000 0.000978 0.000978 0.999999 0.000000
63.98440170 210.93800354 412.50000000 0.276265 -0.507266 -0.816308 0.000000
218.67199707 90.35160065 375.00000000 -0.219556 0.815274 -0.535839 0.000000
118.82800293 88.94529724 370.00000000 0.436417 0.855991 -0.277163 0.000000
237.65600586 157.50000000 402.50000000 -0.672491 -0.642895 0.366664 0.000000
81.56250000 184.92199707 292.50000000 -0.800978 0.216772 0.558071 0.000000
139.92199707 135.70300293 352.50000000 0.029900 -0.221264 0.974756 0.000000
49.21879959 200.39100647 402.50000000 0.819539 -0.249425 -0.515891 0.000000
146.95300293 96.32810211 362.50000000 0.000978 0.000978 0.999999 0.000000
87.18750000 235.54699707 392.50000000 0.232182 -0.777577 -0.584351 0.000000
251.01600647 112.50000000 387.50000000 -0.001374 0.787127 -0.616789 0.000000
111.09400177 153.28100586 432.50000000 -0.000978 -0.000978 -0.999999 0.000000
94.21880341 124.45300293 317.50000000 -0.226143 0.539975 0.810732 0.000000
62.57809830 151.52299500 285.00000000 -0.601387 0.684222 0.412521 0.000000
87.89060211 133.59399414 307.50000000 -0.358672 0.467071 0.808208 0.000000
92.81250000 208.12500000 302.50000000 -0.671870 -0.083073 0.735996 0.000000
234.84399414 132.89100647 372.50000000 0.000978 0.000978 0.999999 0.000000
105.46900177 249.96099854 345.00000000 -0.429433 -0.825588 0.366048 0.000000
189.14100647 156.79699707 417.50000000 -0.130788 -0.111590 -0.985110 0.000000
144.14100647 139.92199707 357.50000000 -0.097940 -0.630034 0.770367 0.000000
123.04699707 141.67999268 330.00000000 -0.815405 0.348097 0.462540 0.000000
206.01600647 128.67199707 407.50000000 -0.000978 -0.000978 -0.999999 0.000000
123.04699707 146.25000000 327.50000000 -0.860555 0.234422 0.452207 0.000000
98.43750000 141.32800293 307.50000000 -0.437222 0.450224 0.778547 0.000000
62.57809830 169.45300293 422.50000000 0.691678 -0.006931 -0.722173 0.000000
76.64060211 124.80500031 400.00000000 0.664332 0.742831 -0.082860 0.000000
146.25000000 195.46899414 372.50000000 -0.911527 0.049525 0.408246 0.000000
60.46879959 152.57800293 282.50000000 -0.601387 0.684222 0.412521 0.000000
231.32800293 138.51600647 372.50000000 -0.676140 -0.413658 0.609689 0.000000
234.84399414 144.84399414 407.50000000 -0.000978 -0.000978 -0.999999 0.000000
87.89060211 121.64099884 312.50000000 -0.946065 -0.322146 -0.034379 0.000000
61.87500000 136.75799561 390.00000000 0.846013 0.514646 0.139292 0.000000
247.50000000 140.62500000 402.50000000 -0.132622 0.217604 -0.966985 0.000000
180.70300293 92.46089935 390.00000000 -0.200264 0.841712 -0.501413 0.000000
105.46900177 126.56199646 417.50000000 0.215597 0.767772 -0.603360 0.000000
73.82810211 202.50000000 287.50000000 -0.830689 0.069579 0.552372 0.000000
87.89060211 188.43800354 432.50000000 -0.431687 -0.212135 -0.876724 0.000000
66.44529724 225.00000000 305.00000000 0.569720 -0.753709 0.327630 0.000000
51.32809830 156.44500732 345.00000000 0.854781 0.513995 0.071819 0.000000
133.59399414 174.37500000 432.50000000 -0.477476 -0.356111 -0.803245 0.000000
163.82800293 159.60899353 362.50000000 0.125478 0.421549 0.898082 0.000000
80.15619659 243.98399353 337.50000000 0.452320 -0.864066 0.220900 0.000000
243.98399353 120.23400116 397.50000000 -0.000978 -0.000978 -0.999999 0.000000
79.45310211 119.88300323 385.00000000 0.577120 0.813669 -0.069824 0.000000
230.62500000 137.10899353 402.50000000 -0.573233 -0.106478 -0.812445 0.000000
86.48439789 233.43800354 397.50000000 0.136649 -0.731298 -0.668229 0.000000
89.29689789 123.04699707 407.50000000 -0.921727 0.232932 -0.310100 0.000000
184.92199707 104.06199646 347.50000000 0.000978 0.000978 0.999999 0.000000
87.18750000 143.43800354 427.50000000 -0.000978 -0.000978 -0.999999 0.000000
92.81250000 142.03100586 302.50000000 -0.446096 0.324006 0.834277 0.000000
48.51559830 153.98399353 282.50000000 0.690803 0.608369 0.390741 0.000000
211.64100647 122.34400177 407.50000000 -0.000978 -0.000978 -0.999999 0.000000
103.35900116 222.89100647 407.50000000 -0.282419 -0.282419 -0.916776 0.000000
63.98440170 176.48399353 422.50000000 -0.000978 -0.000978 -0.999999 0.000000
101.95300293 123.04699707 412.50000000 0.058912 0.728494 -0.682514 0.000000
120.23400116 229.92199707 332.50000000 -0.560237 -0.411502 0.718888 0.000000
56.95309830 205.31199646 407.50000000 0.438260 -0.148003 -0.886579 0.000000
64.68750000 196.87500000 417.50000000 0.526815 -0.212253 -0.823052 0.000000
87.89060211 110.39099884 322.50000000 -0.652613 0.384959 0.652613 0.000000
229.92199707 109.68800354 387.50000000 -0.029626 0.706796 -0.706796 0.000000
226.40600586 126.56199646 362.50000000 0.000978 0.000978 0.999999 0.000000
153.28100586 180.70300293 392.50000000 -0.703673 -0.703673 0.098426 0.000000
238.35899353 95.97660065 375.00000000 -0.300949 0.626037 -0.719380 0.000000
129.37500000 187.73399353 327.50000000 -0.593615 -0.004113 0.804739 0.000000
107.57800293 192.65600586 307.50000000 0.000978 0.000978 0.999999 0.000000
246.79699707 150.46899414 397.50000000 -0.361388 -0.724411 0.587051 0.000000
143.08599854 187.73399353 365.00000000 -0.984704 -0.040883 0.169374 0.000000
117.42199707 169.45300293 432.50000000 -0.000978 -0.000978 -0.999999 0.000000
76.64060211 153.28100586 292.50000000 -0.804930 0.294563 0.515092 0.000000
108.98400116 206.71899414 317.50000000 -0.666924 -0.559410 0.492213 0.000000
148.35899353 182.10899353 402.50000000 -0.402335 -0.902766 -0.152120 0.000000
238.35899353 126.56199646 372.50000000 -0.143033 -0.207463 0.967730 0.000000
118.82800293 210.23399353 322.50000000 -0.898571 -0.285707 0.333078 0.000000
144.14100647 154.68800354 367.50000000 0.000978 0.000978 0.999999 0.000000
215.85899353 114.60900116 397.50000000 -0.108497 0.233588 -0.966263 0.000000
143.43800354 196.87500000 367.50000000 -0.889388 0.114532 0.442573 0.000000
246.79699707 123.04699707 397.50000000 -0.000978 -0.000978 -0.999999 0.000000
198.28100586 118.82800293 412.50000000 0.110078 0.983444 -0.143948 0.000000
81.56250000 237.30499268 390.00000000 0.379305 -0.707708 -0.596051 0.000000
199.68800354 117.42199707 407.50000000 -0.383480 0.692896 -0.610605 0.000000
197.57800293 129.37500000 352.50000000 -0.026039 -0.283950 0.958485 0.000000
118.82800293 177.89100647 317.50000000 -0.870564 0.088891 0.483960 0.000000
134.29699707 211.64100647 402.50000000 -0.484996 -0.813592 -0.320698 0.000000
146.60200500 180.70300293 370.00000000 -0.780859 -0.520036 0.346154 0.000000
95.62500000 206.01600647 417.50000000 -0.000978 -0.000978 -0.999999 0.000000
158.90600586 91.75779724 390.00000000 -0.051176 0.861692 -0.504844 0.000000
113.20300293 114.60900116 347.50000000 -0.905308 0.241318 0.349546 0.000000
120.93800354 231.32800293 392.50000000 -0.804610 -0.482766 -0.345744 0.000000
76.64060211 243.98399353 377.50000000 0.237633 -0.892969 -0.382279 0.000000
68.20310211 128.67199707 297.50000000 -0.561437 0.362900 0.743701 0.000000
114.60900116 177.89100647 312.50000000 -0.699251 -0.117284 0.705190 0.000000
49.92190170 217.26600647 342.50000000 0.828536 -0.465171 0.311680 0.000000
113.90599823 117.42199707 402.50000000 -0.921899 -0.001279 -0.387428 0.000000
49.21879959 170.85899353 402.50000000 0.782021 0.430843 -0.450353 0.000000
85.78119659 236.95300293 392.50000000 0.243973 -0.722475 -0.646922 0.000000
97.73439789 184.92199707 302.50000000 0.000978 0.000978 0.999999 0.000000
166.64100647 140.62500000 362.50000000 0.768209 -0.639942 -0.018125 0.000000
111.79699707 92.10939789 372.50000000 0.537513 0.703926 -0.464292 0.000000
62.57809830 189.84399414 417.50000000 0.628332 -0.581165 -0.517152 0.000000
239.76600647 115.31199646 367.50000000 0.000978 0.000978 0.999999 0.000000
109.68800354 97.73439789 372.50000000 0.930687 0.339557 -0.136098 0.000000
54.14059830 207.07000732 300.00000000 0.893962 -0.346578 0.284104 0.000000
87.18750000 234.14100647 312.50000000 -0.233323 -0.734418 0.637331 0.000000
165.23399353 118.82800293 352.50000000 0.000978 0.000978 0.999999 0.000000
113.90599823 230.62500000 397.50000000 -0.035042 -0.598510 -0.800349 0.000000
137.81199646 197.57800293 347.50000000 -0.775604 -0.581311 0.246000 0.000000
151.17199707 130.07800293 417.50000000 -0.000978 -0.000978 -0.999999 0.000000
56.25000000 213.75000000 307.50000000 0.905862 -0.300975 0.298039 0.000000
97.03119659 159.60899353 297.50000000 -0.806886 0.023609 0.590235 0.000000
44.29690170 177.89100647 347.50000000 0.961015 0.107354 0.254805 0.000000
252.42199707 106.17199707 362.50000000 0.017100 -0.165299 0.986095 0.000000
113.90599823 99.14060211 357.50000000 -0.447523 0.295768 0.843946 0.000000
151.17199707 108.28099823 357.50000000 0.076568 0.377469 0.922851 0.000000
51.32809830 157.14799500 340.00000000 0.854781 0.513995 0.071819 0.000000
168.75000000 177.18800354 412.50000000 -0.082773 -0.753671 -0.652019 0.000000
208.82800293 123.04699707 407.50000000 -0.000978 -0.000978 -0.999999 0.000000
144.84399414 92.81250000 362.50000000 0.000978 0.000978 0.999999 0.000000
115.31199646 245.39100647 377.50000000 0.000978 0.000978 -0.999999 0.000000
109.68800354 242.57800293 382.50000000 -0.255786 -0.823167 -0.506922 0.000000
224.29699707 127.26599884 402.50000000 -0.000978 -0.000978 -0.999999 0.000000
247.50000000 111.79699707 387.50000000 -0.108805 0.885987 -0.450765 0.000000
141.67999268 182.81199646 420.00000000 -0.569522 -0.819487 -0.063911 0.000000
94.21880341 224.29699707 307.50000000 -0.281473 -0.219857 0.934043 0.000000
141.32800293 187.73399353 357.50000000 -0.949363 0.109593 0.294448 0.000000
194.76600647 152.57800293 412.50000000 -0.695314 -0.251834 -0.673140 0.000000
262.96899414 113.90599823 382.50000000 -0.548171 0.625759 -0.554918 0.000000
180.70300293 103.35900116 407.50000000 -0.377751 0.359096 -0.853437 0.000000
55.89839935 215.15600586 310.00000000 0.485742 -0.731100 0.479111 0.000000
262.26599121 111.79699707 382.50000000 -0.365559 0.624564 -0.690135 0.000000
74.53119659 127.26599884 357.50000000 0.819439 0.567744 0.078655 0.000000
109.68800354 217.26600647 407.50000000 -0.000978 -0.000978 -0.999999 0.000000
108.28099823 153.28100586 432.50000000 -0.000978 -0.000978 -0.999999 0.000000
142.73399353 84.02339935 375.00000000 0.123350 0.891809 -0.435271 0.000000
119.53099823 178.59399414 317.50000000 -0.860374 -0.068550 0.505032 0.000000
145.54699707 137.10899353 422.50000000 -0.017186 0.434944 -0.900294 0.000000
125.85900116 129.37500000 357.50000000 0.872551 -0.352994 0.337712 0.000000
224.29699707 156.44500732 385.00000000 -0.314673 -0.834433 0.452441 0.000000
115.31199646 149.06199646 317.50000000 0.000978 0.000978 0.999999 0.000000
106.87500000 215.85899353 322.50000000 -0.732071 -0.104582 0.673152 0.000000
102.65599823 243.63299561 330.00000000 -0.445221 -0.750797 0.487936 0.000000
267.89099121 125.85900116 377.50000000 -0.639380 0.139256 0.756175 0.000000
47.81250000 180.70300293 307.50000000 0.990125 -0.001104 0.140185 0.000000
198.28100586 84.37500000 337.50000000 0.000978 0.000978 0.999999 0.000000
242.57800293 121.64099884 397.50000000 -0.000978 -0.000978 -0.999999 0.000000
194.76600647 104.06199646 402.50000000 0.114813 0.241235 -0.963651 0.000000
108.28099823 99.49220276 350.00000000 0.784319 0.553915 -0.279325 0.000000
117.42199707 243.28100586 347.50000000 -0.634511 -0.714829 0.293963 0.000000
206.01600647 82.96880341 342.50000000 0.000978 0.000978 0.999999 0.000000
87.18750000 136.05499268 305.00000000 -0.444274 0.396158 0.803542 0.000000
65.39060211 160.31199646 422.50000000 -0.000978 -0.000978 -0.999999 0.000000
175.78100586 153.28100586 362.50000000 0.236016 -0.058077 0.970012 0.000000
61.52339935 122.34400177 315.00000000 0.697224 0.523336 0.489896 0.000000
114.60900116 161.01600647 312.50000000 -0.742324 0.052921 0.667948 0.000000
65.39060211 158.20300293 282.50000000 -0.392970 0.115253 0.912300 0.000000
59.06250000 132.18800354 317.50000000 0.927436 0.107588 -0.358173 0.000000
259.45300293 134.29699707 382.50000000 0.000978 0.000978 0.999999 0.000000
166.64100647 124.80500031 415.00000000 0.170464 0.499535 -0.849357 0.000000
260.15600586 137.81199646 397.50000000 -0.000978 -0.000978 -0.999999 0.000000
82.96880341 219.37500000 302.50000000 -0.643815 0.070575 0.761920 0.000000
157.85200500 175.07800293 375.00000000 0.641473 -0.523617 -0.560658 0.000000
56.95309830 184.21899414 417.50000000 0.012648 -0.182816 -0.983066 0.000000
124.10199738 144.14100647 330.00000000 -0.790933 0.316692 0.523575 0.000000
157.50000000 173.67199707 417.50000000 -0.000978 -0.999999 -0.000978 0.000000
89.29689789 241.17199707 387.50000000 0.417618 -0.660535 -0.623931 0.000000
96.32810211 116.01599884 322.50000000 0.000978 0.000978 0.999999 0.000000
43.24219894 208.82800293 350.00000000 0.967973 -0.189976 0.164129 0.000000
243.98399353 116.71900177 392.50000000 -0.000978 -0.000978 -0.999999 0.000000
144.14100647 196.17199707 407.50000000 -0.421015 -0.405006 -0.811614 0.000000
120.93800354 230.62500000 392.50000000 -0.804610 -0.482766 -0.345744 0.000000
114.60900116 131.48399353 332.50000000 -0.680626 0.674220 0.286664 0.000000
142.73399353 111.44499969 355.00000000 0.001373 0.778585 0.627537 0.000000
144.14100647 131.48399353 417.50000000 0.090577 0.366365 -0.926052 0.000000
249.60899353 125.15599823 377.50000000 0.000978 0.000978 0.999999 0.000000
181.40600586 100.54699707 402.50000000 0.189519 0.817204 -0.544297 0.000000
93.16410065 113.90599823 390.00000000 0.293956 0.902548 -0.314636 0.000000
165.93800354 112.50000000 372.50000000 0.036663 0.881271 0.471188 0.000000
104.41400146 204.60899353 420.00000000 -0.357576 -0.449751 -0.818452 0.000000
145.54699707 151.17199707 427.50000000 -0.000978 -0.000978 -0.999999 0.000000
126.56199646 99.49220276 390.00000000 0.475693 0.752220 -0.455941 0.000000
92.10939789 233.43800354 312.50000000 -0.136776 -0.906671 0.399048 0.000000
108.28099823 190.54699707 427.50000000 -0.252749 -0.082556 -0.964003 0.000000
38.32030106 196.17199707 380.00000000 0.990125 0.001104 -0.140185 0.000000
170.85899353 183.16400146 395.00000000 -0.446914 -0.892460 -0.061502 0.000000
97.03119659 248.20300293 337.50000000 0.026256 -0.953951 0.298813 0.000000
46.40620041 173.67199707 402.50000000 0.545969 0.475845 -0.689557 0.000000
253.82800293 102.65599823 362.50000000 -0.199248 0.170598 0.964985 0.000000
48.51559830 159.96099854 300.00000000 0.000978 0.000978 -0.999999 0.000000
123.04699707 114.96099854 400.00000000 0.297231 0.724602 -0.621776 0.000000
206.36700439 159.60899353 370.00000000 -0.283630 -0.816415 0.503012 0.000000
184.92199707 166.64100647 412.50000000 -0.000978 -0.000978 -0.999999 0.000000
147.30499268 206.71899414 390.00000000 -0.648090 -0.577390 -0.496589 0.000000
78.04689789 138.51600647 297.50000000 -0.545600 0.417029 0.726917 0.000000
62.57809830 160.31199646 282.50000000 -0.392970 0.115253 0.912300 0.000000
104.76599884 111.79699707 342.50000000 -0.668903 0.471082 0.575022 0.000000
57.65620041 197.57800293 412.50000000 0.466862 -0.188227 -0.864066 0.000000
57.65620041 130.78100586 312.50000000 0.875529 0.360870 -0.321281 0.000000
113.20300293 115.31199646 347.50000000 -0.905308 0.241318 0.349546 0.000000
125.15599823 187.03100586 427.50000000 0.197407 -0.583039 -0.788097 0.000000
225.00000000 114.25800323 395.00000000 0.127721 0.876829 -0.463528 0.000000
99.84380341 207.07000732 310.00000000 -0.717960 -0.340258 0.607254 0.000000
80.85939789 201.79699707 297.50000000 -0.920472 -0.233339 0.313504 0.000000
225.70300293 130.07800293 402.50000000 -0.000978 -0.000978 -0.999999 0.000000
180.70300293 80.15619659 362.50000000 -0.175214 0.946701 -0.270292 0.000000
108.98400116 246.79699707 342.50000000 -0.444448 -0.850448 0.281432 0.000000
117.06999969 234.84399414 335.00000000 -0.581165 -0.628332 0.517152 0.000000
82.26560211 137.81199646 422.50000000 0.089294 0.278235 -0.956353 0.000000
128.67199707 116.71900177 402.50000000 0.496828 0.405607 -0.767232 0.000000
133.59399414 203.90600586 342.50000000 -0.609152 -0.678864 0.409974 0.000000
90.35160065 215.15600586 305.00000000 -0.515074 -0.095595 0.851798 0.000000
79.45310211 175.07800293 287.50000000 -0.219589 0.166993 0.961194 0.000000
66.09380341 161.01600647 282.50000000 -0.392970 0.115253 0.912300 0.000000
107.57800293 241.17199707 332.50000000 -0.507653 -0.735849 0.448124 0.000000
117.42199707 118.12500000 352.50000000 -0.435769 0.656157 0.616087 0.000000
131.48399353 182.10899353 332.50000000 -0.909345 0.115583 0.399666 0.000000
177.89100647 86.48439789 377.50000000 -0.131743 0.938496 -0.319170 0.000000
178.59399414 178.24200439 395.00000000 -0.703673 -0.703673 0.098426 0.000000
138.51600647 165.58599854 350.00000000 -0.866867 0.497872 0.025775 0.000000
112.14800262 183.51600647 310.00000000 -0.663138 -0.139846 0.735317 0.000000
142.73399353 172.96899414 427.50000000 -0.000978 -0.000978 -0.999999 0.000000
88.59380341 236.25000000 392.50000000 0.215916 -0.813130 -0.540555 0.000000
193.71099854 78.75000000 350.00000000 0.001205 0.962562 -0.271059 0.000000
110.39099884 234.84399414 327.50000000 -0.636641 -0.449492 0.626615 0.000000
184.92199707 113.90599823 412.50000000 -0.000978 -0.000978 -0.999999 0.000000
63.28120041 153.98399353 417.50000000 0.422188 0.211835 -0.881410 0.000000
110.39099884 125.85900116 417.50000000 -0.113907 0.658293 -0.744093 0.000000
84.37500000 222.18800354 302.50000000 -0.778674 -0.241873 0.578934 0.000000
118.82800293 130.42999268 420.00000000 0.097943 0.615432 -0.782081 0.000000
105.81999969 106.87500000 345.00000000 -0.630701 0.362039 0.686399 0.000000
125.85900116 177.89100647 322.50000000 -0.676192 -0.038275 0.735731 0.000000
215.50799561 87.18750000 345.00000000 -0.466201 -0.569802 0.676744 0.000000
55.54690170 150.11700439 365.00000000 0.752933 0.626156 0.202534 0.000000
209.53100586 158.90600586 372.50000000 -0.395132 -0.868069 0.300544 0.000000
68.90619659 126.91400146 340.00000000 0.849423 0.428580 -0.307896 0.000000
45.70309830 192.65600586 327.50000000 0.989393 -0.030670 0.141991 0.000000
172.26600647 142.03100586 417.50000000 -0.000978 -0.000978 -0.999999 0.000000
103.35900116 182.10899353 432.50000000 -0.000978 -0.000978 -0.999999 0.000000
159.25799561 110.39099884 410.00000000 0.170717 0.850614 -0.497305 0.000000
46.40620041 222.89100647 362.50000000 0.921899 -0.001279 -0.387428 0.000000
79.45310211 134.29699707 417.50000000 0.390541 0.581692 -0.713521 0.000000
61.87500000 157.50000000 417.50000000 0.013293 -0.259820 -0.965565 0.000000
127.96900177 184.21899414 427.50000000 -0.181927 -0.337059 -0.923739 0.000000
174.37500000 132.18800354 357.50000000 0.258484 -0.549866 0.794250 0.000000
118.82800293 148.35899353 322.50000000 -0.853084 -0.034343 0.520642 0.000000
150.11700439 195.46899414 385.00000000 -0.860767 0.479845 0.169791 0.000000
241.87500000 105.46900177 362.50000000 -0.191535 -0.306176 0.932508 0.000000
207.42199707 146.95300293 412.50000000 -0.823222 -0.275445 -0.496423 0.000000
81.56250000 155.39100647 427.50000000 -0.000978 -0.000978 -0.999999 0.000000
47.81250000 218.67199707 382.50000000 0.977360 -0.194981 -0.082162 0.000000
223.59399414 157.50000000 412.50000000 0.203278 -0.244207 -0.948178 0.000000
172.96899414 92.10939789 392.50000000 -0.703673 0.703673 -0.098426 0.000000
59.76559830 222.18800354 397.50000000 0.365307 -0.786940 -0.497269 0.000000
104.06199646 193.35899353 427.50000000 -0.000978 -0.000978 -0.999999 0.000000
206.01600647 133.59399414 407.50000000 -0.708710 0.226850 -0.668034 0.000000
110.74199677 194.06199646 425.00000000 -0.411401 -0.421006 -0.808395 0.000000
176.48399353 106.17199707 407.50000000 -0.081459 0.234351 -0.968733 0.000000
155.39100647 153.28100586 427.50000000 -0.802700 0.363698 -0.472648 0.000000
49.92190170 155.39100647 372.50000000 0.895263 0.434363 0.099163 0.000000
181.75799561 172.26600647 410.00000000 -0.568692 -0.760926 -0.312380 0.000000
162.42199707 154.68800354 422.50000000 -0.000978 -0.000978 -0.999999 0.000000
127.26599884 95.62500000 362.50000000 -0.461512 -0.329202 0.823792 0.000000
248.20300293 118.12500000 392.50000000 -0.018458 0.284249 -0.958573 0.000000
65.39060211 164.53100586 422.50000000 0.282155 0.167657 -0.944606 0.000000
160.31199646 115.31199646 352.50000000 0.000978 0.000978 0.999999 0.000000
216.56199646 114.60900116 397.50000000 -0.108497 0.233588 -0.966263 0.000000
228.16400146 97.03119659 350.00000000 -0.559122 -0.258418 0.787783 0.000000
113.20300293 220.07800293 322.50000000 -0.000978 -0.000978 0.999999 0.000000
137.10899353 222.53900146 365.00000000 -0.253309 -0.756781 0.602592 0.000000
248.20300293 112.85199738 390.00000000 -0.336706 0.717329 -0.609974 0.000000
204.60899353 118.12500000 347.50000000 0.000978 0.000978 0.999999 0.000000
49.92190170 181.40600586 287.50000000 0.955907 -0.193855 0.220594 0.000000
130.07800293 115.31199646 402.50000000 0.496828 0.405607 -0.767232 0.000000
171.56199646 144.84399414 417.50000000 -0.000978 -0.000978 -0.999999 0.000000
189.84399414 100.54699707 402.50000000 -0.228493 0.918283 -0.323339 0.000000
99.84380341 94.21880341 362.50000000 -0.372823 0.879983 -0.294334 0.000000
80.15619659 248.90600586 352.50000000 0.287809 -0.940544 0.180397 0.000000
102.65599823 184.92199707 302.50000000 -0.349420 -0.166992 0.921965 0.000000
48.16410065 165.23399353 300.00000000 0.997324 0.067199 0.028800 0.000000
184.21899414 98.43750000 347.50000000 0.632776 -0.286752 0.719283 0.000000
182.81199646 153.28100586 417.50000000 -0.000978 -0.000978 -0.999999 0.000000
124.45300293 88.94529724 375.00000000 0.616017 0.548509 -0.565386 0.000000
155.39100647 152.57800293 372.50000000 -0.170222 0.145004 0.974679 0.000000
221.48399353 88.59380341 347.50000000 0.000978 0.000978 0.999999 0.000000
182.81199646 125.85900116 352.50000000 0.000978 0.000978 0.999999 0.000000
108.28099823 163.12500000 432.50000000 -0.000978 -0.000978 -0.999999 0.000000
77.69529724 168.75000000 430.00000000 0.553441 0.220452 -0.803184 0.000000
54.84379959 220.07800293 397.50000000 0.329440 -0.696206 -0.637783 0.000000
78.75000000 184.21899414 427.50000000 -0.000978 -0.000978 -0.999999 0.000000
98.08589935 236.95300293 320.00000000 -0.037035 -0.860035 0.508889 0.000000
130.78100586 156.09399414 337.50000000 -0.983781 0.121916 0.131573 0.000000
97.03119659 168.75000000 432.50000000 -0.000978 -0.000978 -0.999999 0.000000
100.19499969 168.04699707 300.00000000 -0.585982 -0.100329 0.804089 0.000000
262.26599121 134.29699707 382.50000000 0.000978 0.000978 0.999999 0.000000
267.89099121 116.36699677 380.00000000 -0.927798 0.350501 -0.127830 0.000000
231.32800293 153.28100586 412.50000000 -0.062548 0.496215 -0.865944 0.000000
170.85899353 170.15600586 417.50000000 0.040911 -0.777316 -0.627778 0.000000
142.73399353 150.46899414 427.50000000 -0.000978 -0.000978 -0.999999 0.000000
125.85900116 182.10899353 427.50000000 -0.000978 -0.000978 -0.999999 0.000000
84.37500000 245.39100647 332.50000000 0.052417 -0.949905 0.308112 0.000000
210.23399353 164.53100586 397.50000000 -0.059002 -0.934860 0.350081 0.000000
161.01600647 168.75000000 362.50000000 0.473998 -0.520567 0.710166 0.000000
105.46900177 142.03100586 427.50000000 0.100236 0.327436 -0.939542 0.000000
45.00000000 168.75000000 397.50000000 0.745477 0.320410 -0.584467 0.000000
58.35940170 233.43800354 347.50000000 0.921899 -0.001279 0.387428 0.000000
82.96880341 247.50000000 372.50000000 0.408770 -0.819131 -0.402408 0.000000
