103.62300110 133.68200684 103.75000000 -0.527995 -0.185024 0.828847 0.000000
148.71099854 238.09599304 181.25000000 -0.218183 -0.318005 -0.922642 0.000000
55.76660156 206.45500183 92.50000000 0.954508 -0.284404 0.089607 0.000000
158.99400330 239.67799377 173.75000000 -0.518244 -0.672543 -0.528307 0.000000
153.45700073 212.78300476 136.25000000 -0.969644 -0.089293 0.227634 0.000000
58.13970184 243.63299561 145.00000000 0.925139 -0.378643 -0.027325 0.000000
66.84089661 139.21899414 145.00000000 0.739828 0.658792 -0.136560 0.000000
123.39800262 109.95099640 131.25000000 0.001371 0.618487 0.785794 0.000000
81.47460175 265.78100586 161.25000000 0.473255 -0.690652 -0.546836 0.000000
168.48599243 140.00999451 178.75000000 0.091145 0.315704 -0.944470 0.000000
47.06549835 200.12699890 147.50000000 0.980290 0.121463 0.155816 0.000000
120.23400116 246.79699707 118.75000000 -0.587986 -0.320573 0.742634 0.000000
121.02500153 271.31799316 171.25000000 0.186550 -0.562683 -0.805349 0.000000
109.16000366 195.77600098 87.50000000 -0.305400 -0.507945 0.805433 0.000000
85.42970276 178.77000427 53.75000000 -0.891119 -0.108398 0.440632 0.000000
101.64600372 169.27699280 95.00000000 -0.792630 0.588080 0.160932 0.000000
128.93600464 279.22900391 161.25000000 -0.001227 -0.953006 -0.302950 0.000000
51.02050018 192.21699524 155.00000000 0.850461 0.151291 -0.503813 0.000000
85.42970276 179.56100464 53.75000000 -0.893365 -0.147227 0.424527 0.000000
55.76660156 159.78500366 145.00000000 0.930379 0.364061 0.043061 0.000000
142.38299561 261.03500366 141.25000000 -0.558931 -0.227598 0.797367 0.000000
58.13970184 227.81300354 165.00000000 0.800739 -0.284742 -0.527009 0.000000
156.62100220 121.81600189 168.75000000 0.278995 0.632921 -0.722200 0.000000
222.27499390 155.03900146 178.75000000 -0.413230 -0.645568 -0.642249 0.000000
162.15800476 196.96299744 186.25000000 -0.392190 -0.303680 -0.868312 0.000000
183.51600647 157.41200256 133.75000000 -0.498010 0.491348 0.714537 0.000000
117.86100006 223.85800171 193.75000000 -0.349133 -0.274849 -0.895860 0.000000
84.63870239 175.60600281 188.75000000 0.542689 0.339784 -0.768138 0.000000
144.75599670 190.23899841 115.00000000 -0.165577 0.833854 -0.526566 0.000000
193.00799561 202.89599609 135.00000000 -0.227195 -0.452885 0.862136 0.000000
171.64999390 202.50000000 166.25000000 0.305559 -0.828927 -0.468524 0.000000
58.53519821 180.35200500 168.75000000 0.452854 0.680116 -0.576511 0.000000
65.65429688 256.28900146 143.75000000 0.694154 -0.709082 0.123903 0.000000
117.86100006 250.75199890 118.75000000 -0.646840 -0.358628 0.673041 0.000000
81.47460175 189.84399414 191.25000000 0.511593 0.020355 -0.858987 0.000000
82.66120148 200.91799927 192.50000000 0.879856 -0.028382 -0.474392 0.000000
125.77200317 187.86599731 107.50000000 -0.554923 0.668926 0.494569 0.000000
87.80280304 246.00599670 96.25000000 -0.575088 -0.094158 0.812655 0.000000
66.44529724 164.13600159 170.00000000 0.451712 0.282127 -0.846381 0.000000
179.95599365 113.90599823 155.00000000 -0.571625 0.393713 0.719885 0.000000
204.87300110 143.17399597 156.25000000 -0.337190 0.091961 0.936934 0.000000
146.33799744 111.92900085 157.50000000 0.228409 0.299343 -0.926403 0.000000
145.54699707 140.80099487 121.25000000 -0.012366 0.575722 0.817552 0.000000
100.45899963 174.02400208 193.75000000 0.365343 0.371561 -0.853503 0.000000
112.32399750 173.23199463 116.25000000 -0.811217 -0.160444 0.562304 0.000000
117.06999969 182.72500610 106.25000000 -0.294524 0.953023 -0.070737 0.000000
136.05499268 168.48599243 118.75000000 -0.328198 -0.732382 0.596576 0.000000
125.77200317 119.44300079 126.25000000 -0.032244 0.623857 0.780873 0.000000
120.62999725 216.73800659 107.50000000 -0.490724 -0.390312 0.779004 0.000000
183.51600647 119.44300079 153.75000000 0.000978 0.000978 0.999999 0.000000
109.16000366 189.05299377 83.75000000 -0.802016 0.091369 0.590272 0.000000
112.32399750 121.02500153 121.25000000 -0.294665 0.370219 0.880971 0.000000
138.42799377 140.80099487 176.25000000 0.162707 0.535888 -0.828462 0.000000
55.37110138 211.99200439 163.75000000 0.896916 0.104943 -0.429568 0.000000
224.25300598 161.36700439 167.50000000 -0.958649 0.075313 0.274447 0.000000
136.84599304 210.41000366 111.25000000 -0.409582 -0.544465 0.731984 0.000000
121.81600189 202.50000000 101.25000000 -0.372922 -0.351259 0.858805 0.000000
87.40730286 200.12699890 195.00000000 0.172777 -0.344149 -0.922881 0.000000
122.60700226 226.23100281 193.75000000 -0.159365 -0.082678 -0.983751 0.000000
101.64600372 267.36300659 110.00000000 -0.411433 -0.473230 0.778959 0.000000
145.54699707 218.32000732 123.75000000 -0.409639 -0.491241 0.768686 0.000000
123.39800262 211.99200439 106.25000000 -0.325541 -0.460790 0.825648 0.000000
97.29499817 271.31799316 166.25000000 0.199515 -0.694435 -0.691342 0.000000
118.65200043 163.74000549 188.75000000 0.160125 0.480374 -0.862323 0.000000
54.58010101 215.94700623 161.25000000 0.896158 -0.224406 -0.382810 0.000000
142.38299561 188.65699768 110.00000000 -0.242016 0.935890 0.256006 0.000000
173.62800598 149.50199890 132.50000000 -0.288532 0.204899 0.935289 0.000000
140.00999451 153.45700073 183.75000000 0.142184 0.169866 -0.975156 0.000000
95.71289825 226.23100281 193.75000000 0.210173 -0.563019 -0.799272 0.000000
91.75789642 250.75199890 181.25000000 0.507486 -0.487519 -0.710481 0.000000
192.21699524 146.33799744 143.75000000 -0.147347 0.222976 0.963624 0.000000
169.27699280 187.47099304 186.25000000 -0.000978 -0.000978 -0.999999 0.000000
59.32619858 158.99400330 113.75000000 0.871079 0.466805 0.152693 0.000000
103.62300110 274.48300171 113.75000000 -0.186946 0.266091 0.945646 0.000000
90.96679688 263.40798950 103.75000000 -0.131790 -0.587873 0.798145 0.000000
154.24800110 162.15800476 186.25000000 -0.152322 0.214813 -0.964704 0.000000
214.36500549 134.47300720 171.25000000 -0.575939 0.801502 -0.160902 0.000000
83.84770203 187.86599731 55.00000000 -0.857133 -0.433933 0.277533 0.000000
94.52639771 149.50199890 100.00000000 -0.438885 0.138671 0.887778 0.000000
160.57600403 164.13600159 125.00000000 -0.180768 -0.360113 0.915228 0.000000
74.35549927 141.59199524 83.75000000 0.726810 0.620917 0.293612 0.000000
170.85899353 202.50000000 141.25000000 0.426820 -0.766968 0.479150 0.000000
109.16000366 222.27499390 196.25000000 -0.175594 -0.538787 -0.823939 0.000000
83.45220184 189.05299377 55.00000000 -0.835866 -0.465408 0.291074 0.000000
97.29499817 248.37899780 103.75000000 -0.510288 -0.304909 0.804138 0.000000
163.74000549 168.48599243 128.75000000 0.157696 -0.800496 0.578220 0.000000
132.89100647 147.12899780 181.25000000 0.154194 0.926551 -0.343115 0.000000
148.71099854 157.41200256 118.75000000 -0.635457 -0.318537 0.703369 0.000000
62.09479904 192.21699524 175.00000000 0.850682 0.110833 -0.513864 0.000000
181.14300537 175.60600281 181.25000000 -0.583926 0.235127 -0.777011 0.000000
222.27499390 167.69500732 163.75000000 -0.812103 -0.242857 0.530574 0.000000
97.29499817 117.06999969 151.25000000 0.475419 0.646772 -0.596374 0.000000
158.99400330 193.00799561 188.75000000 -0.724826 -0.001381 -0.688930 0.000000
73.56449890 240.46899414 176.25000000 0.739942 -0.443306 -0.505930 0.000000
73.56449890 176.00100708 182.50000000 0.406078 0.340732 -0.847940 0.000000
97.29499817 143.17399597 101.25000000 -0.566871 -0.200162 0.799120 0.000000
211.20100403 137.63699341 163.75000000 -0.620811 0.279285 0.732525 0.000000
76.72859955 226.23100281 81.25000000 -0.706243 -0.275801 0.652039 0.000000
81.87020111 191.42599487 55.00000000 -0.840607 -0.485378 0.240392 0.000000
94.13089752 163.74000549 188.75000000 0.183015 0.690535 -0.699762 0.000000
87.80280304 141.59199524 93.75000000 -0.534955 0.001347 0.844879 0.000000
151.08399963 173.62800598 142.50000000 0.000978 0.000978 -0.999999 0.000000
202.10499573 199.33599854 165.00000000 -0.511817 -0.730458 0.452188 0.000000
128.93600464 221.48399353 113.75000000 -0.306257 -0.528412 0.791825 0.000000
65.65429688 209.61900330 181.25000000 0.623558 -0.110560 -0.773920 0.000000
48.64749908 213.57400513 145.00000000 0.965363 -0.255354 -0.053562 0.000000
51.81150055 173.23199463 150.00000000 0.950868 0.266887 -0.156913 0.000000
163.74000549 160.57600403 123.75000000 -0.444221 -0.177395 0.878179 0.000000
136.05499268 168.48599243 191.25000000 0.001347 0.534955 -0.844879 0.000000
55.76660156 207.24600220 92.50000000 0.954508 -0.284404 0.089607 0.000000
82.26570129 116.27899933 113.75000000 0.690320 0.690320 0.216602 0.000000
66.04979706 212.78300476 180.00000000 0.716594 -0.192633 -0.670362 0.000000
88.98930359 229.39500427 92.50000000 -0.691925 -0.159675 0.704091 0.000000
155.03900146 125.77200317 133.75000000 -0.000978 -0.000978 0.999999 0.000000
95.71289825 270.92300415 110.00000000 0.179225 -0.712304 -0.678603 0.000000
216.73800659 191.42599487 178.75000000 -0.568709 -0.804037 -0.173479 0.000000
147.91999817 243.63299561 178.75000000 -0.001381 -0.724826 -0.688930 0.000000
70.00489807 194.58999634 55.00000000 0.881244 0.221426 0.417588 0.000000
120.23400116 213.17900085 105.00000000 -0.418204 -0.503485 0.756048 0.000000
174.81500244 189.05299377 141.25000000 0.360365 0.802412 0.475681 0.000000
107.57800293 256.28900146 181.25000000 -0.001294 -0.415362 -0.909655 0.000000
70.40039825 195.38099670 53.75000000 0.881244 0.221426 0.417588 0.000000
155.43499756 186.67999268 147.50000000 0.393806 -0.074431 0.916175 0.000000
100.45899963 194.58999634 198.75000000 -0.000978 -0.000978 -0.999999 0.000000
150.29299927 257.07998657 143.75000000 -0.633648 -0.188714 0.750252 0.000000
197.35800171 200.12699890 157.50000000 -0.629050 -0.764169 0.142625 0.000000
183.51600647 162.15800476 181.25000000 0.000978 0.000978 -0.999999 0.000000
99.66799927 110.74199677 146.25000000 0.000000 0.000000 0.000000 0.000000
127.35399628 234.14100647 118.75000000 -0.611374 -0.380667 0.693769 0.000000
152.66600037 178.77000427 148.75000000 -0.000978 -0.000978 0.999999 0.000000
77.51959991 196.17199707 53.75000000 -0.620791 -0.644217 0.446769 0.000000
77.91510010 196.17199707 55.00000000 -0.620791 -0.644217 0.446769 0.000000
52.99810028 195.38099670 101.25000000 0.894688 0.446689 0.001310 0.000000
110.74199677 263.40798950 176.25000000 0.020998 -0.704146 -0.709745 0.000000
69.21389771 147.12899780 95.00000000 -0.000978 -0.000978 0.999999 0.000000
175.60600281 196.17199707 183.75000000 -0.730780 0.364572 -0.577103 0.000000
70.40039825 208.03700256 183.75000000 0.544767 -0.078230 -0.834930 0.000000
200.91799927 167.69500732 146.25000000 -0.674113 0.165865 0.719764 0.000000
49.83399963 201.70899963 121.25000000 0.993320 -0.110122 0.034483 0.000000
111.53299713 180.35200500 86.25000000 -0.728319 0.292928 0.619471 0.000000
121.81600189 120.62999725 150.00000000 -0.566709 0.440404 0.696337 0.000000
100.45899963 160.57600403 186.25000000 0.039868 0.510038 -0.859228 0.000000
90.96679688 259.45300293 101.25000000 -0.362748 -0.438782 0.822122 0.000000
169.67300415 154.24800110 127.50000000 -0.798883 0.288354 0.527862 0.000000
154.24800110 162.94900513 121.25000000 -0.358674 -0.380411 0.852432 0.000000
198.54499817 169.27699280 143.75000000 -0.753991 0.070642 0.653075 0.000000
189.05299377 154.24800110 181.25000000 -0.000978 -0.000978 -0.999999 0.000000
104.41400146 221.48399353 101.25000000 -0.177395 -0.444221 0.878179 0.000000
193.00799561 174.02400208 136.25000000 0.000978 0.000978 0.999999 0.000000
167.69500732 169.67300415 130.00000000 0.054220 -0.515782 0.855002 0.000000
113.11499786 282.39300537 131.25000000 -0.454756 -0.704621 0.544707 0.000000
177.97900391 191.42599487 183.75000000 -0.000978 -0.000978 -0.999999 0.000000
207.64199829 170.85899353 152.50000000 -0.730964 0.155878 0.664375 0.000000
94.13089752 281.20599365 140.00000000 0.314656 -0.943968 0.099575 0.000000
147.91999817 225.44000244 183.75000000 -0.763032 -0.280783 -0.582188 0.000000
132.10000610 224.64900208 191.25000000 -0.000978 -0.000978 -0.999999 0.000000
96.50399780 140.80099487 168.75000000 0.283928 0.428195 -0.857924 0.000000
119.44300079 236.51400757 116.25000000 -0.594653 -0.026460 0.803547 0.000000
110.74199677 155.83000183 183.75000000 0.123039 0.434173 -0.892388 0.000000
113.11499786 147.12899780 106.25000000 0.000978 0.000978 0.999999 0.000000
107.57800293 215.94700623 98.75000000 -0.275311 -0.545903 0.791324 0.000000
161.36700439 205.66400146 148.75000000 -0.530389 -0.772208 0.349831 0.000000
83.45220184 174.02400208 187.50000000 0.479490 0.367235 -0.797012 0.000000
70.79589844 147.91999817 82.50000000 0.862276 0.457381 0.217444 0.000000
74.75099945 199.33599854 55.00000000 -0.563615 -0.696622 0.443909 0.000000
143.17399597 154.24800110 183.75000000 0.160012 0.111153 -0.980837 0.000000
149.50199890 238.09599304 138.75000000 -0.824052 -0.221684 0.521339 0.000000
102.43699646 263.40798950 175.00000000 0.221286 -0.781465 -0.583391 0.000000
97.69049835 234.14100647 100.00000000 -0.546557 -0.105832 0.830708 0.000000
168.48599243 121.42099762 170.00000000 0.160125 0.480374 -0.862323 0.000000
151.08399963 125.77200317 168.75000000 -0.295546 0.592689 -0.749248 0.000000
136.05499268 199.73199463 122.50000000 0.529743 0.790637 -0.307028 0.000000
64.86329651 217.92500305 75.00000000 0.605519 -0.504318 0.615639 0.000000
195.38099670 192.21699524 178.75000000 -0.231035 -0.094686 -0.968327 0.000000
209.22399902 166.90400696 155.00000000 -0.324725 0.077566 0.942623 0.000000
54.18460083 203.29100037 97.50000000 0.953006 0.001227 0.302950 0.000000
102.04100037 198.54499817 198.75000000 -0.000978 -0.000978 -0.999999 0.000000
175.21000671 113.11499786 152.50000000 -0.438846 0.541519 0.717057 0.000000
90.17579651 263.01300049 170.00000000 0.394695 -0.619292 -0.678744 0.000000
54.18460083 199.33599854 97.50000000 0.953006 -0.001227 0.302950 0.000000
93.33989716 274.08700562 115.00000000 0.191914 -0.769192 0.609519 0.000000
88.59380341 277.25100708 137.50000000 0.602869 -0.796799 -0.040753 0.000000
147.91999817 191.82099915 145.00000000 0.009542 0.557503 0.830120 0.000000
72.37799835 243.63299561 172.50000000 0.692583 -0.297281 -0.657231 0.000000
151.47999573 257.07998657 170.00000000 -0.465237 -0.362917 -0.807370 0.000000
182.32899475 203.29100037 137.50000000 -0.000978 -0.999999 -0.000978 0.000000
107.57800293 162.15800476 106.25000000 -0.627998 -0.113779 0.769852 0.000000
155.43499756 212.78300476 147.50000000 -0.953006 -0.001227 0.302950 0.000000
122.60700226 272.10900879 171.25000000 0.082528 -0.612448 -0.786192 0.000000
124.19000244 193.00799561 196.25000000 -0.000978 -0.000978 -0.999999 0.000000
136.05499268 166.11300659 116.25000000 -0.355692 -0.640902 0.680241 0.000000
152.66600037 253.91600037 171.25000000 -0.261752 -0.387394 -0.883975 0.000000
103.22799683 181.14300537 77.50000000 -0.742769 0.114158 0.659745 0.000000
166.11300659 181.14300537 186.25000000 -0.000978 -0.000978 -0.999999 0.000000
132.10000610 276.06500244 166.25000000 0.354487 -0.882447 -0.309234 0.000000
132.10000610 215.94700623 193.75000000 -0.344393 0.026886 -0.938440 0.000000
139.21899414 160.57600403 116.25000000 0.000978 0.000978 0.999999 0.000000
181.93400574 113.11499786 156.25000000 -0.237792 0.703928 0.669283 0.000000
72.77349854 249.96099854 168.75000000 0.400623 -0.350740 -0.846453 0.000000
75.93750000 156.62100220 173.75000000 0.716210 0.375314 -0.588374 0.000000
151.08399963 113.11499786 138.75000000 -0.408451 0.333904 0.849515 0.000000
133.68200684 273.69198608 141.25000000 -0.648972 -0.304357 0.697282 0.000000
133.68200684 242.05099487 183.75000000 -0.456748 -0.099782 -0.883982 0.000000
162.94900513 195.38099670 186.25000000 -0.163538 -0.303713 -0.938623 0.000000
57.34870148 221.48399353 95.00000000 0.868209 -0.338402 0.362902 0.000000
110.74199677 213.57400513 98.75000000 -0.180467 -0.441631 0.878860 0.000000
151.87500000 197.35800171 132.50000000 0.288238 0.957051 -0.031195 0.000000
224.64900208 155.83000183 173.75000000 -0.884631 -0.126783 -0.448726 0.000000
113.90599823 230.18600464 193.75000000 -0.563958 -0.437525 -0.700373 0.000000
102.83200073 232.55900574 103.75000000 -0.591806 0.464392 0.658867 0.000000
160.18099976 208.03700256 167.50000000 -0.827533 -0.539308 -0.155998 0.000000
204.08200073 118.25700378 170.00000000 -0.625957 0.416751 -0.659164 0.000000
83.45220184 147.12899780 87.50000000 -0.889011 0.191232 0.416040 0.000000
63.28129959 154.24800110 108.75000000 0.690320 0.690320 0.216602 0.000000
111.53299713 145.54699707 106.25000000 -0.071917 0.325590 0.942772 0.000000
175.60600281 197.75399780 136.25000000 0.307769 -0.454624 0.835820 0.000000
206.45500183 174.02400208 178.75000000 -0.000978 -0.000978 -0.999999 0.000000
126.56300354 181.93400574 126.25000000 -0.456379 -0.573400 0.680390 0.000000
110.74199677 156.62100220 106.25000000 -0.196092 -0.739590 0.643860 0.000000
113.90599823 269.73599243 171.25000000 0.596822 -0.205109 -0.775715 0.000000
51.02050018 200.91799927 110.00000000 0.953006 0.001227 0.302950 0.000000
85.82520294 155.83000183 57.50000000 -0.713786 0.179598 0.676945 0.000000
193.40299988 181.14300537 137.50000000 -0.271909 -0.163687 0.948300 0.000000
76.72859955 129.72700500 146.25000000 0.645070 0.645070 -0.409595 0.000000
51.81150055 226.23100281 137.50000000 0.963764 -0.258264 0.066771 0.000000
119.44300079 200.91799927 98.75000000 -0.491271 -0.311191 0.813519 0.000000
109.16000366 255.49800110 113.75000000 -0.654979 0.064778 0.752866 0.000000
98.48149872 201.70899963 85.00000000 -0.541853 -0.508301 0.669347 0.000000
189.05299377 199.33599854 178.75000000 -0.392374 -0.563114 -0.727287 0.000000
157.41200256 247.58799744 168.75000000 -0.607917 -0.201613 -0.767977 0.000000
80.68360138 249.16999817 93.75000000 0.046708 -0.624186 0.779878 0.000000
91.75789642 208.03700256 86.25000000 0.470026 -0.470026 0.747095 0.000000
190.63499451 215.94700623 148.75000000 -0.032832 -0.917969 0.395291 0.000000
112.32399750 222.27499390 196.25000000 -0.019111 -0.350361 -0.936420 0.000000
58.13970184 219.90199280 92.50000000 0.833707 -0.291408 0.469057 0.000000
222.27499390 155.83000183 176.25000000 -0.685575 -0.501191 -0.528010 0.000000
197.75399780 128.14500427 176.25000000 -0.288076 -0.095156 -0.952868 0.000000
172.83700562 190.63499451 185.00000000 -0.581702 0.070033 -0.810381 0.000000
64.07230377 147.91999817 116.25000000 0.891920 0.315235 0.324199 0.000000
166.11300659 142.77799988 180.00000000 0.160694 0.347938 -0.923643 0.000000
58.13970184 243.63299561 140.00000000 0.708486 -0.705724 -0.001381 0.000000
73.95999908 264.19900513 140.00000000 0.728175 -0.682033 0.067771 0.000000
193.79899597 210.41000366 143.75000000 -0.383754 -0.683510 0.620924 0.000000
73.95999908 137.63699341 102.50000000 0.888097 -0.126465 -0.441917 0.000000
146.73300171 206.45500183 115.00000000 -0.469297 -0.472590 0.745935 0.000000
189.05299377 207.24600220 171.25000000 0.134117 -0.096137 -0.986291 0.000000
88.59380341 224.64900208 91.25000000 -0.459770 -0.286389 0.840590 0.000000
124.19000244 199.73199463 120.00000000 0.194952 -0.179251 -0.964294 0.000000
113.11499786 246.00599670 186.25000000 0.128459 -0.480639 -0.867459 0.000000
81.47460175 215.15600586 81.25000000 -0.410826 -0.823238 0.391792 0.000000
61.69919968 235.72300720 98.75000000 0.793453 -0.450862 0.408846 0.000000
199.73199463 197.75399780 137.50000000 0.768976 -0.336931 0.543281 0.000000
164.92700195 199.33599854 140.00000000 -0.121841 -0.957697 0.260714 0.000000
49.83399963 190.23899841 152.50000000 0.903843 -0.001300 -0.427862 0.000000
60.11719894 178.77000427 86.25000000 0.973432 0.001174 0.228974 0.000000
128.93600464 206.45500183 196.25000000 -0.000978 -0.000978 -0.999999 0.000000
100.45899963 261.03500366 176.25000000 0.509556 -0.693330 -0.509556 0.000000
133.68200684 150.29299927 138.75000000 -0.679001 0.301599 0.669324 0.000000
103.62300110 152.66600037 181.25000000 0.446544 0.532865 -0.718786 0.000000
91.36229706 277.64700317 122.50000000 0.330993 -0.932549 0.144209 0.000000
93.33989716 136.84599304 163.75000000 0.009584 0.822844 -0.568187 0.000000
158.99400330 168.48599243 186.25000000 0.000978 0.000978 -0.999999 0.000000
61.30369949 236.51400757 165.00000000 0.797273 -0.426823 -0.426823 0.000000
155.03900146 242.05099487 146.25000000 -0.779004 -0.390312 0.490724 0.000000
96.50399780 224.64900208 98.75000000 -0.291405 0.150446 0.944695 0.000000
52.20709991 173.23199463 136.25000000 0.960763 0.274681 -0.038530 0.000000
184.30700684 217.13400269 152.50000000 0.155958 -0.982897 -0.097927 0.000000
87.01180267 162.94900513 56.25000000 -0.878384 -0.020177 0.477529 0.000000
123.39800262 187.07499695 127.50000000 -0.704158 -0.375879 0.602392 0.000000
96.50399780 124.98100281 156.25000000 -0.298330 0.377078 -0.876819 0.000000
147.91999817 166.90400696 188.75000000 -0.316352 0.355707 -0.879428 0.000000
165.32200623 192.61199951 145.00000000 0.265048 0.620561 0.738007 0.000000
151.87500000 179.56100464 191.25000000 -0.238344 -0.005929 -0.971163 0.000000
50.62500000 221.48399353 136.25000000 0.982534 -0.050964 0.178966 0.000000
79.10160065 151.87500000 171.25000000 0.268494 0.357498 -0.894486 0.000000
162.15800476 199.33599854 183.75000000 -0.419084 -0.581417 -0.697369 0.000000
178.77000427 152.27099609 135.00000000 -0.560027 0.748326 0.355496 0.000000
52.99810028 178.77000427 156.25000000 0.910346 0.169532 -0.377530 0.000000
101.25000000 169.67300415 92.50000000 -0.708486 -0.705724 -0.001381 0.000000
115.48799896 229.39500427 193.75000000 -0.000978 -0.000978 -0.999999 0.000000
97.29499817 149.50199890 176.25000000 -0.001347 0.844879 -0.534955 0.000000
103.62300110 131.30900574 103.75000000 -0.746893 0.356361 0.561390 0.000000
185.09800720 211.20100403 171.25000000 -0.000978 -0.000978 -0.999999 0.000000
82.26570129 208.03700256 191.25000000 0.000978 0.000978 -0.999999 0.000000
69.60939789 257.87100220 156.25000000 0.645070 -0.645070 -0.409595 0.000000
55.76660156 160.57600403 147.50000000 0.953565 0.287501 -0.089763 0.000000
90.57129669 151.08399963 95.00000000 -0.724826 -0.001381 0.688930 0.000000
71.19139862 209.61900330 183.75000000 0.551722 -0.084550 -0.829732 0.000000
64.07230377 238.88699341 98.75000000 0.699450 -0.469083 0.539194 0.000000
184.30700684 119.44300079 153.75000000 -0.336087 0.342170 0.877476 0.000000
195.38099670 137.63699341 151.25000000 -0.758619 0.212538 0.615893 0.000000
69.60939789 151.47999573 80.00000000 0.911918 0.391220 0.123909 0.000000
116.27899933 170.85899353 191.25000000 0.000978 0.000978 -0.999999 0.000000
169.67300415 119.44300079 145.00000000 -0.521300 0.378389 0.764898 0.000000
55.76660156 174.02400208 105.00000000 0.786676 0.557425 -0.265366 0.000000
81.07910156 116.27899933 122.50000000 0.779878 0.624186 0.046708 0.000000
50.22949982 207.24600220 117.50000000 0.953006 -0.001227 -0.302950 0.000000
209.61900330 160.57600403 156.25000000 0.000978 0.000978 0.999999 0.000000
105.99600220 284.36999512 140.00000000 0.281782 -0.848425 0.448079 0.000000
57.74420166 154.64399719 150.00000000 0.927734 0.204751 -0.312069 0.000000
195.38099670 158.59899902 142.50000000 -0.756253 0.185612 0.627399 0.000000
81.07910156 146.33799744 82.50000000 -0.904558 0.101122 0.414185 0.000000
203.29100037 179.56100464 146.25000000 -0.731383 -0.092339 0.675687 0.000000
137.24099731 244.42399597 182.50000000 -0.568125 0.665326 -0.484330 0.000000
93.33989716 184.30700684 196.25000000 0.113838 0.160352 -0.980473 0.000000
158.20300293 199.33599854 186.25000000 -0.481238 -0.558370 -0.675746 0.000000
75.14649963 212.78300476 73.75000000 -0.191914 -0.769192 0.609519 0.000000
110.74199677 236.51400757 191.25000000 -0.042210 -0.323610 -0.945248 0.000000
86.22070313 176.39700317 191.25000000 0.580536 0.334738 -0.742245 0.000000
67.63189697 204.87300110 182.50000000 0.455088 -0.022688 -0.890157 0.000000
107.18299866 174.81500244 87.50000000 -0.780991 0.563260 0.269797 0.000000
161.36700439 111.53299713 161.25000000 -0.000978 -0.000978 -0.999999 0.000000
120.23400116 170.85899353 191.25000000 0.001371 0.618487 -0.785794 0.000000
217.52900696 149.50199890 178.75000000 -0.503455 0.001335 -0.864020 0.000000
200.91799927 162.15800476 146.25000000 -0.587895 0.270970 0.762204 0.000000
121.81600189 235.72300720 188.75000000 -0.000978 -0.000978 -0.999999 0.000000
163.74000549 111.53299713 161.25000000 0.201060 0.578622 -0.790425 0.000000
156.62100220 243.63299561 171.25000000 -0.658275 -0.597975 -0.457275 0.000000
88.59380341 249.96099854 98.75000000 0.114075 -0.682967 0.721486 0.000000
153.85299683 216.73800659 175.00000000 -0.903750 -0.372815 -0.210343 0.000000
87.40730286 172.44099426 57.50000000 -0.911858 -0.035733 0.408947 0.000000
80.68360138 253.12500000 96.25000000 -0.004151 -0.695945 0.718083 0.000000
142.38299561 217.13400269 120.00000000 -0.543779 -0.447329 0.710072 0.000000
158.99400330 186.67999268 146.25000000 0.215535 0.138097 0.966682 0.000000
95.71289825 164.92700195 85.00000000 -0.631476 0.772443 0.067607 0.000000
193.00799561 128.93600464 156.25000000 -0.243955 0.163970 0.955824 0.000000
81.47460175 246.00599670 178.75000000 0.680364 -0.165905 -0.713849 0.000000
211.20100403 168.48599243 178.75000000 -0.000978 -0.000978 -0.999999 0.000000
199.33599854 201.70899963 141.25000000 -0.848837 -0.406507 0.337977 0.000000
121.81600189 143.96499634 176.25000000 -0.073763 0.646514 -0.759328 0.000000
84.63870239 274.08700562 140.00000000 0.612407 -0.788598 0.055415 0.000000
141.19599915 174.02400208 147.50000000 -0.568972 -0.144100 0.809633 0.000000
94.52639771 261.82598877 172.50000000 0.202453 -0.755722 -0.622814 0.000000
149.50199890 177.97900391 148.75000000 0.000978 0.000978 0.999999 0.000000
50.62500000 188.65699768 120.00000000 0.978536 0.196673 0.061536 0.000000
133.68200684 276.85598755 166.25000000 -0.111149 -0.683195 -0.721727 0.000000
81.47460175 236.51400757 88.75000000 -0.385884 -0.327463 0.862474 0.000000
100.45899963 262.61700439 173.75000000 0.437821 -0.677541 -0.590975 0.000000
125.77200317 206.45500183 103.75000000 -0.341850 -0.472229 0.812489 0.000000
122.60700226 230.18600464 113.75000000 -0.270120 0.838144 0.473868 0.000000
69.60939789 177.18800354 56.25000000 0.924207 0.275691 0.264263 0.000000
69.60939789 176.79200745 57.50000000 0.937514 0.126178 0.324263 0.000000
121.02500153 208.43299866 102.50000000 -0.441694 -0.396721 0.804686 0.000000
145.54699707 275.66900635 160.00000000 -0.532971 -0.742880 -0.405058 0.000000
141.59199524 134.07699585 172.50000000 0.193759 0.451119 -0.871177 0.000000
69.60939789 177.97900391 56.25000000 0.924207 0.275691 0.264263 0.000000
88.59380341 234.14100647 186.25000000 0.179077 -0.534220 -0.826160 0.000000
164.92700195 119.44300079 167.50000000 0.142883 0.645228 -0.750510 0.000000
148.71099854 126.56300354 131.25000000 -0.365926 0.001266 0.930643 0.000000
151.87500000 197.75399780 136.25000000 -0.314656 0.943968 -0.099575 0.000000
116.27899933 267.36300659 173.75000000 0.012503 -0.662672 -0.748805 0.000000
57.34870148 193.00799561 87.50000000 0.953825 0.173057 0.245499 0.000000
111.53299713 254.70700073 181.25000000 0.038469 -0.409895 -0.911321 0.000000
174.02400208 158.99400330 183.75000000 -0.000978 -0.000978 -0.999999 0.000000
215.94700623 159.78500366 178.75000000 -0.000978 -0.000978 -0.999999 0.000000
86.61620331 179.56100464 57.50000000 -0.893737 -0.171817 0.414382 0.000000
143.17399597 230.18600464 183.75000000 -0.212630 -0.755844 -0.619264 0.000000
162.94900513 121.02500153 168.75000000 0.189742 0.683379 -0.704976 0.000000
109.16000366 283.18399048 156.25000000 -0.001319 -0.885003 -0.465583 0.000000
86.61620331 180.35200500 57.50000000 -0.902324 -0.125284 0.412451 0.000000
132.89100647 194.58999634 136.25000000 0.029825 0.366974 0.929753 0.000000
145.94200134 196.17199707 137.50000000 -0.429674 0.698427 0.572346 0.000000
111.53299713 214.36500549 198.75000000 0.123732 -0.528410 -0.839925 0.000000
125.77200317 147.91999817 181.25000000 0.128881 0.599962 -0.789579 0.000000
94.13089752 157.01699829 97.50000000 -0.760211 0.274565 0.588807 0.000000
209.61900330 196.17199707 168.75000000 -0.001073 -0.994569 0.104070 0.000000
200.91799927 126.56300354 176.25000000 0.415421 0.895526 -0.159556 0.000000
189.84399414 191.42599487 141.25000000 0.437323 0.348911 0.828861 0.000000
107.57800293 227.81300354 103.75000000 -0.412472 -0.578123 0.704018 0.000000
128.93600464 197.75399780 126.25000000 -0.738378 0.664095 0.117368 0.000000
107.57800293 261.03500366 178.75000000 -0.117312 -0.657839 -0.743967 0.000000
127.35399628 177.18800354 193.75000000 -0.152949 0.057210 -0.986577 0.000000
177.18800354 174.02400208 183.75000000 -0.000978 -0.000978 -0.999999 0.000000
89.38480377 270.52700806 111.25000000 0.375533 -0.531599 0.759195 0.000000
127.35399628 159.78500366 111.25000000 -0.351234 0.306011 0.884868 0.000000
56.55759811 202.50000000 87.50000000 0.953026 0.062851 0.296297 0.000000
116.27899933 246.79699707 116.25000000 -0.468832 -0.312032 0.826337 0.000000
51.81150055 178.77000427 122.50000000 0.953006 -0.001227 0.302950 0.000000
136.05499268 158.20300293 186.25000000 -0.343290 0.343290 -0.874245 0.000000
159.78500366 147.12899780 181.25000000 0.000978 0.000978 -0.999999 0.000000
47.85649872 206.45500183 147.50000000 0.987296 -0.109962 -0.114692 0.000000
145.54699707 273.29598999 165.00000000 -0.314656 -0.943968 -0.099575 0.000000
90.17579651 158.59899902 75.00000000 -0.761733 0.573296 -0.301819 0.000000
156.62100220 201.70899963 186.25000000 -0.562691 -0.465848 -0.682909 0.000000
128.53999329 175.60600281 120.00000000 -0.539887 -0.486400 0.686977 0.000000
85.82520294 185.09800720 57.50000000 -0.883136 -0.377627 0.278331 0.000000
111.92900085 137.63699341 110.00000000 -0.635344 0.551081 0.540969 0.000000
68.42289734 185.88900757 57.50000000 0.953006 0.001227 0.302950 0.000000
74.35549927 138.42799377 156.25000000 0.162294 0.759898 -0.629457 0.000000
65.65429688 254.31199646 135.00000000 0.737037 -0.658339 0.152856 0.000000
203.29100037 170.85899353 146.25000000 -0.642737 0.416866 0.642737 0.000000
74.35549927 139.21899414 88.75000000 0.971181 0.215398 0.102031 0.000000
97.29499817 220.69299316 96.25000000 -0.567725 -0.377938 0.731335 0.000000
65.65429688 233.35000610 171.25000000 0.586820 -0.423907 -0.689888 0.000000
109.16000366 171.64999390 196.25000000 -0.000978 -0.000978 -0.999999 0.000000
109.16000366 147.12899780 106.25000000 -0.281186 -0.134596 0.950168 0.000000
97.29499817 160.57600403 186.25000000 0.151797 0.614703 -0.774014 0.000000
57.34870148 170.85899353 102.50000000 0.925895 0.332985 0.178435 0.000000
111.53299713 276.06500244 166.25000000 -0.001381 -0.724826 -0.688930 0.000000
204.08200073 198.14999390 165.00000000 -0.533213 -0.763353 0.364659 0.000000
191.42599487 150.29299927 141.25000000 -0.466512 0.137209 0.873808 0.000000
84.63870239 187.86599731 57.50000000 -0.870607 -0.449393 0.200225 0.000000
90.96679688 263.01300049 102.50000000 -0.131790 -0.587873 0.798145 0.000000
130.51800537 221.48399353 116.25000000 -0.329637 -0.504806 0.797816 0.000000
69.60939789 259.05801392 137.50000000 0.739521 -0.658519 0.139504 0.000000
171.25500488 124.98100281 172.50000000 0.179386 0.550216 -0.815526 0.000000
113.11499786 165.71800232 110.00000000 -0.380143 -0.380143 0.843198 0.000000
104.01899719 167.69500732 102.50000000 -0.729586 0.279382 0.624219 0.000000
160.18099976 208.82800293 167.50000000 -0.827533 -0.539308 -0.155998 0.000000
107.57800293 216.73800659 101.25000000 -0.198942 -0.431778 0.879767 0.000000
75.93750000 262.61700439 113.75000000 0.660331 -0.522552 0.539354 0.000000
183.91099548 220.69299316 165.00000000 0.790568 -0.103753 0.603521 0.000000
139.21899414 211.99200439 113.75000000 -0.358148 -0.596913 0.717931 0.000000
71.19139862 243.63299561 93.75000000 0.265463 0.417156 0.869201 0.000000
112.32399750 135.26400757 113.75000000 -0.493726 0.540588 0.681175 0.000000
93.73539734 280.81100464 137.50000000 0.314656 -0.943968 0.099575 0.000000
82.26570129 191.42599487 56.25000000 -0.845076 -0.482683 0.229922 0.000000
109.16000366 197.75399780 88.75000000 -0.448902 -0.338646 0.826925 0.000000
134.47300720 189.84399414 106.25000000 0.393517 0.722819 0.568047 0.000000
94.92189789 119.44300079 151.25000000 0.485938 0.650720 -0.583462 0.000000
117.86100006 189.05299377 88.75000000 -0.397225 -0.326126 0.857820 0.000000
155.03900146 155.83000183 183.75000000 -0.000978 -0.000978 -0.999999 0.000000
88.59380341 248.37899780 96.25000000 0.023197 -0.517164 0.855572 0.000000
210.41000366 184.30700684 156.25000000 0.001347 0.844879 0.534955 0.000000
92.54889679 142.38299561 168.75000000 0.167674 0.508956 -0.844304 0.000000
190.63499451 215.15600586 148.75000000 -0.032832 -0.917969 0.395291 0.000000
125.37599945 190.63499451 115.00000000 -0.959764 0.137483 -0.244851 0.000000
103.22799683 136.05499268 167.50000000 0.104194 0.767517 -0.632504 0.000000
123.00299835 150.29299927 110.00000000 -0.612794 0.261269 0.745803 0.000000
199.33599854 174.02400208 178.75000000 -0.000978 -0.000978 -0.999999 0.000000
144.75599670 230.18600464 183.75000000 -0.247553 -0.739506 -0.625978 0.000000
66.44529724 242.84199524 168.75000000 0.595588 -0.531474 -0.602337 0.000000
140.80099487 183.51600647 146.25000000 -0.578215 0.438244 0.688193 0.000000
203.29100037 156.22599792 155.00000000 -0.280054 0.083887 0.956312 0.000000
126.56300354 154.24800110 183.75000000 0.074547 0.510580 -0.856593 0.000000
98.87699890 114.69699860 103.75000000 -0.753685 -0.001378 0.657235 0.000000
175.60600281 111.53299713 163.75000000 -0.579138 0.626415 -0.521731 0.000000
124.98100281 278.83300781 165.00000000 -0.247058 -0.895030 -0.371327 0.000000
134.07699585 215.94700623 192.50000000 -0.397537 -0.068727 -0.915009 0.000000
93.33989716 140.00999451 98.75000000 -0.590284 0.147945 0.793522 0.000000
149.89799500 222.27499390 182.50000000 -0.825648 -0.325541 -0.460790 0.000000
120.23400116 239.67799377 116.25000000 -0.569498 -0.280783 0.772550 0.000000
136.84599304 251.14799500 180.00000000 -0.292462 -0.286642 -0.912306 0.000000
100.45899963 280.01998901 123.75000000 0.001227 -0.953006 0.302950 0.000000
105.60099792 181.93400574 80.00000000 -0.651092 -0.279953 0.705483 0.000000
83.84770203 199.33599854 71.25000000 -0.372397 -0.494917 0.785097 0.000000
91.75789642 151.87500000 96.25000000 -0.724826 0.001381 0.688930 0.000000
55.37110138 204.87300110 91.25000000 0.957240 -0.138253 0.254123 0.000000
130.51800537 235.32699585 187.50000000 -0.274082 -0.178631 -0.944971 0.000000
121.02500153 229.39500427 113.75000000 -0.496670 -0.247566 0.831883 0.000000
160.57600403 139.21899414 128.75000000 -0.564885 0.338284 0.752641 0.000000
60.90819931 215.15600586 171.25000000 0.755382 -0.067625 -0.651786 0.000000
83.84770203 211.20100403 191.25000000 -0.000978 -0.000978 -0.999999 0.000000
131.30900574 199.73199463 130.00000000 -0.611759 0.645280 0.457563 0.000000
158.59899902 203.29100037 137.50000000 -0.690320 -0.690320 0.216602 0.000000
160.97200012 234.14100647 157.50000000 -0.953712 0.001227 0.300720 0.000000
149.50199890 243.63299561 178.75000000 -0.568582 -0.345037 -0.746769 0.000000
70.40039825 142.38299561 106.25000000 0.923783 0.308877 0.226320 0.000000
67.23639679 253.91600037 158.75000000 0.470026 -0.470026 -0.747095 0.000000
118.65200043 263.40798950 123.75000000 -0.811218 0.233322 0.536177 0.000000
98.87699890 248.37899780 183.75000000 -0.000978 -0.000978 -0.999999 0.000000
65.25879669 244.42399597 165.00000000 0.776891 -0.421834 -0.467437 0.000000
174.02400208 127.74900055 175.00000000 0.270292 0.403173 -0.874296 0.000000
145.54699707 132.89100647 173.75000000 0.369023 0.497940 -0.784779 0.000000
140.00999451 106.39199829 150.00000000 -0.004031 0.855822 -0.517255 0.000000
156.62100220 147.12899780 181.25000000 0.000978 0.000978 -0.999999 0.000000
160.57600403 140.80099487 128.75000000 -0.496636 0.233801 0.835877 0.000000
58.13970184 242.84199524 150.00000000 0.702740 -0.702740 -0.110959 0.000000
196.96299744 123.39800262 158.75000000 -0.476943 0.334335 0.812863 0.000000
90.17579651 158.20300293 88.75000000 -0.821852 0.486849 0.295867 0.000000
119.44300079 207.24600220 198.75000000 -0.000978 -0.000978 -0.999999 0.000000
75.93750000 199.33599854 56.25000000 -0.575898 -0.695393 0.429849 0.000000
80.68360138 209.61900330 76.25000000 -0.643776 -0.596711 0.479050 0.000000
90.96679688 136.05499268 163.75000000 -0.223411 0.670232 -0.707727 0.000000
154.64399719 190.63499451 190.00000000 -0.352415 -0.334107 -0.874172 0.000000
93.33989716 229.39500427 96.25000000 -0.676726 -0.169563 0.716443 0.000000
93.33989716 257.07998657 101.25000000 -0.442581 -0.488649 0.751894 0.000000
74.75099945 130.51800537 105.00000000 0.741175 0.503471 0.444045 0.000000
73.56449890 223.06700134 76.25000000 -0.675481 -0.330416 0.659204 0.000000
85.42970276 239.67799377 183.75000000 0.065815 -0.234698 -0.969838 0.000000
80.28810120 121.81600189 140.00000000 0.834160 0.466194 -0.294685 0.000000
128.14500427 182.72500610 126.25000000 -0.449728 -0.590163 0.670412 0.000000
75.93750000 199.73199463 57.50000000 -0.395456 -0.789298 0.469705 0.000000
69.60939789 200.52299500 57.50000000 0.224280 -0.954870 0.194734 0.000000
62.49029922 238.09599304 166.25000000 0.797273 -0.426823 -0.426823 0.000000
145.54699707 234.93200684 131.25000000 -0.595488 -0.350767 0.722743 0.000000
115.48799896 274.87799072 167.50000000 0.057151 -0.378790 -0.923716 0.000000
69.60939789 197.75399780 183.75000000 0.690759 0.092395 -0.717158 0.000000
157.41200256 113.90599823 161.25000000 0.282788 0.417303 -0.863649 0.000000
122.60700226 168.48599243 113.75000000 -0.106506 -0.470048 0.876192 0.000000
127.35399628 191.02999878 105.00000000 -0.554923 0.668926 0.494569 0.000000
161.36700439 193.00799561 186.25000000 -0.368572 -0.137693 -0.919345 0.000000
137.63699341 264.19900513 173.75000000 -0.129452 -0.614527 -0.778202 0.000000
124.98100281 118.25700378 157.50000000 0.201759 0.829791 -0.520326 0.000000
189.05299377 212.78300476 171.25000000 -0.000978 -0.000978 -0.999999 0.000000
123.39800262 187.47099304 98.75000000 -0.755943 0.249885 0.605068 0.000000
172.04600525 140.00999451 135.00000000 -0.380679 0.298780 0.875108 0.000000
83.84770203 234.93200684 88.75000000 -0.305688 -0.223223 0.925595 0.000000
221.48399353 154.24800110 176.25000000 -0.674719 0.234343 -0.699884 0.000000
195.38099670 213.57400513 161.25000000 -0.856228 -0.513737 0.054297 0.000000
143.17399597 260.64001465 172.50000000 -0.424268 -0.456779 -0.781889 0.000000
108.36900330 150.29299927 106.25000000 -0.467788 -0.175605 0.866220 0.000000
149.10699463 213.57400513 125.00000000 -0.802239 -0.346095 0.486447 0.000000
141.59199524 155.83000183 116.25000000 0.000978 0.000978 0.999999 0.000000
155.03900146 132.89100647 173.75000000 0.095219 0.646023 -0.757356 0.000000
90.17579651 274.87799072 155.00000000 0.414586 -0.894177 -0.169013 0.000000
102.04100037 203.29100037 88.75000000 -0.168528 -0.611864 0.772801 0.000000
139.61399841 277.64700317 150.00000000 -0.675012 -0.598344 0.431674 0.000000
133.68200684 189.84399414 193.75000000 -0.315220 0.079786 -0.945659 0.000000
149.50199890 139.21899414 176.25000000 0.033907 0.473342 -0.880226 0.000000
183.11999512 215.94700623 165.00000000 0.943129 -0.173842 -0.283349 0.000000
121.81600189 118.65200043 151.25000000 0.695314 0.673140 0.251834 0.000000
110.74199677 124.58499908 117.50000000 -0.586257 0.701856 0.404600 0.000000
63.28129959 246.79699707 158.75000000 0.863863 -0.374187 -0.337230 0.000000
111.53299713 286.74301147 150.00000000 0.150728 -0.914231 -0.376116 0.000000
151.87500000 227.41700745 172.50000000 -0.266129 -0.266129 -0.926472 0.000000
189.05299377 193.00799561 181.25000000 -0.334408 -0.055952 -0.940766 0.000000
102.83200073 249.16999817 108.75000000 0.000978 0.000978 0.999999 0.000000
132.89100647 195.38099670 193.75000000 -0.761776 -0.507307 -0.402910 0.000000
104.80999756 169.27699280 102.50000000 -0.753059 0.434773 0.493836 0.000000
50.62500000 196.17199707 156.25000000 0.807873 0.200059 -0.554363 0.000000
96.50399780 144.75599670 171.25000000 0.336808 0.552752 -0.762250 0.000000
78.31060028 170.85899353 183.75000000 0.708662 0.089131 -0.699895 0.000000
213.57400513 135.26400757 171.25000000 -0.575939 0.801502 -0.160902 0.000000
97.29499817 179.56100464 196.25000000 0.112104 0.394441 -0.912058 0.000000
65.25879669 195.38099670 180.00000000 0.568081 -0.147611 -0.809627 0.000000
58.13970184 191.42599487 170.00000000 0.592509 -0.076036 -0.801967 0.000000
123.39800262 120.62999725 160.00000000 0.169630 0.698386 -0.695329 0.000000
200.12699890 136.05499268 156.25000000 -0.320730 0.591496 0.739773 0.000000
136.84599304 235.72300720 186.25000000 -0.346546 -0.720750 -0.600354 0.000000
143.17399597 166.50900269 137.50000000 0.620131 -0.489047 -0.613409 0.000000
177.18800354 164.53100586 131.25000000 -0.826054 0.205372 0.524841 0.000000
128.14500427 196.17199707 136.25000000 0.377469 0.631313 0.677467 0.000000
156.62100220 105.60099792 155.00000000 0.259121 0.777362 -0.573206 0.000000
88.19830322 264.98999023 105.00000000 0.085268 -0.602660 0.793430 0.000000
184.30700684 145.54699707 141.25000000 -0.312007 0.320965 0.894222 0.000000
190.63499451 142.38299561 146.25000000 -0.189508 0.553364 0.811095 0.000000
150.29299927 159.78500366 186.25000000 0.000978 0.000978 -0.999999 0.000000
109.95099640 166.11300659 108.75000000 -0.192342 -0.964327 0.181874 0.000000
189.05299377 189.05299377 131.25000000 -0.181102 0.893918 0.410014 0.000000
162.15800476 141.59199524 128.75000000 -0.550020 0.307692 0.776405 0.000000
99.66799927 224.64900208 98.75000000 -0.518602 -0.260079 0.814500 0.000000
53.39360046 207.24600220 100.00000000 0.973706 -0.083106 0.212107 0.000000
70.40039825 185.88900757 183.75000000 0.486404 0.386214 -0.783741 0.000000
75.54199982 266.57199097 147.50000000 0.705176 -0.705176 -0.073848 0.000000
106.78700256 262.61700439 176.25000000 0.076883 -0.709352 -0.700649 0.000000
63.67679977 177.97900391 72.50000000 0.908436 0.302812 0.288183 0.000000
197.75399780 162.94900513 143.75000000 -0.691433 0.136487 0.709431 0.000000
87.40730286 174.02400208 190.00000000 0.535256 0.419970 -0.732889 0.000000
125.77200317 185.88900757 128.75000000 -0.546923 -0.709836 0.443855 0.000000
57.74420166 189.05299377 88.75000000 0.978602 0.109830 0.174001 0.000000
215.15600586 158.99400330 178.75000000 -0.000978 -0.000978 -0.999999 0.000000
188.26199341 216.73800659 151.25000000 -0.014612 -0.888683 0.458289 0.000000
147.12899780 197.75399780 136.25000000 -0.429674 0.698427 0.572346 0.000000
225.44000244 170.85899353 171.25000000 -0.859468 -0.432024 -0.273259 0.000000
182.72500610 206.45500183 168.75000000 0.474595 -0.605402 -0.638943 0.000000
191.42599487 207.24600220 138.75000000 -0.447763 -0.756113 0.477286 0.000000
63.28129959 149.89799500 117.50000000 0.897048 0.304967 0.319843 0.000000
183.11999512 219.90199280 162.50000000 0.911706 -0.357504 0.202442 0.000000
192.21699524 172.04600525 180.00000000 -0.545329 -0.124271 -0.828959 0.000000
123.79399872 203.29100037 197.50000000 -0.244064 0.098392 -0.964755 0.000000
152.66600037 121.02500153 166.25000000 0.285077 0.759675 -0.584488 0.000000
56.55759811 215.15600586 92.50000000 0.931056 -0.278328 0.235943 0.000000
73.56449890 203.29100037 186.25000000 0.624368 -0.091690 -0.775730 0.000000
114.69699860 124.19000244 121.25000000 -0.227501 0.319074 0.920019 0.000000
150.29299927 196.96299744 191.25000000 -0.541117 0.554603 -0.632146 0.000000
76.72859955 214.36500549 76.25000000 -0.515181 -0.458859 0.723904 0.000000
56.16210175 214.36500549 166.25000000 0.862131 -0.062675 -0.502794 0.000000
76.72859955 259.45300293 163.75000000 0.710166 -0.520567 -0.473998 0.000000
70.79589844 143.96499634 102.50000000 0.923783 0.308877 0.226320 0.000000
143.56900024 218.32000732 122.50000000 -0.559391 -0.505635 0.656822 0.000000
136.44999695 128.14500427 127.50000000 -0.175433 0.372261 0.911397 0.000000
180.35200500 181.93400574 183.75000000 -0.707106 -0.707106 0.001384 0.000000
59.32619858 240.86399841 157.50000000 0.829352 -0.341498 -0.442216 0.000000
90.17579651 267.36300659 106.25000000 0.172403 -0.541194 0.823035 0.000000
161.36700439 118.65200043 166.25000000 0.189742 0.683379 -0.704976 0.000000
156.22599792 219.90199280 157.50000000 -0.965957 0.258631 0.006015 0.000000
131.30900574 272.90100098 138.75000000 -0.646502 -0.471863 0.599484 0.000000
79.10160065 268.54998779 130.00000000 0.707106 -0.707106 -0.001384 0.000000
65.65429688 215.94700623 178.75000000 0.796659 -0.106708 -0.594936 0.000000
127.35399628 242.84199524 123.75000000 -0.412236 -0.480671 0.773962 0.000000
175.60600281 182.72500610 136.25000000 0.125206 -0.578892 0.805735 0.000000
87.01180267 196.96299744 71.25000000 -0.580888 -0.644870 0.496701 0.000000
75.14649963 153.45700073 171.25000000 0.340345 0.371146 -0.863954 0.000000
75.14649963 131.30900574 146.25000000 0.690320 0.690320 0.216602 0.000000
212.78300476 149.50199890 158.75000000 -0.371922 0.137903 0.917964 0.000000
211.99200439 168.48599243 178.75000000 -0.000978 -0.000978 -0.999999 0.000000
83.84770203 217.52900696 191.25000000 0.910551 -0.293773 -0.290850 0.000000
51.41600037 180.35200500 153.75000000 0.931771 0.115621 -0.344143 0.000000
63.28129959 211.20100403 73.75000000 0.919328 -0.225171 0.322697 0.000000
197.75399780 192.61199951 137.50000000 0.450224 -0.321589 0.832994 0.000000
207.64199829 185.09800720 155.00000000 -0.339754 0.243515 0.908442 0.000000
73.56449890 181.93400574 183.75000000 0.470296 0.280936 -0.836599 0.000000
144.75599670 125.77200317 168.75000000 0.094875 0.617417 -0.780894 0.000000
185.09800720 136.44999695 180.00000000 -0.137425 0.319751 -0.937483 0.000000
114.69699860 262.61700439 178.75000000 -0.000978 -0.000978 -0.999999 0.000000
87.80280304 158.99400330 58.75000000 -0.850881 0.222166 0.476070 0.000000
109.95099640 227.81300354 106.25000000 -0.559554 -0.440006 0.702349 0.000000
73.56449890 159.78500366 58.75000000 0.900315 0.385434 0.202171 0.000000
127.35399628 185.09800720 196.25000000 -0.654821 0.143007 -0.742131 0.000000
122.60700226 189.84399414 96.25000000 -0.933319 -0.014044 0.358773 0.000000
57.74420166 157.01699829 135.00000000 0.846815 0.506907 0.161087 0.000000
122.60700226 246.40100098 185.00000000 -0.242228 -0.362607 -0.899912 0.000000
115.48799896 274.48300171 123.75000000 -0.645070 -0.645070 0.409595 0.000000
160.57600403 185.88900757 188.75000000 -0.377056 0.141571 -0.915307 0.000000
215.94700623 136.84599304 173.75000000 -0.575939 0.801502 -0.160902 0.000000
142.38299561 220.69299316 123.75000000 -0.464030 -0.533884 0.706855 0.000000
99.66799927 141.59199524 171.25000000 0.386320 0.453645 -0.803096 0.000000
70.40039825 209.61900330 183.75000000 0.555025 -0.084616 -0.827519 0.000000
54.97560120 204.87300110 92.50000000 0.954508 -0.284404 0.089607 0.000000
141.59199524 263.40798950 171.25000000 -0.283928 -0.428195 -0.857924 0.000000
196.96299744 185.09800720 141.25000000 -0.445040 -0.419147 0.791363 0.000000
127.35399628 173.23199463 193.75000000 -0.000978 -0.000978 -0.999999 0.000000
201.31399536 193.00799561 152.50000000 -0.777684 -0.604866 0.171303 0.000000
88.59380341 133.68200684 93.75000000 -0.609157 -0.194869 0.768735 0.000000
146.33799744 164.92700195 187.50000000 -0.336038 0.612011 -0.715906 0.000000
169.27699280 144.75599670 131.25000000 -0.453955 0.437684 0.776117 0.000000
85.42970276 148.31500244 172.50000000 0.359117 0.628045 -0.690358 0.000000
190.63499451 131.30900574 151.25000000 -0.566713 0.459723 0.683733 0.000000
79.10160065 145.54699707 168.75000000 0.625957 0.416751 -0.659164 0.000000
128.93600464 259.45300293 178.75000000 -0.526406 -0.526406 -0.667678 0.000000
208.43299866 135.26400757 162.50000000 -0.461197 0.304859 0.833282 0.000000
138.42799377 205.66400146 193.75000000 0.093137 -0.303023 -0.948421 0.000000
56.16210175 166.50900269 115.00000000 0.932433 0.348485 0.095531 0.000000
117.06999969 218.32000732 196.25000000 -0.145271 -0.204408 -0.968046 0.000000
102.83200073 198.54499817 198.75000000 -0.000978 -0.000978 -0.999999 0.000000
171.64999390 206.05999756 152.50000000 0.169741 -0.961866 0.214479 0.000000
80.68360138 269.34100342 117.50000000 0.603887 -0.783705 0.145352 0.000000
154.24800110 189.84399414 148.75000000 0.352909 -0.390221 0.850402 0.000000
62.88579941 153.45700073 115.00000000 0.865860 0.349112 0.358340 0.000000
