139.86300659 151.46499634 127.50000000 0.000978 0.000978 -0.999999 0.000000
68.32029724 131.48399353 92.50000000 -0.000978 -0.000978 0.999999 0.000000
39.31639862 186.91400146 197.50000000 -0.466669 0.003966 0.884423 0.000000
65.09760284 170.80099487 207.50000000 0.000978 0.000978 0.999999 0.000000
159.19900513 166.28900146 177.50000000 -0.213226 0.336296 0.917300 0.000000
127.93900299 217.85099792 170.00000000 0.770716 0.636921 -0.018118 0.000000
84.43360138 108.28099823 162.50000000 0.157201 -0.927905 0.338052 0.000000
59.29690170 232.67599487 187.50000000 0.000978 0.000978 0.999999 0.000000
78.63279724 118.59400177 97.50000000 0.105085 -0.847881 0.519669 0.000000
61.87500000 254.91200256 165.00000000 -0.497697 0.822215 0.276152 0.000000
48.98440170 141.79699707 197.50000000 0.000978 0.000978 0.999999 0.000000
159.19900513 112.14800262 122.50000000 0.651463 -0.300799 -0.696503 0.000000
26.74799919 207.53900146 135.00000000 -0.892875 0.404790 -0.197280 0.000000
165.00000000 110.21499634 127.50000000 0.637359 -0.402281 -0.657224 0.000000
162.42199707 81.85540009 152.50000000 0.000978 0.000978 0.999999 0.000000
25.78120041 176.60200500 167.50000000 -0.991782 0.001093 0.127937 0.000000
135.99600220 83.14450073 117.50000000 0.463251 0.883633 0.067759 0.000000
65.74220276 125.03900146 197.50000000 -0.073999 -0.703716 0.706618 0.000000
182.40199280 93.45700073 167.50000000 0.000978 0.000978 0.999999 0.000000
180.14599609 98.61319733 150.00000000 0.800802 0.292206 -0.522812 0.000000
139.86300659 172.08999634 167.50000000 0.001189 0.968656 0.248404 0.000000
99.90229797 236.54299927 157.50000000 -0.000978 -0.000978 -0.999999 0.000000
98.61319733 123.75000000 97.50000000 -0.000978 -0.000978 -0.999999 0.000000
52.20700073 159.84399414 202.50000000 0.000978 0.000978 0.999999 0.000000
142.44099426 101.83599854 167.50000000 -0.309905 -0.529223 0.789862 0.000000
129.55099487 104.41400146 167.50000000 0.000978 0.000978 0.999999 0.000000
151.14300537 112.79299927 115.00000000 0.764169 -0.142625 -0.629050 0.000000
119.23799896 210.11700439 152.50000000 -0.152742 0.969075 -0.193815 0.000000
88.30079651 217.20700073 137.50000000 -0.000978 -0.000978 -0.999999 0.000000
26.74799919 160.48800659 165.00000000 -0.991940 -0.097249 -0.081231 0.000000
65.41989899 140.50799561 60.00000000 -0.480460 0.510385 0.713208 0.000000
40.28319931 215.27299500 95.00000000 -0.520038 0.644578 -0.560429 0.000000
141.47500610 79.92179871 120.00000000 0.507777 0.861479 -0.004019 0.000000
62.51950073 141.79699707 57.50000000 -0.376562 0.456682 0.806004 0.000000
59.94139862 215.27299500 202.50000000 0.000978 0.000978 0.999999 0.000000
101.83599854 161.77699280 212.50000000 0.000978 0.000978 0.999999 0.000000
137.92999268 136.64100647 112.50000000 -0.101211 0.758352 -0.643939 0.000000
180.46899414 143.08599854 172.50000000 0.000978 0.000978 0.999999 0.000000
60.58589935 113.43699646 107.50000000 -0.578669 -0.808970 -0.103490 0.000000
157.91000366 87.65619659 117.50000000 0.577386 0.299089 -0.759718 0.000000
168.22300720 104.41400146 127.50000000 -0.000978 -0.000978 -0.999999 0.000000
70.25389862 136.64100647 207.50000000 0.006889 -0.624176 0.781253 0.000000
87.65619659 152.75399780 112.50000000 -0.767999 0.500585 0.399490 0.000000
38.67190170 228.16400146 172.50000000 -0.821748 -0.221887 -0.524878 0.000000
35.77149963 155.33200073 40.00000000 -0.704443 -0.429296 -0.565212 0.000000
70.25389862 179.17999268 62.50000000 0.553546 0.358750 -0.751589 0.000000
41.25000000 147.59800720 187.50000000 0.000978 0.000978 0.999999 0.000000
68.96479797 178.53500366 207.50000000 0.000978 0.000978 0.999999 0.000000
108.92600250 194.64799500 202.50000000 0.203543 0.139536 0.969072 0.000000
94.10150146 113.43699646 92.50000000 0.152215 0.162279 -0.974934 0.000000
47.69530106 197.87100220 57.50000000 0.508319 0.790540 -0.341552 0.000000
71.54290009 224.94099426 132.50000000 -0.000978 -0.000978 -0.999999 0.000000
131.48399353 178.53500366 127.50000000 0.646502 0.471863 -0.599484 0.000000
67.67579651 135.02900696 65.00000000 0.223223 0.629083 0.744597 0.000000
108.28099823 185.62500000 202.50000000 0.000978 0.000978 0.999999 0.000000
58.00780106 229.45300293 187.50000000 0.000978 0.000978 0.999999 0.000000
148.24200439 125.68399811 112.50000000 -0.000978 -0.000978 -0.999999 0.000000
84.43360138 248.14399719 152.50000000 0.336574 0.492897 -0.802353 0.000000
90.23429871 207.53900146 202.50000000 0.000978 0.000978 0.999999 0.000000
54.14059830 155.97700500 37.50000000 -0.000978 -0.000978 -0.999999 0.000000
116.66000366 166.93400574 207.50000000 0.000978 0.000978 0.999999 0.000000
92.16790009 223.00799561 197.50000000 0.241064 0.720041 0.650715 0.000000
183.69099426 136.64100647 152.50000000 0.876973 0.028377 -0.479700 0.000000
31.58200073 185.62500000 187.50000000 -0.968656 0.001189 0.248404 0.000000
140.50799561 130.83999634 112.50000000 -0.000978 -0.000978 -0.999999 0.000000
103.76899719 173.05700684 115.00000000 0.742832 -0.595228 0.306438 0.000000
106.34799957 137.92999268 117.50000000 -0.000978 -0.000978 -0.999999 0.000000
88.30079651 154.04299927 217.50000000 0.000978 0.000978 0.999999 0.000000
94.74610138 213.33999634 197.50000000 -0.001263 -0.933019 0.359825 0.000000
81.21089935 173.05700684 70.00000000 0.929043 0.310618 -0.200988 0.000000
52.85150146 117.30500031 122.50000000 -0.844539 -0.514387 -0.148863 0.000000
148.24200439 144.37500000 182.50000000 0.000978 0.000978 0.999999 0.000000
119.88300323 116.66000366 172.50000000 0.000978 0.000978 0.999999 0.000000
116.01599884 214.62899780 152.50000000 -0.000978 -0.000978 -0.999999 0.000000
177.89100647 125.03900146 172.50000000 0.000978 0.000978 0.999999 0.000000
69.60939789 118.59400177 82.50000000 -0.713854 -0.572072 0.403913 0.000000
127.61699677 165.00000000 132.50000000 -0.157994 -0.600379 -0.783953 0.000000
75.41010284 156.62100220 62.50000000 0.665244 -0.464162 -0.584811 0.000000
174.66799927 96.03510284 167.50000000 0.000978 0.000978 0.999999 0.000000
93.45700073 150.49800110 215.00000000 0.879098 -0.199459 0.432900 0.000000
168.86700439 143.72999573 177.50000000 0.000978 0.000978 0.999999 0.000000
135.35200500 130.83999634 182.50000000 0.321198 0.052888 0.945534 0.000000
98.61319733 213.33999634 197.50000000 0.000978 0.000978 0.999999 0.000000
121.81600189 133.41799927 187.50000000 0.437939 -0.196114 0.877353 0.000000
154.04299927 76.69920349 117.50000000 -0.398356 0.462868 0.791875 0.000000
37.38280106 157.91000366 37.50000000 -0.713746 -0.202822 -0.670395 0.000000
80.56639862 150.17599487 72.50000000 0.652070 -0.428598 -0.625387 0.000000
53.49610138 223.00799561 192.50000000 -0.175851 0.717166 0.674351 0.000000
183.04699707 126.32800293 152.50000000 0.846815 -0.161087 -0.506907 0.000000
76.05470276 248.78900146 147.50000000 0.213585 0.163792 -0.963096 0.000000
48.33980179 172.73399353 202.50000000 0.000978 0.000978 0.999999 0.000000
65.09760284 236.54299927 187.50000000 0.000978 0.000978 0.999999 0.000000
126.97299957 90.87889862 132.50000000 0.800910 0.595329 0.064244 0.000000
178.53500366 112.79299927 172.50000000 0.000978 0.000978 0.999999 0.000000
31.58200073 206.89399719 177.50000000 -0.798878 0.570627 0.190209 0.000000
127.61699677 138.57400513 187.50000000 0.000978 0.000978 0.999999 0.000000
96.03510284 195.29299927 112.50000000 0.778506 0.453451 -0.433948 0.000000
92.81250000 211.40600586 137.50000000 0.682177 0.487748 -0.544736 0.000000
43.18360138 232.99800110 115.00000000 -0.278452 0.596684 -0.752617 0.000000
157.91000366 178.53500366 137.50000000 -0.000978 -0.000978 -0.999999 0.000000
145.98599243 102.48000336 170.00000000 -0.401329 -0.532376 0.745326 0.000000
75.41010284 216.56199646 127.50000000 -0.000978 -0.000978 -0.999999 0.000000
72.18750000 187.88099670 75.00000000 0.427986 0.872491 -0.235768 0.000000
105.05899811 116.01599884 97.50000000 0.220964 0.175977 -0.959274 0.000000
139.86300659 203.67199707 157.50000000 -0.000978 -0.000978 0.999999 0.000000
65.74220276 201.09399414 97.50000000 -0.000978 -0.000978 -0.999999 0.000000
79.92179871 99.90229797 122.50000000 -0.191280 -0.956400 -0.220708 0.000000
54.78509903 170.15600586 207.50000000 0.000978 0.000978 0.999999 0.000000
161.77699280 133.41799927 122.50000000 0.735669 0.367019 -0.569287 0.000000
141.79699707 108.28099823 107.50000000 0.542139 0.666345 -0.511927 0.000000
79.27729797 245.56599426 147.50000000 -0.000978 -0.000978 -0.999999 0.000000
31.58200073 195.93699646 182.50000000 -0.768884 -0.181903 0.612967 0.000000
110.85900116 172.08999634 207.50000000 0.507563 0.428718 0.747382 0.000000
52.20700073 208.18400574 202.50000000 -0.000978 -0.000978 0.999999 0.000000
86.04489899 114.72699738 170.00000000 0.339056 -0.728402 0.595375 0.000000
99.90229797 169.51199341 212.50000000 0.000978 0.000978 0.999999 0.000000
191.42599487 135.99600220 162.50000000 0.001189 0.968656 -0.248404 0.000000
72.18750000 166.28900146 212.50000000 0.000978 0.000978 0.999999 0.000000
28.68160057 172.08999634 90.00000000 -0.708486 0.705724 0.001381 0.000000
94.74610138 151.46499634 212.50000000 0.884958 -0.163667 0.435961 0.000000
30.93750000 144.69700623 155.00000000 -0.847553 -0.508532 0.151822 0.000000
168.22300720 130.83999634 127.50000000 -0.000978 -0.000978 -0.999999 0.000000
68.32029724 236.54299927 137.50000000 -0.000978 -0.000978 -0.999999 0.000000
47.69530106 206.25000000 197.50000000 0.000978 0.000978 0.999999 0.000000
166.93400574 124.39399719 172.50000000 0.000978 0.000978 0.999999 0.000000
78.63279724 126.32800293 192.50000000 0.000978 0.000978 0.999999 0.000000
187.55900574 107.63700104 167.50000000 -0.936914 -0.272278 -0.219218 0.000000
132.12899780 177.89100647 177.50000000 -0.633875 0.206126 0.745462 0.000000
45.76169968 164.03300476 200.00000000 -0.749687 -0.356142 0.557793 0.000000
107.63700104 228.80900574 187.50000000 0.106495 0.165250 0.980485 0.000000
65.09760284 109.89299774 110.00000000 -0.555516 -0.775176 -0.300838 0.000000
82.50000000 164.35499573 67.50000000 0.424612 -0.607777 -0.671053 0.000000
110.21499634 211.40600586 152.50000000 -0.000978 -0.000978 -0.999999 0.000000
172.73399353 136.64100647 132.50000000 0.744964 -0.012532 -0.666987 0.000000
127.61699677 115.37100220 172.50000000 0.217918 -0.378796 0.899458 0.000000
117.30500031 230.74200439 167.50000000 0.939753 0.251249 -0.231815 0.000000
98.61319733 143.08599854 122.50000000 0.015756 0.258159 -0.965974 0.000000
190.78100586 142.44099426 162.50000000 0.000978 0.000978 -0.999999 0.000000
29.64839935 179.82400513 182.50000000 0.000978 0.000978 0.999999 0.000000
41.25000000 210.76199341 87.50000000 0.001263 0.933019 -0.359825 0.000000
143.72999573 158.55499268 127.50000000 -0.000978 -0.000978 -0.999999 0.000000
126.97299957 206.89399719 157.50000000 0.307541 0.490488 -0.815377 0.000000
80.56639862 174.99000549 70.00000000 0.899006 0.355764 -0.255383 0.000000
99.25779724 255.23399353 172.50000000 0.487533 0.846769 0.212824 0.000000
85.07810211 113.43699646 167.50000000 -0.235563 -0.823702 0.515776 0.000000
95.39060211 169.51199341 97.50000000 -0.000978 -0.000978 -0.999999 0.000000
88.30079651 199.16000366 112.50000000 0.134448 0.898677 -0.417496 0.000000
139.86300659 110.21499634 107.50000000 0.309927 0.246500 -0.918250 0.000000
129.55099487 101.83599854 97.50000000 -0.000978 -0.000978 -0.999999 0.000000
158.55499268 161.13299561 177.50000000 0.000978 0.000978 0.999999 0.000000
196.25999451 147.59800720 170.00000000 -0.474387 -0.595079 0.648720 0.000000
194.64799500 119.23799896 162.50000000 -0.476554 0.059397 0.877136 0.000000
129.55099487 195.93699646 152.50000000 0.728999 0.289997 -0.620050 0.000000
171.44500732 142.44099426 177.50000000 -0.000978 -0.000978 0.999999 0.000000
109.56999969 191.42599487 202.50000000 0.000978 0.000978 0.999999 0.000000
131.48399353 157.26600647 192.50000000 0.161691 -0.321999 0.932830 0.000000
68.32029724 175.31199646 57.50000000 0.572992 0.295274 -0.764521 0.000000
35.44919968 162.42199707 37.50000000 -0.771842 0.145376 -0.618972 0.000000
36.09370041 162.42199707 37.50000000 -0.799120 -0.200162 -0.566871 0.000000
57.36330032 188.84800720 207.50000000 0.000978 0.000978 0.999999 0.000000
40.60549927 225.90800476 110.00000000 -0.681088 0.604860 -0.412630 0.000000
189.49200439 114.08200073 167.50000000 0.000978 0.000978 0.999999 0.000000
67.03119659 237.83200073 132.50000000 -0.000978 -0.000978 -0.999999 0.000000
143.72999573 146.30900574 127.50000000 -0.000978 -0.000978 -0.999999 0.000000
64.77539825 138.57400513 60.00000000 -0.351373 0.648815 0.674964 0.000000
74.76560211 223.00799561 132.50000000 -0.000978 -0.000978 -0.999999 0.000000
159.19900513 169.83399963 175.00000000 0.594407 0.690440 0.412277 0.000000
83.14450073 130.83999634 197.50000000 0.313718 -0.815037 0.487130 0.000000
48.66210175 118.59400177 145.00000000 -0.613781 -0.787520 0.055539 0.000000
45.76169968 189.49200439 202.50000000 0.000978 0.000978 0.999999 0.000000
132.77299500 139.54100037 135.00000000 0.259157 -0.259157 -0.930417 0.000000
174.02299500 167.57800293 167.50000000 0.490724 0.861300 -0.131728 0.000000
58.00780106 218.49600220 112.50000000 0.600861 0.621058 -0.503242 0.000000
61.23040009 208.82800293 202.50000000 0.000978 0.000978 0.999999 0.000000
176.60200500 129.55099487 172.50000000 0.000978 0.000978 0.999999 0.000000
95.39060211 164.35499573 92.50000000 0.376734 -0.755099 -0.536561 0.000000
135.02900696 97.96869659 100.00000000 0.532933 0.275113 -0.800185 0.000000
132.77299500 163.71099854 127.50000000 -0.000978 -0.000978 -0.999999 0.000000
58.65230179 183.04699707 57.50000000 -0.000978 -0.000978 -0.999999 0.000000
45.11719894 229.45300293 182.50000000 0.000978 0.000978 0.999999 0.000000
72.18750000 136.64100647 212.50000000 -0.247664 -0.225527 0.942231 0.000000
117.30500031 227.19700623 165.00000000 0.726571 0.455141 -0.514724 0.000000
105.70300293 193.35899353 202.50000000 0.000978 0.000978 0.999999 0.000000
157.26600647 150.82000732 177.50000000 0.000978 0.000978 0.999999 0.000000
166.28900146 127.61699677 172.50000000 0.636623 0.123169 0.761276 0.000000
183.69099426 143.72999573 147.50000000 0.991782 -0.001093 -0.127937 0.000000
40.92770004 211.40600586 190.00000000 -0.681465 0.290224 0.671845 0.000000
90.87889862 202.70500183 120.00000000 0.482193 0.752089 -0.449279 0.000000
36.09370041 164.35499573 37.50000000 -0.779575 -0.029392 -0.625619 0.000000
123.10500336 212.05099487 157.50000000 0.485078 0.372269 -0.791274 0.000000
145.01899719 94.10150146 102.50000000 0.000978 0.000978 -0.999999 0.000000
72.83200073 257.48999023 170.00000000 -0.200162 0.799120 0.566871 0.000000
85.07810211 152.10899353 217.50000000 0.000978 0.000978 0.999999 0.000000
113.43699646 221.71899414 187.50000000 0.000978 0.000978 0.999999 0.000000
56.07419968 137.92999268 52.50000000 0.000978 0.000978 0.999999 0.000000
117.94899750 229.45300293 167.50000000 0.717104 0.510791 -0.474187 0.000000
174.66799927 86.68939972 160.00000000 -0.364384 -0.766015 0.529571 0.000000
154.04299927 94.74610138 167.50000000 -0.381189 0.635314 0.671618 0.000000
75.41010284 252.01199341 177.50000000 -0.094704 0.779487 0.619218 0.000000
72.18750000 124.39399719 192.50000000 -0.425633 -0.387374 0.817789 0.000000
123.42800140 143.08599854 115.00000000 0.124469 0.830280 -0.543270 0.000000
105.05899811 166.93400574 127.50000000 -0.000978 -0.000978 -0.999999 0.000000
116.66000366 205.60499573 147.50000000 0.776291 -0.064571 -0.627059 0.000000
54.78509903 165.00000000 37.50000000 0.871981 -0.017520 -0.489226 0.000000
52.52930069 191.42599487 205.00000000 -0.834411 -0.399066 0.380138 0.000000
121.81600189 217.85099792 182.50000000 0.000978 0.000978 0.999999 0.000000
68.96479797 106.02500153 150.00000000 -0.697373 0.001381 0.716707 0.000000
79.27729797 213.98399353 127.50000000 -0.000978 -0.000978 -0.999999 0.000000
129.55099487 199.16000366 152.50000000 0.556271 0.166431 -0.814164 0.000000
139.21899414 92.81250000 157.50000000 -0.590466 -0.267530 0.761432 0.000000
68.96479797 243.63299561 137.50000000 0.494510 0.350478 -0.795377 0.000000
188.84800720 135.35200500 157.50000000 0.735072 0.384726 -0.558262 0.000000
79.92179871 133.41799927 207.50000000 0.246348 -0.522133 0.816511 0.000000
157.26600647 148.24200439 127.50000000 -0.006937 0.670098 -0.742241 0.000000
99.90229797 156.62100220 212.50000000 0.000978 0.000978 0.999999 0.000000
179.82400513 128.90600586 142.50000000 0.932092 -0.016622 -0.361841 0.000000
110.21499634 188.84800720 202.50000000 0.000978 0.000978 0.999999 0.000000
105.05899811 150.17599487 127.50000000 -0.000978 -0.000978 -0.999999 0.000000
166.28900146 75.41010284 142.50000000 -0.090993 0.945536 -0.312541 0.000000
64.45310211 118.91600037 175.00000000 -0.498730 -0.498730 0.708898 0.000000
39.96089935 217.20700073 182.50000000 -0.734444 0.529790 0.424162 0.000000
156.62100220 96.03510284 117.50000000 -0.000978 -0.000978 -0.999999 0.000000
90.87889862 208.82800293 132.50000000 -0.310159 0.532838 -0.787328 0.000000
75.41010284 122.46099854 192.50000000 -0.293502 -0.419508 0.858993 0.000000
53.49610138 166.28900146 37.50000000 0.620587 0.620587 -0.479315 0.000000
129.55099487 178.85699463 125.00000000 0.654976 0.708896 -0.261673 0.000000
162.42199707 112.14800262 122.50000000 0.480829 -0.250400 -0.840299 0.000000
36.09370041 138.57400513 127.50000000 -0.846295 -0.518228 -0.123388 0.000000
134.06199646 181.11300659 177.50000000 0.000978 0.000978 0.999999 0.000000
99.25779724 164.35499573 212.50000000 0.000978 0.000978 0.999999 0.000000
109.56999969 227.51899719 162.50000000 0.766024 0.639551 -0.064674 0.000000
97.96869659 219.14100647 147.50000000 0.389793 0.712153 -0.583867 0.000000
56.07419968 205.60499573 202.50000000 0.000978 0.000978 0.999999 0.000000
123.75000000 176.60200500 117.50000000 0.000978 0.000978 -0.999999 0.000000
135.35200500 194.00399780 182.50000000 0.453548 -0.058920 0.889282 0.000000
26.10350037 198.51600647 155.00000000 -0.992567 0.113533 0.043839 0.000000
59.94139862 209.47300720 102.50000000 0.311680 0.828536 -0.465171 0.000000
110.85900116 102.48000336 157.50000000 -0.421454 -0.556981 0.715646 0.000000
172.73399353 123.75000000 132.50000000 -0.000978 -0.000978 -0.999999 0.000000
34.16009903 197.54899597 75.00000000 -0.900882 0.430857 -0.052675 0.000000
121.17199707 199.16000366 142.50000000 0.704094 0.704094 -0.092220 0.000000
66.38670349 126.32800293 197.50000000 -0.073999 -0.703716 0.706618 0.000000
89.58979797 203.35000610 120.00000000 0.485911 0.749456 -0.449674 0.000000
56.07419968 119.88300323 107.50000000 -0.773371 -0.490073 -0.402153 0.000000
60.58589935 150.17599487 52.50000000 0.893379 -0.228128 -0.387082 0.000000
165.64399719 112.79299927 127.50000000 0.770474 -0.215485 -0.599947 0.000000
57.36330032 211.40600586 202.50000000 -0.336729 0.045155 0.940518 0.000000
65.74220276 183.69099426 207.50000000 0.000978 0.000978 0.999999 0.000000
139.21899414 138.57400513 117.50000000 -0.421454 0.715646 -0.556981 0.000000
137.28500366 152.75399780 187.50000000 0.484719 -0.202592 0.850884 0.000000
34.48239899 168.22300720 40.00000000 -0.949714 -0.117886 -0.290080 0.000000
35.44919968 168.22300720 37.50000000 -0.838865 -0.060421 -0.540976 0.000000
70.25389862 250.72300720 182.50000000 -0.051144 0.496234 0.866681 0.000000
57.36330032 200.44900513 207.50000000 0.000978 0.000978 0.999999 0.000000
171.44500732 83.78900146 157.50000000 0.000978 0.000978 0.999999 0.000000
105.38099670 173.37899780 210.00000000 0.794612 0.500430 0.343746 0.000000
158.55499268 85.72260284 157.50000000 0.370572 -0.476449 0.797291 0.000000
167.57800293 113.43699646 172.50000000 0.000978 0.000978 0.999999 0.000000
163.06599426 97.96869659 127.50000000 -0.000978 -0.000978 -0.999999 0.000000
144.37500000 178.53500366 142.50000000 -0.420140 0.826012 -0.375748 0.000000
85.72260284 252.33399963 180.00000000 0.393759 0.894374 0.212249 0.000000
127.61699677 203.67199707 152.50000000 0.623026 0.261576 -0.737168 0.000000
60.58589935 157.91000366 207.50000000 0.000978 0.000978 0.999999 0.000000
176.60200500 136.64100647 137.50000000 0.384376 0.384376 -0.839351 0.000000
123.10500336 217.85099792 162.50000000 0.542146 0.388183 -0.745246 0.000000
115.37100220 128.90600586 102.50000000 -0.000978 -0.000978 -0.999999 0.000000
42.53900146 131.80700684 175.00000000 0.000978 0.000978 0.999999 0.000000
152.10899353 111.50399780 172.50000000 -0.000978 -0.000978 0.999999 0.000000
56.71870041 178.53500366 207.50000000 0.000978 0.000978 0.999999 0.000000
137.92999268 82.17769623 140.00000000 0.536237 0.842658 -0.048749 0.000000
178.53500366 89.58979797 162.50000000 0.000978 0.000978 0.999999 0.000000
153.39799500 146.30900574 182.50000000 0.000978 0.000978 0.999999 0.000000
193.35899353 134.06199646 172.50000000 0.000978 0.000978 0.999999 0.000000
61.23040009 112.14800262 157.50000000 -0.462090 -0.856003 0.231802 0.000000
170.15600586 138.57400513 172.50000000 0.628933 -0.391226 0.671852 0.000000
123.75000000 131.80700684 185.00000000 0.220041 -0.691335 0.688214 0.000000
84.43360138 244.92199707 182.50000000 0.000978 0.000978 0.999999 0.000000
74.12110138 205.60499573 207.50000000 0.153723 0.556687 0.816375 0.000000
59.29690170 213.33999634 107.50000000 0.246806 0.861549 -0.443645 0.000000
50.91790009 233.96499634 182.50000000 -0.504209 0.377752 0.776580 0.000000
165.64399719 135.99600220 177.50000000 0.257725 -0.351978 0.899827 0.000000
76.05470276 195.93699646 97.50000000 0.519728 0.466593 -0.715663 0.000000
103.12500000 197.22599792 122.50000000 0.491964 0.777725 -0.391298 0.000000
74.76560211 186.26899719 72.50000000 0.752089 0.449279 0.482193 0.000000
128.90600586 177.24600220 192.50000000 0.725909 0.049915 0.685977 0.000000
157.26600647 98.61319733 167.50000000 -0.064555 -0.641245 0.764616 0.000000
181.11300659 90.87889862 162.50000000 0.000978 0.000978 0.999999 0.000000
117.30500031 135.99600220 107.50000000 0.494850 0.254362 -0.830917 0.000000
137.92999268 99.25779724 162.50000000 0.000978 0.000978 0.999999 0.000000
43.18360138 190.78100586 202.50000000 0.000978 0.000978 0.999999 0.000000
113.43699646 173.37899780 117.50000000 0.599655 -0.295830 -0.743572 0.000000
148.24200439 106.99199677 172.50000000 -0.326732 -0.326732 0.886844 0.000000
88.94529724 121.81600189 177.50000000 -0.614287 -0.777899 0.132377 0.000000
54.14059830 186.26899719 52.50000000 0.692403 0.452147 -0.562264 0.000000
94.10150146 154.68699646 117.50000000 0.000978 0.000978 0.999999 0.000000
160.48800659 87.01170349 157.50000000 0.370771 -0.556973 0.743175 0.000000
122.46099854 89.26750183 115.00000000 0.297650 0.889958 0.345513 0.000000
172.73399353 168.54499817 170.00000000 -0.213449 0.966344 -0.143593 0.000000
27.71479988 188.84800720 177.50000000 -0.967057 0.066134 0.245820 0.000000
153.39799500 93.45700073 117.50000000 0.226886 -0.216018 -0.949663 0.000000
174.66799927 117.94899750 172.50000000 0.000978 0.000978 0.999999 0.000000
81.21089935 259.10101318 167.50000000 -0.282031 0.928292 0.242348 0.000000
111.50399780 147.27499390 200.00000000 0.487757 0.739075 0.464609 0.000000
59.94139862 219.78500366 117.50000000 0.600661 0.549901 -0.580357 0.000000
49.62889862 221.07400513 102.50000000 0.451856 0.733232 -0.508131 0.000000
94.10150146 221.71899414 147.50000000 -0.000978 -0.000978 -0.999999 0.000000
101.19100189 95.71289825 125.00000000 -0.194627 -0.967980 -0.158537 0.000000
65.74220276 236.54299927 187.50000000 0.000978 0.000978 0.999999 0.000000
47.05080032 195.29299927 52.50000000 0.113420 0.620125 -0.776261 0.000000
52.85150146 121.17199707 112.50000000 -0.877485 -0.339132 -0.339132 0.000000
35.77149963 135.35200500 145.00000000 0.000978 0.000978 0.999999 0.000000
164.67799377 153.39799500 135.00000000 0.137082 0.823969 -0.549804 0.000000
97.32420349 235.25399780 187.50000000 0.000978 0.000978 0.999999 0.000000
65.41989899 155.33200073 55.00000000 0.712138 -0.453179 -0.536179 0.000000
125.68399811 215.27299500 162.50000000 -0.000978 -0.000978 -0.999999 0.000000
96.67960358 108.92600250 92.50000000 -0.000978 -0.000978 -0.999999 0.000000
82.50000000 118.59400177 172.50000000 0.213938 -0.505259 0.836029 0.000000
54.78509903 214.62899780 107.50000000 0.273167 0.954106 -0.122727 0.000000
78.31050110 119.23799896 180.00000000 0.388830 -0.881247 0.268728 0.000000
163.71099854 110.85900116 172.50000000 0.000978 0.000978 0.999999 0.000000
139.21899414 108.28099823 107.50000000 0.274370 0.277243 -0.920792 0.000000
149.53100586 157.26600647 182.50000000 0.000978 0.000978 0.999999 0.000000
173.37899780 123.75000000 132.50000000 -0.000978 -0.000978 -0.999999 0.000000
124.39399719 116.66000366 107.50000000 -0.000978 -0.000978 -0.999999 0.000000
89.58979797 154.68699646 112.50000000 -0.628313 0.761545 0.158971 0.000000
42.53900146 237.18699646 172.50000000 -0.704281 0.704281 -0.089316 0.000000
82.17769623 161.13299561 70.00000000 0.558673 -0.555297 -0.616059 0.000000
103.12500000 162.42199707 212.50000000 0.000978 0.000978 0.999999 0.000000
135.35200500 108.28099823 172.50000000 0.000978 0.000978 0.999999 0.000000
157.26600647 87.33399963 115.00000000 0.617790 0.617790 -0.486489 0.000000
58.65230179 143.08599854 207.50000000 0.000978 0.000978 0.999999 0.000000
87.65619659 135.35200500 207.50000000 0.231901 -0.926179 0.297345 0.000000
86.36720276 161.77699280 217.50000000 0.332136 0.276042 0.901935 0.000000
63.16400146 241.69900513 132.50000000 0.424749 0.198412 -0.883301 0.000000
75.08789825 142.44099426 100.00000000 -0.991782 0.001093 0.127937 0.000000
125.68399811 183.04699707 127.50000000 0.745844 0.634662 -0.202289 0.000000
94.74610138 117.94899750 92.50000000 -0.000978 -0.000978 -0.999999 0.000000
186.91400146 116.66000366 172.50000000 0.000978 0.000978 0.999999 0.000000
132.12899780 179.82400513 177.50000000 -0.633875 0.206126 0.745462 0.000000
44.15039825 197.22599792 200.00000000 -0.450556 0.200743 0.869886 0.000000
183.04699707 101.83599854 157.50000000 0.791554 0.482026 -0.375625 0.000000
103.12500000 199.16000366 127.50000000 0.481244 0.655632 -0.581852 0.000000
166.93400574 130.83999634 172.50000000 0.353904 -0.158068 0.921828 0.000000
154.04299927 184.33599854 142.50000000 -0.541671 0.572045 -0.615919 0.000000
119.23799896 157.26600647 202.50000000 0.000978 0.000978 0.999999 0.000000
86.36720276 98.29100037 125.00000000 -0.171710 -0.963414 -0.205790 0.000000
34.48239899 139.21899414 155.00000000 -0.941834 -0.313049 0.122264 0.000000
30.29299927 156.62100220 87.50000000 -0.985511 -0.164058 0.043051 0.000000
71.54290009 168.86700439 212.50000000 -0.395493 0.297765 0.868862 0.000000
97.32420349 226.22999573 192.50000000 0.304607 0.113064 0.945744 0.000000
131.48399353 192.07000732 177.50000000 0.000978 0.000978 0.999999 0.000000
65.41989899 176.60200500 55.00000000 0.705664 0.226876 -0.671241 0.000000
65.09760284 114.08200073 167.50000000 -0.054370 -0.849007 0.525576 0.000000
131.80700684 210.11700439 165.00000000 0.740554 0.578507 -0.341919 0.000000
150.82000732 94.10150146 112.50000000 0.571544 0.266091 -0.776230 0.000000
60.58589935 196.90400696 85.00000000 0.338605 0.934874 -0.106573 0.000000
56.07419968 123.10500336 187.50000000 0.000978 0.000978 0.999999 0.000000
149.53100586 168.22300720 127.50000000 0.000978 0.000978 -0.999999 0.000000
128.26199341 184.33599854 132.50000000 0.659932 0.669709 -0.340558 0.000000
102.48000336 166.28900146 212.50000000 0.000978 0.000978 0.999999 0.000000
77.98829651 129.22799683 105.00000000 -0.725181 -0.206529 0.656855 0.000000
170.80099487 87.65619659 132.50000000 0.382832 0.398586 -0.833408 0.000000
128.26199341 159.19900513 127.50000000 0.643626 0.643626 0.414116 0.000000
110.85900116 196.58200073 132.50000000 0.241720 0.781300 -0.575449 0.000000
194.00399780 143.72999573 172.50000000 -0.000978 -0.000978 0.999999 0.000000
45.11719894 237.18699646 177.50000000 0.000978 0.999999 0.000978 0.000000
143.08599854 166.28900146 177.50000000 0.000978 0.000978 0.999999 0.000000
158.23199463 184.33599854 145.00000000 0.622677 0.629390 -0.464910 0.000000
167.57800293 150.17599487 132.50000000 0.440957 0.450720 -0.776150 0.000000
68.32029724 180.46899414 207.50000000 0.000978 0.000978 0.999999 0.000000
46.40620041 125.68399811 162.50000000 -0.718192 -0.678881 0.152710 0.000000
102.80300140 206.25000000 200.00000000 -0.095301 0.690569 0.716960 0.000000
63.16400146 233.96499634 132.50000000 0.000978 0.000978 -0.999999 0.000000
110.85900116 126.32800293 102.50000000 0.294182 0.033800 -0.955152 0.000000
45.11719894 230.09800720 182.50000000 0.000978 0.000978 0.999999 0.000000
151.78700256 186.26899719 165.00000000 -0.001370 0.790530 -0.612421 0.000000
76.69920349 147.59800720 212.50000000 0.000978 0.000978 0.999999 0.000000
133.41799927 170.15600586 187.50000000 0.864530 0.045502 0.500517 0.000000
44.79489899 128.26199341 70.00000000 -0.632837 -0.763871 -0.126567 0.000000
64.45310211 220.42999268 197.50000000 0.000978 0.000978 0.999999 0.000000
90.87889862 235.25399780 187.50000000 0.000978 0.000978 0.999999 0.000000
108.28099823 124.71700287 100.00000000 0.483144 0.499747 -0.718905 0.000000
186.91400146 157.26600647 162.50000000 0.634138 0.427752 -0.644125 0.000000
56.07419968 190.45899963 60.00000000 0.510235 0.624743 -0.591064 0.000000
92.16790009 254.58999634 162.50000000 -0.000978 -0.000978 -0.999999 0.000000
109.56999969 212.69500732 152.50000000 -0.000978 -0.000978 -0.999999 0.000000
144.37500000 106.34799957 107.50000000 0.590306 0.805478 -0.052377 0.000000
153.39799500 179.17999268 137.50000000 -0.000978 -0.000978 -0.999999 0.000000
166.28900146 153.39799500 177.50000000 0.000978 0.000978 0.999999 0.000000
69.60939789 161.77699280 57.50000000 0.503017 0.170640 -0.847264 0.000000
56.07419968 138.57400513 52.50000000 0.000978 0.000978 0.999999 0.000000
116.66000366 224.94099426 162.50000000 0.648975 0.477928 -0.591959 0.000000
25.78120041 198.19299316 155.00000000 -0.992567 0.113533 0.043839 0.000000
26.42580032 169.83399963 115.00000000 -0.945136 -0.135788 -0.297119 0.000000
79.27729797 237.18699646 187.50000000 0.000978 0.000978 0.999999 0.000000
162.42199707 117.30500031 177.50000000 -0.743238 -0.463082 -0.482858 0.000000
132.12899780 201.09399414 187.50000000 0.000978 0.000978 0.999999 0.000000
52.85150146 176.60200500 37.50000000 0.000978 0.000978 -0.999999 0.000000
51.56250000 151.46499634 202.50000000 -0.576832 -0.157318 0.801571 0.000000
143.08599854 148.24200439 127.50000000 -0.190765 -0.170002 -0.966803 0.000000
99.90229797 249.75599670 165.00000000 0.567184 0.190075 -0.801357 0.000000
68.96479797 191.74800110 80.00000000 0.090636 0.987585 -0.128304 0.000000
106.99199677 212.05099487 147.50000000 0.756048 0.503485 -0.418204 0.000000
175.95700073 149.53100586 137.50000000 0.001370 0.612421 -0.790530 0.000000
27.39259911 168.86700439 110.00000000 -0.977490 -0.196474 -0.076881 0.000000
90.87889862 102.48000336 97.50000000 0.001093 -0.991782 -0.127937 0.000000
94.10150146 194.64799500 107.50000000 -0.000978 -0.000978 -0.999999 0.000000
61.87500000 154.04299927 52.50000000 0.612349 -0.205145 -0.763508 0.000000
65.09760284 124.39399719 67.50000000 0.456353 -0.456353 -0.763861 0.000000
143.08599854 93.45700073 102.50000000 0.000978 0.000978 -0.999999 0.000000
48.33980179 125.68399811 67.50000000 -0.704281 -0.704281 -0.089316 0.000000
108.28099823 121.81600189 97.50000000 0.424095 0.433770 -0.794976 0.000000
87.65619659 227.51899719 147.50000000 -0.088562 0.619936 -0.779638 0.000000
73.47650146 134.70700073 207.50000000 -0.346105 -0.852071 0.392666 0.000000
131.48399353 149.53100586 132.50000000 -0.492567 -0.170106 -0.853488 0.000000
50.27339935 192.07000732 202.50000000 -0.415968 -0.046813 0.908174 0.000000
63.80860138 257.16799927 157.50000000 -0.487420 0.869489 0.080066 0.000000
39.31639862 177.89100647 37.50000000 0.000978 0.000978 -0.999999 0.000000
67.67579651 207.53900146 107.50000000 -0.207531 0.570327 -0.794769 0.000000
164.35499573 147.59800720 177.50000000 0.000978 0.000978 0.999999 0.000000
68.32029724 118.59400177 177.50000000 -0.181052 -0.960764 0.210126 0.000000
130.83999634 203.35000610 155.00000000 0.641268 0.247369 -0.726350 0.000000
192.07000732 130.19500732 172.50000000 0.000978 0.000978 0.999999 0.000000
105.05899811 221.71899414 192.50000000 0.000978 0.000978 0.999999 0.000000
57.36330032 236.54299927 187.50000000 0.000978 0.000978 0.999999 0.000000
159.19900513 89.58979797 117.50000000 0.577386 0.299089 -0.759718 0.000000
103.76899719 152.10899353 207.50000000 0.000978 0.000978 0.999999 0.000000
81.85540009 150.49800110 95.00000000 -0.524211 0.836064 0.161867 0.000000
114.72699738 108.60299683 165.00000000 -0.108027 -0.711792 0.694034 0.000000
103.44699860 155.97700500 130.00000000 0.582489 0.545344 -0.602749 0.000000
161.77699280 146.30900574 177.50000000 0.000978 0.000978 0.999999 0.000000
47.05080032 241.69900513 142.50000000 -0.809289 0.270806 -0.521263 0.000000
49.62889862 178.53500366 37.50000000 0.428604 0.340685 -0.836799 0.000000
187.55900574 94.10150146 152.50000000 -0.134615 -0.484905 -0.864145 0.000000
81.85540009 153.39799500 72.50000000 -0.000978 -0.000978 -0.999999 0.000000
182.40199280 98.61319733 152.50000000 0.737539 0.324388 -0.592291 0.000000
81.85540009 260.39099121 157.50000000 0.310933 0.620256 -0.720141 0.000000
94.42379761 189.49200439 100.00000000 0.968119 0.242340 -0.063381 0.000000
134.06199646 165.64399719 127.50000000 -0.000978 -0.000978 -0.999999 0.000000
121.81600189 127.61699677 182.50000000 0.000978 0.000978 0.999999 0.000000
36.73830032 142.76400757 60.00000000 -0.901032 -0.367738 -0.230020 0.000000
134.06199646 201.09399414 157.50000000 0.220482 0.677083 0.702102 0.000000
96.03510284 201.73800659 122.50000000 0.398594 0.663221 -0.633451 0.000000
30.29299927 179.82400513 182.50000000 0.000978 0.000978 0.999999 0.000000
58.65230179 134.06199646 57.50000000 -0.388922 0.553025 0.736819 0.000000
130.19500732 163.06599426 192.50000000 0.000978 0.000978 0.999999 0.000000
128.90600586 119.23799896 177.50000000 0.495826 -0.449703 0.742916 0.000000
142.44099426 134.70700073 177.50000000 0.153876 -0.913373 0.376925 0.000000
152.75399780 176.60200500 172.50000000 0.000978 0.000978 0.999999 0.000000
51.88470078 247.50000000 155.00000000 -0.801027 0.570864 0.180193 0.000000
51.56250000 116.33799744 145.00000000 -0.613781 -0.787520 0.055539 0.000000
149.53100586 76.37689972 135.00000000 0.242814 0.970072 -0.001184 0.000000
180.46899414 151.46499634 147.50000000 0.669717 0.562293 -0.485083 0.000000
88.94529724 123.10500336 102.50000000 -0.000978 -0.000978 -0.999999 0.000000
43.82809830 230.09800720 112.50000000 -0.205145 0.612349 -0.763508 0.000000
88.94529724 250.07800293 182.50000000 -0.020177 0.878384 0.477529 0.000000
125.68399811 141.15199280 112.50000000 0.046748 0.774875 -0.630383 0.000000
37.38280106 179.82400513 37.50000000 -0.000978 -0.000978 -0.999999 0.000000
85.72260284 117.30500031 172.50000000 0.264771 -0.546776 0.794313 0.000000
144.37500000 119.23799896 112.50000000 -0.000978 -0.000978 -0.999999 0.000000
172.73399353 133.41799927 132.50000000 0.796927 -0.046546 -0.602279 0.000000
178.53500366 161.13299561 172.50000000 0.000978 0.000978 0.999999 0.000000
89.58979797 244.27699280 182.50000000 0.513793 0.855388 0.065799 0.000000
147.59800720 132.77299500 177.50000000 0.000978 0.000978 0.999999 0.000000
148.24200439 92.16790009 162.50000000 0.127073 -0.719085 0.683205 0.000000
155.33200073 104.41400146 117.50000000 -0.000978 -0.000978 -0.999999 0.000000
137.92999268 196.58200073 182.50000000 0.616242 0.192095 0.763771 0.000000
157.91000366 92.16790009 117.50000000 -0.000978 -0.000978 -0.999999 0.000000
101.83599854 140.50799561 122.50000000 -0.000978 -0.000978 -0.999999 0.000000
125.68399811 174.02299500 122.50000000 -0.000978 -0.000978 -0.999999 0.000000
99.90229797 240.41000366 162.50000000 -0.000978 -0.000978 -0.999999 0.000000
46.40620041 193.35899353 202.50000000 0.000978 0.000978 0.999999 0.000000
42.53900146 130.19500732 122.50000000 -0.789883 -0.595035 -0.148384 0.000000
118.59400177 220.42999268 157.50000000 0.000978 0.000978 -0.999999 0.000000
53.49610138 149.53100586 202.50000000 -0.450034 -0.286104 0.845940 0.000000
42.53900146 230.09800720 177.50000000 -0.888291 0.001316 0.459279 0.000000
39.31639862 180.46899414 37.50000000 -0.401604 -0.171294 -0.899651 0.000000
64.45310211 177.24600220 207.50000000 0.000978 0.000978 0.999999 0.000000
70.89839935 110.21499634 162.50000000 -0.000978 -0.000978 0.999999 0.000000
126.00599670 220.42999268 170.00000000 0.739973 0.605723 -0.292473 0.000000
56.07419968 251.68899536 145.00000000 -0.490161 0.849913 -0.193366 0.000000
131.16200256 194.64799500 160.00000000 -0.734343 0.678605 -0.015328 0.000000
79.27729797 146.95300293 217.50000000 0.000978 0.000978 0.999999 0.000000
64.45310211 213.98399353 202.50000000 0.000978 0.000978 0.999999 0.000000
72.50969696 101.83599854 135.00000000 -0.433910 -0.900793 0.017145 0.000000
49.62889862 180.46899414 37.50000000 0.458942 0.262472 -0.848812 0.000000
121.17199707 176.92399597 200.00000000 0.314908 0.634661 0.705718 0.000000
137.28500366 122.46099854 177.50000000 0.000978 0.000978 0.999999 0.000000
51.56250000 180.46899414 37.50000000 0.428604 0.340685 -0.836799 0.000000
156.62100220 109.56999969 117.50000000 -0.000978 -0.000978 -0.999999 0.000000
37.38280106 139.86300659 62.50000000 -0.911905 -0.365048 -0.187535 0.000000
170.47799683 106.34799957 135.00000000 0.843899 0.252710 -0.473257 0.000000
116.66000366 106.99199677 162.50000000 0.044019 -0.736970 0.674491 0.000000
126.97299957 181.11300659 122.50000000 0.704281 0.704281 -0.089316 0.000000
105.05899811 112.79299927 167.50000000 -0.209017 -0.747815 0.630146 0.000000
98.61319733 228.80900574 187.50000000 -0.006072 0.278082 0.960538 0.000000
110.21499634 146.30900574 202.50000000 0.501450 0.682576 0.531637 0.000000
137.92999268 100.54699707 102.50000000 0.773663 -0.387642 -0.501178 0.000000
164.35499573 172.08999634 157.50000000 -0.887629 -0.352949 0.295876 0.000000
142.44099426 163.06599426 127.50000000 -0.000978 -0.000978 -0.999999 0.000000
56.71870041 123.75000000 62.50000000 0.116788 -0.764296 -0.634203 0.000000
97.32420349 117.30500031 92.50000000 -0.000978 -0.000978 -0.999999 0.000000
91.52339935 202.38299561 202.50000000 0.000978 0.000978 0.999999 0.000000
98.61319733 243.63299561 162.50000000 -0.000978 -0.000978 -0.999999 0.000000
28.35939980 167.57800293 177.50000000 -0.000978 -0.000978 0.999999 0.000000
29.64839935 174.66799927 182.50000000 -0.779993 0.116483 0.614852 0.000000
74.76560211 121.17199707 187.50000000 -0.212242 -0.964854 0.154950 0.000000
88.30079651 136.31799316 210.00000000 0.175960 -0.650286 0.739031 0.000000
43.82809830 202.38299561 197.50000000 -0.561624 0.183171 0.806862 0.000000
133.09599304 142.44099426 125.00000000 0.514998 0.792428 -0.326856 0.000000
48.33980179 181.11300659 37.50000000 0.403060 0.365420 -0.839054 0.000000
135.99600220 149.20899963 130.00000000 0.000978 0.000978 -0.999999 0.000000
27.71479988 210.76199341 152.50000000 -0.934747 0.264868 0.236840 0.000000
33.51559830 195.29299927 67.50000000 -0.910442 0.341234 -0.233782 0.000000
50.91790009 181.11300659 37.50000000 0.458942 0.262472 -0.848812 0.000000
80.56639862 215.91799927 132.50000000 0.280783 0.569498 -0.772550 0.000000
51.88470078 181.11300659 40.00000000 0.458942 0.262472 -0.848812 0.000000
163.71099854 168.22300720 142.50000000 0.800432 0.186818 -0.569568 0.000000
184.33599854 105.05899811 172.50000000 0.000978 0.000978 0.999999 0.000000
49.62889862 243.63299561 127.50000000 0.226709 0.809673 -0.541324 0.000000
50.27339935 120.52700043 122.50000000 -0.783684 -0.615648 -0.082569 0.000000
172.08999634 105.70300293 172.50000000 0.000978 0.000978 0.999999 0.000000
110.85900116 139.21899414 192.50000000 0.504884 -0.545140 0.669264 0.000000
145.66400146 90.55660248 160.00000000 -0.142011 -0.887929 0.437510 0.000000
117.62699890 221.71899414 185.00000000 0.387921 0.748016 0.538506 0.000000
181.11300659 134.70700073 172.50000000 0.000978 0.000978 0.999999 0.000000
192.71499634 132.77299500 172.50000000 0.000978 0.000978 0.999999 0.000000
40.92770004 232.03100586 140.00000000 -0.816907 0.576396 -0.020734 0.000000
52.85150146 199.80499268 202.50000000 0.000978 0.000978 0.999999 0.000000
82.50000000 134.06199646 207.50000000 -0.000978 -0.000978 0.999999 0.000000
24.81439972 172.73399353 145.00000000 -0.980266 -0.176570 0.088894 0.000000
90.87889862 104.41400146 152.50000000 -0.157720 -0.590325 0.791606 0.000000
190.78100586 114.08200073 167.50000000 0.000978 0.000978 0.999999 0.000000
188.84800720 106.34799957 157.50000000 -0.000978 -0.000978 0.999999 0.000000
145.01899719 97.32420349 167.50000000 -0.288336 -0.481599 0.827602 0.000000
31.25979996 211.40600586 170.00000000 -0.888274 0.444843 0.114388 0.000000
48.98440170 181.75799561 37.50000000 0.403060 0.365420 -0.839054 0.000000
147.59800720 170.15600586 127.50000000 0.170354 0.490322 -0.854730 0.000000
106.34799957 166.28900146 212.50000000 0.397181 0.445421 0.802401 0.000000
64.45310211 210.76199341 202.50000000 0.000978 0.000978 0.999999 0.000000
61.23040009 226.87500000 122.50000000 0.713253 0.206673 -0.669743 0.000000
25.45899963 179.82400513 115.00000000 -0.991782 -0.001093 -0.127937 0.000000
157.91000366 95.39060211 122.50000000 0.957342 -0.119177 -0.263236 0.000000
121.81600189 117.30500031 172.50000000 0.000978 0.000978 0.999999 0.000000
134.70700073 149.85299683 130.00000000 -0.367019 -0.735669 -0.569287 0.000000
76.69920349 147.27499390 95.00000000 -0.768692 0.550441 0.325771 0.000000
135.99600220 146.30900574 182.50000000 0.181780 -0.521304 0.833786 0.000000
159.19900513 184.33599854 147.50000000 0.744670 0.583136 -0.324683 0.000000
27.71479988 182.40199280 177.50000000 -0.912103 0.009108 0.409861 0.000000
171.44500732 88.94529724 162.50000000 -0.076880 -0.697724 0.712229 0.000000
160.48800659 175.95700073 167.50000000 0.000978 0.000978 -0.999999 0.000000
169.51199341 158.55499268 142.50000000 0.498730 0.498730 -0.708898 0.000000
123.75000000 196.58200073 142.50000000 0.596656 0.529046 -0.603417 0.000000
63.80860138 175.31199646 207.50000000 0.000978 0.000978 0.999999 0.000000
57.36330032 120.20500183 175.00000000 -0.367739 -0.871283 0.325014 0.000000
111.50399780 116.01599884 172.50000000 -0.871705 -0.452815 0.187321 0.000000
111.50399780 106.99199677 162.50000000 0.017978 -0.800700 0.598796 0.000000
183.69099426 143.08599854 172.50000000 0.000978 0.000978 0.999999 0.000000
70.25389862 234.60899353 187.50000000 -0.912121 -0.304040 0.274946 0.000000
85.72260284 197.87100220 207.50000000 0.000978 0.000978 0.999999 0.000000
103.12500000 177.89100647 207.50000000 0.464035 0.450917 0.762460 0.000000
68.96479797 215.27299500 202.50000000 0.000978 0.000978 0.999999 0.000000
36.73830032 147.59800720 182.50000000 0.000978 0.000978 0.999999 0.000000
105.70300293 185.62500000 112.50000000 0.806203 0.379861 -0.453589 0.000000
112.14800262 104.73600006 160.00000000 -0.067928 -0.689396 0.721192 0.000000
85.72260284 212.05099487 132.50000000 0.401964 0.617006 -0.676556 0.000000
103.12500000 150.17599487 127.50000000 -0.000978 -0.000978 -0.999999 0.000000
31.90430069 148.88699341 85.00000000 -0.997858 -0.001038 0.065416 0.000000
112.79299927 112.14800262 167.50000000 0.206608 -0.549424 0.809597 0.000000
40.60549927 157.91000366 192.50000000 -0.539975 -0.427687 0.724921 0.000000
73.15429688 174.02299500 210.00000000 -0.627265 0.496094 0.600358 0.000000
136.96299744 108.28099823 105.00000000 0.356293 0.438637 -0.825017 0.000000
100.86900330 170.15600586 105.00000000 0.967037 0.023054 -0.253589 0.000000
107.31400299 106.99199677 110.00000000 -0.576407 0.733164 -0.360867 0.000000
73.15429688 162.42199707 60.00000000 0.343660 0.701978 -0.623799 0.000000
135.02900696 170.15600586 185.00000000 0.643626 0.643626 0.414116 0.000000
58.65230179 110.21499634 142.50000000 -0.587665 -0.808904 0.017976 0.000000
135.35200500 180.46899414 187.50000000 0.000978 0.000978 0.999999 0.000000
126.32800293 149.53100586 192.50000000 0.334574 -0.444528 0.830937 0.000000
92.16790009 242.34399414 187.50000000 0.399635 0.383839 0.832442 0.000000
24.81439972 168.86700439 150.00000000 -0.998636 -0.040868 -0.032484 0.000000
48.33980179 191.74800110 50.00000000 0.449404 0.724684 -0.522369 0.000000
58.65230179 230.74200439 122.50000000 0.686009 0.401687 -0.606663 0.000000
46.40620041 216.56199646 192.50000000 0.000978 0.000978 0.999999 0.000000
145.01899719 159.19900513 182.50000000 0.000978 0.000978 0.999999 0.000000
124.39399719 194.64799500 192.50000000 0.666891 -0.046924 0.743676 0.000000
48.01760101 125.68399811 70.00000000 -0.622544 -0.778542 -0.079443 0.000000
30.61520004 169.51199341 55.00000000 -0.982047 0.001143 -0.188635 0.000000
34.16009903 200.44900513 187.50000000 -0.734042 0.055804 0.676807 0.000000
125.03900146 114.72699738 102.50000000 -0.000978 -0.000978 -0.999999 0.000000
106.34799957 109.24800110 165.00000000 -0.412110 -0.570996 0.710021 0.000000
66.70899963 131.48399353 85.00000000 -0.991782 0.001093 0.127937 0.000000
64.13079834 111.50399780 160.00000000 -0.401722 -0.808246 0.430531 0.000000
76.05470276 239.12100220 187.50000000 0.000978 0.000978 0.999999 0.000000
56.07419968 196.58200073 207.50000000 0.000978 0.000978 0.999999 0.000000
136.64100647 182.40199280 182.50000000 0.000978 0.000978 0.999999 0.000000
157.26600647 147.59800720 177.50000000 0.000978 0.000978 0.999999 0.000000
117.30500031 165.00000000 127.50000000 -0.000978 -0.000978 -0.999999 0.000000
123.75000000 180.46899414 117.50000000 -0.000978 -0.000978 -0.999999 0.000000
125.03900146 141.79699707 187.50000000 0.229595 -0.213293 0.949627 0.000000
85.72260284 135.35200500 112.50000000 -0.108778 -0.540989 0.833965 0.000000
35.44919968 203.67199707 187.50000000 -0.693161 0.237341 0.680586 0.000000
157.26600647 142.44099426 177.50000000 0.000978 0.000978 0.999999 0.000000
65.09760284 130.83999634 202.50000000 0.000978 0.000978 0.999999 0.000000
67.67579651 131.48399353 92.50000000 -0.000978 -0.000978 0.999999 0.000000
113.76000214 194.64799500 130.00000000 -0.139642 0.725239 -0.674187 0.000000
63.16400146 153.39799500 207.50000000 0.000978 0.000978 0.999999 0.000000
46.40620041 141.79699707 192.50000000 -0.000978 -0.000978 0.999999 0.000000
113.43699646 93.45700073 137.50000000 0.177962 0.983956 -0.012630 0.000000
90.23429871 214.62899780 137.50000000 0.603114 0.522023 -0.603114 0.000000
63.80860138 201.09399414 97.50000000 -0.000978 -0.000978 -0.999999 0.000000
85.07810211 222.36300659 142.50000000 0.466723 0.747086 -0.473320 0.000000
115.37100220 106.99199677 162.50000000 0.037545 -0.827377 0.560391 0.000000
101.83599854 150.82000732 212.50000000 0.901513 -0.049859 0.429870 0.000000
72.18750000 206.89399719 202.50000000 0.000978 0.000978 0.999999 0.000000
106.34799957 156.62100220 132.50000000 0.367098 0.096177 -0.925197 0.000000
191.42599487 144.37500000 172.50000000 0.000978 0.000978 0.999999 0.000000
105.05899811 242.34399414 182.50000000 0.275654 0.064785 0.959071 0.000000
128.58399963 186.26899719 175.00000000 -0.799300 -0.230359 0.555026 0.000000
61.87500000 252.97799683 170.00000000 -0.537821 0.747064 0.390697 0.000000
45.76169968 184.33599854 37.50000000 0.479950 0.553531 -0.680626 0.000000
87.65619659 251.68899536 180.00000000 -0.020177 0.878384 0.477529 0.000000
128.26199341 168.86700439 127.50000000 -0.184857 -0.612624 -0.768453 0.000000
52.20700073 246.21099854 132.50000000 0.185875 0.885470 -0.425904 0.000000
181.75799561 152.75399780 152.50000000 0.521469 0.784611 -0.335345 0.000000
194.00399780 112.14800262 162.50000000 0.000978 0.000978 0.999999 0.000000
119.88300323 224.94099426 167.50000000 0.722009 0.635942 -0.272546 0.000000
120.20500183 145.66400146 120.00000000 -0.893394 0.317684 -0.317684 0.000000
128.90600586 190.78100586 192.50000000 0.000978 0.000978 0.999999 0.000000
141.79699707 104.09200287 170.00000000 -0.218340 -0.781997 0.583788 0.000000
80.56639862 250.72300720 152.50000000 0.245820 -0.066134 -0.967057 0.000000
160.48800659 78.63279724 147.50000000 -0.176465 -0.815964 0.550512 0.000000
77.98829651 184.33599854 207.50000000 0.000978 0.000978 0.999999 0.000000
79.92179871 137.28500366 212.50000000 0.405521 -0.773584 0.486951 0.000000
41.25000000 209.79499817 85.00000000 0.001263 0.933019 -0.359825 0.000000
