143.21299744 87.50000000 427.70001221 -0.405690 0.124936 0.905432 0.000000
197.55900574 75.19529724 423.85000610 0.315337 -0.859871 0.401478 0.000000
137.74400330 58.78910065 365.39999390 0.690708 -0.687575 0.223971 0.000000
113.81800079 62.20700073 389.20001221 -0.248591 -0.965341 -0.079499 0.000000
61.18159866 229.00399780 374.50000000 -0.108422 0.536327 0.837017 0.000000
105.95700073 152.44099426 302.75000000 0.752654 -0.408303 -0.516527 0.000000
97.41210175 152.44099426 344.39999390 0.493138 -0.489818 -0.718953 0.000000
44.09180069 113.47699738 368.89999390 -0.837352 -0.394325 0.378615 0.000000
123.73000336 181.83599854 389.54998779 0.489606 0.519684 0.700153 0.000000
129.88299561 57.76369858 394.79998779 -0.112331 -0.961917 -0.249195 0.000000
29.05270004 196.87500000 289.10000610 -0.978374 0.104606 -0.178445 0.000000
195.16600037 116.21099854 413.00000000 0.572453 0.043389 0.818789 0.000000
129.19900513 141.50399780 409.14999390 0.781490 0.265738 -0.564497 0.000000
173.63299561 72.46089935 409.14999390 0.872121 0.471378 -0.131179 0.000000
85.10739899 170.89799500 283.50000000 0.667613 0.470174 -0.577260 0.000000
102.53900146 65.28320313 385.00000000 -0.305956 -0.944591 -0.118909 0.000000
200.29299927 77.24610138 425.25000000 0.270560 0.517661 0.811680 0.000000
142.18800354 126.80699921 358.39999390 -0.322777 0.941765 -0.094309 0.000000
73.14450073 234.47300720 334.95001221 0.621888 0.362631 -0.694085 0.000000
100.14600372 89.55079651 297.50000000 0.967687 0.230159 -0.103000 0.000000
27.68549919 170.89799500 280.70001221 -0.999999 -0.000978 -0.000978 0.000000
197.21699524 94.33589935 417.89999390 0.347043 0.185562 0.919309 0.000000
64.59960175 170.21499634 393.39999390 -0.375823 0.068210 0.924178 0.000000
125.43900299 160.64500427 336.70001221 0.920761 -0.303090 -0.245632 0.000000
28.36910057 193.45700073 363.29998779 -0.896434 0.084256 0.435095 0.000000
110.74199677 103.22299957 413.35000610 -0.287877 -0.043999 0.956656 0.000000
103.56400299 119.62899780 411.60000610 -0.285924 -0.033712 0.957659 0.000000
103.90599823 138.08599854 344.04998779 0.219306 0.224754 -0.949416 0.000000
200.29299927 78.27149963 424.89999390 0.447794 -0.690835 0.567650 0.000000
102.53900146 200.29299927 387.45001221 0.211306 0.383265 0.899143 0.000000
63.23239899 218.75000000 313.60000610 0.765650 0.403232 -0.501183 0.000000
36.91410065 185.25399780 373.45001221 -0.542800 0.272187 0.794533 0.000000
99.80470276 135.35200500 409.85000610 -0.312151 0.077058 0.946902 0.000000
104.24800110 183.20300293 310.79998779 0.456033 0.686555 -0.566283 0.000000
166.79699707 54.68750000 400.04998779 -0.019795 -0.981622 0.189804 0.000000
94.67769623 118.26200104 285.60000610 0.850614 -0.170717 0.497305 0.000000
122.36299896 146.28900146 412.64999390 0.172731 0.658825 0.732198 0.000000
166.79699707 119.28700256 421.39999390 0.274378 0.324265 0.905301 0.000000
183.88699341 93.99410248 406.70001221 0.878976 0.472017 -0.067827 0.000000
71.77729797 221.14300537 325.50000000 0.573998 0.709640 -0.408580 0.000000
68.35939789 241.30900574 336.35000610 0.551256 0.524283 -0.649033 0.000000
135.35200500 120.99600220 360.14999390 -0.894454 0.435329 -0.102183 0.000000
23.58399963 162.69500732 339.50000000 -0.971175 -0.221233 -0.088743 0.000000
66.30860138 226.95300293 324.45001221 0.582954 0.579575 -0.569436 0.000000
95.70310211 102.88099670 303.79998779 0.806878 0.271048 -0.524862 0.000000
57.42190170 122.36299896 240.44999695 0.695809 0.230889 -0.680103 0.000000
155.17599487 80.66410065 358.04998779 0.703673 0.703673 -0.098426 0.000000
103.22299957 204.05299377 385.70001221 0.217918 0.378796 0.899458 0.000000
40.33200073 180.46899414 255.14999390 0.411143 0.569655 -0.711656 0.000000
84.08200073 74.85350037 340.20001221 -0.416018 -0.908284 0.044143 0.000000
118.26200104 93.99410248 371.00000000 -0.329006 -0.924888 0.190626 0.000000
119.62899780 110.74199677 378.35000610 0.552758 -0.090451 -0.828419 0.000000
114.84400177 152.78300476 347.20001221 -0.212118 0.852985 0.476889 0.000000
38.96480179 138.42799377 249.19999695 -0.757026 -0.484431 -0.438451 0.000000
43.40819931 183.20300293 378.70001221 -0.675400 0.248332 0.694381 0.000000
101.85500336 137.06100464 343.00000000 -0.201974 -0.950228 -0.237218 0.000000
111.08399963 108.69100189 413.70001221 -0.260662 0.051135 0.964075 0.000000
97.75389862 75.19529724 302.75000000 -0.087972 -0.962595 -0.256267 0.000000
50.24409866 103.90599823 373.10000610 -0.780261 -0.565886 0.266392 0.000000
52.63669968 109.71700287 259.00000000 -0.738157 -0.659982 -0.139814 0.000000
85.10739899 209.86300659 323.39999390 0.575663 0.629684 -0.521642 0.000000
117.23600006 110.74199677 376.60000610 0.552453 -0.012277 -0.833454 0.000000
22.21680069 187.98800659 337.39999390 -0.996050 -0.024820 -0.085252 0.000000
136.37699890 158.59399414 325.50000000 0.859254 0.337839 0.384119 0.000000
93.65229797 129.88299561 407.75000000 -0.359246 -0.037611 0.932485 0.000000
160.64500427 77.24610138 358.04998779 0.476455 0.859400 -0.185535 0.000000
51.95309830 226.61099243 372.39999390 -0.252497 0.430908 0.866351 0.000000
69.72660065 202.68600464 385.70001221 -0.290078 0.292993 0.911049 0.000000
88.86720276 115.18599701 305.20001221 0.771244 0.409265 0.487530 0.000000
64.25779724 244.04299927 367.85000610 -0.230369 0.675437 0.700511 0.000000
166.11300659 118.26200104 371.35000610 0.855822 -0.004031 -0.517255 0.000000
58.10549927 145.60499573 390.25000000 -0.573991 0.066942 0.816121 0.000000
63.23239899 99.80470276 389.20001221 -0.656175 -0.395027 0.642952 0.000000
82.03119659 194.14100647 307.64999390 0.467283 0.601271 -0.648167 0.000000
98.77929688 144.23800659 300.29998779 0.957508 -0.064851 -0.281022 0.000000
36.91410065 207.47099304 276.50000000 -0.435803 0.892762 -0.114240 0.000000
26.31839943 205.76199341 350.70001221 -0.936977 0.178538 0.300331 0.000000
57.76369858 97.75389862 317.79998779 -0.580716 -0.580716 -0.570558 0.000000
147.65600586 55.02930069 381.50000000 -0.146524 -0.985164 0.089344 0.000000
82.37300110 177.73399353 287.70001221 0.513667 0.628189 -0.584401 0.000000
41.35739899 114.84400177 341.60000610 -0.795564 -0.453455 -0.401816 0.000000
89.20899963 71.77729797 390.60000610 -0.640455 -0.765978 0.055630 0.000000
187.30499268 62.54880142 380.79998779 0.874111 -0.286321 -0.392365 0.000000
144.92199707 123.73000336 344.04998779 -0.134807 0.973886 -0.182682 0.000000
61.86520004 205.76199341 300.29998779 0.642737 0.642737 -0.416866 0.000000
43.40819931 176.36700439 380.10000610 -0.668956 -0.130199 0.731810 0.000000
93.65229797 153.80900574 404.95001221 -0.090284 0.199119 0.975808 0.000000
103.22299957 65.96679688 361.89999390 -0.354651 -0.927022 -0.121869 0.000000
69.38480377 166.79699707 268.10000610 0.458699 0.548770 -0.698890 0.000000
50.92770004 226.27000427 299.60000610 0.748072 0.401045 -0.528725 0.000000
114.16000366 193.11500549 332.50000000 0.580690 0.584076 -0.567146 0.000000
24.26759911 205.76199341 343.70001221 0.001154 -0.201881 0.979409 0.000000
51.61130142 101.85500336 372.39999390 -0.780261 -0.565886 0.266392 0.000000
114.16000366 163.72099304 402.50000000 0.370516 0.171772 0.912804 0.000000
71.77729797 209.52099609 314.29998779 0.405953 0.690948 -0.598159 0.000000
125.09799957 157.91000366 319.54998779 0.360456 0.119238 -0.925124 0.000000
172.26600647 81.68949890 401.79998779 0.687575 0.690708 -0.223971 0.000000
60.83980179 226.27000427 316.75000000 0.753914 0.205894 -0.623876 0.000000
45.80080032 109.03299713 336.70001221 -0.519728 -0.466593 -0.715663 0.000000
103.90599823 68.35939789 327.25000000 -0.001381 -0.716707 -0.697373 0.000000
124.41400146 170.55700684 397.60000610 0.543012 0.828498 0.136857 0.000000
125.09799957 183.20300293 341.25000000 0.913336 0.366189 -0.178108 0.000000
104.58999634 144.58000183 324.79998779 0.584076 -0.580690 0.567146 0.000000
126.46499634 58.44729996 377.29998779 -0.000978 -0.999999 -0.000978 0.000000
178.41799927 54.34569931 389.20001221 0.107478 -0.959533 -0.260278 0.000000
133.98399353 156.88499451 385.70001221 0.578378 0.810309 0.094222 0.000000
122.36299896 117.57800293 376.25000000 0.548407 -0.203170 -0.811154 0.000000
54.68750000 104.93199921 308.70001221 -0.804493 -0.590152 -0.067160 0.000000
98.09570313 171.58200073 400.39999390 -0.039009 0.439865 0.897216 0.000000
160.98599243 157.22700500 372.39999390 0.920524 0.323968 -0.218357 0.000000
105.95700073 63.91600037 390.60000610 -0.242814 -0.970072 -0.001184 0.000000
133.98399353 156.88499451 379.39999390 0.286592 0.920261 0.266429 0.000000
129.54100037 171.58200073 387.79998779 0.983653 -0.095115 -0.152906 0.000000
48.53519821 195.50799561 274.04998779 0.711699 0.429674 -0.555756 0.000000
156.54299927 103.22299957 425.95001221 0.219455 0.278162 0.935129 0.000000
175.00000000 54.34569931 387.79998779 0.105012 -0.987587 -0.116811 0.000000
36.91410065 214.99000549 284.20001221 -0.593279 0.711606 -0.376346 0.000000
179.44299316 66.30860138 364.00000000 0.638260 0.767346 -0.061675 0.000000
106.64099884 138.77000427 411.25000000 -0.124589 0.131847 0.983409 0.000000
105.27300262 100.14600372 315.00000000 0.587816 0.232320 -0.774919 0.000000
60.15620041 119.62899780 391.64999390 -0.700469 -0.120463 0.703443 0.000000
127.83200073 164.06199646 340.54998779 0.867233 0.014836 -0.497681 0.000000
68.01760101 90.23439789 299.60000610 -0.637622 -0.763681 -0.101140 0.000000
53.32030106 99.12110138 355.25000000 -0.750156 -0.661084 -0.015309 0.000000
25.63479996 174.31599426 307.29998779 -0.988167 -0.142491 -0.056765 0.000000
51.26950073 101.51399994 352.10000610 -0.722184 -0.691689 -0.004158 0.000000
51.95309830 176.36700439 260.75000000 0.637203 0.443199 -0.630513 0.000000
66.65039825 88.18360138 336.70001221 -0.542210 -0.778927 -0.315089 0.000000
123.04699707 172.26600647 397.25000000 0.049500 0.801895 0.595411 0.000000
95.70310211 133.98399353 304.14999390 0.612638 -0.445707 0.652702 0.000000
100.83000183 68.35939789 340.20001221 -0.305753 -0.950520 -0.055010 0.000000
182.86099243 61.52339935 418.60000610 0.929515 -0.290031 0.227781 0.000000
31.78709984 179.10200500 368.20001221 -0.747702 0.052897 0.661924 0.000000
118.26200104 152.10000610 409.50000000 0.036889 0.495948 0.867568 0.000000
176.36700439 140.13699341 395.85000610 0.408615 0.749948 -0.520204 0.000000
86.13279724 120.99600220 264.95001221 0.673684 -0.337657 -0.657372 0.000000
46.14260101 170.21499634 382.20001221 -0.527085 0.034405 0.849116 0.000000
114.84400177 192.43200684 332.50000000 -0.000978 -0.000978 -0.999999 0.000000
37.93949890 125.78099823 318.50000000 -0.866703 -0.460760 -0.191119 0.000000
81.34770203 200.97700500 313.25000000 0.496184 0.566827 -0.657654 0.000000
104.58999634 221.48399353 377.64999390 0.419655 0.685050 0.595479 0.000000
39.30659866 129.19900513 278.60000610 -0.862812 -0.491184 0.119555 0.000000
58.44729996 118.94499969 389.89999390 -0.686630 -0.123623 0.716419 0.000000
92.62699890 131.25000000 309.39999390 0.795730 -0.511882 -0.323714 0.000000
148.68200684 130.56599426 368.89999390 -0.304801 0.777163 -0.550557 0.000000
116.89499664 193.79899597 384.29998779 0.501676 0.458627 0.733473 0.000000
125.09799957 60.49800110 353.50000000 0.874206 -0.436358 0.212967 0.000000
29.05270004 159.27699280 305.89999390 -0.972885 -0.222620 -0.062727 0.000000
99.80470276 91.94339752 301.70001221 0.912061 0.383656 -0.144749 0.000000
41.01559830 121.33799744 368.20001221 -0.817940 -0.350999 0.455823 0.000000
139.45300293 64.59960175 424.20001221 -0.354030 -0.712954 0.605277 0.000000
43.75000000 124.07199860 259.70001221 -0.863526 -0.465204 -0.194702 0.000000
44.09180069 122.36299896 373.79998779 -0.826108 -0.285780 0.485670 0.000000
30.76169968 146.28900146 362.95001221 -0.828989 -0.275293 0.486817 0.000000
21.87500000 187.30499268 341.25000000 -0.993771 0.084218 -0.072989 0.000000
89.20899963 133.30099487 266.70001221 0.806229 0.267699 -0.527571 0.000000
51.95309830 186.96299744 382.89999390 -0.453819 0.203847 0.867464 0.000000
34.17969894 229.00399780 351.04998779 -0.849209 0.494004 0.186557 0.000000
49.21879959 105.95700073 336.35000610 -0.580716 -0.580716 -0.570558 0.000000
201.66000366 114.16000366 404.95001221 0.545264 -0.775522 -0.318204 0.000000
62.20700073 227.63699341 318.85000610 0.753914 0.205894 -0.623876 0.000000
74.85350037 190.03900146 391.29998779 -0.216282 0.301099 0.928742 0.000000
173.29100037 57.42190170 362.60000610 0.142527 -0.961078 -0.236674 0.000000
145.94700623 57.42190170 364.70001221 -0.196337 -0.966084 -0.167732 0.000000
44.77539825 198.92599487 271.60000610 0.740729 0.353271 -0.571420 0.000000
159.27699280 93.31050110 428.39999390 0.114006 0.099902 0.988444 0.000000
50.58589935 102.19699860 356.29998779 -0.738239 -0.674526 -0.004155 0.000000
27.68549919 153.12500000 361.89999390 -0.783778 -0.141827 0.604629 0.000000
126.80699921 117.57800293 340.89999390 0.784888 0.052515 -0.617408 0.000000
156.54299927 87.50000000 369.95001221 0.958406 0.011016 -0.285196 0.000000
40.33200073 168.84800720 376.95001221 -0.661325 0.038235 0.749124 0.000000
97.07029724 220.80099487 341.25000000 0.370947 0.510255 -0.775911 0.000000
108.00800323 176.70899963 307.29998779 0.738837 0.381705 -0.555357 0.000000
68.35939789 222.50999451 322.70001221 0.568503 0.716808 -0.403720 0.000000
37.25590134 225.58599854 304.50000000 -0.858009 0.506296 -0.086510 0.000000
66.30860138 185.59599304 284.20001221 0.539099 0.663377 -0.518945 0.000000
77.58789825 88.18360138 275.10000610 -0.444008 -0.889425 -0.108535 0.000000
40.33200073 220.80099487 290.14999390 -0.475419 0.646772 -0.596374 0.000000
44.77539825 196.19099426 270.20001221 0.767104 0.332894 -0.548391 0.000000
71.43550110 79.98049927 377.29998779 -0.558559 -0.827233 0.060805 0.000000
125.09799957 69.72660065 337.75000000 0.301909 -0.101515 0.947916 0.000000
59.47269821 219.77499390 377.29998779 -0.500118 0.126117 0.856724 0.000000
66.99220276 224.21899414 377.64999390 -0.165822 0.369911 0.914149 0.000000
26.31839943 188.67199707 361.20001221 -0.906652 0.301238 -0.295360 0.000000
179.10200500 112.79299927 420.35000610 0.343034 0.053477 0.937800 0.000000
60.15620041 218.06599426 308.35000610 0.782530 0.406657 -0.471462 0.000000
71.77729797 91.60160065 269.85000610 -0.401473 -0.901529 -0.161447 0.000000
129.19900513 130.56599426 346.14999390 0.767531 0.517637 0.378086 0.000000
110.74199677 184.22900391 319.89999390 0.487897 0.813162 -0.317370 0.000000
42.04100037 199.60899353 374.50000000 -0.608989 0.239525 0.756148 0.000000
150.73199463 149.70700073 401.10000610 -0.752844 0.020951 -0.657865 0.000000
109.37500000 95.01950073 316.04998779 0.575029 0.360004 -0.734669 0.000000
38.28120041 183.88699341 374.85000610 -0.608692 0.073388 0.790005 0.000000
78.61329651 202.00199890 312.20001221 0.496184 0.566827 -0.657654 0.000000
62.89059830 213.28100586 380.45001221 -0.308706 0.191370 0.931707 0.000000
30.76169968 142.52900696 326.89999390 -0.920307 -0.283725 -0.269323 0.000000
25.63479996 197.55900574 307.29998779 -0.962099 0.155768 -0.223835 0.000000
79.63870239 245.41000366 354.89999390 0.534988 0.841506 -0.075210 0.000000
90.23439789 212.59800720 330.04998779 0.479229 0.607023 -0.633927 0.000000
96.04489899 117.57800293 280.70001221 -0.508422 -0.860928 -0.017625 0.000000
78.27149963 81.34770203 394.79998779 -0.542717 -0.569768 0.617108 0.000000
153.12500000 162.01199341 365.75000000 0.388613 0.388613 -0.835440 0.000000
40.33200073 133.98399353 372.75000000 -0.818182 -0.099920 0.566211 0.000000
188.67199707 97.75389862 421.04998779 0.428874 0.322825 0.843713 0.000000
77.92970276 149.02299500 260.75000000 0.599550 0.518484 -0.609683 0.000000
33.49610138 199.95100403 367.50000000 -0.665479 0.203212 0.718221 0.000000
92.96880341 133.98399353 271.25000000 0.718903 0.335921 -0.608552 0.000000
124.41400146 92.96880341 328.64999390 0.744661 0.067696 -0.664001 0.000000
99.80470276 70.41020203 402.85000610 -0.152241 -0.755174 0.637602 0.000000
173.63299561 97.75389862 425.25000000 0.180298 0.359177 0.915688 0.000000
103.22299957 153.12500000 333.54998779 -0.109048 -0.551057 0.827312 0.000000
71.09380341 149.70700073 257.25000000 0.138482 0.429722 -0.892279 0.000000
175.34199524 70.41020203 369.60000610 0.621141 0.743796 -0.246884 0.000000
79.29689789 190.38099670 301.00000000 0.404750 0.698813 -0.589778 0.000000
101.17199707 224.90199280 347.54998779 0.552262 0.633328 -0.542128 0.000000
34.52149963 150.39100647 252.69999695 -0.924721 -0.284420 -0.252976 0.000000
64.94139862 110.05899811 248.14999390 0.466179 -0.182032 -0.865761 0.000000
28.36910057 141.50399780 340.89999390 -0.970825 -0.238172 0.027807 0.000000
118.60399628 207.12899780 365.39999390 0.844418 0.530413 0.074965 0.000000
82.03119659 76.22070313 392.00000000 -0.623000 -0.707585 0.333459 0.000000
44.43360138 120.65399933 373.79998779 -0.861656 -0.204587 0.464428 0.000000
76.90429688 95.01950073 399.00000000 -0.557700 -0.140535 0.818059 0.000000
114.50199890 123.73000336 329.70001221 0.742413 0.032401 -0.669158 0.000000
129.19900513 164.74600220 342.64999390 0.859353 0.009443 -0.511295 0.000000
142.87100220 58.44729996 413.00000000 -0.393458 -0.917174 -0.063114 0.000000
159.27699280 53.66210175 383.60000610 -0.048022 -0.997792 -0.045888 0.000000
90.91799927 143.89599609 272.29998779 0.689308 0.127096 -0.713232 0.000000
42.72460175 116.21099854 368.20001221 -0.811407 -0.331867 0.481128 0.000000
188.67199707 137.06100464 407.39999390 0.389624 0.580326 0.715133 0.000000
145.26400757 124.41400146 421.39999390 -0.103713 0.343466 0.933421 0.000000
101.85500336 68.70120239 326.89999390 -0.001381 -0.716707 -0.697373 0.000000
79.29689789 110.05899811 262.14999390 0.732505 0.321785 0.599910 0.000000
43.75000000 119.62899780 372.04998779 -0.822132 -0.262647 0.505090 0.000000
167.47999573 55.02930069 386.39999390 0.118662 -0.958427 -0.259493 0.000000
148.33999634 116.89499664 356.64999390 -0.011969 0.461487 -0.887066 0.000000
40.33200073 142.18800354 375.54998779 -0.665855 -0.061840 0.743514 0.000000
39.64839935 155.85899353 376.25000000 -0.736149 -0.146026 0.660879 0.000000
103.90599823 97.07029724 411.25000000 -0.352424 0.101271 0.930345 0.000000
66.30860138 93.99410248 275.10000610 -0.520825 -0.853611 -0.009470 0.000000
45.80080032 108.34999847 348.60000610 -0.798304 -0.596202 0.085172 0.000000
182.52000427 65.96679688 386.39999390 0.572533 0.809240 0.131668 0.000000
28.36910057 218.06599426 327.60000610 -0.920534 0.374524 -0.111123 0.000000
103.56400299 137.40199280 327.60000610 0.809857 -0.017936 -0.586353 0.000000
22.21680069 192.08999634 344.39999390 -0.992995 0.108837 -0.046003 0.000000
164.40400696 140.13699341 375.20001221 0.980609 -0.169323 0.098670 0.000000
28.36910057 151.07400513 323.39999390 -0.939626 -0.315920 -0.131520 0.000000
71.43550110 86.13279724 392.00000000 -0.715900 -0.536510 0.446815 0.000000
144.23800659 135.00999451 406.00000000 -0.510581 0.451095 0.731997 0.000000
45.11719894 137.40199280 379.75000000 -0.680148 -0.111135 0.724602 0.000000
29.73629951 145.60499573 326.89999390 -0.937401 -0.313379 -0.151900 0.000000
45.80080032 116.89499664 295.75000000 -0.409292 -0.820177 0.399737 0.000000
30.41990089 222.16799927 327.60000610 -0.847089 0.464137 -0.258875 0.000000
158.59399414 54.00389862 376.95001221 -0.048022 -0.997792 -0.045888 0.000000
77.24610138 78.27149963 365.39999390 -0.531946 -0.817082 -0.222283 0.000000
164.74600220 129.19900513 372.75000000 0.492908 0.361252 -0.791542 0.000000
27.68549919 174.31599426 282.10000610 -0.995622 -0.051592 -0.077937 0.000000
140.82000732 147.99800110 393.39999390 -0.446689 0.894688 -0.001310 0.000000
133.98399353 119.28700256 420.70001221 -0.216918 0.146777 0.965092 0.000000
75.87889862 178.75999451 282.79998779 0.009473 0.848492 -0.529123 0.000000
124.41400146 147.65600586 323.04998779 0.125964 -0.426015 -0.895904 0.000000
129.19900513 186.96299744 370.29998779 0.854304 0.518635 0.034392 0.000000
120.65399933 114.16000366 332.50000000 0.711499 0.272184 -0.647831 0.000000
152.10000610 108.00800323 359.10000610 0.692340 -0.223487 -0.686089 0.000000
35.20510101 230.37100220 328.29998779 -0.853492 0.491315 -0.173667 0.000000
53.32030106 173.97500610 260.39999390 0.621195 0.450408 -0.641287 0.000000
30.41990089 152.44099426 269.50000000 -0.939366 -0.160446 -0.303065 0.000000
177.73399353 74.51170349 433.64999390 0.444029 0.476799 0.758618 0.000000
132.61700439 57.76369858 387.10000610 -0.077816 -0.993563 0.082327 0.000000
27.34379959 166.79699707 362.95001221 -0.800717 -0.085121 0.592964 0.000000
57.42190170 103.56400299 262.50000000 -0.756020 -0.638784 -0.142787 0.000000
120.99600220 86.81639862 325.14999390 0.718828 0.146177 -0.679646 0.000000
123.04699707 197.55900574 363.64999390 0.894501 0.334880 -0.296182 0.000000
77.92970276 214.99000549 323.39999390 0.470406 0.681335 -0.560804 0.000000
97.75389862 141.50399780 341.25000000 0.225670 0.390866 -0.892355 0.000000
119.62899780 125.78099823 365.04998779 0.713033 -0.578001 -0.396861 0.000000
88.52539825 133.98399353 266.00000000 0.806229 0.267699 -0.527571 0.000000
184.22900391 111.42600250 395.50000000 0.635107 -0.387663 -0.668099 0.000000
148.33999634 75.53710175 339.50000000 0.506517 0.634408 -0.583924 0.000000
49.90230179 122.02100372 241.50000000 -0.680931 -0.486857 -0.547087 0.000000
124.75599670 77.24610138 329.70001221 0.999999 0.000978 0.000978 0.000000
26.66020012 154.83399963 361.20001221 -0.773325 -0.123198 0.621925 0.000000
127.83200073 85.44920349 339.14999390 0.507933 -0.845568 -0.164375 0.000000
34.17969894 200.97700500 271.25000000 -0.582954 0.579575 -0.569436 0.000000
155.85899353 156.88499451 392.70001221 -0.709541 0.678758 0.189313 0.000000
132.61700439 126.46499634 360.85000610 -0.671845 -0.290224 -0.681465 0.000000
39.64839935 228.66200256 302.39999390 -0.852880 0.451705 -0.261836 0.000000
66.30860138 165.42999268 394.45001221 -0.364751 -0.096273 0.926115 0.000000
37.93949890 134.66799927 266.00000000 -0.858879 -0.491413 -0.144362 0.000000
62.20700073 184.57000732 388.85000610 -0.426542 0.179060 0.886566 0.000000
184.91200256 64.25779724 374.50000000 0.552920 0.807171 -0.206771 0.000000
173.63299561 142.52900696 399.00000000 0.216343 0.904573 -0.367347 0.000000
184.91200256 129.88299561 413.00000000 0.317041 0.484237 0.815475 0.000000
126.12300110 165.42999268 337.39999390 0.886908 -0.070346 -0.456558 0.000000
29.73629951 140.82000732 332.50000000 -0.895620 -0.397568 -0.199512 0.000000
47.50979996 223.53500366 292.60000610 0.551572 0.814513 0.179827 0.000000
69.72660065 243.70100403 338.79998779 0.352119 0.676396 -0.646916 0.000000
177.73399353 121.68000031 418.95001221 0.178441 0.191465 0.965142 0.000000
46.14260101 190.72300720 378.70001221 -0.544345 0.182454 0.818779 0.000000
196.87500000 64.25779724 430.14999390 0.511375 0.210923 0.833071 0.000000
31.78709984 187.30499268 266.00000000 -0.936169 0.181686 -0.300961 0.000000
27.68549919 196.19099426 361.89999390 -0.896434 0.084256 0.435095 0.000000
126.80699921 146.28900146 411.60000610 0.138583 0.794243 0.591585 0.000000
66.99220276 212.25599670 312.20001221 0.582954 0.579575 -0.569436 0.000000
39.64839935 204.39500427 371.35000610 -0.596254 0.242571 0.765271 0.000000
154.49200439 105.27300262 361.54998779 0.818541 0.256279 -0.514112 0.000000
124.07199860 162.69500732 333.20001221 0.965718 -0.172867 -0.193664 0.000000
38.96480179 123.38899994 339.50000000 -0.753595 -0.421948 -0.504039 0.000000
22.55859947 172.94900513 336.35000610 -0.993323 0.012020 -0.114740 0.000000
111.76799774 120.31199646 325.50000000 0.730040 0.233927 -0.642121 0.000000
144.58000183 97.75389862 352.79998779 0.622109 -0.012470 -0.782832 0.000000
127.83200073 166.79699707 340.54998779 0.867233 0.014836 -0.497681 0.000000
78.61329651 116.55300140 259.00000000 0.694841 -0.301474 -0.652924 0.000000
97.75389862 231.73800659 372.04998779 0.386692 0.597315 0.702627 0.000000
61.52339935 149.36500549 251.30000305 0.325165 -0.457116 -0.827836 0.000000
111.76799774 179.78500366 314.29998779 0.808634 0.294765 -0.509140 0.000000
97.75389862 141.84599304 341.60000610 0.225670 0.390866 -0.892355 0.000000
55.02930069 96.38670349 371.70001221 -0.733521 -0.675650 0.073786 0.000000
32.47069931 146.28900146 305.20001221 -0.973917 -0.162951 -0.157898 0.000000
100.83000183 140.13699341 335.29998779 -0.648380 -0.752240 -0.117213 0.000000
22.90040016 177.05099487 336.00000000 -0.716707 0.001381 -0.697373 0.000000
88.18360138 214.30700684 330.39999390 0.485368 0.602931 -0.633161 0.000000
29.05270004 163.37899780 272.29998779 -0.970636 -0.192597 -0.144129 0.000000
47.85160065 205.07800293 280.35000610 0.409292 0.820177 -0.399737 0.000000
152.44099426 150.39100647 349.64999390 -0.326818 -0.671522 0.665018 0.000000
83.05660248 73.82810211 368.89999390 -0.263281 -0.926464 -0.268974 0.000000
163.37899780 94.33589935 376.95001221 0.858813 -0.328415 -0.393173 0.000000
61.18159866 97.07029724 278.60000610 -0.669154 -0.740798 -0.058748 0.000000
120.31199646 90.91799927 325.14999390 0.633891 0.091805 -0.767955 0.000000
123.73000336 85.79100037 342.29998779 0.873469 -0.422452 -0.242046 0.000000
29.05270004 162.69500732 280.70001221 -0.983359 -0.176981 -0.041022 0.000000
92.28520203 209.17999268 328.64999390 0.453006 0.580048 -0.677001 0.000000
174.31599426 71.43550110 368.20001221 0.543892 0.815076 0.199579 0.000000
85.44920349 158.93600464 275.10000610 0.701305 0.471424 -0.534725 0.000000
112.79299927 99.12110138 320.95001221 0.534860 0.387651 -0.750767 0.000000
187.98800659 136.03500366 408.45001221 0.361222 0.583512 0.727347 0.000000
77.58789825 79.29689789 389.89999390 -0.620028 -0.713922 0.325393 0.000000
153.80900574 155.17599487 395.85000610 -0.765838 0.638440 0.076729 0.000000
112.10900116 65.96679688 335.29998779 -0.005566 -0.989620 -0.143601 0.000000
26.66020012 189.35499573 360.85000610 -0.814367 0.115503 -0.568741 0.000000
192.08999634 132.61700439 408.45001221 0.250635 0.442029 0.861274 0.000000
69.72660065 206.44500732 384.64999390 -0.300624 0.254596 0.919133 0.000000
56.73830032 241.30900574 323.04998779 0.520103 0.661490 -0.540301 0.000000
44.09180069 185.25399780 261.10000610 0.582954 0.579575 -0.569436 0.000000
113.47699738 204.05299377 340.89999390 0.657312 0.489201 -0.573257 0.000000
61.86520004 172.94900513 266.70001221 0.582954 0.579575 -0.569436 0.000000
97.75389862 66.65039825 384.29998779 -0.339429 -0.940631 0.001253 0.000000
70.41020203 243.35899353 369.95001221 0.015287 0.646240 0.762981 0.000000
54.68750000 121.68000031 386.04998779 -0.716707 -0.001381 0.697373 0.000000
115.52700043 205.41999817 347.89999390 0.873262 0.376432 -0.309375 0.000000
157.91000366 92.28520203 369.95001221 0.579575 -0.582954 -0.569436 0.000000
118.26200104 61.18159866 368.20001221 -0.211174 -0.975305 -0.064695 0.000000
97.07029724 179.78500366 397.25000000 0.064838 0.467664 0.881525 0.000000
58.44729996 131.25000000 241.50000000 0.375297 0.217585 -0.901005 0.000000
65.28320313 94.33589935 284.20001221 -0.564397 -0.825310 0.017852 0.000000
119.28700256 123.04699707 368.20001221 0.707356 -0.451044 -0.544248 0.000000
142.87100220 149.02299500 393.04998779 -0.446689 0.894688 -0.001310 0.000000
172.94900513 58.78910065 431.54998779 -0.559203 -0.745060 0.363563 0.000000
185.93800354 56.39649963 431.20001221 0.231439 -0.894799 0.381800 0.000000
50.92770004 196.19099426 277.89999390 0.740413 0.408787 -0.533557 0.000000
90.23439789 157.91000366 403.54998779 -0.217411 0.287544 0.932765 0.000000
128.51600647 164.74600220 393.04998779 0.815954 -0.492088 0.303428 0.000000
117.91999817 172.94900513 319.20001221 0.715359 0.001384 -0.698755 0.000000
118.94499969 89.55079651 417.54998779 -0.399675 0.130420 0.907332 0.000000
59.13090134 95.70310211 382.20001221 -0.717514 -0.445754 0.535236 0.000000
116.21099854 149.36500549 328.29998779 0.400753 -0.750799 0.525069 0.000000
60.15620041 198.92599487 292.25000000 0.584096 0.570552 -0.577324 0.000000
167.47999573 96.04489899 383.60000610 0.752285 -0.469149 -0.462565 0.000000
197.21699524 118.94499969 411.60000610 0.474330 0.056370 0.878541 0.000000
155.17599487 112.45099640 359.79998779 0.701707 -0.325735 -0.633643 0.000000
84.76560211 196.87500000 390.25000000 -0.044872 0.324358 0.944869 0.000000
200.29299927 87.50000000 418.95001221 0.770490 0.304686 -0.559921 0.000000
112.10900116 65.28320313 345.10000610 0.001381 -0.716707 0.697373 0.000000
160.64500427 54.34569931 399.00000000 0.024336 -0.983855 0.177303 0.000000
82.37300110 122.36299896 403.89999390 -0.385701 0.051692 0.921175 0.000000
79.63870239 81.34770203 396.20001221 -0.542717 -0.569768 0.617108 0.000000
35.20510101 146.97300720 254.80000305 -0.912229 -0.318625 -0.257519 0.000000
91.25980377 103.90599823 287.00000000 0.999999 0.000978 0.000978 0.000000
74.85350037 140.13699341 400.39999390 -0.394289 0.068631 0.916420 0.000000
114.84400177 61.18159866 393.39999390 -0.241636 -0.970152 -0.020437 0.000000
94.67769623 148.33999634 336.00000000 0.986241 -0.165311 -0.001125 0.000000
146.97300720 149.36500549 397.60000610 -0.220184 0.888126 0.403425 0.000000
162.01199341 143.55499268 360.14999390 -0.884868 -0.306011 0.351234 0.000000
150.39100647 105.27300262 357.35000610 0.716707 -0.001381 -0.697373 0.000000
136.71899414 108.00800323 348.25000000 0.499187 0.272143 -0.822648 0.000000
89.55079651 160.30299377 280.00000000 0.702104 0.337206 -0.627170 0.000000
38.28120041 131.25000000 279.64999390 -0.862812 -0.491184 0.119555 0.000000
125.09799957 161.32800293 400.04998779 0.129646 -0.034948 0.990944 0.000000
100.48799896 206.44500732 385.35000610 0.227443 0.380050 0.896566 0.000000
125.09799957 125.09799957 418.25000000 -0.183911 0.234923 0.954457 0.000000
48.19340134 170.89799500 383.60000610 -0.527085 0.034405 0.849116 0.000000
192.08999634 135.35200500 407.04998779 0.432801 0.562144 0.704753 0.000000
21.53319931 177.05099487 343.70001221 -0.970883 -0.236949 0.035239 0.000000
114.84400177 212.25599670 371.70001221 0.911620 0.355719 0.205943 0.000000
156.88499451 131.25000000 354.20001221 -0.546759 0.817880 0.179241 0.000000
55.71289825 178.41799927 266.70001221 0.565715 0.606243 -0.558960 0.000000
114.84400177 212.25599670 372.39999390 0.790530 0.612421 0.001370 0.000000
125.09799957 172.26600647 397.95001221 0.543012 0.828498 0.136857 0.000000
118.26200104 172.26600647 319.54998779 0.597578 0.368370 -0.712182 0.000000
28.71089935 142.52900696 344.39999390 -0.887378 -0.429937 0.166474 0.000000
180.46899414 99.12110138 399.35000610 0.720464 -0.428966 -0.544903 0.000000
32.12889862 203.71099854 283.85000610 -0.898308 0.325172 -0.295476 0.000000
109.03299713 192.08999634 389.20001221 0.304514 0.497004 0.812563 0.000000
136.37699890 137.40199280 402.50000000 -0.151912 0.957706 0.244380 0.000000
80.66410065 76.56250000 390.95001221 -0.644510 -0.714531 0.272126 0.000000
31.10350037 168.16400146 368.20001221 -0.745068 -0.095146 0.660168 0.000000
52.97850037 133.98399353 385.70001221 -0.681224 -0.079888 0.727704 0.000000
23.24220085 194.14100647 320.95001221 -0.977291 0.206063 -0.049407 0.000000
180.46899414 79.29689789 430.14999390 0.256014 0.464504 0.847758 0.000000
136.37699890 159.96099854 324.79998779 0.850566 0.359197 0.384076 0.000000
47.50979996 106.64099884 364.00000000 -0.815997 -0.556430 0.156636 0.000000
91.60160065 74.16989899 322.00000000 0.582927 -0.582927 0.566031 0.000000
137.74400330 157.22700500 323.39999390 0.884121 0.121015 0.451315 0.000000
49.21879959 112.10900116 286.64999390 -0.753472 -0.616193 0.229317 0.000000
111.42600250 132.61700439 412.64999390 -0.058880 0.193464 0.979339 0.000000
83.39839935 213.28100586 325.85000610 0.434815 0.658053 -0.614738 0.000000
56.39649963 160.64500427 253.39999390 0.434812 0.405931 -0.803840 0.000000
70.41020203 203.36900330 306.60000610 0.428555 0.655340 -0.621989 0.000000
101.17199707 216.69900513 340.54998779 0.457965 0.537901 -0.707764 0.000000
55.37110138 179.10200500 386.75000000 -0.322381 0.108352 0.940389 0.000000
167.47999573 88.52539825 428.39999390 0.106530 0.290656 0.950879 0.000000
83.74019623 140.82000732 261.79998779 0.261616 -0.418889 -0.869534 0.000000
61.18159866 217.38299561 309.39999390 0.751479 0.432470 -0.498245 0.000000
52.63669968 106.98200226 281.39999390 -0.762198 -0.644937 -0.055771 0.000000
81.34770203 149.36500549 264.60000610 0.600618 0.450045 -0.660847 0.000000
185.25399780 71.77729797 421.04998779 0.432511 -0.362802 -0.825414 0.000000
78.61329651 87.15820313 279.29998779 -0.707106 -0.707106 -0.001384 0.000000
172.26600647 143.89599609 402.50000000 0.163308 0.925412 -0.341970 0.000000
81.68949890 133.30099487 257.60000610 0.514742 0.171581 -0.840000 0.000000
109.71700287 170.89799500 304.50000000 0.850937 0.399800 -0.340686 0.000000
125.09799957 162.69500732 320.25000000 0.239178 0.122821 -0.963176 0.000000
95.70310211 164.74600220 288.04998779 0.595313 0.292070 -0.748530 0.000000
89.89260101 79.29689789 298.20001221 -0.364474 -0.914730 -0.174437 0.000000
77.92970276 236.18200684 339.50000000 0.328688 0.493826 -0.805047 0.000000
96.72850037 134.66799927 289.10000610 0.979076 -0.188518 -0.076623 0.000000
26.66020012 146.63099670 345.10000610 -0.902151 -0.421372 -0.092564 0.000000
105.95700073 63.91600037 391.29998779 -0.242814 -0.970072 -0.001184 0.000000
174.65800476 132.61700439 389.20001221 0.763777 0.305831 -0.568429 0.000000
84.08200073 173.29100037 284.20001221 0.628975 0.551407 -0.548034 0.000000
68.35939789 113.81800079 396.89999390 -0.536791 -0.066218 0.841113 0.000000
65.62500000 93.99410248 278.60000610 -0.487147 -0.873086 -0.020242 0.000000
116.21099854 64.59960175 344.39999390 0.001381 -0.716707 0.697373 0.000000
38.62300110 128.51600647 301.00000000 -0.835112 -0.506543 -0.214482 0.000000
30.76169968 140.82000732 327.95001221 -0.933765 -0.265386 -0.240111 0.000000
87.50000000 71.09380341 383.95001221 -0.498446 -0.828685 0.254624 0.000000
173.97500610 131.93400574 387.79998779 0.744464 0.381231 -0.548122 0.000000
71.43550110 142.87100220 253.39999390 0.557406 0.319665 -0.766233 0.000000
126.46499634 155.17599487 393.04998779 0.142886 0.960878 -0.237270 0.000000
104.93199921 137.40199280 329.70001221 0.641287 -0.621195 0.450408 0.000000
65.62500000 227.63699341 324.45001221 0.582954 0.579575 -0.569436 0.000000
101.17199707 214.99000549 381.50000000 0.344629 0.329447 0.879031 0.000000
121.68000031 58.44729996 381.50000000 -0.079951 -0.975404 0.205413 0.000000
48.53519821 232.08000183 303.10000610 0.450373 0.644586 -0.617798 0.000000
145.60499573 99.80470276 426.64999390 -0.456129 -0.001314 0.889912 0.000000
138.08599854 112.79299927 423.14999390 -0.407229 0.197046 0.891817 0.000000
35.88869858 133.30099487 306.60000610 -0.970072 -0.242814 -0.001184 0.000000
49.56050110 127.14800262 381.50000000 -0.645222 -0.155639 0.747974 0.000000
145.60499573 57.08010101 401.79998779 0.407400 -0.859383 -0.309009 0.000000
65.28320313 177.73399353 392.00000000 -0.519561 0.389264 0.760612 0.000000
164.74600220 101.85500336 424.54998779 0.137805 0.284975 0.948578 0.000000
103.56400299 157.22700500 406.00000000 -0.206822 0.247912 0.946448 0.000000
154.14999390 74.51170349 344.39999390 0.476509 0.789875 -0.386053 0.000000
160.64500427 134.32600403 364.70001221 -0.183707 0.915688 -0.357446 0.000000
125.43900299 133.30099487 416.50000000 -0.233875 0.076291 0.969269 0.000000
87.84179688 136.03500366 266.00000000 0.736032 0.129888 -0.664369 0.000000
40.67380142 140.82000732 375.20001221 -0.665855 -0.061840 0.743514 0.000000
58.78910065 168.16400146 390.25000000 -0.716707 -0.001381 0.697373 0.000000
78.95510101 118.26200104 402.50000000 -0.184665 -0.373625 0.909012 0.000000
32.81250000 145.94700623 296.79998779 -0.968951 -0.242546 0.048017 0.000000
117.57800293 133.30099487 346.14999390 0.478762 0.876120 0.056568 0.000000
98.43750000 142.52900696 334.60000610 -0.401577 -0.603192 -0.689126 0.000000
138.42799377 62.89059830 421.39999390 -0.350148 -0.776135 0.524415 0.000000
70.41020203 249.16999817 359.10000610 0.266226 0.946126 0.184310 0.000000
175.00000000 69.38480377 408.10000610 0.844448 0.499469 -0.193488 0.000000
50.24409866 157.22700500 247.80000305 0.507702 0.326266 -0.797363 0.000000
99.80470276 185.59599304 310.10000610 0.459343 0.689850 -0.559563 0.000000
57.08010101 197.55900574 287.00000000 0.669166 0.548415 -0.501456 0.000000
56.05469894 108.69100189 386.04998779 -0.625257 -0.135796 0.768514 0.000000
38.62300110 216.01600647 367.50000000 -0.593020 0.264091 0.760647 0.000000
129.19900513 116.89499664 372.04998779 -0.877154 0.218916 0.427408 0.000000
47.16799927 142.18800354 241.14999390 0.069806 0.343763 -0.936458 0.000000
124.75599670 105.95700073 335.29998779 0.801222 0.026475 -0.597781 0.000000
120.99600220 136.37699890 356.29998779 -0.476152 0.459676 0.749651 0.000000
168.84800720 137.40199280 412.64999390 0.105308 0.535196 0.838138 0.000000
106.29900360 212.59800720 341.60000610 -0.045939 0.541523 -0.839430 0.000000
117.91999817 113.47699738 369.60000610 0.902232 -0.376293 -0.210666 0.000000
38.62300110 121.68000031 345.79998779 -0.807898 -0.240353 0.538081 0.000000
26.66020012 176.36700439 361.54998779 -0.850895 -0.012214 0.525194 0.000000
117.57800293 129.19900513 414.04998779 -0.069751 0.110916 0.991379 0.000000
84.42379761 101.17199707 265.29998779 0.771154 0.280276 -0.571636 0.000000
131.93400574 72.46089935 425.25000000 -0.317305 -0.137544 0.938296 0.000000
87.15820313 137.40199280 339.50000000 -0.220265 0.025003 -0.975120 0.000000
138.77000427 133.30099487 334.95001221 0.271746 -0.535637 0.799529 0.000000
61.52339935 158.59399414 255.85000610 0.577091 0.371104 -0.727494 0.000000
110.74199677 168.50599670 304.50000000 0.678165 0.431559 -0.594852 0.000000
119.62899780 156.54299927 405.64999390 -0.682876 -0.599801 0.417036 0.000000
121.68000031 199.60899353 360.85000610 0.899331 -0.001305 -0.437266 0.000000
119.28700256 200.97700500 375.20001221 0.762028 0.504211 0.406306 0.000000
88.18360138 71.43550110 367.50000000 -0.808647 -0.267464 -0.523978 0.000000
120.65399933 137.40199280 355.60000610 -0.476152 0.459676 0.749651 0.000000
100.14600372 100.48799896 309.39999390 0.901730 0.362158 -0.236063 0.000000
39.30659866 133.30099487 261.10000610 -0.914568 -0.398520 -0.068897 0.000000
187.98800659 61.18159866 398.29998779 0.595325 0.801780 0.052321 0.000000
139.45300293 147.65600586 400.04998779 0.578832 -0.043447 0.814289 0.000000
118.26200104 156.88499451 403.89999390 -0.550836 -0.787585 0.276207 0.000000
89.55079651 74.85350037 324.79998779 -0.519069 -0.816566 -0.252562 0.000000
90.23439789 88.86720276 405.64999390 -0.510309 -0.191178 0.838472 0.000000
84.76560211 236.52299500 373.45001221 0.000978 0.000978 0.999999 0.000000
136.71899414 125.09799957 358.75000000 -0.692124 -0.369900 -0.619788 0.000000
182.52000427 66.30860138 435.75000000 0.094991 0.284974 0.953817 0.000000
43.06639862 204.73599243 274.39999390 0.474195 0.655160 -0.588136 0.000000
24.26759911 198.24200439 348.60000610 -0.897217 -0.396986 0.193403 0.000000
149.02299500 83.05660248 352.10000610 0.642737 0.642737 -0.416866 0.000000
63.23239899 92.96880341 316.39999390 -0.615627 -0.442117 -0.652331 0.000000
196.87500000 79.98049927 421.04998779 0.101407 -0.665760 0.739243 0.000000
63.57419968 88.18360138 355.25000000 -0.537903 -0.818283 -0.202666 0.000000
193.45700073 74.51170349 423.85000610 0.486210 -0.364256 -0.794303 0.000000
32.12889862 191.40600586 266.35000610 -0.910509 0.133279 -0.391421 0.000000
70.06839752 216.69900513 319.20001221 0.582954 0.579575 -0.569436 0.000000
92.28520203 231.73800659 346.85000610 0.506425 0.637658 -0.580454 0.000000
130.56599426 164.74600220 391.64999390 0.638206 -0.399500 0.658098 0.000000
101.85500336 202.34399414 386.75000000 0.214890 0.381539 0.899028 0.000000
79.29689789 168.16400146 276.14999390 0.536046 0.593540 -0.600304 0.000000
116.89499664 180.12699890 394.10000610 0.338586 0.584830 0.737112 0.000000
178.41799927 90.91799927 403.54998779 0.747382 -0.428718 -0.507563 0.000000
29.05270004 196.87500000 287.70001221 -0.977164 0.165558 -0.133193 0.000000
128.17399597 150.39100647 406.00000000 0.904062 0.413723 0.107262 0.000000
88.18360138 71.43550110 386.39999390 -0.511654 -0.829338 0.224517 0.000000
126.80699921 118.26200104 341.60000610 0.784888 0.052515 -0.617408 0.000000
95.70310211 236.18200684 364.70001221 0.651506 0.757001 0.049896 0.000000
120.31199646 99.12110138 416.85000610 -0.368686 0.076419 0.926407 0.000000
74.51170349 234.47300720 374.85000610 -0.163879 0.386185 0.907747 0.000000
114.16000366 95.70310211 373.45001221 -0.253389 -0.766464 0.590193 0.000000
29.39450073 216.01600647 351.04998779 0.235698 0.944172 -0.230185 0.000000
71.77729797 234.47300720 333.54998779 0.621206 0.358955 -0.696602 0.000000
129.19900513 174.65800476 382.89999390 0.980677 -0.184102 -0.066181 0.000000
90.91799927 187.30499268 394.45001221 0.001314 0.456129 0.889912 0.000000
182.52000427 53.66210175 401.79998779 0.838040 0.001354 0.545606 0.000000
60.15620041 173.63299561 265.64999390 0.515126 -0.025961 -0.856721 0.000000
117.23600006 209.17999268 366.79998779 0.873068 0.438765 0.212690 0.000000
122.36299896 62.20700073 404.95001221 -0.373334 -0.845078 0.382706 0.000000
118.26200104 112.79299927 416.14999390 -0.343706 -0.034757 0.938434 0.000000
36.57229996 133.30099487 314.29998779 -0.957194 -0.265089 -0.116221 0.000000
162.35400391 149.70700073 395.50000000 0.791197 0.412587 0.451419 0.000000
73.82810211 81.00589752 387.79998779 -0.611368 -0.648218 0.453920 0.000000
54.00389862 117.57800293 241.85000610 -0.536691 -0.651095 -0.536691 0.000000
68.35939789 224.21899414 378.35000610 -0.165822 0.369911 0.914149 0.000000
31.10350037 139.45300293 329.00000000 -0.818176 -0.502169 -0.280026 0.000000
153.80900574 58.44729996 351.39999390 -0.019827 -0.902805 -0.429593 0.000000
56.73830032 150.39100647 248.85000610 0.605084 0.335797 -0.721882 0.000000
41.69919968 122.02100372 314.29998779 -0.371804 -0.574904 -0.728867 0.000000
42.72460175 120.99600220 275.79998779 -0.921609 -0.387154 0.027375 0.000000
115.52700043 123.04699707 330.04998779 0.742413 0.032401 -0.669158 0.000000
146.28900146 59.13090134 351.39999390 -0.019185 -0.934942 -0.354281 0.000000
55.02930069 205.76199341 291.89999390 0.834079 0.367373 -0.411521 0.000000
127.14800262 153.46699524 346.50000000 -0.012478 0.641906 0.766682 0.000000
67.33399963 233.10499573 328.29998779 0.679524 0.445781 -0.582688 0.000000
29.73629951 163.37899780 268.10000610 -0.967056 -0.200661 -0.156645 0.000000
187.98800659 70.41020203 423.14999390 0.383839 -0.399635 -0.832442 0.000000
62.54880142 93.65229797 330.39999390 -0.582927 -0.582927 -0.566031 0.000000
88.86720276 211.91400146 328.64999390 0.472076 0.613194 -0.633354 0.000000
131.93400574 164.06199646 323.04998779 0.445303 0.036324 -0.894643 0.000000
99.80470276 65.96679688 387.10000610 -0.281316 -0.955437 -0.089451 0.000000
108.34999847 199.60899353 332.50000000 0.514086 0.520785 -0.681541 0.000000
97.07029724 197.89999390 322.70001221 0.595819 0.448950 -0.665915 0.000000
21.53319931 186.62100220 343.70001221 -0.894688 0.446689 -0.001310 0.000000
39.64839935 132.27499390 255.50000000 -0.962993 -0.255696 -0.085232 0.000000
114.16000366 147.99800110 327.60000610 0.331684 -0.745885 0.577616 0.000000
116.21099854 187.64599609 329.70001221 0.731076 0.489042 -0.475780 0.000000
77.24610138 83.05660248 308.00000000 -0.469000 -0.882903 0.022845 0.000000
140.82000732 157.56799316 359.79998779 0.467779 -0.869982 -0.155926 0.000000
159.27699280 157.91000366 362.25000000 0.572349 0.816206 -0.078895 0.000000
53.66210175 225.58599854 304.50000000 0.850867 0.284648 -0.441589 0.000000
57.08010101 95.70310211 345.10000610 -0.705724 -0.708486 0.001381 0.000000
68.35939789 221.14300537 379.39999390 -0.153712 0.379343 0.912399 0.000000
110.74199677 211.91400146 378.35000610 0.413396 0.384886 0.825207 0.000000
80.66410065 76.22070313 364.00000000 -0.528187 -0.778634 -0.338746 0.000000
168.50599670 88.86720276 390.60000610 0.761078 -0.347413 -0.547782 0.000000
98.09570313 187.30499268 310.79998779 0.459343 0.689850 -0.559563 0.000000
90.91799927 76.22070313 313.60000610 -0.099279 -0.993903 0.047966 0.000000
176.36700439 55.71289825 374.50000000 0.273363 -0.949363 -0.154861 0.000000
176.36700439 88.52539825 402.50000000 0.747382 -0.428718 -0.507563 0.000000
36.23049927 136.37699890 268.79998779 -0.242126 -0.886805 0.393640 0.000000
41.01559830 221.48399353 290.14999390 -0.409875 0.682018 -0.605685 0.000000
144.23800659 136.71899414 404.95001221 0.474461 0.803548 0.359440 0.000000
88.86720276 125.78099823 406.35000610 -0.384847 0.262055 0.884997 0.000000
46.82619858 222.16799927 371.70001221 0.279449 0.223279 0.933839 0.000000
75.19529724 125.78099823 253.75000000 0.716707 -0.001381 -0.697373 0.000000
41.01559830 219.09199524 368.20001221 -0.581141 0.263010 0.770130 0.000000
49.90230179 120.65399933 242.19999695 -0.680931 -0.486857 -0.547087 0.000000
123.38899994 97.07029724 328.29998779 0.781848 0.255393 -0.568759 0.000000
42.04100037 142.18800354 376.60000610 -0.722261 -0.155960 0.673807 0.000000
120.99600220 88.18360138 346.14999390 0.030778 0.149329 -0.988308 0.000000
32.47069931 140.13699341 317.10000610 -0.802438 -0.536523 -0.261222 0.000000
79.98049927 78.27149963 341.60000610 -0.499633 -0.804172 0.321986 0.000000
85.10739899 81.34770203 399.70001221 -0.567041 -0.305084 0.765106 0.000000
66.30860138 163.03700256 262.50000000 0.577837 0.444618 -0.684412 0.000000
60.83980179 98.09570313 385.70001221 -0.710507 -0.339808 0.616206 0.000000
156.54299927 152.10000610 354.89999390 -0.657030 -0.392232 0.643790 0.000000
79.29689789 118.94499969 402.85000610 -0.364588 0.003811 0.931161 0.000000
105.95700073 65.28320313 350.00000000 -0.317495 -0.866594 -0.384982 0.000000
194.82400513 78.61329651 426.64999390 -0.299627 -0.481599 -0.823581 0.000000
176.02499390 78.61329651 409.50000000 0.633714 -0.392142 -0.666807 0.000000
170.89799500 54.34569931 423.50000000 -0.101842 -0.927439 0.359841 0.000000
135.00999451 161.32800293 324.79998779 0.592727 0.616369 0.518425 0.000000
102.53900146 144.92199707 346.85000610 -0.715359 0.001384 -0.698755 0.000000
72.11910248 86.13279724 310.79998779 -0.549316 -0.835560 0.009541 0.000000
34.52149963 229.00399780 330.39999390 -0.885605 0.456052 -0.087863 0.000000
77.92970276 76.22070313 372.39999390 -0.552663 -0.711989 -0.433168 0.000000
166.79699707 144.92199707 400.75000000 0.342543 0.864805 -0.367120 0.000000
44.77539825 190.72300720 378.00000000 -0.560604 0.186868 0.806724 0.000000
162.01199341 114.84400177 423.85000610 0.100157 0.150839 0.983471 0.000000
127.14800262 130.22500610 364.70001221 -0.316613 -0.760192 -0.567331 0.000000
109.37500000 157.22700500 303.45001221 0.488462 0.518469 -0.701851 0.000000
74.16989899 77.92970276 374.50000000 -0.630265 -0.720074 -0.290275 0.000000
120.99600220 178.07600403 327.60000610 0.810559 0.407678 -0.420468 0.000000
46.14260101 116.89499664 296.10000610 -0.409292 -0.820177 0.399737 0.000000
64.25779724 236.86500549 327.60000610 0.679524 0.445781 -0.582688 0.000000
91.60160065 183.54499817 301.00000000 0.299947 0.729816 -0.614329 0.000000
104.24800110 149.02299500 330.39999390 0.054553 -0.955311 0.290526 0.000000
38.96480179 230.02900696 361.20001221 -0.761995 0.534534 0.365563 0.000000
184.22900391 54.00389862 422.10000610 0.529746 0.048664 -0.846759 0.000000
93.99410248 238.57400513 357.70001221 0.547636 0.735115 -0.399626 0.000000
91.60160065 162.69500732 338.45001221 0.377984 -0.322893 -0.867680 0.000000
95.36129761 230.37100220 374.50000000 0.352420 0.570043 0.742193 0.000000
53.32030106 185.93800354 383.95001221 -0.448799 0.207252 0.869268 0.000000
47.16799927 124.75599670 242.19999695 -0.826925 -0.448902 -0.338646 0.000000
185.59599304 56.05469894 381.50000000 0.915701 -0.264729 -0.302341 0.000000
63.57419968 201.31799316 298.20001221 0.498208 0.665955 -0.555242 0.000000
149.70700073 153.12500000 351.04998779 -0.333548 -0.626419 0.704518 0.000000
35.88869858 136.71899414 281.39999390 -0.947667 -0.319201 0.006210 0.000000
69.72660065 97.75389862 395.85000610 -0.456129 0.001314 0.889912 0.000000
157.22700500 104.24800110 365.39999390 0.728312 -0.300650 -0.615769 0.000000
24.95120049 192.08999634 351.39999390 -0.915688 0.183707 -0.357446 0.000000
34.52149963 212.59800720 288.39999390 -0.824751 0.535259 -0.182440 0.000000
