214.29699707 204.40600586 367.50000000 -0.579271 -0.773931 0.255884 0.000000
141.76600647 246.02900696 345.00000000 -0.528771 -0.784370 0.324291 0.000000
150.83200073 183.38900757 240.00000000 -0.712708 -0.199435 0.672512 0.000000
158.25000000 209.35200500 417.50000000 -0.000978 -0.000978 -0.999999 0.000000
172.26199341 264.57400513 367.50000000 0.000978 0.000978 0.999999 0.000000
135.17199707 178.03100586 412.50000000 -0.000978 -0.000978 -0.999999 0.000000
185.44900513 153.71699524 270.00000000 0.466514 0.670510 -0.576872 0.000000
116.21499634 216.77000427 412.50000000 0.000978 0.000978 -0.999999 0.000000
110.44499969 171.02499390 360.00000000 0.760737 0.622978 0.182148 0.000000
88.19139862 251.79899597 365.00000000 0.947621 -0.315016 0.052717 0.000000
237.37500000 158.25000000 332.50000000 0.488374 0.555504 -0.672983 0.000000
262.92599487 167.31599426 377.50000000 -0.607917 -0.201613 0.767977 0.000000
205.22999573 177.20700073 347.50000000 0.086276 -0.910686 0.403989 0.000000
182.15199280 145.06199646 257.50000000 0.137946 0.425216 -0.894518 0.000000
263.75000000 159.07400513 372.50000000 -0.357709 0.903763 -0.235066 0.000000
131.46299744 239.84800720 325.00000000 -0.583954 -0.683775 0.437549 0.000000
187.92199707 182.15199280 412.50000000 -0.000978 -0.000978 -0.999999 0.000000
122.80899811 188.33399963 215.00000000 -0.590975 -0.328679 0.736695 0.000000
183.80099487 124.45700073 292.50000000 -0.045986 0.963225 -0.264732 0.000000
162.37100220 140.11700439 382.50000000 0.688576 0.688576 -0.227434 0.000000
248.08999634 124.04499817 310.00000000 0.196558 0.980491 0.001149 0.000000
120.33599854 247.26600647 412.50000000 0.140067 -0.535203 -0.833030 0.000000
223.36300659 164.02000427 402.50000000 -0.213408 -0.032190 -0.976433 0.000000
129.40199280 220.06599426 237.50000000 0.000978 0.000978 0.999999 0.000000
165.66799927 243.96899414 407.50000000 -0.392990 -0.441111 -0.806833 0.000000
273.22900391 137.64500427 375.00000000 -0.490661 0.405896 -0.771039 0.000000
142.58999634 131.05099487 237.50000000 0.515087 0.856657 0.028692 0.000000
166.49200439 189.98199463 415.00000000 -0.466097 0.693299 -0.549627 0.000000
135.99600220 141.76600647 292.50000000 0.662362 0.732085 -0.159149 0.000000
154.95300293 219.24200439 307.50000000 0.428195 -0.857924 0.283928 0.000000
121.98400116 155.77699280 312.50000000 0.702468 0.702468 0.114355 0.000000
269.51998901 154.12899780 372.50000000 -0.058140 0.812549 -0.579987 0.000000
223.36300659 173.91000366 347.50000000 -0.198756 -0.856294 0.476715 0.000000
233.25399780 152.47999573 397.50000000 -0.000978 -0.000978 -0.999999 0.000000
119.09999847 265.39801025 340.00000000 -0.829742 -0.462710 0.312134 0.000000
182.15199280 199.46099854 342.50000000 -0.465800 0.884345 0.031053 0.000000
178.03100586 151.65600586 257.50000000 0.308227 0.139856 -0.940976 0.000000
106.32399750 230.78100586 252.50000000 0.917746 -0.306876 0.252128 0.000000
93.96089935 226.66000366 302.50000000 0.975427 -0.149390 0.161943 0.000000
225.01199341 173.91000366 347.50000000 -0.000978 -0.000978 0.999999 0.000000
121.16000366 271.57998657 395.00000000 -0.206286 -0.677798 -0.705716 0.000000
182.97700500 201.10899353 412.50000000 -0.000978 -0.000978 -0.999999 0.000000
202.75799561 159.07400513 297.50000000 -0.000978 -0.000978 -0.999999 0.000000
204.81799316 204.40600586 380.00000000 0.433160 -0.858667 -0.273977 0.000000
209.35200500 176.38299561 402.50000000 -0.000978 -0.000978 -0.999999 0.000000
135.17199707 144.64999390 345.00000000 0.524040 0.847838 -0.080949 0.000000
162.37100220 124.04499817 265.00000000 -0.001308 0.896251 -0.443546 0.000000
99.73049927 239.84800720 292.50000000 0.611022 -0.611022 0.503294 0.000000
117.86299896 245.61700439 272.50000000 -0.628173 0.126229 0.767767 0.000000
163.19500732 269.51998901 367.50000000 -0.579470 -0.781430 0.231477 0.000000
248.08999634 160.72300720 392.50000000 -0.000978 -0.000978 -0.999999 0.000000
149.18400574 195.33999634 417.50000000 -0.000978 -0.000978 -0.999999 0.000000
135.17199707 287.23999023 375.00000000 -0.322473 -0.940658 -0.105707 0.000000
270.34399414 159.89799500 377.50000000 0.445762 0.616052 -0.649443 0.000000
131.46299744 260.45300293 405.00000000 -0.297354 -0.683111 -0.667038 0.000000
160.72300720 193.69099426 337.50000000 0.326328 0.282030 -0.902202 0.000000
168.96499634 238.19900513 407.50000000 0.000978 0.000978 -0.999999 0.000000
212.64799500 172.26199341 332.50000000 -0.093608 0.945306 -0.312465 0.000000
161.54699707 194.10400391 305.00000000 -0.881790 0.468921 0.050583 0.000000
86.95510101 248.91400146 385.00000000 0.758619 -0.212538 -0.615893 0.000000
142.58999634 269.51998901 357.50000000 0.000978 0.000978 0.999999 0.000000
131.05099487 229.95700073 417.50000000 -0.000978 -0.000978 -0.999999 0.000000
181.32800293 235.72700500 397.50000000 -0.000978 -0.000978 -0.999999 0.000000
163.19500732 239.02299500 352.50000000 0.000978 0.000978 0.999999 0.000000
135.99600220 197.81199646 227.50000000 -0.332891 0.196901 0.922179 0.000000
170.61300659 171.43800354 282.50000000 0.413373 0.837749 -0.356790 0.000000
216.77000427 194.51600647 357.50000000 0.679256 -0.104614 -0.726407 0.000000
185.44900513 168.14100647 302.50000000 0.661823 0.712128 -0.234232 0.000000
223.36300659 157.83799744 315.00000000 0.366766 0.892416 -0.262825 0.000000
104.26399994 226.66000366 410.00000000 0.463907 -0.617985 -0.634732 0.000000
131.87500000 165.66799927 402.50000000 0.035302 0.758285 -0.650967 0.000000
139.29299927 164.84399414 402.50000000 0.286244 0.714810 -0.638052 0.000000
194.51600647 145.06199646 397.50000000 0.140347 0.362678 -0.921286 0.000000
203.58200073 154.95300293 402.50000000 -0.000978 -0.000978 -0.999999 0.000000
225.01199341 152.47999573 302.50000000 0.611022 0.611022 0.503294 0.000000
105.91200256 251.38699341 305.00000000 -0.000978 -0.000978 0.999999 0.000000
104.26399994 268.69500732 390.00000000 0.510777 -0.804909 -0.302039 0.000000
225.83599854 174.73399353 397.50000000 -0.748971 -0.023799 -0.662175 0.000000
100.14299774 201.93400574 250.00000000 0.986665 0.001122 0.162760 0.000000
99.31839752 196.16400146 290.00000000 0.959701 0.271469 0.072647 0.000000
93.13670349 266.22299194 357.50000000 0.854221 -0.379826 0.355021 0.000000
117.03900146 288.47698975 372.50000000 0.116806 -0.973382 -0.197188 0.000000
154.95300293 140.94099426 372.50000000 0.277780 0.932045 -0.232659 0.000000
223.36300659 160.72300720 402.50000000 -0.210204 -0.126123 -0.969488 0.000000
139.29299927 149.18400574 382.50000000 0.386261 0.846020 -0.367495 0.000000
162.78300476 196.16400146 320.00000000 -0.787392 0.613682 0.058378 0.000000
152.47999573 206.87899780 417.50000000 -0.227129 0.105317 -0.968153 0.000000
135.58399963 253.85899353 350.00000000 -0.896251 -0.001308 0.443546 0.000000
206.05499268 127.75399780 332.50000000 0.045237 0.998373 -0.034717 0.000000
99.73049927 236.55099487 287.50000000 0.850932 -0.480437 0.212356 0.000000
187.09800720 196.98800659 347.50000000 -0.660993 -0.272361 0.699219 0.000000
161.54699707 138.46899414 237.50000000 0.256550 0.201673 -0.945257 0.000000
111.26999664 251.38699341 307.50000000 -0.160848 -0.882491 0.441970 0.000000
150.83200073 240.67199707 347.50000000 -0.610008 -0.061429 0.790010 0.000000
220.89100647 193.69099426 392.50000000 0.301198 0.918006 0.257964 0.000000
93.13670349 203.58200073 382.50000000 -0.000978 -0.000978 -0.999999 0.000000
110.03299713 170.61300659 295.00000000 0.862806 0.504557 0.031449 0.000000
117.86299896 159.48599243 340.00000000 0.702468 0.702468 -0.114355 0.000000
199.46099854 159.07400513 297.50000000 -0.176918 0.848910 -0.498047 0.000000
176.38299561 208.52699280 412.50000000 -0.000978 -0.000978 -0.999999 0.000000
130.22700500 143.82600403 280.00000000 0.000978 0.000978 -0.999999 0.000000
138.46899414 232.01800537 320.00000000 -0.661664 -0.608331 0.438332 0.000000
195.75199890 156.60200500 330.00000000 0.389637 0.389637 -0.834486 0.000000
140.11700439 201.93400574 422.50000000 -0.000978 -0.000978 -0.999999 0.000000
116.21499634 261.27700806 402.50000000 -0.000978 -0.000978 -0.999999 0.000000
194.51600647 185.44900513 412.50000000 -0.000978 -0.000978 -0.999999 0.000000
126.10500336 238.19900513 257.50000000 -0.702468 -0.702468 0.114355 0.000000
192.86700439 160.72300720 342.50000000 0.579321 0.312930 0.752636 0.000000
110.44499969 234.07800293 412.50000000 -0.000978 -0.000978 -0.999999 0.000000
95.19730377 254.68400574 335.00000000 0.971634 -0.198887 0.127947 0.000000
114.15399933 163.19500732 335.00000000 0.790005 0.612911 -0.015219 0.000000
128.57800293 214.29699707 232.50000000 -0.240742 -0.266083 0.933404 0.000000
154.95300293 187.92199707 257.50000000 -0.922430 0.346789 -0.169884 0.000000
98.90619659 230.36900330 280.00000000 0.937477 -0.311577 0.155102 0.000000
117.86299896 247.26600647 282.50000000 -0.315016 -0.947621 -0.052717 0.000000
153.30499268 131.46299744 300.00000000 0.441887 0.885213 -0.145376 0.000000
192.86700439 192.04299927 347.50000000 0.000978 0.000978 0.999999 0.000000
135.17199707 189.57000732 417.50000000 0.179904 0.349892 -0.919353 0.000000
151.65600586 197.81199646 247.50000000 -0.000978 -0.000978 0.999999 0.000000
106.32399750 197.81199646 227.50000000 0.882794 -0.053378 0.466718 0.000000
93.54879761 271.16799927 360.00000000 0.822021 -0.568018 0.040473 0.000000
144.23800659 192.04299927 417.50000000 -0.327605 0.091517 -0.940372 0.000000
129.40199280 253.03500366 342.50000000 -0.354718 -0.691454 0.629338 0.000000
113.74199677 232.42999268 242.50000000 0.000978 0.000978 0.999999 0.000000
120.33599854 226.66000366 237.50000000 0.000978 0.000978 0.999999 0.000000
174.73399353 145.47500610 395.00000000 0.482128 0.868403 -0.115882 0.000000
159.89799500 183.38900757 305.00000000 0.313438 0.856936 -0.409167 0.000000
183.80099487 157.42599487 277.50000000 0.717039 0.654002 -0.241114 0.000000
166.49200439 268.69500732 377.50000000 -0.505198 -0.862764 -0.020316 0.000000
152.89300537 173.91000366 260.00000000 -0.933914 -0.349387 0.075723 0.000000
128.57800293 147.12300110 220.00000000 0.819226 -0.544642 0.179536 0.000000
110.44499969 191.21899414 412.50000000 -0.000978 -0.000978 -0.999999 0.000000
129.40199280 147.53500366 217.50000000 0.290314 0.422414 0.858653 0.000000
163.19500732 125.28099823 282.50000000 0.441887 0.885213 -0.145376 0.000000
219.24200439 154.95300293 302.50000000 0.511858 0.854987 -0.083655 0.000000
96.84570313 201.10899353 300.00000000 0.967980 0.194627 0.158537 0.000000
180.50399780 210.58799744 335.00000000 -0.914179 -0.311487 0.259331 0.000000
217.59399414 126.93000031 327.50000000 0.001122 0.986665 -0.162760 0.000000
133.52299500 147.53500366 217.50000000 0.000978 0.000978 0.999999 0.000000
113.74199677 241.08399963 260.00000000 -0.261059 -0.624960 0.735713 0.000000
237.37500000 151.65600586 327.50000000 0.620325 0.708245 -0.337027 0.000000
88.19139862 241.49600220 347.50000000 0.985049 -0.163196 0.055182 0.000000
178.03100586 201.10899353 412.50000000 -0.000978 -0.000978 -0.999999 0.000000
149.59599304 171.43800354 235.00000000 -0.720699 -0.400755 0.565675 0.000000
119.51200104 245.61700439 412.50000000 0.202104 -0.234657 -0.950837 0.000000
145.06199646 264.57400513 357.50000000 0.000978 0.000978 0.999999 0.000000
103.02700043 236.96299744 275.00000000 0.862175 -0.422695 0.279253 0.000000
230.78100586 151.65600586 397.50000000 -0.143911 0.026063 -0.989247 0.000000
121.57199860 146.71099854 245.00000000 0.702227 0.702227 0.117285 0.000000
98.90619659 262.92599487 337.50000000 0.702468 -0.702468 0.114355 0.000000
119.51200104 241.08399963 260.00000000 -0.262833 -0.959404 0.102285 0.000000
185.44900513 184.62500000 352.50000000 0.000978 0.000978 0.999999 0.000000
145.06199646 281.05899048 362.50000000 -0.243251 -0.367088 0.897817 0.000000
182.15199280 185.44900513 412.50000000 -0.000978 -0.000978 -0.999999 0.000000
133.52299500 219.24200439 237.50000000 0.000978 0.000978 0.999999 0.000000
206.87899780 173.49800110 335.00000000 0.011996 0.883724 -0.467854 0.000000
90.66410065 229.13299561 397.50000000 0.925803 0.040594 -0.375821 0.000000
250.56199646 166.49200439 372.50000000 0.000978 0.000978 0.999999 0.000000
135.17199707 206.87899780 422.50000000 -0.000978 -0.000978 -0.999999 0.000000
145.88699341 215.94500732 417.50000000 -0.085259 -0.159710 -0.983475 0.000000
85.30660248 235.72700500 380.00000000 0.910357 0.083256 -0.405362 0.000000
239.84800720 125.69300079 330.00000000 -0.001122 0.986665 0.162760 0.000000
138.46899414 148.35899353 217.50000000 0.000978 0.000978 0.999999 0.000000
158.66200256 178.03100586 290.00000000 0.486950 0.861974 -0.140997 0.000000
159.89799500 201.93400574 417.50000000 -0.000978 -0.000978 -0.999999 0.000000
129.40199280 255.50799561 407.50000000 -0.037924 -0.372701 -0.927176 0.000000
180.09199524 247.26600647 370.00000000 -0.760582 -0.195139 0.619222 0.000000
154.12899780 180.50399780 287.50000000 0.522824 0.788233 -0.324567 0.000000
154.12899780 201.10899353 417.50000000 -0.000978 -0.000978 -0.999999 0.000000
236.55099487 173.91000366 397.50000000 -0.000978 -0.000978 -0.999999 0.000000
245.61700439 175.55900574 392.50000000 -0.200113 -0.031971 -0.979251 0.000000
145.88699341 243.96899414 347.50000000 -0.240792 -0.832803 0.498455 0.000000
101.37899780 191.63099670 285.00000000 0.938461 0.338267 0.069759 0.000000
125.28099823 240.25999451 290.00000000 -0.856095 -0.513657 -0.057073 0.000000
252.21099854 147.94700623 340.00000000 0.579597 0.324510 -0.747503 0.000000
166.49200439 250.56199646 397.50000000 -0.643128 -0.646451 -0.410472 0.000000
178.03100586 214.29699707 332.50000000 -0.797948 -0.480053 0.364455 0.000000
135.17199707 143.82600403 315.00000000 0.646514 0.759328 0.073763 0.000000
171.85000610 207.70300293 320.00000000 -0.711474 -0.185936 0.677667 0.000000
135.99600220 246.44099426 342.50000000 -0.252784 -0.847208 0.467267 0.000000
167.31599426 185.44900513 317.50000000 0.330637 0.913943 -0.235344 0.000000
178.44299316 179.67999268 345.00000000 -0.547885 -0.547885 0.632175 0.000000
150.00799561 216.35699463 285.00000000 -0.001122 -0.986665 0.162760 0.000000
113.74199677 279.82199097 345.00000000 -0.702620 -0.556448 0.443498 0.000000
177.20700073 230.78100586 402.50000000 -0.000978 -0.000978 -0.999999 0.000000
117.03900146 242.32000732 262.50000000 0.031083 -0.879785 0.474354 0.000000
239.43600464 145.88699341 310.00000000 0.618853 0.755342 -0.215590 0.000000
117.03900146 248.91400146 312.50000000 -0.904472 0.179744 -0.386809 0.000000
131.05099487 150.00799561 217.50000000 0.279985 0.033598 0.959416 0.000000
142.58999634 132.69900513 272.50000000 0.353299 0.923045 -0.152212 0.000000
236.13900757 144.23800659 300.00000000 0.632657 0.744577 -0.212958 0.000000
159.89799500 248.08999634 407.50000000 -0.280721 -0.437189 -0.854436 0.000000
166.49200439 229.13299561 342.50000000 -0.258715 -0.655517 0.709482 0.000000
264.57400513 127.75399780 347.50000000 -0.215373 0.960590 -0.175734 0.000000
263.75000000 162.37100220 387.50000000 -0.166501 0.163959 -0.972314 0.000000
90.25199890 255.50799561 350.00000000 0.000978 0.000978 0.999999 0.000000
126.10500336 145.88699341 272.50000000 0.608190 0.781532 -0.138972 0.000000
126.10500336 195.33999634 417.50000000 0.561318 0.137738 -0.816058 0.000000
121.16000366 218.41799927 417.50000000 -0.000978 -0.000978 -0.999999 0.000000
112.91799927 258.80499268 322.50000000 -0.505467 -0.760654 0.407318 0.000000
156.18899536 151.65600586 235.00000000 -0.912362 -0.250936 0.323461 0.000000
137.64500427 238.19900513 412.50000000 0.116894 -0.367184 -0.922774 0.000000
130.63900757 147.53500366 305.00000000 0.706590 0.706590 -0.038232 0.000000
145.06199646 167.31599426 407.50000000 -0.001308 0.896251 -0.443546 0.000000
185.44900513 209.35200500 347.50000000 -0.782410 -0.557961 0.276610 0.000000
100.55500031 229.95700073 407.50000000 -0.000978 -0.000978 -0.999999 0.000000
98.90619659 267.45901489 385.00000000 0.268498 -0.640264 -0.719702 0.000000
99.73049927 221.71499634 407.50000000 -0.000978 -0.000978 -0.999999 0.000000
117.45099640 276.11300659 390.00000000 0.192680 -0.710605 -0.676694 0.000000
212.64799500 129.40199280 292.50000000 0.447987 0.814667 0.368274 0.000000
242.32000732 147.53500366 327.50000000 0.769114 0.613768 -0.178191 0.000000
211.00000000 162.78300476 315.00000000 -0.311656 0.621697 -0.718585 0.000000
180.50399780 168.55299377 295.00000000 0.667564 0.667564 -0.329721 0.000000
253.03500366 124.86900330 320.00000000 0.000978 0.999999 0.000978 0.000000
249.32600403 140.94099426 325.00000000 0.642599 0.735954 -0.213162 0.000000
160.72300720 185.03700256 310.00000000 0.565445 0.808421 -0.163484 0.000000
137.64500427 150.83200073 217.50000000 -0.306008 -0.262500 0.915124 0.000000
148.35899353 246.85400391 350.00000000 0.076980 -0.869176 0.488474 0.000000
184.21299744 204.40600586 340.00000000 -0.928510 0.370105 -0.029868 0.000000
152.89300537 127.75399780 265.00000000 0.311577 0.937477 -0.155102 0.000000
237.37500000 172.26199341 397.50000000 -0.000978 -0.000978 -0.999999 0.000000
198.63699341 130.22700500 312.50000000 0.949911 -0.001235 0.312519 0.000000
122.80899811 286.00399780 352.50000000 -0.288693 -0.907111 0.306278 0.000000
174.73399353 257.15600586 367.50000000 0.000978 0.000978 0.999999 0.000000
233.25399780 175.55900574 397.50000000 -0.000978 -0.000978 -0.999999 0.000000
196.57600403 203.58200073 370.00000000 0.041995 -0.459239 -0.887320 0.000000
218.41799927 127.34200287 310.00000000 0.059285 0.997062 0.048506 0.000000
92.31250000 217.59399414 317.50000000 0.980873 0.053632 0.187117 0.000000
109.20899963 241.49600220 270.00000000 0.420468 -0.810559 0.407678 0.000000
132.69900513 183.80099487 417.50000000 0.887273 -0.195053 -0.417972 0.000000
256.33200073 125.69300079 335.00000000 -0.127589 0.986133 -0.106126 0.000000
97.66989899 208.52699280 400.00000000 0.580650 0.563721 -0.587421 0.000000
184.62500000 173.08599854 412.50000000 -0.237568 0.857970 -0.455466 0.000000
96.02149963 201.93400574 310.00000000 0.969377 0.242649 0.037800 0.000000
134.34800720 151.65600586 217.50000000 0.000978 0.000978 0.999999 0.000000
233.25399780 158.66200256 330.00000000 0.520533 0.574440 -0.631715 0.000000
236.55099487 157.42599487 332.50000000 0.488374 0.555504 -0.672983 0.000000
170.61300659 236.13900757 355.00000000 -0.806243 -0.338718 0.485018 0.000000
205.22999573 142.58999634 397.50000000 0.000978 0.000978 -0.999999 0.000000
138.46899414 151.65600586 217.50000000 -0.312355 -0.280093 0.907735 0.000000
240.67199707 182.97700500 372.50000000 -0.000978 -0.000978 -0.999999 0.000000
170.20100403 253.03500366 365.00000000 -0.668660 -0.193031 0.718076 0.000000
253.03500366 128.16600037 360.00000000 -0.063372 0.989761 -0.127897 0.000000
100.55500031 274.05300903 380.00000000 0.808793 -0.560864 -0.176876 0.000000
102.20300293 183.38900757 395.00000000 0.885000 0.416731 -0.207629 0.000000
234.90199280 142.58999634 397.50000000 -0.123375 0.207320 -0.970462 0.000000
274.46499634 142.58999634 362.50000000 0.470976 0.641936 -0.605062 0.000000
140.94099426 133.52299500 272.50000000 0.353299 0.923045 -0.152212 0.000000
190.39500427 199.87300110 400.00000000 -0.538846 -0.778688 -0.321389 0.000000
177.20700073 220.06599426 407.50000000 -0.375783 -0.305799 -0.874799 0.000000
139.29299927 141.35400391 330.00000000 0.708486 0.705724 0.001381 0.000000
128.16600037 140.11700439 250.00000000 0.445466 0.892310 0.073095 0.000000
121.57199860 175.55900574 410.00000000 0.277175 0.568606 -0.774507 0.000000
183.80099487 177.61900330 335.00000000 0.778562 0.616054 0.119665 0.000000
264.57400513 164.84399414 387.50000000 -0.365805 0.190792 -0.910925 0.000000
93.96089935 257.15600586 392.50000000 0.802401 -0.445421 -0.397181 0.000000
146.71099854 209.35200500 247.50000000 -0.829527 -0.265139 0.491514 0.000000
172.26199341 254.68400574 392.50000000 0.000978 0.000978 -0.999999 0.000000
98.90619659 271.99200439 382.50000000 0.714513 -0.501325 -0.488001 0.000000
236.55099487 174.73399353 357.50000000 0.596145 0.613033 -0.518461 0.000000
215.12100220 157.42599487 302.50000000 0.394107 0.882620 -0.256245 0.000000
112.50599670 185.44900513 410.00000000 0.532158 0.733159 -0.423420 0.000000
94.37300110 267.87100220 355.00000000 0.880718 -0.380892 0.281529 0.000000
230.36900330 141.76600647 285.00000000 0.451044 0.707356 -0.544248 0.000000
123.63300323 152.89300537 220.00000000 0.611022 0.611022 0.503294 0.000000
240.67199707 129.40199280 372.50000000 -0.001122 0.986665 -0.162760 0.000000
239.02299500 170.61300659 397.50000000 -0.000978 -0.000978 -0.999999 0.000000
214.29699707 129.81399536 290.00000000 0.223898 0.885212 0.407761 0.000000
229.54499817 187.09800720 365.00000000 -0.107193 0.785594 -0.609386 0.000000
278.58599854 135.99600220 357.50000000 0.626507 0.376562 -0.682415 0.000000
135.99600220 190.39500427 227.50000000 -0.000978 -0.000978 0.999999 0.000000
224.18800354 126.51799774 325.00000000 -0.000978 0.999999 -0.000978 0.000000
121.57199860 154.95300293 340.00000000 0.788473 0.602080 -0.125741 0.000000
171.43800354 136.40800476 375.00000000 0.197062 0.964431 -0.176182 0.000000
144.23800659 216.35699463 420.00000000 -0.141753 -0.589395 -0.795311 0.000000
182.97700500 179.26800537 330.00000000 0.702227 0.702227 0.117285 0.000000
137.64500427 153.30499268 217.50000000 -0.433548 -0.192525 0.880324 0.000000
135.99600220 229.95700073 307.50000000 -0.511212 -0.848114 0.139155 0.000000
253.03500366 138.46899414 387.50000000 -0.000978 -0.000978 -0.999999 0.000000
139.70500183 153.30499268 220.00000000 -0.727870 -0.143163 0.670604 0.000000
128.57800293 271.16799927 352.50000000 0.000978 0.000978 0.999999 0.000000
173.08599854 137.23199463 380.00000000 0.163364 0.810823 -0.562031 0.000000
249.73800659 146.71099854 392.50000000 -0.000978 -0.000978 -0.999999 0.000000
266.22299194 127.34200287 340.00000000 -0.571658 0.684990 0.451660 0.000000
94.78520203 244.79299927 397.50000000 0.306876 -0.252128 -0.917746 0.000000
118.68800354 262.92599487 402.50000000 -0.157567 -0.242309 -0.957319 0.000000
181.74000549 211.82400513 340.00000000 -0.699606 -0.535975 0.472526 0.000000
112.91799927 226.66000366 237.50000000 0.211401 0.581738 0.785424 0.000000
174.73399353 161.54699707 402.50000000 -0.883793 -0.356829 -0.302627 0.000000
182.97700500 145.06199646 397.50000000 -0.000978 -0.000978 -0.999999 0.000000
164.84399414 194.51600647 337.50000000 -0.729298 0.637939 0.247300 0.000000
276.93798828 137.64500427 372.50000000 -0.598516 0.214971 -0.771730 0.000000
220.06599426 196.16400146 362.50000000 0.951125 0.057605 -0.303387 0.000000
91.07620239 227.48399353 325.00000000 0.986665 -0.001122 0.162760 0.000000
256.33200073 141.76600647 387.50000000 -0.243880 0.129113 -0.961173 0.000000
159.89799500 124.86900330 270.00000000 -0.001122 0.986665 0.162760 0.000000
124.45700073 157.42599487 377.50000000 0.524153 0.844710 -0.108296 0.000000
136.82000732 214.29699707 237.50000000 -0.632633 -0.478251 0.609140 0.000000
136.82000732 267.04699707 397.50000000 -0.000978 -0.000978 -0.999999 0.000000
90.25199890 258.80499268 360.00000000 0.928510 -0.370105 -0.029868 0.000000
221.71499634 185.86099243 360.00000000 0.262302 0.659729 -0.704241 0.000000
150.00799561 182.97700500 287.50000000 -0.884140 -0.223627 0.410229 0.000000
105.50000000 206.87899780 232.50000000 0.771236 -0.301788 0.560463 0.000000
248.91400146 139.29299927 392.50000000 -0.000978 -0.000978 -0.999999 0.000000
242.32000732 150.00799561 397.50000000 -0.467974 0.425579 -0.774521 0.000000
165.66799927 133.11099243 340.00000000 0.191280 0.956400 -0.220708 0.000000
218.83000183 201.93400574 375.00000000 0.000978 0.000978 0.999999 0.000000
126.10500336 235.72700500 252.50000000 -0.565363 -0.758649 0.323755 0.000000
225.83599854 187.92199707 397.50000000 -0.000978 -0.000978 -0.999999 0.000000
201.93400574 162.78300476 310.00000000 -0.087347 0.950390 -0.298545 0.000000
213.47300720 127.34200287 330.00000000 0.034439 0.998739 -0.036527 0.000000
139.70500183 258.80499268 405.00000000 -0.299214 -0.799488 -0.520855 0.000000
119.92400360 159.89799500 380.00000000 0.000978 0.000978 0.999999 0.000000
121.16000366 208.52699280 417.50000000 -0.000978 -0.000978 -0.999999 0.000000
169.78900146 194.51600647 417.50000000 -0.000978 -0.000978 -0.999999 0.000000
143.41400146 188.74600220 232.50000000 0.000978 0.000978 0.999999 0.000000
95.60939789 271.99200439 357.50000000 0.837154 -0.403656 0.369102 0.000000
136.82000732 262.10198975 402.50000000 -0.718578 -0.604518 0.343809 0.000000
170.61300659 163.19500732 407.50000000 -0.000978 -0.000978 -0.999999 0.000000
164.43200684 135.17199707 355.00000000 0.251564 0.957525 -0.140929 0.000000
186.27299500 199.46099854 412.50000000 -0.282595 -0.123387 -0.951271 0.000000
117.03900146 219.24200439 232.50000000 -0.476790 -0.805281 0.352410 0.000000
247.26600647 179.67999268 392.50000000 -0.000978 -0.000978 -0.999999 0.000000
150.00799561 273.22900391 390.00000000 -0.610684 -0.680192 -0.405467 0.000000
224.18800354 171.85000610 400.00000000 -0.834745 -0.001353 -0.550634 0.000000
145.06199646 180.50399780 417.50000000 0.289765 0.635563 -0.715609 0.000000
216.77000427 150.00799561 292.50000000 0.213722 0.838215 -0.501716 0.000000
187.09800720 194.51600647 412.50000000 -0.117926 -0.089904 -0.988944 0.000000
155.77699280 192.45500183 290.00000000 -0.786349 0.492477 0.372991 0.000000
185.86099243 174.73399353 335.00000000 0.775343 0.325869 0.540974 0.000000
274.46499634 132.69900513 357.50000000 -0.568527 0.707758 -0.419351 0.000000
139.70500183 155.77699280 220.00000000 -0.618445 -0.126062 0.775651 0.000000
87.77929688 253.85899353 380.00000000 0.891390 -0.453001 0.014613 0.000000
100.96700287 247.26600647 305.00000000 0.761803 -0.609752 0.218766 0.000000
162.37100220 181.32800293 302.50000000 0.308848 0.829342 -0.465623 0.000000
179.67999268 179.67999268 322.50000000 0.001122 0.986665 0.162760 0.000000
227.48399353 145.88699341 397.50000000 -0.000978 -0.000978 -0.999999 0.000000
122.80899811 147.94700623 270.00000000 0.710235 0.672936 -0.206698 0.000000
230.78100586 145.06199646 292.50000000 0.556297 0.742273 -0.373584 0.000000
133.52299500 156.60200500 217.50000000 0.000978 0.000978 0.999999 0.000000
102.20300293 189.15800476 285.00000000 0.947621 0.315016 0.052717 0.000000
147.53500366 262.10198975 357.50000000 -0.346070 0.045365 0.937111 0.000000
135.99600220 156.60200500 217.50000000 -0.330556 -0.021530 0.943541 0.000000
228.30900574 127.75399780 297.50000000 0.000000 0.000000 0.000000 0.000000
165.66799927 140.94099426 242.50000000 0.803485 0.491638 -0.335714 0.000000
196.16400146 132.28700256 370.00000000 -0.001122 0.986665 -0.162760 0.000000
191.21899414 140.94099426 392.50000000 -0.102921 0.918053 -0.382865 0.000000
193.69099426 191.21899414 347.50000000 0.000978 0.000978 0.999999 0.000000
94.78520203 260.86499023 390.00000000 0.710685 -0.534262 -0.457701 0.000000
245.20500183 166.49200439 360.00000000 0.418850 0.839269 -0.346689 0.000000
131.87500000 146.29899597 305.00000000 0.608069 0.792333 -0.049609 0.000000
88.60350037 219.24200439 340.00000000 0.984711 0.170900 0.033715 0.000000
164.84399414 201.93400574 312.50000000 -0.964540 0.149693 0.217380 0.000000
93.13670349 262.92599487 377.50000000 0.849982 -0.491466 -0.189715 0.000000
196.16400146 145.88699341 397.50000000 0.131853 0.208661 -0.969059 0.000000
162.37100220 143.41400146 387.50000000 -0.000978 -0.000978 -0.999999 0.000000
140.94099426 224.60000610 300.00000000 -0.565445 -0.808421 0.163484 0.000000
99.73049927 192.86700439 297.50000000 0.929535 0.333857 0.156539 0.000000
122.80899811 220.89100647 232.50000000 0.221396 -0.832144 0.508448 0.000000
231.19299316 172.26199341 350.00000000 0.464636 0.788423 -0.403116 0.000000
138.88099670 157.42599487 220.00000000 -0.690759 -0.092395 0.717158 0.000000
104.26399994 178.85499573 375.00000000 0.892310 0.445466 0.073095 0.000000
167.31599426 144.23800659 247.50000000 0.441054 0.033515 -0.896855 0.000000
234.07800293 149.18400574 397.50000000 -0.000978 -0.000978 -0.999999 0.000000
126.10500336 192.04299927 417.50000000 0.067593 0.115710 -0.990981 0.000000
146.71099854 140.94099426 357.50000000 0.321719 0.944315 -0.069033 0.000000
116.21499634 168.14100647 392.50000000 0.643187 0.722202 -0.254430 0.000000
142.58999634 218.41799927 252.50000000 -0.761995 -0.534534 0.365563 0.000000
128.99000549 139.29299927 255.00000000 0.591008 0.806665 0.001365 0.000000
132.69900513 158.25000000 217.50000000 0.000978 0.000978 0.999999 0.000000
126.10500336 166.49200439 402.50000000 -0.000978 -0.000978 -0.999999 0.000000
201.10899353 153.30499268 287.50000000 0.000978 0.000978 -0.999999 0.000000
251.79899597 149.18400574 340.00000000 0.579597 0.324510 -0.747503 0.000000
167.31599426 189.15800476 340.00000000 0.494917 0.785097 -0.372397 0.000000
267.04699707 162.37100220 377.50000000 0.133644 0.964052 -0.229660 0.000000
189.98199463 224.18800354 380.00000000 -0.837551 0.464616 0.287471 0.000000
119.51200104 163.60699463 390.00000000 0.680943 0.680943 -0.269507 0.000000
160.72300720 269.51998901 382.50000000 -0.485767 -0.778202 -0.398036 0.000000
112.50599670 164.02000427 275.00000000 -0.000978 -0.000978 -0.999999 0.000000
114.56600189 230.78100586 242.50000000 0.000978 0.000978 0.999999 0.000000
149.18400574 238.19900513 342.50000000 -0.741733 -0.518062 0.425962 0.000000
150.83200073 267.87100220 362.50000000 -0.336370 -0.300491 0.892502 0.000000
188.74600220 203.99400330 395.00000000 -0.667564 -0.667564 -0.329721 0.000000
206.87899780 206.05499268 377.50000000 0.690123 -0.723583 0.012548 0.000000
121.16000366 245.20500183 290.00000000 -0.668729 -0.743494 -0.004154 0.000000
96.43360138 264.57400513 387.50000000 0.697213 -0.655540 -0.290105 0.000000
189.98199463 205.22999573 355.00000000 -0.889409 -0.432491 0.147995 0.000000
92.72460175 204.40600586 335.00000000 0.963639 0.261220 0.056244 0.000000
130.22700500 234.07800293 417.50000000 -0.000978 -0.000978 -0.999999 0.000000
166.49200439 208.52699280 412.50000000 -0.180896 -0.296890 -0.937621 0.000000
85.71880341 227.07200623 375.00000000 0.947621 0.315016 -0.052717 0.000000
117.86299896 226.66000366 237.50000000 0.000978 0.000978 0.999999 0.000000
120.33599854 218.41799927 227.50000000 -0.639575 0.301261 0.707238 0.000000
139.29299927 131.87500000 252.50000000 0.393390 0.917015 0.065789 0.000000
209.35200500 154.12899780 292.50000000 0.275566 0.638740 -0.718383 0.000000
119.51200104 159.89799500 217.50000000 0.000000 0.000000 0.000000 0.000000
143.41400146 248.08999634 412.50000000 -0.000978 -0.000978 -0.999999 0.000000
153.30499268 159.89799500 232.50000000 -0.610301 0.264728 0.746627 0.000000
126.10500336 148.77099609 285.00000000 0.999999 -0.000978 -0.000978 0.000000
120.33599854 241.08399963 260.00000000 -0.262833 -0.959404 0.102285 0.000000
133.52299500 202.75799561 227.50000000 0.000978 0.000978 0.999999 0.000000
100.96700287 185.44900513 375.00000000 0.000978 0.000978 0.999999 0.000000
138.46899414 136.82000732 282.50000000 0.486755 0.844619 -0.222907 0.000000
267.87100220 135.17199707 342.50000000 -0.075793 0.576315 -0.813705 0.000000
188.33399963 200.28500366 350.00000000 -0.806883 -0.073092 0.586172 0.000000
127.75399780 212.64799500 227.50000000 -0.470042 -0.044961 0.881498 0.000000
116.21499634 161.13499451 290.00000000 0.000978 0.000978 -0.999999 0.000000
137.64500427 159.89799500 217.50000000 -0.424365 0.052540 0.903965 0.000000
134.34800720 254.68400574 347.50000000 -0.509220 -0.255384 0.821872 0.000000
103.02700043 213.47300720 407.50000000 0.624906 -0.587850 -0.513737 0.000000
219.24200439 151.65600586 297.50000000 0.000978 0.000978 -0.999999 0.000000
177.20700073 180.09199524 320.00000000 0.001122 0.986665 0.162760 0.000000
143.41400146 221.71499634 417.50000000 -0.000978 -0.000978 -0.999999 0.000000
175.55900574 211.82400513 327.50000000 -0.768539 -0.471566 0.432405 0.000000
94.78520203 264.98599243 350.00000000 0.907609 -0.348184 0.234551 0.000000
158.25000000 239.84800720 412.50000000 -0.000978 -0.000978 -0.999999 0.000000
203.58200073 185.44900513 402.50000000 -0.000978 -0.000978 -0.999999 0.000000
130.22700500 160.72300720 217.50000000 0.000978 0.000978 0.999999 0.000000
226.66000366 184.62500000 397.50000000 -0.000978 -0.000978 -0.999999 0.000000
159.89799500 194.51600647 327.50000000 -0.930758 0.206367 0.301830 0.000000
234.07800293 126.51799774 345.00000000 0.165921 0.939302 -0.300302 0.000000
261.27700806 174.73399353 382.50000000 -0.839343 -0.381234 0.387510 0.000000
86.54299927 222.95100403 370.00000000 0.959613 0.279318 -0.033518 0.000000
127.75399780 284.35501099 382.50000000 -0.107403 -0.857794 -0.502647 0.000000
92.72460175 261.27700806 350.00000000 0.900447 -0.412646 0.137549 0.000000
146.71099854 234.90199280 417.50000000 0.263886 -0.523088 -0.810397 0.000000
172.26199341 225.83599854 407.50000000 0.000978 0.000978 -0.999999 0.000000
90.25199890 216.77000427 330.00000000 0.986665 0.001122 0.162760 0.000000
189.57000732 192.04299927 347.50000000 0.000978 0.000978 0.999999 0.000000
229.13299561 147.53500366 297.50000000 0.487610 0.815840 -0.310871 0.000000
159.89799500 262.92599487 392.50000000 -0.279525 -0.557471 -0.781723 0.000000
110.44499969 209.35200500 412.50000000 -0.000978 -0.000978 -0.999999 0.000000
177.20700073 243.96899414 397.50000000 -0.571935 -0.183565 -0.799496 0.000000
257.15600586 151.65600586 387.50000000 -0.000978 -0.000978 -0.999999 0.000000
205.22999573 178.03100586 347.50000000 0.086276 -0.910686 0.403989 0.000000
117.86299896 275.28900146 392.50000000 0.197863 -0.456722 -0.867326 0.000000
107.56099701 174.73399353 345.00000000 0.938347 0.343674 0.037328 0.000000
135.17199707 252.21099854 407.50000000 -0.000978 -0.000978 -0.999999 0.000000
142.58999634 190.39500427 232.50000000 0.000978 0.000978 0.999999 0.000000
270.34399414 161.54699707 377.50000000 0.470005 0.553636 -0.687446 0.000000
115.39099884 255.50799561 322.50000000 -0.766646 -0.587185 0.259747 0.000000
185.44900513 221.71499634 402.50000000 -0.396408 0.085820 -0.914054 0.000000
136.82000732 260.45300293 352.50000000 0.000978 0.000978 0.999999 0.000000
188.33399963 201.93400574 400.00000000 -0.780490 -0.558850 -0.280217 0.000000
154.12899780 249.73800659 357.50000000 -0.493038 -0.855090 0.160421 0.000000
119.51200104 162.37100220 217.50000000 -0.000978 -0.000978 -0.999999 0.000000
167.31599426 247.26600647 402.50000000 -0.344802 -0.552006 -0.759211 0.000000
126.93000031 237.37500000 312.50000000 -0.441887 -0.885213 -0.145376 0.000000
246.44099426 176.38299561 392.50000000 -0.200113 -0.031971 -0.979251 0.000000
213.47300720 158.25000000 302.50000000 0.310981 0.943621 -0.113448 0.000000
153.30499268 169.78900146 237.50000000 -0.784038 -0.231330 0.575996 0.000000
173.91000366 211.82400513 322.50000000 -0.546132 -0.300930 0.781781 0.000000
163.19500732 238.19900513 352.50000000 -0.011612 -0.385780 0.922518 0.000000
102.61499786 187.09800720 255.00000000 0.000978 0.000978 -0.999999 0.000000
90.66410065 235.72700500 327.50000000 0.945107 -0.198898 0.259253 0.000000
131.05099487 192.04299927 417.50000000 -0.027659 0.229689 -0.972871 0.000000
125.28099823 184.62500000 417.50000000 -0.000978 -0.000978 -0.999999 0.000000
113.74199677 163.60699463 330.00000000 0.832034 0.554231 -0.023379 0.000000
138.05700684 162.37100220 220.00000000 -0.598724 -0.113272 0.792905 0.000000
220.06599426 194.51600647 392.50000000 0.320185 0.907923 0.270476 0.000000
187.09800720 176.38299561 352.50000000 0.000978 0.000978 0.999999 0.000000
92.72460175 257.15600586 390.00000000 0.766353 -0.455890 -0.452622 0.000000
119.51200104 163.19500732 217.50000000 -0.000978 -0.000978 -0.999999 0.000000
141.76600647 286.82800293 362.50000000 -0.233503 0.548963 0.802568 0.000000
268.69500732 164.02000427 382.50000000 -0.619870 -0.126352 -0.774465 0.000000
112.09400177 192.86700439 412.50000000 -0.000978 -0.000978 -0.999999 0.000000
166.08000183 266.22299194 365.00000000 -0.527044 -0.557354 0.641546 0.000000
131.87500000 163.19500732 217.50000000 0.000978 0.000978 0.999999 0.000000
272.81600952 156.18899536 375.00000000 0.656013 0.373221 -0.656013 0.000000
133.52299500 163.19500732 217.50000000 -0.189308 0.084273 0.978295 0.000000
91.48829651 262.10198975 372.50000000 0.916649 -0.386174 -0.103071 0.000000
135.17199707 163.19500732 217.50000000 -0.149262 0.012345 0.988721 0.000000
250.56199646 140.11700439 322.50000000 0.793183 0.594517 -0.131950 0.000000
136.82000732 163.19500732 217.50000000 -0.224313 0.015429 0.974395 0.000000
143.41400146 173.91000366 412.50000000 -0.092400 0.501804 -0.860032 0.000000
207.70300293 133.11099243 380.00000000 0.110436 0.946025 -0.304697 0.000000
211.82400513 147.94700623 280.00000000 0.571310 0.665132 -0.480838 0.000000
229.95700073 154.12899780 397.50000000 -0.318211 -0.044728 -0.946964 0.000000
178.03100586 220.06599426 407.50000000 -0.375783 -0.305799 -0.874799 0.000000
148.77099609 191.21899414 240.00000000 -0.896251 -0.001308 0.443546 0.000000
137.64500427 236.55099487 327.50000000 -0.547885 -0.547885 0.632175 0.000000
131.87500000 216.77000427 237.50000000 0.000978 0.000978 0.999999 0.000000
132.69900513 223.36300659 242.50000000 -0.768015 -0.419066 0.484290 0.000000
206.87899780 170.61300659 402.50000000 -0.000978 -0.000978 -0.999999 0.000000
163.19500732 172.67399597 280.00000000 0.190967 0.890694 -0.412547 0.000000
127.75399780 290.12500000 367.50000000 0.165621 -0.985617 -0.033587 0.000000
252.21099854 155.36500549 350.00000000 0.646302 0.322341 -0.691657 0.000000
174.73399353 153.71699524 400.00000000 0.624527 0.001373 -0.781002 0.000000
145.06199646 239.02299500 412.50000000 -0.835590 0.123953 -0.535186 0.000000
131.05099487 246.44099426 337.50000000 -0.640782 -0.417756 0.644110 0.000000
164.84399414 225.83599854 412.50000000 -0.000978 -0.000978 -0.999999 0.000000
117.03900146 164.84399414 217.50000000 0.493619 0.608180 -0.621657 0.000000
133.52299500 145.47500610 340.00000000 0.611022 0.611022 -0.503294 0.000000
252.21099854 132.69900513 382.50000000 -0.306525 0.892662 -0.330449 0.000000
129.40199280 147.94700623 295.00000000 0.702468 0.702468 -0.114355 0.000000
147.53500366 166.08000183 405.00000000 0.068917 0.912140 -0.404044 0.000000
240.67199707 146.29899597 315.00000000 0.543559 0.814577 -0.202502 0.000000
130.22700500 164.84399414 217.50000000 0.000978 0.000978 0.999999 0.000000
269.51998901 129.40199280 347.50000000 -0.311577 0.937477 -0.155102 0.000000
192.04299927 175.55900574 407.50000000 -0.131264 0.235235 -0.963034 0.000000
147.53500366 201.93400574 422.50000000 -0.000978 -0.000978 -0.999999 0.000000
231.60499573 126.10500336 312.50000000 0.001122 0.986665 0.162760 0.000000
257.98001099 128.99000549 360.00000000 -0.164450 0.983101 -0.080425 0.000000
135.17199707 244.79299927 412.50000000 -0.000978 -0.000978 -0.999999 0.000000
89.01560211 255.50799561 382.50000000 0.843737 -0.527515 -0.099179 0.000000
239.84800720 177.20700073 362.50000000 0.738720 0.451164 -0.500743 0.000000
229.95700073 158.25000000 327.50000000 0.554033 0.684591 -0.473690 0.000000
255.50799561 168.14100647 377.50000000 0.387498 0.624944 -0.677710 0.000000
161.54699707 150.00799561 392.50000000 0.818080 0.409837 -0.403459 0.000000
223.36300659 181.32800293 397.50000000 -0.193402 -0.242091 -0.950782 0.000000
150.83200073 184.62500000 242.50000000 -0.557471 -0.279525 0.781723 0.000000
138.88099670 131.87500000 265.00000000 0.688576 0.688576 -0.227434 0.000000
251.38699341 154.12899780 392.50000000 -0.320679 0.021379 -0.946947 0.000000
150.00799561 262.10198975 397.50000000 0.003881 -0.410093 -0.912036 0.000000
239.02299500 154.95300293 332.50000000 0.372045 0.491229 -0.787576 0.000000
226.66000366 141.76600647 397.50000000 -0.085824 0.326130 -0.941421 0.000000
89.83979797 256.33200073 372.50000000 0.937477 -0.311577 0.155102 0.000000
266.22299194 159.89799500 372.50000000 -0.000978 -0.000978 0.999999 0.000000
220.06599426 180.50399780 402.50000000 -0.855560 0.209003 -0.473640 0.000000
168.96499634 185.86099243 320.00000000 0.318141 0.901153 -0.294465 0.000000
140.11700439 232.42999268 322.50000000 -0.485253 -0.666593 0.565848 0.000000
120.33599854 159.48599243 380.00000000 0.599696 0.762537 0.242697 0.000000
154.95300293 185.44900513 252.50000000 -0.999999 0.000978 0.000978 0.000000
178.85499573 201.10899353 337.50000000 -0.511887 0.679719 0.525313 0.000000
92.31250000 266.22299194 357.50000000 0.854221 -0.379826 0.355021 0.000000
159.89799500 225.01199341 412.50000000 -0.000978 -0.000978 -0.999999 0.000000
143.41400146 220.06599426 417.50000000 -0.112598 -0.213809 -0.970365 0.000000
267.87100220 163.19500732 382.50000000 -0.113530 0.989001 0.094804 0.000000
168.96499634 145.06199646 247.50000000 0.441054 0.033515 -0.896855 0.000000
139.29299927 193.69099426 227.50000000 -0.886085 0.207883 0.414293 0.000000
141.76600647 201.10899353 422.50000000 -0.000978 -0.000978 -0.999999 0.000000
123.63300323 252.21099854 407.50000000 -0.453590 -0.364464 -0.813279 0.000000
131.87500000 137.64500427 262.50000000 0.702227 0.702227 -0.117285 0.000000
242.32000732 152.47999573 397.50000000 -0.000978 -0.000978 -0.999999 0.000000
251.38699341 179.67999268 392.50000000 -0.316681 -0.110905 -0.942026 0.000000
160.72300720 147.53500366 242.50000000 0.463907 0.617985 -0.634732 0.000000
113.33000183 156.60200500 250.00000000 0.918515 0.394766 0.022149 0.000000
100.96700287 278.58599854 375.00000000 0.445466 -0.892310 -0.073095 0.000000
156.60200500 241.49600220 412.50000000 -0.000978 -0.000978 -0.999999 0.000000
130.22700500 227.48399353 242.50000000 -0.453614 -0.597566 0.661172 0.000000
154.12899780 218.00599670 305.00000000 -0.611022 -0.611022 0.503294 0.000000
90.25199890 258.80499268 375.00000000 0.946118 -0.323705 -0.008749 0.000000
109.20899963 170.61300659 320.00000000 0.928937 0.308706 0.204394 0.000000
112.09400177 235.72700500 412.50000000 -0.000978 -0.000978 -0.999999 0.000000
117.03900146 279.41000366 347.50000000 -0.702620 -0.556448 0.443498 0.000000
115.39099884 256.74398804 325.00000000 -0.740252 -0.637827 0.212609 0.000000
154.12899780 178.03100586 252.50000000 0.000978 0.000978 -0.999999 0.000000
140.94099426 201.10899353 232.50000000 -0.830951 0.554433 -0.046086 0.000000
264.57400513 160.72300720 387.50000000 -0.421182 0.049788 -0.905609 0.000000
169.37699890 163.19500732 265.00000000 0.384499 0.737911 -0.554660 0.000000
257.15600586 168.96499634 387.50000000 -0.000978 -0.000978 -0.999999 0.000000
135.99600220 167.31599426 217.50000000 0.000978 0.000978 0.999999 0.000000
262.10198975 138.88099670 340.00000000 0.449141 0.659519 -0.602750 0.000000
145.06199646 245.61700439 412.50000000 -0.000978 -0.000978 -0.999999 0.000000
123.63300323 156.18899536 370.00000000 0.707106 0.707106 0.001384 0.000000
223.36300659 189.57000732 397.50000000 -0.000978 -0.000978 -0.999999 0.000000
108.79699707 214.29699707 412.50000000 0.383441 0.051745 -0.922115 0.000000
142.58999634 266.22299194 357.50000000 0.000978 0.000978 0.999999 0.000000
174.73399353 201.93400574 327.50000000 -0.865495 0.399813 0.301774 0.000000
141.76600647 138.88099670 305.00000000 0.444008 0.889425 -0.108535 0.000000
230.78100586 135.17199707 392.50000000 0.219868 0.399893 -0.889800 0.000000
182.97700500 237.37500000 367.50000000 -0.852777 0.071887 0.517304 0.000000
264.57400513 136.40800476 380.00000000 -0.099028 0.529585 -0.842457 0.000000
145.06199646 267.87100220 357.50000000 0.000978 0.000978 0.999999 0.000000
133.52299500 281.05899048 382.50000000 0.070346 -0.782424 -0.618761 0.000000
150.41999817 223.36300659 315.00000000 -0.481358 0.001326 0.876523 0.000000
256.33200073 154.95300293 387.50000000 -0.396530 0.152074 -0.905338 0.000000
140.94099426 240.67199707 337.50000000 -0.000978 -0.000978 0.999999 0.000000
156.60200500 273.22900391 365.00000000 0.162269 -0.525515 0.835166 0.000000
175.55900574 200.28500366 327.50000000 -0.838378 0.333784 0.430942 0.000000
114.97899628 168.96499634 220.00000000 0.837137 0.538467 0.096206 0.000000
260.45300293 178.03100586 387.50000000 -0.745088 -0.665308 0.047013 0.000000
217.59399414 175.55900574 347.50000000 -0.255791 -0.897486 0.359290 0.000000
222.53900146 171.02499390 340.00000000 0.351477 0.874888 -0.333218 0.000000
101.37899780 201.93400574 242.50000000 0.986665 -0.001122 0.162760 0.000000
126.10500336 222.53900146 417.50000000 -0.000978 -0.000978 -0.999999 0.000000
149.18400574 281.88299561 377.50000000 0.667564 -0.667564 0.329721 0.000000
190.39500427 201.93400574 352.50000000 -0.857536 -0.280732 0.431069 0.000000
128.57800293 232.42999268 417.50000000 -0.000978 -0.000978 -0.999999 0.000000
98.08200073 269.51998901 382.50000000 0.876417 -0.225450 -0.425518 0.000000
255.50799561 148.35899353 342.50000000 0.579597 0.324510 -0.747503 0.000000
90.25199890 225.83599854 330.00000000 0.968268 0.060905 0.242378 0.000000
218.41799927 175.55900574 402.50000000 -0.679406 0.334001 -0.653338 0.000000
172.67399597 186.27299500 340.00000000 0.673971 0.683576 -0.280154 0.000000
100.96700287 188.74600220 300.00000000 0.918449 0.365978 0.150037 0.000000
232.01800537 145.88699341 295.00000000 0.544775 0.783014 -0.300182 0.000000
160.72300720 223.36300659 327.50000000 -0.431663 -0.719439 0.544127 0.000000
140.94099426 136.40800476 285.00000000 0.523099 0.836064 -0.165424 0.000000
139.29299927 248.08999634 347.50000000 -0.136674 -0.728426 0.671354 0.000000
118.68800354 265.39801025 402.50000000 -0.157567 -0.242309 -0.957319 0.000000
162.37100220 239.84800720 352.50000000 0.000978 0.000978 0.999999 0.000000
182.15199280 180.09199524 350.00000000 -0.775626 -0.503590 0.380527 0.000000
187.92199707 191.21899414 412.50000000 -0.000978 -0.000978 -0.999999 0.000000
176.38299561 150.83200073 257.50000000 0.422188 0.211835 -0.881410 0.000000
131.87500000 169.78900146 217.50000000 0.000978 0.000978 0.999999 0.000000
263.75000000 136.40800476 380.00000000 -0.099028 0.529585 -0.842457 0.000000
262.92599487 171.43800354 382.50000000 -0.818080 -0.409837 0.403459 0.000000
119.92400360 157.42599487 340.00000000 0.766837 0.617433 -0.175321 0.000000
145.06199646 136.40800476 300.00000000 0.482732 0.870617 -0.094848 0.000000
150.83200073 227.48399353 322.50000000 -0.315016 -0.947621 0.052717 0.000000
240.25999451 150.83200073 330.00000000 0.610794 0.614159 -0.499740 0.000000
101.79100037 191.21899414 400.00000000 0.846769 0.212824 -0.487533 0.000000
127.34200287 152.47999573 355.00000000 0.445466 0.892310 -0.073095 0.000000
102.61499786 187.09800720 290.00000000 0.928371 0.366846 0.059596 0.000000
159.89799500 261.27700806 362.50000000 0.000978 0.000978 0.999999 0.000000
133.52299500 188.74600220 417.50000000 -0.000978 -0.000978 -0.999999 0.000000
135.17199707 173.91000366 412.50000000 -0.000978 -0.000978 -0.999999 0.000000
130.22700500 170.61300659 217.50000000 -0.427731 0.009156 0.903860 0.000000
239.02299500 186.27299500 392.50000000 -0.000978 -0.000978 -0.999999 0.000000
149.18400574 274.46499634 362.50000000 0.000978 0.000978 0.999999 0.000000
182.15199280 220.06599426 402.50000000 -0.480842 0.065129 -0.874385 0.000000
159.07400513 128.99000549 235.00000000 0.148928 0.771720 0.618279 0.000000
118.27500153 160.72300720 365.00000000 -0.000978 -0.000978 0.999999 0.000000
182.97700500 196.16400146 412.50000000 -0.000978 -0.000978 -0.999999 0.000000
135.17199707 239.02299500 327.50000000 -0.579063 -0.720138 0.382214 0.000000
256.33200073 158.25000000 367.50000000 -0.001308 0.896251 0.443546 0.000000
164.84399414 268.69500732 382.50000000 -0.509153 -0.721439 -0.469350 0.000000
124.04499817 146.71099854 270.00000000 0.630198 0.728616 -0.268271 0.000000
111.26999664 161.54699707 247.50000000 0.911682 0.403531 0.077445 0.000000
230.78100586 173.08599854 352.50000000 0.344384 0.846157 -0.406716 0.000000
164.02000427 164.84399414 407.50000000 -0.000978 -0.000978 -0.999999 0.000000
159.89799500 174.73399353 282.50000000 0.425727 0.879637 -0.212122 0.000000
94.78520203 199.46099854 382.50000000 0.864265 0.472622 -0.172264 0.000000
146.71099854 178.03100586 417.50000000 0.828419 0.552758 -0.090451 0.000000
164.84399414 140.94099426 237.50000000 0.709248 0.251159 -0.658700 0.000000
207.70300293 201.10899353 357.50000000 -0.249009 -0.430106 0.867758 0.000000
187.09800720 240.25999451 385.00000000 -0.828419 -0.552758 0.090451 0.000000
