155.40199280 195.56199646 481.50000000 -0.283929 -0.340417 -0.896382 0.000000
174.60899353 171.11700439 430.50000000 -0.153081 0.467990 0.870374 0.000000
208.22200012 215.64300537 426.00000000 -0.720927 -0.624590 0.300253 0.000000
121.35399628 271.08099365 356.00000000 0.203170 -0.811154 0.548407 0.000000
66.78810120 173.73599243 409.00000000 0.932450 -0.203316 0.298664 0.000000
161.07699585 238.34199524 454.00000000 -0.251864 -0.682726 -0.685894 0.000000
192.94299316 221.31700134 451.00000000 -0.181625 -0.333684 -0.925023 0.000000
83.81250000 257.54901123 425.50000000 0.695131 -0.633269 -0.340240 0.000000
188.57800293 219.13499451 455.50000000 -0.351043 -0.716782 -0.602489 0.000000
70.28029633 165.00599670 398.00000000 0.976072 0.215713 0.027411 0.000000
78.13770294 237.46899414 394.00000000 0.975352 -0.195070 0.103126 0.000000
164.13299561 224.80999756 464.00000000 -0.356841 -0.584958 -0.728346 0.000000
65.47850037 200.80099487 447.50000000 0.753685 0.001378 -0.657235 0.000000
72.46289825 188.57800293 455.50000000 0.760442 0.015292 -0.649226 0.000000
145.36199951 192.07000732 401.00000000 -0.322432 0.774800 0.543804 0.000000
186.39599609 172.86300659 438.00000000 -0.579495 0.562600 0.589632 0.000000
79.88379669 239.21499634 384.00000000 0.823324 -0.566122 -0.040537 0.000000
281.99398804 186.39599609 462.00000000 -0.103198 0.462269 -0.880714 0.000000
128.33799744 165.87899780 385.50000000 -0.506809 0.786761 -0.352353 0.000000
89.05079651 125.28199768 426.00000000 0.824741 0.565023 0.023485 0.000000
251.43800354 166.75199890 465.50000000 -0.629050 0.461304 -0.625695 0.000000
200.80099487 175.91900635 446.00000000 0.300924 0.664607 0.683917 0.000000
142.30700684 240.52400208 361.00000000 -0.613432 -0.101019 0.783260 0.000000
102.14600372 140.56100464 358.50000000 -0.666982 0.640632 0.380427 0.000000
67.22460175 192.07000732 411.50000000 0.999540 0.023387 0.019320 0.000000
71.15329742 155.40199280 447.00000000 0.942318 0.231082 -0.242152 0.000000
102.14600372 189.88800049 307.00000000 -0.543994 -0.149709 0.825626 0.000000
146.67199707 139.68800354 487.50000000 0.042719 0.238004 -0.970324 0.000000
98.65429688 165.44200134 308.00000000 0.073526 0.467513 0.880923 0.000000
145.36199951 186.83200073 487.00000000 -0.242796 -0.013156 -0.969988 0.000000
201.67399597 171.11700439 442.50000000 0.655397 -0.658682 0.369585 0.000000
152.78300476 150.60099792 423.00000000 0.038935 0.107906 0.993398 0.000000
154.09300232 235.72300720 369.00000000 -0.560938 -0.160054 0.812238 0.000000
170.68099976 230.48399353 377.00000000 -0.555778 -0.186269 0.810194 0.000000
180.72099304 177.66499329 484.00000000 -0.308188 -0.323076 -0.894786 0.000000
73.33589935 234.41299438 441.00000000 0.724087 -0.439092 -0.531881 0.000000
200.36399841 153.65600586 483.00000000 -0.289365 0.100820 -0.951894 0.000000
160.64100647 185.95899963 484.50000000 -0.170408 -0.220606 -0.960362 0.000000
107.38500214 275.44601440 409.00000000 0.602719 -0.749025 0.275120 0.000000
80.75679779 151.91000366 460.00000000 0.714848 0.314662 -0.624484 0.000000
94.28910065 254.05700684 438.50000000 0.390384 -0.700056 -0.597931 0.000000
199.05499268 180.28399658 437.00000000 -0.213408 0.976433 0.032190 0.000000
142.30700684 230.48399353 465.50000000 -0.304939 -0.643760 -0.701844 0.000000
68.09770203 207.78500366 449.50000000 0.767710 -0.236098 -0.595718 0.000000
215.20599365 211.27699280 447.00000000 -0.377990 -0.284622 -0.880973 0.000000
170.24400330 112.62300110 466.50000000 0.208636 0.266667 -0.940935 0.000000
89.05079651 237.03199768 348.00000000 0.833930 -0.441308 0.331373 0.000000
67.66110229 181.59399414 403.00000000 0.705724 0.708486 -0.001381 0.000000
65.91500092 164.13299561 410.00000000 0.081719 -0.447379 0.890603 0.000000
136.19500732 151.03700256 487.50000000 -0.167010 0.141896 -0.975691 0.000000
122.66300201 186.83200073 332.00000000 -0.827194 0.029097 0.561162 0.000000
121.35399628 160.64100647 405.50000000 -0.510947 0.770476 0.381183 0.000000
175.48199463 203.85600281 472.00000000 -0.272400 -0.546374 -0.792006 0.000000
247.07200623 171.11700439 454.50000000 -0.481936 -0.074037 0.873073 0.000000
98.65429688 150.60099792 334.00000000 -0.378721 0.768819 0.515255 0.000000
112.62300110 199.49099731 483.00000000 0.427530 -0.354961 -0.831397 0.000000
210.84100342 208.65800476 418.00000000 -0.724501 -0.525553 0.445974 0.000000
117.86100006 250.56399536 341.50000000 -0.403520 -0.362697 0.840013 0.000000
151.91000366 99.52729797 453.50000000 0.506723 0.594263 -0.624566 0.000000
123.97299957 170.24400330 345.50000000 -0.714038 0.467703 0.520965 0.000000
107.38500214 272.39099121 424.50000000 0.283000 -0.788922 -0.545447 0.000000
88.61430359 128.33799744 399.00000000 0.748699 0.662897 -0.004152 0.000000
111.75000000 232.22999573 463.50000000 0.166150 -0.666125 -0.727098 0.000000
67.22460175 199.05499268 384.50000000 0.984091 0.121955 0.129200 0.000000
95.16210175 170.24400330 307.50000000 0.775341 0.104063 0.622911 0.000000
268.02499390 184.21299744 459.50000000 -0.718125 0.120431 -0.685415 0.000000
75.95510101 175.91900635 364.00000000 0.924932 0.264471 0.273048 0.000000
220.88099670 143.17999268 478.50000000 -0.256477 0.061304 -0.964604 0.000000
72.46289825 216.51600647 386.50000000 0.900247 -0.382496 0.207973 0.000000
146.67199707 289.41500854 397.00000000 -0.256396 -0.963695 -0.074519 0.000000
119.60700226 115.67900085 452.00000000 0.387897 0.871627 -0.299669 0.000000
205.16600037 218.69799805 420.00000000 -0.420710 -0.734181 0.532900 0.000000
113.49600220 279.81201172 415.00000000 0.410558 -0.911622 -0.019675 0.000000
78.13770294 147.54499817 396.00000000 0.832753 0.474747 0.284848 0.000000
199.05499268 166.31500244 434.00000000 0.623551 -0.656807 0.424015 0.000000
181.59399414 258.42199707 414.50000000 -0.737492 -0.557616 -0.381011 0.000000
68.09770203 221.75399780 420.50000000 0.986165 -0.151627 -0.066998 0.000000
160.20399475 241.83399963 375.00000000 -0.662894 -0.209580 0.718782 0.000000
110.44000244 169.37100220 322.00000000 -0.793430 0.601260 -0.094629 0.000000
151.91000366 186.83200073 404.50000000 -0.374806 0.577758 0.725062 0.000000
131.83000183 141.43400574 420.50000000 -0.213622 0.129197 0.968336 0.000000
141.43400574 246.19900513 360.50000000 -0.670430 0.082895 0.737328 0.000000
85.99510193 154.52900696 341.00000000 0.869771 0.365335 0.331705 0.000000
129.21099854 120.04399872 470.00000000 0.249537 0.963597 -0.095976 0.000000
120.48000336 254.92999268 445.50000000 -0.066964 -0.807844 -0.585580 0.000000
242.70700073 157.14799500 457.50000000 -0.265366 0.557425 0.786676 0.000000
175.48199463 158.02099609 437.50000000 0.488455 0.042415 0.871557 0.000000
88.17769623 190.32400513 471.50000000 0.640186 -0.198998 -0.741999 0.000000
68.53420258 220.00799561 427.00000000 0.995179 -0.078596 -0.058670 0.000000
110.87699890 114.80599976 442.00000000 0.355271 0.865876 -0.352195 0.000000
119.60700226 263.66000366 437.50000000 0.001378 -0.753685 -0.657235 0.000000
121.79000092 213.02299500 331.00000000 -0.842867 0.054514 0.535353 0.000000
214.77000427 133.57600403 479.50000000 0.343710 0.080951 -0.935580 0.000000
94.28910065 158.89500427 475.50000000 0.598526 0.263730 -0.756448 0.000000
230.04800415 134.44900513 477.00000000 -0.113881 -0.191470 -0.974869 0.000000
148.85400391 136.19500732 485.00000000 -0.198104 0.460256 -0.865401 0.000000
94.72560120 177.22900391 308.00000000 0.654072 0.006914 0.756401 0.000000
103.01999664 156.27499390 480.50000000 0.441197 0.278246 -0.853185 0.000000
123.09999847 239.65100098 457.00000000 -0.202686 -0.632812 -0.747307 0.000000
85.12210083 211.27699280 335.00000000 0.835162 -0.333751 0.437167 0.000000
200.80099487 205.16600037 464.50000000 -0.459875 -0.427375 -0.778374 0.000000
180.28399658 242.70700073 389.00000000 -0.801895 -0.049500 0.595411 0.000000
96.47170258 185.08599854 479.00000000 0.408282 -0.230123 -0.883374 0.000000
228.73800659 171.99000549 442.50000000 -0.516550 0.148637 0.843257 0.000000
182.46699524 130.95700073 433.50000000 0.185376 0.617411 0.764486 0.000000
180.28399658 154.52900696 441.00000000 0.486938 0.755820 -0.437753 0.000000
154.09300232 272.39099121 370.00000000 -0.595792 -0.324537 0.734648 0.000000
92.97949982 253.18400574 439.00000000 0.336820 -0.645978 -0.685029 0.000000
219.57099915 193.81599426 428.00000000 -0.772394 0.442535 0.455598 0.000000
246.19900513 185.08599854 462.50000000 -0.111721 -0.837183 -0.535391 0.000000
110.00399780 120.04399872 452.00000000 0.379861 0.806203 -0.453589 0.000000
98.65429688 269.77099609 421.50000000 0.561211 -0.734646 -0.381231 0.000000
157.58500671 117.86100006 443.00000000 -0.680796 0.341214 0.648144 0.000000
79.01069641 237.46899414 374.00000000 0.840403 -0.537121 0.072277 0.000000
185.95899963 247.07200623 423.50000000 -0.859618 -0.496764 -0.119511 0.000000
75.51860046 175.48199463 367.00000000 0.931915 0.206002 0.298493 0.000000
79.01069641 178.10200500 348.00000000 0.957579 0.143967 0.249631 0.000000
182.02999878 216.51600647 390.00000000 -0.947442 -0.031708 0.318351 0.000000
95.16210175 118.73400116 414.50000000 0.771943 0.629475 0.088679 0.000000
94.72560120 182.46699524 308.00000000 0.753685 -0.001378 0.657235 0.000000
72.02639771 164.13299561 451.00000000 0.748649 -0.107794 -0.654145 0.000000
115.24199677 184.21299744 486.50000000 0.082188 -0.151274 -0.985069 0.000000
158.45799255 251.43800354 373.00000000 -0.714697 0.126825 0.687840 0.000000
218.26199341 185.95899963 450.50000000 -0.126175 -0.770411 0.624938 0.000000
82.93949890 200.80099487 337.50000000 0.753685 -0.001378 0.657235 0.000000
114.36900330 209.09500122 480.00000000 0.350147 -0.347089 -0.870015 0.000000
89.48729706 165.87899780 474.00000000 0.710013 0.130045 -0.692076 0.000000
77.26460266 197.30900574 461.00000000 0.647854 -0.107730 -0.754108 0.000000
288.54199219 194.68899536 464.00000000 -0.703552 0.543881 -0.457392 0.000000
197.74499512 206.03900146 409.00000000 0.157254 -0.810234 0.564617 0.000000
125.71900177 208.65800476 480.50000000 -0.105741 -0.455389 -0.883991 0.000000
114.36900330 254.49299622 342.00000000 -0.151969 -0.349947 0.924361 0.000000
140.12399292 206.91200256 350.00000000 -0.580128 -0.015158 0.814384 0.000000
111.75000000 204.29299927 480.50000000 0.393890 -0.353412 -0.848499 0.000000
69.40720367 175.48199463 382.00000000 0.873222 0.267869 0.407100 0.000000
129.21099854 166.31500244 409.00000000 -0.766337 0.459148 0.449345 0.000000
212.14999390 187.26899719 449.00000000 -0.040089 0.529449 0.847394 0.000000
228.73800659 189.01499939 454.00000000 -0.027988 -0.899604 0.435808 0.000000
236.59599304 143.61599731 474.00000000 -0.212616 -0.054673 -0.975605 0.000000
178.97500610 175.48199463 431.50000000 -0.627609 0.142298 0.765414 0.000000
110.87699890 134.88600159 476.00000000 0.332886 0.492161 -0.804341 0.000000
130.95700073 265.40600586 435.50000000 0.001378 -0.753685 -0.657235 0.000000
140.56100464 180.72099304 418.50000000 -0.729809 -0.339711 0.593275 0.000000
107.38500214 141.86999512 405.00000000 -0.544649 0.554767 0.628960 0.000000
166.31500244 107.38500214 463.00000000 0.150191 0.557639 -0.816383 0.000000
195.56199646 188.57800293 414.50000000 -0.080020 0.673624 0.734730 0.000000
185.95899963 162.38699341 443.50000000 0.113673 0.228622 0.966856 0.000000
206.91200256 143.17999268 481.50000000 -0.012209 0.132081 -0.991164 0.000000
128.77400208 241.83399963 348.00000000 -0.697972 -0.095512 0.709727 0.000000
119.17099762 193.81599426 327.00000000 -0.849033 0.142239 0.508833 0.000000
158.02099609 250.56399536 443.50000000 -0.162015 -0.527665 -0.833859 0.000000
69.84380341 224.37300110 444.50000000 0.826344 -0.407621 -0.388588 0.000000
112.62300110 275.01000977 423.50000000 0.222446 -0.820750 -0.526201 0.000000
77.70120239 242.27099609 437.00000000 0.398576 -0.917112 0.006449 0.000000
104.76599884 187.26899719 308.00000000 -0.571935 -0.183565 0.799496 0.000000
116.55200195 191.19700623 323.00000000 -0.923206 0.244757 0.296285 0.000000
216.95199585 180.72099304 441.00000000 0.077085 -0.870364 0.486338 0.000000
131.83000183 166.31500244 365.00000000 -0.601334 0.775767 0.191264 0.000000
103.89299774 132.70300293 470.50000000 0.484154 0.510774 -0.710425 0.000000
182.46699524 124.84600067 477.50000000 0.132364 0.991061 -0.016685 0.000000
66.78810120 190.32400513 389.00000000 0.999999 -0.000978 -0.000978 0.000000
120.48000336 197.30900574 485.50000000 -0.000978 -0.000978 -0.999999 0.000000
75.08200073 248.81799316 425.50000000 0.854666 -0.505882 -0.116742 0.000000
150.16400146 234.41299438 366.00000000 -0.555457 -0.160199 0.815968 0.000000
212.14999390 179.84800720 444.50000000 0.478234 -0.751041 0.455226 0.000000
85.99510193 153.65600586 342.00000000 0.874888 0.333218 0.351477 0.000000
199.92799377 144.48899841 437.00000000 -0.651960 0.513818 0.557619 0.000000
80.32029724 150.60099792 459.00000000 0.696206 0.329440 -0.637783 0.000000
155.40199280 282.43099976 386.00000000 -0.453316 -0.853210 0.257947 0.000000
70.28029633 167.62500000 400.00000000 0.970071 0.232271 0.070799 0.000000
171.99000549 193.81599426 478.50000000 0.078119 -0.342930 -0.936107 0.000000
225.24600220 193.38000488 462.00000000 -0.520036 -0.780859 -0.346154 0.000000
183.77600098 254.05700684 401.00000000 -0.921179 -0.359246 0.149569 0.000000
186.83200073 210.40400696 401.50000000 -0.836002 -0.034660 0.547630 0.000000
204.29299927 176.35499573 444.50000000 0.318517 -0.779485 0.539397 0.000000
178.97500610 130.95700073 484.50000000 -0.203038 -0.272099 -0.940605 0.000000
129.21099854 120.04399872 466.00000000 0.406699 0.912754 -0.038418 0.000000
158.89500427 135.32200623 427.50000000 -0.334645 0.337673 0.879767 0.000000
208.65800476 177.66499329 445.00000000 0.459213 -0.804823 0.376011 0.000000
183.33999634 96.03520203 463.50000000 0.191342 0.152817 -0.969554 0.000000
182.46699524 112.18699646 447.00000000 -0.297786 -0.001225 0.954632 0.000000
74.20899963 220.00799561 371.50000000 0.993399 -0.101916 0.052638 0.000000
137.50500488 168.49800110 376.00000000 -0.615893 0.758619 -0.212538 0.000000
123.97299957 266.27899170 348.50000000 0.028610 -0.505443 0.862386 0.000000
110.00399780 233.53999329 331.00000000 -0.099854 -0.554263 0.826330 0.000000
201.23699951 170.24400330 482.00000000 -0.672338 -0.076963 -0.736232 0.000000
135.32200623 123.97299957 475.50000000 0.020979 0.737050 -0.675513 0.000000
71.58979797 217.38900757 391.50000000 0.882423 -0.291124 0.369562 0.000000
178.53799438 221.75399780 460.00000000 -0.354042 -0.485406 -0.799397 0.000000
227.42900085 158.02099609 472.00000000 -0.426310 -0.423093 -0.799533 0.000000
84.68550110 223.06300354 344.00000000 0.830934 -0.367377 0.417832 0.000000
137.06799316 234.85000610 462.50000000 -0.126175 -0.770411 -0.624938 0.000000
105.63899994 185.95899963 483.50000000 0.500795 -0.170894 -0.848528 0.000000
99.52729797 139.25100708 357.00000000 -0.575045 0.713451 0.400389 0.000000
239.21499634 139.68800354 462.50000000 -0.565880 0.498713 0.656555 0.000000
222.19000244 199.92799377 433.00000000 -0.948239 -0.310026 -0.068751 0.000000
148.41799927 179.41099548 365.00000000 -0.672175 0.632538 0.384808 0.000000
113.49600220 158.89500427 343.50000000 -0.553597 0.647826 0.523309 0.000000
103.89299774 223.06300354 468.00000000 0.284848 -0.474747 -0.832753 0.000000
229.61099243 153.65600586 474.50000000 -0.445380 -0.302610 -0.842653 0.000000
122.22699738 273.70001221 360.00000000 0.508481 -0.787584 0.348077 0.000000
79.01069641 171.99000549 464.00000000 0.718809 0.130013 -0.682943 0.000000
202.54699707 208.65800476 459.50000000 -0.487272 -0.674813 -0.554251 0.000000
115.67900085 151.03700256 367.00000000 -0.781260 0.590934 0.201071 0.000000
95.16210175 130.95700073 368.50000000 -0.498229 0.815712 0.293908 0.000000
85.12210083 132.70300293 400.00000000 0.292567 -0.060047 0.954358 0.000000
170.68099976 137.06799316 434.00000000 -0.231692 0.357010 0.904910 0.000000
75.51860046 206.03900146 354.00000000 0.785920 0.129253 0.604668 0.000000
152.34700012 279.37500000 376.00000000 -0.500509 -0.713350 0.490532 0.000000
101.70999908 137.06799316 472.00000000 0.519728 0.466593 -0.715663 0.000000
136.19500732 278.50201416 419.50000000 -0.171558 -0.769736 -0.614878 0.000000
98.65429688 164.56900024 309.00000000 -0.094830 0.628794 0.771768 0.000000
182.46699524 101.27300262 452.50000000 -0.267562 0.444917 0.854669 0.000000
117.42500305 281.99398804 405.00000000 0.545329 -0.828959 0.124271 0.000000
223.50000000 199.92799377 443.50000000 -0.281797 -0.949562 0.137560 0.000000
96.03520203 165.87899780 308.50000000 0.513425 0.500045 0.697388 0.000000
72.89939880 151.91000366 416.00000000 0.947708 0.318420 0.021396 0.000000
68.97070313 209.96800232 388.00000000 0.826344 -0.407621 0.388588 0.000000
128.33799744 205.16600037 336.50000000 -0.392127 -0.235276 0.889315 0.000000
124.84600067 226.99200439 338.50000000 -0.712543 -0.240660 0.659063 0.000000
202.11000061 145.79899597 482.00000000 -0.148037 -0.019211 -0.988795 0.000000
178.10200500 265.40600586 406.50000000 -0.720201 -0.654301 -0.230653 0.000000
74.64550018 233.10400391 444.00000000 0.602049 -0.602049 -0.524474 0.000000
137.94099426 219.13499451 350.50000000 -0.692670 -0.361891 0.623894 0.000000
137.50500488 165.00599670 417.00000000 -0.515038 0.104729 0.850745 0.000000
116.55200195 278.50201416 372.00000000 0.822105 -0.516708 0.239074 0.000000
174.60899353 268.89801025 407.50000000 -0.600354 -0.720750 -0.346546 0.000000
94.72560120 236.59599304 339.00000000 0.672247 -0.448721 0.588841 0.000000
133.57600403 133.57600403 482.50000000 0.318991 0.304155 -0.897627 0.000000
230.04800415 169.37100220 444.00000000 -0.517808 0.181608 0.835998 0.000000
73.77249908 190.32400513 362.00000000 0.959956 -0.028489 0.278697 0.000000
103.45600128 143.17999268 401.00000000 -0.630712 0.654010 0.417701 0.000000
61.54980087 204.29299927 434.00000000 0.976333 -0.163764 0.141262 0.000000
191.63400269 235.72300720 434.00000000 -0.847486 0.509667 -0.148347 0.000000
97.78119659 225.24600220 465.50000000 0.275584 -0.490445 -0.826751 0.000000
103.01999664 167.62500000 308.50000000 -0.409215 0.527542 0.744475 0.000000
79.01069641 220.88099670 354.00000000 0.826630 -0.335376 0.451891 0.000000
231.35699463 188.14199829 453.00000000 -0.024464 -0.930926 0.364387 0.000000
186.39599609 245.32600403 427.00000000 -0.846657 -0.523985 -0.092804 0.000000
233.10400391 171.55400085 445.00000000 -0.534008 0.130210 0.835393 0.000000
232.22999573 188.14199829 452.00000000 -0.053508 -0.882188 0.467848 0.000000
108.69400024 275.88299561 401.00000000 0.705724 -0.708486 -0.001381 0.000000
66.78810120 199.92799377 386.00000000 0.895598 0.422882 -0.138113 0.000000
244.88999939 146.67199707 471.00000000 -0.990313 0.068019 0.121051 0.000000
88.61430359 239.21499634 353.00000000 0.803548 -0.474461 0.359440 0.000000
225.68299866 182.46699524 444.00000000 -0.251259 -0.633680 0.731655 0.000000
72.89939880 209.53100586 455.00000000 0.666545 -0.196406 -0.719126 0.000000
68.53420258 224.37300110 431.00000000 0.988454 -0.136218 0.066363 0.000000
73.77249908 164.13299561 377.00000000 0.844304 0.167674 0.508956 0.000000
197.74499512 204.29299927 467.00000000 -0.251094 -0.737490 -0.626945 0.000000
196.43600464 193.81599426 409.50000000 0.006943 0.687381 0.726264 0.000000
178.53799438 216.51600647 383.00000000 -0.835162 -0.333751 0.437167 0.000000
213.02299500 125.71900177 478.50000000 -0.084890 0.156627 -0.984003 0.000000
148.41799927 257.11199951 365.00000000 -0.671745 0.351400 0.652132 0.000000
95.16210175 170.24400330 478.50000000 0.561162 0.029097 -0.827194 0.000000
124.84600067 252.74699402 448.00000000 -0.037703 -0.814097 -0.579503 0.000000
221.31700134 120.48000336 477.00000000 -0.527945 0.246168 -0.812819 0.000000
132.70300293 218.26199341 344.50000000 -0.714758 -0.226783 0.661582 0.000000
124.40899658 212.14999390 480.00000000 0.075826 -0.227479 -0.970826 0.000000
167.62500000 125.28199768 479.00000000 0.222281 0.893541 0.390096 0.000000
143.17999268 245.76300049 453.00000000 -0.126541 -0.748828 -0.650572 0.000000
140.99699402 246.19900513 360.00000000 -0.732990 0.035308 0.679322 0.000000
148.41799927 185.52200317 410.00000000 -0.026552 0.984737 0.172012 0.000000
129.64700317 112.62300110 454.00000000 0.413051 0.732301 -0.541409 0.000000
155.40199280 230.04800415 463.00000000 -0.812716 -0.314040 -0.490786 0.000000
66.78810120 214.77000427 399.00000000 0.872419 -0.388249 0.296897 0.000000
79.88379669 170.24400330 352.00000000 0.965717 0.223056 0.132802 0.000000
87.74120331 216.51600647 464.00000000 0.451694 -0.390611 -0.802119 0.000000
183.77600098 125.71900177 438.00000000 -0.254685 0.707106 0.659649 0.000000
213.89599609 120.91699982 478.00000000 0.424992 0.169707 -0.889147 0.000000
91.66989899 253.18400574 362.50000000 0.801670 -0.134846 0.582359 0.000000
79.88379669 148.41799927 384.00000000 0.908087 0.412519 0.072157 0.000000
75.95510101 220.88099670 361.50000000 0.895658 -0.253153 0.365665 0.000000
131.83000183 180.72099304 343.50000000 -0.675072 0.445048 0.588396 0.000000
162.82299805 243.58000183 449.00000000 -0.373580 -0.620439 -0.689560 0.000000
179.84800720 255.80299377 420.50000000 -0.781702 -0.514150 -0.352975 0.000000
111.75000000 225.68299866 327.00000000 -0.507271 -0.380858 0.773061 0.000000
140.56100464 271.95401001 426.00000000 -0.133379 -0.735833 -0.663898 0.000000
75.51860046 227.86500549 375.00000000 0.988599 -0.127222 -0.080535 0.000000
160.64100647 257.54901123 374.50000000 -0.583216 0.084962 0.807862 0.000000
142.30700684 226.11900330 469.50000000 -0.233455 -0.643961 -0.728569 0.000000
145.36199951 247.07200623 364.00000000 -0.704848 0.282898 0.650506 0.000000
94.72560120 135.32200623 465.00000000 0.638039 0.463876 -0.614594 0.000000
195.12600708 220.00799561 419.00000000 -0.360738 -0.300363 0.882978 0.000000
213.02299500 169.80799866 433.00000000 -0.516063 0.071714 0.853543 0.000000
192.94299316 231.35699463 424.50000000 -0.826350 -0.479564 0.295236 0.000000
161.07699585 133.57600403 429.00000000 -0.879418 -0.121152 0.460376 0.000000
146.23500061 233.97700500 363.00000000 -0.621180 -0.300157 0.723907 0.000000
161.51400757 272.82699585 418.00000000 -0.915482 -0.393127 -0.085699 0.000000
137.50500488 261.91400146 355.00000000 -0.753685 0.001378 0.657235 0.000000
124.84600067 271.51800537 428.50000000 -0.001378 -0.753685 -0.657235 0.000000
167.62500000 264.09698486 379.00000000 -0.673964 -0.127022 0.727762 0.000000
98.21779633 268.02499390 382.00000000 0.598803 -0.774287 0.204732 0.000000
93.41600037 131.39399719 460.00000000 0.673620 0.508995 -0.535873 0.000000
217.82499695 205.16600037 422.00000000 -0.705841 -0.446756 0.549725 0.000000
178.10200500 199.49099731 475.00000000 -0.179373 -0.654635 -0.734356 0.000000
121.35399628 108.69400024 440.00000000 0.544507 0.551250 -0.632167 0.000000
104.76599884 257.54901123 440.50000000 0.202886 -0.679900 -0.704680 0.000000
226.55599976 125.71900177 466.00000000 -0.670198 0.041090 0.741044 0.000000
66.78810120 184.21299744 389.00000000 0.998004 -0.047726 -0.041363 0.000000
124.84600067 275.88299561 360.50000000 0.414637 -0.811663 0.411435 0.000000
153.65600586 246.63600159 450.00000000 0.055391 -0.597942 -0.799623 0.000000
116.11499786 125.28199768 469.00000000 0.117716 0.970837 0.208850 0.000000
87.74120331 211.27699280 330.00000000 0.822055 -0.282338 0.494481 0.000000
183.77600098 180.72099304 430.00000000 -0.156248 0.828859 0.537196 0.000000
78.57420349 159.33099365 369.00000000 0.923326 0.238324 0.301116 0.000000
192.07000732 125.71900177 477.50000000 0.481787 0.240129 -0.842745 0.000000
254.05700684 178.10200500 464.50000000 -0.021797 -0.168637 -0.985437 0.000000
91.66989899 238.34199524 344.50000000 0.775575 -0.473149 0.417867 0.000000
182.46699524 240.08799744 441.50000000 -0.548352 -0.534854 -0.642838 0.000000
237.46899414 172.86300659 467.50000000 -0.354197 -0.302952 -0.884740 0.000000
174.60899353 271.08099365 400.00000000 -0.890184 -0.424104 -0.166457 0.000000
119.60700226 213.46000671 479.00000000 0.191758 -0.048833 -0.980227 0.000000
91.23339844 126.59200287 394.00000000 0.500548 0.480593 0.720057 0.000000
210.40400696 169.37100220 431.50000000 -0.521676 0.302858 0.797578 0.000000
126.59200287 167.18800354 391.00000000 -0.921924 0.279588 -0.268118 0.000000
155.40199280 256.67599487 370.50000000 -0.624563 0.116644 0.772214 0.000000
160.20399475 176.35499573 423.00000000 -0.278231 0.197946 0.939896 0.000000
155.40199280 126.15499878 480.00000000 0.009422 0.510112 -0.860057 0.000000
204.29299927 189.45100403 472.50000000 -0.253021 -0.018159 -0.967290 0.000000
167.62500000 126.15499878 477.00000000 0.222281 0.893541 0.390096 0.000000
190.32400513 192.07000732 475.50000000 -0.640274 -0.319326 -0.698628 0.000000
119.60700226 223.50000000 470.50000000 0.134667 -0.575664 -0.806521 0.000000
212.58700562 199.05499268 412.00000000 -0.822981 0.072742 0.563392 0.000000
178.10200500 157.14799500 435.50000000 0.720022 -0.282581 0.633811 0.000000
75.51860046 143.17999268 427.00000000 0.950157 0.293876 0.104109 0.000000
119.60700226 230.48399353 334.50000000 -0.497697 0.276152 0.822215 0.000000
179.84800720 249.25500488 434.00000000 -0.477477 -0.661766 -0.577998 0.000000
180.72099304 252.74699402 424.00000000 -0.688683 -0.691807 -0.217068 0.000000
114.36900330 245.32600403 454.50000000 0.055593 -0.782573 -0.620072 0.000000
135.75900269 208.65800476 347.00000000 -0.640928 -0.049739 0.765988 0.000000
146.67199707 109.13099670 440.50000000 -0.757273 0.188934 0.625173 0.000000
200.80099487 129.64700317 445.00000000 -0.557200 0.415006 0.719234 0.000000
158.89500427 237.03199768 456.00000000 -0.258851 -0.697150 -0.668565 0.000000
152.78300476 240.96099854 455.50000000 -0.388603 -0.653184 -0.649876 0.000000
92.54299927 120.48000336 401.50000000 0.475200 0.879853 -0.006655 0.000000
94.28910065 119.60700226 414.50000000 0.791719 0.601472 0.106831 0.000000
89.05079651 208.65800476 466.50000000 0.475142 -0.169168 -0.863494 0.000000
127.02799988 281.99398804 413.00000000 0.081758 -0.967263 -0.240244 0.000000
147.54499817 146.23500061 423.00000000 -0.155532 0.116343 0.980956 0.000000
185.52200317 222.62699890 399.00000000 -0.753685 -0.001378 0.657235 0.000000
160.20399475 276.75601196 414.00000000 -0.904787 -0.409741 -0.116070 0.000000
217.38900757 194.68899536 466.50000000 -0.385840 -0.786209 -0.482703 0.000000
82.06639862 133.13999939 433.00000000 0.708486 0.705724 -0.001381 0.000000
130.95700073 288.54199219 398.00000000 0.049692 -0.994947 -0.087237 0.000000
176.35499573 206.91200256 469.50000000 -0.330488 -0.376603 -0.865418 0.000000
220.00799561 125.71900177 479.50000000 -0.285137 0.183204 -0.940815 0.000000
175.48199463 218.26199341 378.50000000 -0.810074 -0.250330 0.530202 0.000000
62.42290115 212.14999390 410.00000000 0.910396 0.279110 -0.305414 0.000000
239.65100098 187.70500183 452.00000000 0.354900 -0.908254 0.221631 0.000000
185.95899963 156.71200562 444.00000000 0.078234 0.275742 0.958043 0.000000
115.24199677 218.26199341 326.50000000 -0.531107 -0.353534 0.770025 0.000000
139.68800354 289.41500854 397.00000000 0.144688 -0.914482 -0.377873 0.000000
184.64900208 252.31100464 417.00000000 -0.784106 -0.534981 -0.314601 0.000000
103.89299774 144.48899841 355.00000000 -0.670601 0.650926 0.355796 0.000000
173.73599243 226.11900330 458.50000000 -0.355185 -0.702186 -0.617073 0.000000
134.88600159 180.72099304 348.00000000 -0.633675 0.424113 0.646981 0.000000
103.89299774 192.94299316 308.50000000 -0.397768 -0.273749 0.875695 0.000000
248.81799316 186.39599609 456.00000000 -0.058796 -0.980333 0.188387 0.000000
202.54699707 212.14999390 414.50000000 0.893563 -0.439114 -0.093399 0.000000
184.21299744 244.01699829 395.00000000 -0.911549 -0.230423 0.340563 0.000000
81.19339752 151.03700256 370.50000000 0.903469 0.368080 0.219684 0.000000
105.63899994 166.75199890 483.50000000 0.383484 -0.096895 -0.918451 0.000000
93.41600037 261.47799683 379.00000000 0.633848 -0.495982 0.593497 0.000000
171.55400085 191.19700623 388.00000000 -0.514100 0.857729 -0.001342 0.000000
210.40400696 211.71400452 424.00000000 -0.458627 -0.733473 0.501676 0.000000
134.01300049 233.10400391 352.00000000 -0.688902 -0.049920 0.723133 0.000000
139.68800354 278.06500244 366.00000000 -0.656807 -0.623551 0.424015 0.000000
92.54299927 155.40199280 325.50000000 0.398437 0.672880 0.623282 0.000000
153.65600586 118.73400116 471.50000000 -0.011632 0.918949 -0.394205 0.000000
83.37599945 248.81799316 396.00000000 0.807053 -0.589608 0.032059 0.000000
199.49099731 167.62500000 438.00000000 0.671783 -0.726130 0.146434 0.000000
118.29799652 158.89500427 354.00000000 -0.666982 0.640632 0.380427 0.000000
80.75679779 168.49800110 348.00000000 0.969872 0.198064 0.141839 0.000000
183.33999634 171.99000549 485.50000000 -0.072010 -0.152283 -0.985710 0.000000
143.61599731 112.62300110 461.00000000 0.387157 0.588150 -0.710063 0.000000
86.86820221 136.19500732 386.00000000 0.885908 0.391586 0.248650 0.000000
179.41099548 255.80299377 421.00000000 -0.781702 -0.514150 -0.352975 0.000000
78.57420349 133.13999939 438.00000000 0.549973 0.725040 0.414544 0.000000
143.17999268 229.61099243 358.50000000 -0.585824 -0.217945 0.780583 0.000000
125.71900177 205.16600037 483.50000000 -0.107730 -0.647854 -0.754108 0.000000
213.02299500 204.72900391 457.00000000 -0.322809 -0.803046 -0.500910 0.000000
117.86100006 185.95899963 486.50000000 0.082188 -0.151274 -0.985069 0.000000
219.57099915 192.07000732 458.00000000 -0.591338 -0.793912 0.141504 0.000000
90.36039734 185.08599854 475.00000000 0.673729 -0.143186 -0.724974 0.000000
162.38699341 226.99200439 462.50000000 -0.290619 -0.647068 -0.704871 0.000000
97.78119659 139.68800354 353.50000000 -0.629510 0.669164 0.394889 0.000000
135.32200623 288.54199219 403.00000000 0.016573 -0.934460 -0.355681 0.000000
106.51200104 134.44900513 408.50000000 -0.001333 0.497143 0.867668 0.000000
213.02299500 170.24400330 433.50000000 -0.582741 0.207573 0.785701 0.000000
158.45799255 187.70500183 484.00000000 -0.136573 -0.269169 -0.953360 0.000000
178.53799438 194.68899536 403.00000000 -0.324319 0.911874 -0.251602 0.000000
104.76599884 144.48899841 358.00000000 -0.689111 0.592802 0.416788 0.000000
146.67199707 176.79200745 366.00000000 -0.661482 0.658199 0.359465 0.000000
72.46289825 204.29299927 374.50000000 0.865886 -0.490527 0.098105 0.000000
156.27499390 151.91000366 489.50000000 -0.962066 -0.175041 -0.209259 0.000000
69.40720367 227.86500549 439.00000000 0.951277 -0.242217 -0.190797 0.000000
222.62699890 190.76100159 457.00000000 -0.591338 -0.793912 0.141504 0.000000
119.60700226 127.46499634 475.50000000 0.254777 0.669382 -0.697866 0.000000
116.98799896 155.40199280 404.50000000 -0.921439 0.191082 0.338286 0.000000
254.92999268 174.60899353 465.50000000 -0.264881 0.130464 -0.955415 0.000000
117.42500305 209.53100586 326.00000000 -0.715535 -0.189270 0.672449 0.000000
73.77249908 211.27699280 375.00000000 0.948178 -0.244207 0.203278 0.000000
74.64550018 138.81399536 436.00000000 0.970853 0.010721 0.239437 0.000000
237.90499878 133.57600403 466.00000000 -0.261437 0.540095 0.799967 0.000000
82.06639862 140.56100464 417.50000000 0.838365 0.543616 -0.040319 0.000000
89.05079651 259.29501343 408.50000000 0.382097 -0.858558 0.341876 0.000000
180.72099304 120.48000336 441.50000000 -0.148439 0.610248 0.778179 0.000000
80.75679779 218.26199341 349.00000000 0.863762 -0.317582 0.391224 0.000000
69.40720367 212.14999390 390.00000000 0.790040 -0.453990 0.411984 0.000000
177.22900391 267.58898926 405.00000000 -0.706205 -0.675026 -0.213576 0.000000
178.10200500 193.38000488 399.00000000 -0.279485 0.955449 -0.094895 0.000000
194.68899536 154.52900696 429.50000000 0.025196 -0.229167 0.973061 0.000000
137.94099426 277.19198608 362.00000000 -0.309381 -0.794871 0.521981 0.000000
155.40199280 182.46699524 420.50000000 0.055962 0.710290 0.701681 0.000000
130.08399963 163.69599915 377.00000000 -0.543994 0.825626 -0.149709 0.000000
113.49600220 164.13299561 334.50000000 -0.847184 0.513578 0.136076 0.000000
164.13299561 270.64498901 379.50000000 -0.658384 -0.543883 0.520309 0.000000
66.78810120 234.85000610 409.00000000 0.396869 -0.785639 0.474623 0.000000
129.21099854 227.86500549 344.50000000 -0.787171 -0.344688 0.511421 0.000000
127.46499634 133.57600403 480.50000000 0.044656 0.315147 -0.947992 0.000000
171.11700439 151.03700256 438.50000000 0.555778 -0.186269 0.810194 0.000000
80.32029724 142.74299622 421.00000000 0.840159 0.506500 0.193883 0.000000
94.28910065 167.18800354 310.00000000 0.712231 0.404865 0.573421 0.000000
89.05079651 263.22399902 414.00000000 0.277043 -0.809217 0.518087 0.000000
144.92599487 177.66499329 361.00000000 -0.700155 0.621816 0.350894 0.000000
107.38500214 130.95700073 471.50000000 0.414934 0.440766 -0.795962 0.000000
232.66700745 113.49600220 470.00000000 0.578782 -0.183813 -0.794496 0.000000
87.30470276 130.52099609 451.00000000 0.602049 0.602049 -0.524474 0.000000
145.79899597 283.30398560 379.00000000 -0.106258 -0.879816 0.463285 0.000000
132.70300293 278.93798828 420.00000000 -0.058565 -0.781337 -0.621356 0.000000
209.09500122 212.14999390 418.00000000 -0.521259 -0.317219 0.792251 0.000000
121.35399628 199.92799377 485.50000000 -0.065896 -0.306222 -0.949677 0.000000
144.05299377 237.90499878 460.00000000 -0.020513 -0.531976 -0.846511 0.000000
191.19700623 138.37800598 439.00000000 -0.667572 0.189634 0.719991 0.000000
238.34199524 172.42700195 448.00000000 -0.533937 0.331907 0.777656 0.000000
141.43400574 215.64300537 476.50000000 -0.150191 -0.557639 -0.816383 0.000000
64.16889954 223.50000000 411.00000000 0.861956 0.478864 -0.166497 0.000000
65.91500092 190.32400513 397.00000000 0.998844 0.048051 -0.001022 0.000000
76.39160156 198.18200684 352.00000000 0.928733 -0.003822 0.370729 0.000000
99.52729797 271.51800537 416.50000000 0.736149 -0.660879 0.146026 0.000000
136.19500732 223.50000000 471.50000000 -0.261877 -0.281911 -0.923009 0.000000
144.92599487 201.23699951 483.00000000 -0.264542 -0.325928 -0.907628 0.000000
182.02999878 195.56199646 402.00000000 -0.422143 0.872830 -0.244873 0.000000
199.49099731 222.62699890 432.00000000 -0.715535 -0.672449 -0.189270 0.000000
107.38500214 262.78698730 354.50000000 0.429899 -0.786796 0.442877 0.000000
75.08200073 156.71200562 385.00000000 0.858729 0.496702 0.125986 0.000000
134.44900513 167.18800354 369.00000000 -0.530812 0.829862 0.171953 0.000000
82.93949890 214.77000427 342.50000000 0.903089 -0.161215 0.398044 0.000000
110.00399780 121.79000092 455.00000000 0.317859 0.814414 -0.485485 0.000000
213.46000671 170.24400330 477.00000000 -0.303667 -0.216098 -0.927948 0.000000
158.89500427 281.99398804 406.50000000 -0.573357 -0.782703 -0.242154 0.000000
66.35160065 188.57800293 446.50000000 0.731332 0.243777 -0.636966 0.000000
110.44000244 159.76800537 341.00000000 -0.561632 0.707424 0.429093 0.000000
175.48199463 245.32600403 385.50000000 -0.607994 -0.079429 0.789959 0.000000
172.86300659 151.91000366 437.50000000 0.287792 0.065233 0.955469 0.000000
82.93949890 148.85400391 367.00000000 0.883854 0.426536 0.192015 0.000000
191.63400269 236.59599304 437.00000000 -0.847486 0.509667 -0.148347 0.000000
102.14600372 129.21099854 466.50000000 0.552426 0.545668 -0.630137 0.000000
107.38500214 219.13499451 321.50000000 -0.366900 -0.277047 0.888048 0.000000
280.24798584 189.45100403 463.50000000 0.069772 0.157283 -0.985086 0.000000
132.70300293 102.58300018 440.00000000 0.381950 0.910149 -0.160447 0.000000
190.76100159 155.40199280 445.00000000 -0.214326 -0.380538 0.899586 0.000000
112.62300110 124.84600067 460.50000000 0.453278 0.822849 -0.342722 0.000000
185.95899963 147.54499817 482.50000000 -0.022732 0.230914 -0.972709 0.000000
135.75900269 174.60899353 353.00000000 -0.602049 0.602049 0.524474 0.000000
226.99200439 190.32400513 463.50000000 -0.515528 -0.525604 -0.676736 0.000000
136.63200378 149.29100037 420.00000000 -0.263330 0.171502 0.949339 0.000000
102.58300018 134.44900513 382.00000000 -0.708123 0.667300 0.230807 0.000000
75.08200073 249.69099426 404.50000000 0.401964 -0.676556 0.617006 0.000000
96.90820313 229.61099243 461.50000000 0.276381 -0.458576 -0.844583 0.000000
124.84600067 265.84298706 435.00000000 -0.001378 -0.753685 -0.657235 0.000000
214.77000427 179.84800720 442.50000000 0.615498 -0.085446 0.783493 0.000000
192.50700378 155.40199280 443.00000000 0.917409 -0.395823 0.041039 0.000000
223.06300354 116.98799896 475.00000000 -0.037611 0.359246 -0.932485 0.000000
107.38500214 149.72799683 397.00000000 -0.789636 0.479595 0.382707 0.000000
188.57800293 236.15899658 413.00000000 -0.984425 -0.062634 0.164268 0.000000
127.90100098 219.13499451 340.00000000 -0.761803 -0.218766 0.609752 0.000000
120.04399872 112.62300110 446.00000000 0.423563 0.760451 -0.492249 0.000000
116.11499786 172.86300659 329.50000000 -0.862257 0.371742 0.343977 0.000000
70.28029633 230.48399353 440.00000000 0.752044 -0.289002 -0.592374 0.000000
73.77249908 245.32600403 422.00000000 0.921853 -0.379269 -0.079633 0.000000
156.71200562 121.35399628 440.00000000 -0.680796 0.341214 0.648144 0.000000
220.88099670 122.66300201 478.00000000 -0.525583 0.288834 -0.800211 0.000000
156.71200562 247.07200623 372.00000000 -0.737719 0.073917 0.671049 0.000000
164.56900024 260.16799927 431.00000000 -0.354414 -0.768706 -0.532430 0.000000
98.65429688 133.13999939 395.00000000 -0.996089 0.066698 -0.057950 0.000000
209.96800232 123.09999847 454.00000000 -0.482580 0.339240 0.807486 0.000000
117.42500305 158.89500427 403.00000000 -0.773901 0.556889 0.301582 0.000000
184.21299744 126.59200287 480.50000000 -0.528322 0.562081 -0.636350 0.000000
100.40000153 253.61999512 349.00000000 0.641993 -0.615174 0.457609 0.000000
73.33589935 172.42700195 456.00000000 0.842799 0.190794 -0.503276 0.000000
89.92379761 261.04098511 426.50000000 0.403912 -0.760402 -0.508570 0.000000
157.14799500 125.28199768 434.00000000 -0.731080 0.434027 0.526444 0.000000
179.84800720 170.24400330 432.50000000 -0.540913 0.099528 0.835169 0.000000
163.25999451 188.14199829 380.00000000 -0.627054 0.725979 0.282414 0.000000
144.92599487 150.16400146 421.50000000 -0.244887 0.188063 0.951138 0.000000
74.20899963 203.41999817 457.50000000 0.689257 -0.111170 -0.715937 0.000000
294.21701050 192.94299316 461.50000000 -0.065318 -0.071960 -0.995266 0.000000
185.52200317 218.26199341 458.00000000 -0.411282 -0.556634 -0.721807 0.000000
206.91200256 174.17300415 440.00000000 0.605955 -0.704485 0.369485 0.000000
237.46899414 182.90299988 465.00000000 -0.214526 -0.313975 -0.924877 0.000000
154.09300232 187.70500183 405.00000000 -0.201613 0.767977 0.607917 0.000000
224.37300110 129.21099854 478.50000000 -0.076711 -0.242709 -0.967062 0.000000
128.33799744 280.24798584 374.50000000 -0.177681 -0.974096 0.139877 0.000000
88.17769623 255.36599731 400.00000000 0.091079 -0.884171 0.458199 0.000000
177.22900391 239.21499634 445.50000000 -0.395105 -0.603403 -0.692674 0.000000
69.40720367 219.13499451 397.00000000 0.909774 -0.293523 0.293523 0.000000
169.80799866 169.37100220 431.00000000 -0.056774 0.273778 0.960116 0.000000
97.34470367 249.69099426 348.00000000 0.691179 -0.611999 0.384355 0.000000
96.47170258 249.69099426 350.00000000 0.710683 -0.554962 0.432373 0.000000
71.15329742 209.53100586 383.00000000 0.849761 -0.382002 0.363292 0.000000
90.79689789 169.37100220 475.50000000 0.609733 0.032239 -0.791951 0.000000
106.51200104 187.70500183 309.50000000 -0.629504 -0.101249 0.770372 0.000000
121.35399628 162.82299805 353.00000000 -0.644110 0.640782 0.417756 0.000000
119.60700226 144.92599487 414.50000000 -0.434198 0.570613 0.697046 0.000000
126.59200287 230.04800415 342.00000000 -0.782269 -0.234836 0.576982 0.000000
202.54699707 144.05299377 482.50000000 -0.052534 0.155268 -0.986475 0.000000
134.44900513 167.18800354 370.00000000 -0.546443 0.829137 0.118032 0.000000
260.16799927 176.79200745 460.00000000 -0.865466 0.194470 -0.461681 0.000000
126.15499878 116.98799896 458.00000000 0.293773 0.685469 -0.666205 0.000000
110.00399780 127.90100098 471.00000000 0.499814 0.567129 -0.654638 0.000000
110.87699890 216.51600647 322.50000000 -0.430258 -0.330125 0.840176 0.000000
194.68899536 147.54499817 482.50000000 0.053496 0.119513 -0.991390 0.000000
130.08399963 264.97000122 351.00000000 -0.400477 -0.329349 0.855072 0.000000
166.31500244 192.07000732 377.00000000 -0.691598 0.662715 0.287230 0.000000
121.35399628 162.82299805 397.00000000 -0.415631 0.909111 -0.027709 0.000000
197.74499512 175.48199463 482.00000000 -0.195626 -0.389803 -0.899880 0.000000
68.53420258 191.19700623 450.00000000 0.851360 -0.057317 -0.521441 0.000000
211.71400452 185.95899963 437.00000000 -0.542719 0.838494 0.048831 0.000000
111.31300354 108.25800323 428.00000000 0.701680 0.701680 -0.123651 0.000000
158.89500427 223.93699646 467.00000000 -0.277996 -0.523009 -0.805717 0.000000
142.30700684 172.42700195 362.00000000 -0.461643 0.368995 0.806677 0.000000
184.21299744 244.01699829 436.00000000 -0.602049 -0.602049 -0.524474 0.000000
104.76599884 192.07000732 309.50000000 -0.543994 -0.149709 0.825626 0.000000
179.41099548 247.94500732 389.00000000 -0.695937 -0.136782 0.704956 0.000000
220.00799561 194.68899536 464.50000000 -0.590561 -0.718162 -0.368078 0.000000
130.08399963 247.94500732 453.50000000 -0.181198 -0.778086 -0.601456 0.000000
158.02099609 183.33999634 485.50000000 -0.172642 -0.167527 -0.970633 0.000000
76.82810211 205.16600037 352.50000000 0.785920 0.129253 0.604668 0.000000
132.26699829 170.24400330 410.00000000 -0.722984 0.613000 0.318631 0.000000
105.63899994 192.94299316 309.50000000 -0.542146 -0.121289 0.831485 0.000000
128.33799744 146.67199707 417.50000000 -0.422335 0.198659 0.884402 0.000000
93.85250092 249.69099426 354.00000000 0.758789 -0.453962 0.467073 0.000000
96.90820313 267.58898926 385.00000000 0.621479 -0.759586 0.191815 0.000000
153.65600586 116.98799896 440.50000000 -0.479085 0.495662 0.724429 0.000000
149.29100037 193.81599426 484.50000000 -0.203706 -0.408877 -0.889564 0.000000
149.29100037 250.12800598 447.00000000 -0.108034 -0.700002 -0.705922 0.000000
212.58700562 214.77000427 439.00000000 -0.546387 -0.830450 -0.108698 0.000000
93.41600037 212.14999390 468.50000000 0.338646 -0.448902 -0.826925 0.000000
144.05299377 151.03700256 487.50000000 0.005660 0.166415 -0.986039 0.000000
183.33999634 257.11199951 406.00000000 -0.923739 -0.343423 0.169609 0.000000
163.69599915 151.91000366 429.00000000 -0.690241 0.133257 0.711203 0.000000
68.97070313 213.02299500 448.50000000 0.755093 -0.246465 -0.607528 0.000000
80.32029724 195.56199646 341.50000000 0.925803 -0.040594 0.375821 0.000000
115.24199677 148.41799927 408.50000000 -0.692821 0.220514 0.686566 0.000000
178.97500610 189.45100403 481.50000000 -0.153943 -0.339784 -0.927819 0.000000
89.92379761 132.70300293 378.50000000 0.894688 0.446689 0.001310 0.000000
200.80099487 117.86100006 475.50000000 0.182526 0.343829 -0.921122 0.000000
139.68800354 269.33499146 357.00000000 -0.559790 -0.173520 0.810263 0.000000
114.36900330 184.21299744 486.50000000 0.082188 -0.151274 -0.985069 0.000000
186.39599609 238.34199524 399.00000000 -0.980028 -0.151246 0.129113 0.000000
120.91699982 213.02299500 330.00000000 -0.842867 0.054514 0.535353 0.000000
87.74120331 175.48199463 473.00000000 0.753685 0.001378 -0.657235 0.000000
238.34199524 144.05299377 473.50000000 -0.221535 -0.017770 -0.974990 0.000000
108.25800323 235.28599548 332.00000000 -0.055922 -0.678231 0.732718 0.000000
214.77000427 159.33099365 478.00000000 -0.309336 -0.207636 -0.928008 0.000000
125.71900177 213.02299500 479.50000000 -0.203706 -0.408877 -0.889564 0.000000
100.40000153 230.04800415 463.00000000 0.278715 -0.533809 -0.798352 0.000000
173.73599243 257.98498535 384.00000000 -0.656312 0.156120 0.738161 0.000000
136.63200378 210.40400696 348.00000000 -0.651829 -0.046864 0.756917 0.000000
85.55860138 251.00100708 374.00000000 0.770149 -0.619435 0.152221 0.000000
118.73400116 121.35399628 458.50000000 0.295352 0.473500 -0.829798 0.000000
101.27300262 197.30900574 309.50000000 0.241098 -0.187222 0.952271 0.000000
87.74120331 180.72099304 323.00000000 0.895836 0.104817 0.431846 0.000000
140.56100464 130.95700073 480.50000000 0.243777 0.731332 -0.636966 0.000000
169.37100220 180.28399658 484.00000000 0.714608 -0.376196 -0.589757 0.000000
196.43600464 228.30200195 439.00000000 -0.828093 -0.339124 -0.446382 0.000000
286.35900879 193.38000488 464.00000000 -0.131626 0.481663 -0.866415 0.000000
122.66300201 163.25999451 394.00000000 -0.414708 0.908599 -0.049658 0.000000
200.80099487 220.44400024 436.00000000 -0.446723 -0.868047 -0.216638 0.000000
78.13770294 235.72300720 369.00000000 0.637602 -0.755174 0.152241 0.000000
108.25800323 146.23500061 401.00000000 -0.683825 0.546726 0.483192 0.000000
168.06199646 229.61099243 375.00000000 -0.555778 -0.186269 0.810194 0.000000
68.53420258 223.50000000 428.00000000 0.992861 -0.091911 0.076025 0.000000
112.62300110 226.55599976 468.00000000 0.124668 -0.558805 -0.819875 0.000000
83.37599945 158.02099609 466.00000000 0.690128 0.286619 -0.664509 0.000000
244.01699829 152.78300476 469.00000000 -0.821578 -0.492947 -0.286379 0.000000
207.78500366 185.08599854 472.50000000 -0.086536 -0.229508 -0.969452 0.000000
112.18699646 146.67199707 378.00000000 -0.782901 0.570377 -0.248466 0.000000
187.70500183 174.60899353 483.50000000 -0.171294 -0.401604 -0.899651 0.000000
133.13999939 202.54699707 344.00000000 -0.864500 -0.004021 0.502616 0.000000
107.38500214 276.31900024 388.00000000 0.563099 -0.825971 0.026287 0.000000
80.32029724 171.99000549 345.50000000 0.920761 0.245632 0.303090 0.000000
138.81399536 135.32200623 484.50000000 0.085912 0.662540 -0.744083 0.000000
159.76800537 129.64700317 434.00000000 -0.802401 0.445421 -0.397181 0.000000
132.26699829 184.21299744 341.00000000 -0.679801 0.305184 0.666883 0.000000
79.88379669 240.08799744 380.00000000 0.811217 -0.562304 -0.160444 0.000000
140.56100464 182.02999878 353.00000000 -0.760011 0.322965 0.563983 0.000000
194.68899536 123.97299957 445.50000000 -0.326239 0.624886 0.709286 0.000000
167.18800354 270.64498901 383.00000000 -0.573257 -0.657312 0.489201 0.000000
173.73599243 233.10400391 381.50000000 -0.569522 -0.063911 0.819487 0.000000
140.56100464 182.90299988 488.00000000 -0.184043 -0.019678 -0.982721 0.000000
253.18400574 187.26899719 463.00000000 0.308265 -0.804652 -0.507452 0.000000
89.05079651 163.25999451 326.50000000 0.566240 0.001358 0.824239 0.000000
153.22000122 129.21099854 428.00000000 -0.753685 -0.001378 0.657235 0.000000
73.33589935 185.95899963 456.50000000 0.773310 0.026569 -0.633471 0.000000
173.73599243 110.00399780 466.50000000 0.222433 0.298939 -0.927986 0.000000
162.82299805 143.17999268 440.00000000 0.001286 0.916599 -0.399807 0.000000
202.98300171 181.59399414 440.00000000 -0.404804 0.904110 0.136815 0.000000
104.76599884 111.31300354 426.00000000 0.371222 0.921891 -0.110956 0.000000
203.41999817 139.68800354 442.50000000 -0.401345 0.401345 0.823313 0.000000
134.44900513 278.93798828 420.00000000 -0.091815 -0.779699 -0.619387 0.000000
265.40600586 185.95899963 463.50000000 0.004045 -0.529873 -0.848067 0.000000
187.26899719 166.75199890 443.00000000 -0.393087 0.343369 0.852983 0.000000
79.44730377 161.07699585 365.00000000 0.950382 0.207430 0.231834 0.000000
115.24199677 230.04800415 332.00000000 -0.218974 -0.822302 0.525232 0.000000
78.57420349 252.31100464 424.50000000 0.661340 -0.687086 -0.300902 0.000000
127.46499634 283.30398560 412.00000000 0.131891 -0.920461 -0.367907 0.000000
69.40720367 169.37100220 386.00000000 0.973883 0.205750 0.096017 0.000000
90.79689789 244.88999939 448.00000000 0.396603 -0.557877 -0.729026 0.000000
78.57420349 237.46899414 381.50000000 0.835902 -0.545521 -0.060613 0.000000
128.33799744 210.84100342 338.00000000 -0.763691 -0.165492 0.624010 0.000000
261.04098511 180.72099304 463.50000000 -0.820937 0.275723 -0.500039 0.000000
151.03700256 181.15699768 366.00000000 -0.602049 0.602049 0.524474 0.000000
83.81250000 134.88600159 401.00000000 0.864905 0.455606 0.210625 0.000000
202.54699707 161.51400757 429.50000000 -0.044321 -0.431127 0.901202 0.000000
89.05079651 257.98498535 405.00000000 0.392597 -0.843066 0.367570 0.000000
140.99699402 178.10200500 417.00000000 -0.625173 -0.188934 0.757273 0.000000
