328.95599365 214.44599915 367.50000000 -0.000978 -0.000978 -0.999999 0.000000
293.56201172 157.71200562 350.00000000 -0.551950 0.063524 -0.831454 0.000000
206.11799622 272.74200439 402.50000000 0.073610 -0.470825 -0.879151 0.000000
162.39599609 259.20901489 397.50000000 -0.000978 -0.000978 -0.999999 0.000000
283.15200806 205.07699585 307.50000000 -0.000978 -0.000978 -0.999999 0.000000
141.05499268 251.92199707 280.00000000 0.986740 -0.156533 0.042902 0.000000
204.03599548 306.57400513 390.00000000 -0.514230 -0.794430 -0.323185 0.000000
149.38299561 202.99499512 270.00000000 0.887295 0.444357 0.123511 0.000000
216.52799988 195.70799255 387.50000000 -0.001156 0.978855 0.204554 0.000000
288.35699463 208.19999695 307.50000000 0.048707 0.532993 -0.844717 0.000000
176.97000122 172.28599548 320.00000000 0.675733 0.438810 -0.592309 0.000000
225.89700317 187.38000488 382.50000000 -0.000978 -0.000978 -0.999999 0.000000
181.13400269 258.16799927 402.50000000 -0.000978 -0.000978 -0.999999 0.000000
265.45498657 221.73300171 322.50000000 0.000978 0.000978 0.999999 0.000000
237.86799622 255.04499817 312.00000000 -0.842055 -0.536617 -0.054642 0.000000
182.17500305 199.87199402 382.50000000 0.268092 0.623433 -0.734478 0.000000
222.77400208 240.47099304 397.50000000 -0.000978 -0.000978 -0.999999 0.000000
141.57600403 266.49600220 337.50000000 0.983699 0.178750 -0.019605 0.000000
154.06799316 244.63499451 242.50000000 0.000978 0.000978 0.999999 0.000000
187.38000488 305.01300049 342.50000000 -0.271011 -0.884902 0.378816 0.000000
303.97198486 217.04899597 332.00000000 0.756048 0.503485 -0.418204 0.000000
188.42100525 270.66000366 272.50000000 0.210019 -0.801752 0.559540 0.000000
212.36399841 164.47799683 352.50000000 0.115384 0.948270 -0.295754 0.000000
159.27299500 244.63499451 242.50000000 0.178632 -0.827112 0.532894 0.000000
275.86499023 153.02699280 282.50000000 -0.000978 -0.000978 0.999999 0.000000
315.42300415 197.78999329 372.50000000 -0.212967 0.436358 -0.874206 0.000000
175.92900085 317.50500488 362.50000000 -0.121891 -0.903674 0.410506 0.000000
215.48699951 224.85600281 252.50000000 0.000978 0.000978 0.999999 0.000000
331.03799438 171.76499939 332.50000000 -0.635587 0.727517 -0.258356 0.000000
272.74200439 192.58500671 302.50000000 -0.000978 -0.000978 -0.999999 0.000000
234.22500610 278.98800659 347.50000000 -0.442989 0.459335 0.769917 0.000000
220.69200134 230.06100464 257.50000000 -0.978855 -0.001156 0.204554 0.000000
165.51899719 284.71398926 302.00000000 -0.001156 -0.978855 0.204554 0.000000
142.61700439 260.25000000 312.50000000 0.978855 0.001156 -0.204554 0.000000
231.10200500 230.06100464 277.50000000 -0.978855 -0.001156 0.204554 0.000000
197.78999329 169.68299866 352.50000000 0.399522 0.641556 -0.654819 0.000000
320.62799072 158.23199463 292.50000000 -0.001375 0.768784 0.639507 0.000000
278.98800659 149.90400696 347.50000000 -0.543171 0.751957 -0.373532 0.000000
181.13400269 278.46701050 292.00000000 -0.178297 -0.894384 0.410228 0.000000
267.53698730 252.44299316 360.00000000 -0.817948 -0.443121 -0.366885 0.000000
319.58700562 201.95399475 332.50000000 0.502929 0.583667 -0.637492 0.000000
143.13699341 258.16799927 372.00000000 0.933684 0.220434 -0.282211 0.000000
341.44799805 183.21600342 327.50000000 -0.877608 0.377417 -0.295568 0.000000
258.68899536 243.59399414 370.00000000 0.380081 -0.620305 -0.686120 0.000000
159.27299500 287.31600952 307.50000000 -0.001345 -0.848828 0.528668 0.000000
170.20399475 266.49600220 400.00000000 0.693230 -0.185989 -0.696305 0.000000
266.49600220 231.62199402 380.00000000 0.822021 0.568018 -0.040473 0.000000
208.19999695 289.39801025 332.50000000 -0.310938 -0.786114 0.534175 0.000000
141.57600403 271.70098877 372.50000000 0.923189 0.001277 -0.384343 0.000000
220.69200134 156.14999390 267.50000000 -0.446689 -0.894688 0.001310 0.000000
218.61000061 294.60299683 392.50000000 -0.000978 -0.000978 -0.999999 0.000000
233.18400574 234.22500610 392.50000000 -0.000978 -0.000978 -0.999999 0.000000
199.35200500 286.27499390 320.00000000 -0.480593 -0.720057 0.500548 0.000000
287.31600952 229.53999329 340.00000000 0.291354 0.946566 -0.138293 0.000000
233.18400574 254.00399780 382.50000000 -0.766068 -0.107338 0.633734 0.000000
244.63499451 248.79899597 347.50000000 -0.087587 -0.995898 0.022708 0.000000
144.17799377 270.66000366 292.00000000 0.936889 -0.344618 0.058965 0.000000
301.89001465 188.42100525 372.50000000 -0.000978 -0.000978 -0.999999 0.000000
214.44599915 205.07699585 397.50000000 0.016464 0.338135 -0.940953 0.000000
274.82400513 140.53500366 337.50000000 -0.104154 0.781889 -0.614656 0.000000
187.89999390 241.51199341 402.00000000 0.699473 0.699473 -0.146542 0.000000
153.54800415 204.03599548 302.00000000 0.978855 -0.001156 -0.204554 0.000000
294.60299683 194.66700745 372.50000000 -0.210702 0.414037 -0.885538 0.000000
219.65100098 195.70799255 387.50000000 -0.000978 -0.000978 -0.999999 0.000000
149.38299561 306.05398560 350.00000000 0.676243 -0.726775 0.120386 0.000000
293.56201172 162.39599609 352.50000000 -0.400554 0.837236 -0.372280 0.000000
217.56900024 208.19999695 252.50000000 -0.788579 -0.164350 0.592565 0.000000
169.16299438 242.55299377 400.00000000 0.764121 -0.092045 -0.638472 0.000000
150.94500732 255.04499817 252.50000000 0.946870 -0.314760 -0.066061 0.000000
233.18400574 230.06100464 297.50000000 -0.338302 0.940298 -0.037303 0.000000
144.69900513 268.57800293 282.50000000 0.967901 -0.192546 0.161532 0.000000
224.85600281 236.30700684 262.50000000 -0.649365 0.248054 0.718884 0.000000
194.14599609 303.97198486 342.00000000 -0.272944 -0.815712 0.510015 0.000000
285.23400879 207.15899658 377.50000000 -0.250259 0.225371 -0.941583 0.000000
141.57600403 237.34800720 267.50000000 0.978855 0.001156 0.204554 0.000000
175.92900085 245.67599487 242.50000000 -0.630277 0.772270 0.079690 0.000000
231.10200500 229.02000427 297.50000000 -0.863209 0.358516 -0.355439 0.000000
324.79199219 213.40499878 347.50000000 0.199720 0.556473 -0.806505 0.000000
203.51600647 296.68499756 340.00000000 0.376684 -0.676057 0.633290 0.000000
264.93499756 201.95399475 382.00000000 -0.300930 0.546132 -0.781781 0.000000
331.03799438 173.32699585 332.00000000 -0.576046 0.766475 -0.284056 0.000000
275.86499023 217.04899597 320.00000000 0.768494 0.616317 0.171960 0.000000
261.29098511 259.72900391 352.00000000 0.000978 0.000978 -0.999999 0.000000
260.25000000 176.44999695 372.00000000 -0.258429 0.638937 -0.724551 0.000000
303.97198486 201.43400574 312.00000000 0.620326 0.539194 -0.569619 0.000000
185.81799316 245.67599487 242.00000000 -0.280813 -0.399210 0.872797 0.000000
321.66900635 183.73599243 312.00000000 0.308232 0.547790 -0.777766 0.000000
294.60299683 234.22500610 352.50000000 0.442709 0.666569 -0.599745 0.000000
281.07000732 171.76499939 367.50000000 0.006458 0.401691 -0.915752 0.000000
190.50300598 248.79899597 402.50000000 -0.000978 -0.000978 -0.999999 0.000000
151.98599243 274.82400513 277.50000000 0.541807 -0.639704 0.545183 0.000000
141.57600403 261.81100464 342.00000000 0.954368 0.197316 0.224162 0.000000
324.79199219 166.55999756 332.50000000 -0.796996 0.583864 0.154596 0.000000
282.11099243 217.56900024 317.50000000 -0.001156 0.978855 -0.204554 0.000000
264.93499756 195.70799255 310.00000000 -0.776727 0.590685 -0.218600 0.000000
240.47099304 191.54400635 382.50000000 -0.000978 -0.000978 -0.999999 0.000000
308.13598633 218.61000061 342.50000000 -0.000978 -0.000978 -0.999999 0.000000
178.01100159 191.02299500 362.00000000 0.000978 0.000978 -0.999999 0.000000
338.32501221 190.50300598 347.50000000 -0.953064 0.057414 -0.297274 0.000000
162.39599609 221.73300171 387.50000000 0.860973 0.431249 -0.269721 0.000000
337.80499268 174.88800049 312.00000000 -0.803114 0.530713 0.270836 0.000000
240.47099304 247.23800659 352.00000000 -0.281671 -0.917237 -0.281671 0.000000
189.46200562 157.71200562 272.00000000 0.360404 0.907523 0.215663 0.000000
142.09599304 259.20901489 302.00000000 0.978855 -0.001156 -0.204554 0.000000
234.22500610 272.74200439 352.50000000 0.000978 0.000978 0.999999 0.000000
153.02699280 229.02000427 352.50000000 0.879526 0.439029 0.183541 0.000000
297.72601318 186.33900452 372.50000000 -0.000978 -0.000978 -0.999999 0.000000
174.88800049 279.50900269 292.00000000 0.001156 -0.978855 0.204554 0.000000
174.88800049 246.71699524 242.50000000 -0.630277 0.772270 0.079690 0.000000
230.06100464 173.84700012 282.50000000 0.000978 0.000978 0.999999 0.000000
155.63000488 220.69200134 370.00000000 0.851742 0.512769 -0.107724 0.000000
204.03599548 159.27299500 337.50000000 0.362105 0.709463 -0.604600 0.000000
200.91299438 281.07000732 312.50000000 0.136325 -0.954276 0.266032 0.000000
151.98599243 286.27499390 382.50000000 -0.000978 -0.000978 -0.999999 0.000000
192.58500671 170.72399902 252.50000000 0.000978 0.000978 0.999999 0.000000
217.56900024 291.48001099 392.50000000 -0.000978 -0.000978 -0.999999 0.000000
205.07699585 288.35699463 327.50000000 -0.270515 -0.839368 0.471468 0.000000
224.85600281 181.13400269 277.50000000 -0.978855 0.001156 0.204554 0.000000
156.14999390 280.02899170 392.50000000 0.793779 0.595704 0.122688 0.000000
273.78298950 236.30700684 357.50000000 -0.528563 -0.569092 -0.629885 0.000000
335.20199585 215.48699951 367.50000000 -0.894384 0.178297 -0.410228 0.000000
273.78298950 205.07699585 307.50000000 -0.380138 0.399066 -0.834411 0.000000
271.70098877 225.89700317 322.50000000 0.000978 0.000978 0.999999 0.000000
325.83300781 192.58500671 367.50000000 -0.000978 -0.000978 -0.999999 0.000000
242.55299377 147.82200623 347.50000000 0.123862 0.914355 -0.385504 0.000000
195.70799255 313.34100342 382.50000000 0.001156 -0.978855 -0.204554 0.000000
191.54400635 312.82000732 382.00000000 0.001156 -0.978855 -0.204554 0.000000
301.89001465 168.12199402 292.00000000 0.197648 -0.589878 0.782930 0.000000
171.76499939 198.83099365 367.50000000 0.819801 0.547033 -0.169356 0.000000
326.87399292 200.91299438 367.50000000 -0.297813 0.121529 -0.946857 0.000000
163.43699646 177.49099731 282.00000000 0.720605 0.692291 0.038225 0.000000
160.31399536 216.52799988 377.50000000 0.700155 0.621816 -0.350894 0.000000
199.87199402 179.05200195 367.50000000 0.999999 -0.000978 -0.000978 0.000000
202.99499512 252.96299744 257.50000000 0.000978 0.000978 0.999999 0.000000
247.75799561 216.52799988 392.50000000 -0.209142 -0.157181 -0.965170 0.000000
147.82200623 251.92199707 257.50000000 0.722662 -0.561339 0.403308 0.000000
185.29800415 283.15200806 402.50000000 0.247768 -0.670708 -0.699115 0.000000
278.46701050 202.99499512 380.00000000 -0.659876 0.478536 -0.579281 0.000000
216.52799988 295.64401245 352.50000000 -0.578409 -0.697737 0.422619 0.000000
190.50300598 217.56900024 397.50000000 -0.000978 -0.000978 -0.999999 0.000000
178.01100159 247.75799561 242.50000000 -0.412231 0.377483 0.829200 0.000000
193.62600708 309.17700195 392.50000000 -0.000978 -0.000978 -0.999999 0.000000
286.27499390 200.39300537 302.00000000 -0.185324 0.752018 -0.632553 0.000000
275.86499023 216.52799988 317.50000000 0.946870 0.314760 -0.066061 0.000000
278.98800659 232.14300537 357.50000000 0.219858 -0.963992 -0.149607 0.000000
328.95599365 184.25700378 357.50000000 -0.585518 0.609142 -0.534897 0.000000
221.73300171 151.98599243 342.50000000 0.446699 0.492853 -0.746697 0.000000
184.25700378 247.23800659 242.00000000 0.000978 0.000978 0.999999 0.000000
217.56900024 189.46200562 382.50000000 -0.000978 -0.000978 -0.999999 0.000000
329.47698975 186.33900452 360.00000000 -0.404269 0.562676 -0.721084 0.000000
237.34800720 166.03999329 362.00000000 0.530255 0.694183 -0.486764 0.000000
306.05398560 199.87199402 317.50000000 0.768465 0.575160 -0.280450 0.000000
181.13400269 266.49600220 402.50000000 -0.000978 -0.000978 -0.999999 0.000000
148.86300659 287.31600952 382.50000000 -0.000978 -0.000978 -0.999999 0.000000
219.65100098 254.00399780 397.50000000 -0.000978 -0.000978 -0.999999 0.000000
194.66700745 198.83099365 392.50000000 -0.013225 0.251274 -0.967826 0.000000
339.36599731 194.66700745 327.50000000 -0.000978 -0.000978 -0.999999 0.000000
171.76499939 258.16799927 402.50000000 -0.000978 -0.000978 -0.999999 0.000000
146.78100586 208.19999695 257.50000000 0.736119 0.538503 0.410053 0.000000
296.68499756 243.59399414 377.50000000 0.446689 0.894688 0.001310 0.000000
172.80599976 255.04499817 402.50000000 -0.000978 -0.000978 -0.999999 0.000000
160.31399536 308.65600586 380.00000000 0.515749 -0.545989 -0.660226 0.000000
235.26600647 219.65100098 307.50000000 -0.694468 -0.409388 0.591706 0.000000
224.85600281 196.74899292 387.50000000 -0.000978 -0.000978 -0.999999 0.000000
184.25700378 311.25900269 387.50000000 0.039906 -0.941021 -0.335987 0.000000
187.38000488 214.44599915 397.50000000 -0.000978 -0.000978 -0.999999 0.000000
266.49600220 131.68699646 290.00000000 0.396717 0.876398 0.273026 0.000000
272.74200439 233.18400574 327.50000000 -0.420500 -0.542527 0.727217 0.000000
317.50500488 197.78999329 327.50000000 0.456727 0.627372 -0.630718 0.000000
198.83099365 151.46499634 280.00000000 -0.001345 0.848828 0.528668 0.000000
300.84899902 173.84700012 362.50000000 0.345285 0.518730 -0.782111 0.000000
191.54400635 212.36399841 397.50000000 -0.000978 -0.000978 -0.999999 0.000000
182.17500305 248.27900696 242.00000000 -0.374991 -0.514597 0.771085 0.000000
292.52099609 148.34199524 340.00000000 -0.272944 0.815712 -0.510015 0.000000
290.43899536 217.56900024 317.50000000 0.420931 0.607272 -0.673823 0.000000
316.46398926 188.42100525 367.50000000 -0.000978 -0.000978 -0.999999 0.000000
337.28399658 195.70799255 327.50000000 -0.000978 -0.000978 -0.999999 0.000000
275.86499023 170.72399902 367.50000000 -0.582260 0.452127 -0.675688 0.000000
248.79899597 142.09599304 332.00000000 -0.001156 0.978855 -0.204554 0.000000
154.06799316 292.52099609 317.50000000 0.000978 0.000978 0.999999 0.000000
332.07901001 184.77699280 352.00000000 -0.757229 0.505364 -0.413777 0.000000
173.32699585 265.45498657 260.00000000 -0.265485 -0.866239 0.423259 0.000000
158.23199463 257.12701416 252.50000000 0.274651 -0.535178 0.798844 0.000000
188.42100525 210.28199768 397.50000000 -0.000978 -0.000978 -0.999999 0.000000
298.76699829 196.74899292 372.50000000 -0.139551 0.450303 -0.881903 0.000000
140.53500366 237.34800720 277.50000000 0.926530 0.362201 0.101742 0.000000
179.05200195 292.52099609 397.50000000 -0.000978 -0.000978 -0.999999 0.000000
237.86799622 276.90600586 350.00000000 0.142760 0.737844 0.659702 0.000000
262.33200073 143.65800476 342.50000000 -0.217201 0.867308 -0.447884 0.000000
262.33200073 256.08599854 362.50000000 -0.000978 -0.000978 -0.999999 0.000000
231.62199402 260.25000000 350.00000000 -0.943908 -0.327478 -0.042380 0.000000
142.61700439 262.33200073 372.50000000 0.951005 0.236737 0.198859 0.000000
221.73300171 156.14999390 347.50000000 0.403175 0.652048 -0.642093 0.000000
239.42999268 210.80299377 390.00000000 -0.345322 0.924120 -0.163573 0.000000
244.63499451 190.50300598 297.50000000 -0.357498 -0.268494 0.894486 0.000000
162.39599609 250.36099243 242.00000000 0.484837 -0.422804 0.765618 0.000000
248.79899597 217.04899597 390.00000000 -0.280801 -0.321966 -0.904151 0.000000
244.63499451 236.82699585 372.00000000 -0.342460 -0.853827 -0.392047 0.000000
324.79199219 171.76499939 302.50000000 0.000978 0.000978 0.999999 0.000000
238.38900757 250.88099670 347.50000000 -0.699473 -0.699473 -0.146542 0.000000
308.13598633 207.15899658 327.50000000 0.631715 0.574440 -0.520533 0.000000
210.28199768 201.95399475 252.50000000 -0.930833 -0.309345 0.194565 0.000000
171.76499939 209.76199341 382.00000000 -0.287592 0.883857 -0.368901 0.000000
149.38299561 234.22500610 312.00000000 0.781505 0.389944 -0.487025 0.000000
223.29400635 255.04499817 270.00000000 -0.727771 -0.427421 0.536339 0.000000
156.67100525 221.73300171 322.00000000 0.951914 0.271022 -0.142854 0.000000
146.78100586 231.10200500 307.50000000 0.901707 0.293682 -0.317295 0.000000
291.48001099 242.03300476 372.00000000 0.051082 0.996634 0.064124 0.000000
232.14300537 260.25000000 347.50000000 -0.826289 -0.558918 -0.069687 0.000000
208.19999695 231.10200500 247.50000000 -0.393280 0.195914 0.898303 0.000000
274.82400513 230.06100464 327.50000000 0.000978 0.000978 0.999999 0.000000
198.83099365 168.64199829 352.50000000 0.409554 0.635058 -0.654955 0.000000
252.44299316 184.25700378 320.00000000 -0.868935 -0.467437 0.162650 0.000000
212.36399841 235.26600647 402.50000000 -0.206427 -0.117777 -0.971348 0.000000
268.57800293 159.27299500 287.50000000 -0.493509 0.493509 -0.716169 0.000000
145.21899414 254.00399780 330.00000000 0.978855 -0.001156 -0.204554 0.000000
160.31399536 180.09300232 292.50000000 0.699473 0.699473 -0.146542 0.000000
300.84899902 148.86300659 277.50000000 0.598202 -0.797122 -0.082163 0.000000
186.33900452 159.27299500 307.50000000 0.686940 0.721943 -0.083133 0.000000
143.65800476 242.03300476 260.00000000 0.656870 0.352187 0.666698 0.000000
172.80599976 244.63499451 402.50000000 0.412453 0.027673 -0.910559 0.000000
234.22500610 148.86300659 267.50000000 -0.283604 -0.036231 0.958257 0.000000
151.98599243 232.66299438 322.00000000 0.911805 0.374110 -0.169274 0.000000
295.64401245 223.81500244 377.50000000 0.000978 0.000978 -0.999999 0.000000
303.97198486 154.06799316 282.50000000 0.000978 0.000978 0.999999 0.000000
143.13699341 263.37298584 312.00000000 0.993370 -0.052755 -0.102143 0.000000
181.65400696 281.07000732 400.00000000 0.686591 -0.634154 -0.355585 0.000000
218.61000061 239.42999268 397.50000000 -0.168645 -0.019503 -0.985484 0.000000
224.85600281 174.88800049 372.50000000 0.130314 0.690514 -0.711484 0.000000
247.75799561 250.88099670 327.50000000 -0.067256 -0.995613 0.065051 0.000000
247.75799561 218.61000061 312.50000000 0.000978 0.000978 0.999999 0.000000
215.48699951 265.45498657 397.50000000 -0.000978 -0.000978 -0.999999 0.000000
181.13400269 260.25000000 402.50000000 -0.000978 -0.000978 -0.999999 0.000000
273.78298950 153.54800415 352.00000000 -0.374229 0.733751 -0.567064 0.000000
158.75300598 181.13400269 290.00000000 0.668303 0.742401 0.047023 0.000000
159.79400635 216.52799988 332.00000000 0.908734 0.410088 -0.077658 0.000000
337.28399658 208.72099304 342.00000000 0.057418 0.917352 -0.393914 0.000000
246.71699524 163.43699646 367.50000000 -0.000978 -0.000978 -0.999999 0.000000
195.70799255 284.19299316 312.50000000 0.659292 -0.133054 0.740021 0.000000
188.42100525 290.43899536 397.50000000 -0.000978 -0.000978 -0.999999 0.000000
175.92900085 260.77099609 252.00000000 -0.304186 -0.638952 0.706549 0.000000
302.93099976 165.51899719 292.50000000 -0.551897 -0.639660 0.535019 0.000000
234.74499512 200.91299438 290.00000000 -0.493509 -0.493509 0.716169 0.000000
287.31600952 192.58500671 377.50000000 -0.000978 -0.000978 -0.999999 0.000000
233.18400574 230.06100464 302.50000000 -0.966511 0.243203 0.081908 0.000000
269.61898804 242.55299377 362.50000000 -0.954924 -0.241736 -0.172287 0.000000
239.42999268 195.70799255 297.50000000 -0.440056 -0.246492 0.863477 0.000000
235.26600647 167.60099792 367.50000000 0.351509 0.616366 -0.704652 0.000000
239.42999268 140.01400757 310.00000000 -0.374466 0.923321 0.085167 0.000000
309.17700195 146.25999451 302.00000000 -0.565359 0.769207 -0.297809 0.000000
317.50500488 154.06799316 307.50000000 -0.552776 0.775797 -0.304265 0.000000
143.13699341 237.34800720 300.00000000 0.965228 0.162825 -0.204508 0.000000
141.05499268 243.59399414 292.00000000 0.978855 -0.001156 -0.204554 0.000000
143.13699341 265.45498657 330.00000000 0.966536 0.127413 0.222651 0.000000
201.95399475 262.33200073 267.50000000 -0.126908 -0.838757 0.529511 0.000000
149.90400696 303.45199585 370.00000000 0.723428 -0.448624 -0.524775 0.000000
234.22500610 155.10899353 352.50000000 0.233789 0.735885 -0.635466 0.000000
143.65800476 221.73300171 257.50000000 0.750684 0.139349 0.645798 0.000000
144.69900513 284.19299316 327.50000000 0.918903 -0.176984 0.352553 0.000000
286.27499390 179.05200195 292.50000000 -0.000978 -0.000978 -0.999999 0.000000
178.01100159 264.41400146 402.50000000 -0.000978 -0.000978 -0.999999 0.000000
207.15899658 271.70098877 292.50000000 -0.118220 -0.830457 0.544394 0.000000
174.88800049 225.89700317 397.50000000 0.768465 0.575160 -0.280450 0.000000
284.19299316 133.24800110 312.50000000 0.001156 0.978855 -0.204554 0.000000
228.49899292 227.97900391 270.00000000 -0.848828 -0.001345 0.528668 0.000000
208.19999695 291.48001099 397.50000000 0.000978 0.000978 -0.999999 0.000000
229.02000427 243.59399414 272.50000000 -0.848828 -0.001345 0.528668 0.000000
214.44599915 144.17799377 272.00000000 0.312678 0.940741 0.131298 0.000000
317.50500488 200.91299438 372.50000000 -0.000978 -0.000978 -0.999999 0.000000
202.99499512 188.42100525 377.50000000 0.099108 0.367923 -0.924559 0.000000
243.59399414 250.88099670 317.50000000 0.000978 0.000978 0.999999 0.000000
210.80299377 264.41400146 400.00000000 -0.798539 0.070249 -0.597829 0.000000
163.43699646 239.42999268 397.50000000 0.148109 0.234614 -0.960739 0.000000
210.80299377 295.64401245 342.00000000 -0.472163 -0.692395 0.545574 0.000000
333.11999512 191.54400635 357.50000000 -0.441021 0.826718 0.349340 0.000000
167.60099792 188.42100525 322.50000000 0.856183 0.264028 -0.444116 0.000000
159.27299500 184.25700378 302.50000000 0.706239 0.580538 -0.405219 0.000000
197.78999329 298.76699829 397.50000000 -0.000978 -0.000978 -0.999999 0.000000
146.78100586 227.97900391 247.50000000 0.878461 -0.461371 0.124270 0.000000
225.89700317 261.81100464 282.00000000 -0.570743 -0.773112 0.276676 0.000000
218.61000061 279.50900269 322.00000000 -0.678049 -0.678049 0.283723 0.000000
175.92900085 174.36799622 250.00000000 0.488623 0.733763 0.472059 0.000000
156.14999390 289.39801025 387.50000000 -0.000978 -0.000978 -0.999999 0.000000
315.42300415 176.97000122 357.50000000 -0.355815 0.667358 -0.654240 0.000000
162.39599609 179.57200623 300.00000000 0.618896 0.709862 -0.336250 0.000000
160.31399536 233.18400574 392.50000000 0.687294 0.269496 -0.674536 0.000000
170.72399902 248.79899597 402.50000000 -0.000978 -0.000978 -0.999999 0.000000
261.29098511 227.97900391 382.50000000 -0.000978 -0.000978 -0.999999 0.000000
241.51199341 210.28199768 302.50000000 -0.632107 -0.438639 0.638778 0.000000
195.70799255 174.88800049 247.50000000 -0.740999 -0.095376 0.664698 0.000000
318.02600098 153.02699280 302.00000000 -0.470668 0.848420 -0.242188 0.000000
196.74899292 174.88800049 247.50000000 -0.000978 -0.000978 0.999999 0.000000
148.86300659 241.51199341 337.50000000 0.926327 0.372386 0.056984 0.000000
245.67599487 212.36399841 387.50000000 -0.001156 0.978855 -0.204554 0.000000
205.07699585 286.27499390 322.50000000 -0.147658 -0.912667 0.381098 0.000000
295.12399292 143.65800476 330.00000000 -0.369561 0.866398 -0.335825 0.000000
227.45799255 151.98599243 262.00000000 -0.766008 -0.620390 0.168370 0.000000
308.13598633 229.02000427 377.50000000 -0.240638 0.315568 -0.917884 0.000000
302.93099976 231.62199402 352.00000000 0.323753 0.866920 -0.378990 0.000000
275.86499023 187.38000488 377.50000000 -0.000978 -0.000978 -0.999999 0.000000
309.17700195 235.26600647 367.50000000 0.254371 0.934569 -0.248750 0.000000
210.28199768 303.45199585 382.00000000 -0.699473 -0.699473 -0.146542 0.000000
217.56900024 236.30700684 257.50000000 -0.000978 -0.000978 0.999999 0.000000
274.82400513 194.66700745 382.50000000 0.001381 0.691755 -0.722131 0.000000
219.65100098 280.02899170 392.50000000 -0.290845 0.065344 -0.954536 0.000000
225.89700317 280.02899170 387.50000000 -0.730168 -0.149662 -0.666675 0.000000
333.11999512 178.53100586 310.00000000 -0.703002 -0.684462 0.193133 0.000000
183.21600342 275.86499023 282.50000000 -0.000978 -0.000978 0.999999 0.000000
209.24099731 258.16799927 262.50000000 -0.252968 -0.516800 0.817878 0.000000
303.97198486 216.52799988 372.50000000 -0.000978 -0.000978 -0.999999 0.000000
283.15200806 212.88499451 380.00000000 -0.756608 -0.354812 -0.549229 0.000000
226.93800354 138.97300720 302.00000000 0.227634 0.969644 -0.089293 0.000000
222.77400208 298.24600220 372.00000000 -0.683749 -0.722145 -0.104851 0.000000
173.84700012 178.01100159 247.50000000 0.882993 0.221119 -0.414042 0.000000
149.38299561 262.33200073 382.00000000 0.695711 0.297244 -0.653936 0.000000
189.46200562 276.90600586 292.50000000 -0.376522 -0.902781 0.207887 0.000000
187.89999390 273.78298950 282.00000000 -0.314760 -0.946870 0.066061 0.000000
186.85899353 314.38198853 360.00000000 -0.218324 -0.880723 0.420311 0.000000
207.67999268 200.91299438 392.00000000 0.273202 0.513619 -0.813361 0.000000
191.54400635 168.64199829 252.50000000 0.000978 0.000978 0.999999 0.000000
195.70799255 178.01100159 247.50000000 -0.562432 0.131382 0.816339 0.000000
237.86799622 254.00399780 320.00000000 -0.890796 -0.444701 -0.093401 0.000000
190.50300598 158.23199463 312.50000000 0.480053 0.797948 -0.364455 0.000000
249.83999634 205.07699585 387.50000000 0.000978 0.000978 -0.999999 0.000000
230.06100464 199.87199402 387.50000000 -0.580705 0.207945 -0.787109 0.000000
289.39801025 136.37100220 317.50000000 -0.409175 0.899614 -0.152549 0.000000
233.18400574 134.80900574 280.00000000 0.410367 0.870706 0.271054 0.000000
143.65800476 232.14300537 252.50000000 0.000978 0.000978 0.999999 0.000000
178.01100159 310.21798706 347.50000000 -0.440823 -0.703654 0.557267 0.000000
167.60099792 222.77400208 397.50000000 0.948508 0.256463 -0.185902 0.000000
165.51899719 264.41400146 397.50000000 -0.000978 -0.000978 -0.999999 0.000000
200.91299438 199.87199402 392.50000000 0.080378 0.325464 -0.942132 0.000000
219.65100098 269.61898804 397.50000000 -0.000978 -0.000978 -0.999999 0.000000
326.87399292 172.80599976 302.50000000 0.000978 0.000978 0.999999 0.000000
201.95399475 238.38900757 247.50000000 -0.112467 -0.143909 0.983179 0.000000
280.02899170 135.33000183 322.50000000 -0.000978 -0.000978 -0.999999 0.000000
153.54800415 216.52799988 312.00000000 0.878948 0.218622 -0.423858 0.000000
267.53698730 224.85600281 382.50000000 -0.000978 -0.000978 -0.999999 0.000000
202.99499512 297.20599365 340.00000000 0.376684 -0.676057 0.633290 0.000000
220.69200134 146.78100586 332.50000000 0.507357 0.856075 -0.098613 0.000000
250.88099670 245.15600586 360.00000000 0.727664 -0.452511 -0.515498 0.000000
151.46499634 308.13598633 350.00000000 0.678049 -0.678049 0.283723 0.000000
299.80801392 201.95399475 312.50000000 0.298307 -0.016091 -0.954334 0.000000
283.15200806 157.19099426 352.50000000 0.000978 0.000978 -0.999999 0.000000
271.18099976 151.98599243 352.00000000 -0.342391 0.828365 -0.443373 0.000000
340.40701294 181.13400269 327.50000000 -0.883834 0.405524 -0.233213 0.000000
274.82400513 201.95399475 382.50000000 -0.343744 -0.698891 -0.627210 0.000000
237.34800720 166.55999756 282.50000000 0.383396 -0.082640 0.919879 0.000000
200.91299438 207.15899658 397.50000000 -0.000978 -0.000978 -0.999999 0.000000
197.78999329 181.13400269 247.50000000 0.000978 0.000978 0.999999 0.000000
143.13699341 294.60299683 340.00000000 0.778177 -0.466256 0.420768 0.000000
221.73300171 212.88499451 260.00000000 -0.000978 -0.000978 0.999999 0.000000
278.98800659 198.83099365 302.50000000 0.147103 0.482090 -0.863684 0.000000
220.69200134 259.20901489 397.50000000 -0.000978 -0.000978 -0.999999 0.000000
186.33900452 262.33200073 402.50000000 -0.000978 -0.000978 -0.999999 0.000000
194.66700745 188.42100525 377.50000000 0.305975 0.584717 -0.751322 0.000000
248.79899597 170.72399902 292.50000000 -0.926002 0.022017 0.376876 0.000000
224.85600281 182.17500305 377.50000000 0.000978 0.000978 -0.999999 0.000000
172.80599976 182.17500305 247.50000000 0.841978 0.315936 0.437330 0.000000
326.87399292 168.64199829 332.50000000 -0.638083 0.690304 -0.341072 0.000000
328.95599365 167.60099792 327.50000000 -0.418393 0.838353 -0.349444 0.000000
148.86300659 306.05398560 357.50000000 0.649763 -0.760126 -0.004139 0.000000
187.38000488 265.45498657 267.50000000 -0.322545 -0.765443 0.556832 0.000000
336.24301147 207.15899658 342.50000000 0.317226 0.739121 -0.594195 0.000000
227.97900391 291.00000000 372.00000000 -0.885505 -0.461229 -0.056114 0.000000
215.48699951 182.17500305 377.50000000 -0.219351 0.182128 -0.958496 0.000000
161.35499573 182.17500305 302.50000000 0.783601 0.559715 -0.269609 0.000000
179.05200195 258.16799927 402.50000000 -0.000978 -0.000978 -0.999999 0.000000
338.84500122 189.46200562 342.00000000 -0.925946 0.024606 -0.376854 0.000000
193.62600708 298.76699829 397.50000000 -0.000978 -0.000978 -0.999999 0.000000
180.09300232 312.82000732 382.00000000 0.119973 -0.762794 -0.635415 0.000000
261.29098511 257.12701416 362.50000000 -0.000978 -0.000978 -0.999999 0.000000
138.45300293 268.05700684 350.00000000 0.720860 0.308018 0.620875 0.000000
211.32299805 198.83099365 252.50000000 -0.917428 -0.304846 0.255724 0.000000
146.25999451 286.27499390 322.00000000 0.949169 -0.205631 0.238314 0.000000
269.09899902 245.67599487 360.00000000 -0.963176 -0.241764 -0.117650 0.000000
219.65100098 161.35499573 272.50000000 0.097980 -0.633212 0.767751 0.000000
248.79899597 190.50300598 382.50000000 -0.000978 -0.000978 -0.999999 0.000000
147.82200623 302.93099976 367.50000000 0.777295 -0.444867 -0.444867 0.000000
179.57200623 302.93099976 332.00000000 -0.378510 -0.578416 0.722610 0.000000
191.02299500 176.97000122 352.00000000 0.625115 0.715571 -0.311750 0.000000
233.18400574 146.25999451 340.00000000 0.699473 0.699473 -0.146542 0.000000
200.91299438 297.72601318 397.50000000 -0.000978 -0.000978 -0.999999 0.000000
209.24099731 194.14599609 382.00000000 0.076559 0.767031 -0.637026 0.000000
168.64199829 289.39801025 312.50000000 0.006688 -0.868141 0.496272 0.000000
176.97000122 287.31600952 312.50000000 -0.025416 -0.889544 0.456142 0.000000
257.12701416 182.17500305 377.50000000 -0.000978 -0.000978 -0.999999 0.000000
239.95100403 232.14300537 390.00000000 -0.534856 -0.409782 -0.738924 0.000000
161.35499573 277.42700195 280.00000000 0.078922 -0.968356 0.236765 0.000000
150.42399597 265.45498657 262.00000000 0.605068 -0.755943 0.249885 0.000000
168.64199829 184.77699280 250.00000000 0.510032 0.553797 0.658161 0.000000
168.12199402 185.29800415 250.00000000 0.510032 0.553797 0.658161 0.000000
269.61898804 190.50300598 302.50000000 -0.403817 0.883628 -0.236926 0.000000
331.03799438 186.33900452 317.50000000 0.000000 0.000000 0.000000 0.000000
273.78298950 213.40499878 382.50000000 -0.000978 -0.000978 -0.999999 0.000000
197.78999329 185.29800415 247.50000000 0.000000 0.000000 0.000000 0.000000
291.48001099 173.32699585 362.00000000 0.119879 0.628994 -0.768112 0.000000
211.32299805 291.48001099 337.50000000 -0.548703 -0.738702 0.391463 0.000000
243.59399414 173.84700012 292.50000000 0.000978 0.000978 0.999999 0.000000
197.78999329 214.96699524 400.00000000 0.055494 0.781190 -0.621822 0.000000
252.96299744 234.22500610 382.50000000 -0.690535 -0.699762 -0.183015 0.000000
302.93099976 221.21299744 372.00000000 -0.901248 0.300416 -0.312255 0.000000
157.71200562 255.04499817 250.00000000 0.308694 -0.654560 0.690116 0.000000
204.03599548 232.14300537 402.50000000 -0.000978 -0.000978 -0.999999 0.000000
204.03599548 259.20901489 262.50000000 -0.001345 -0.848828 0.528668 0.000000
170.72399902 186.33900452 247.50000000 0.698486 0.351697 0.623239 0.000000
295.12399292 195.70799255 302.00000000 0.978855 0.001156 -0.204554 0.000000
181.13400269 275.86499023 402.50000000 0.238597 -0.100798 -0.965873 0.000000
198.31100464 201.95399475 392.00000000 0.489667 0.644475 -0.587263 0.000000
202.99499512 225.89700317 402.50000000 -0.000978 -0.000978 -0.999999 0.000000
264.41400146 256.08599854 362.50000000 -0.000978 -0.000978 -0.999999 0.000000
228.49899292 233.18400574 392.00000000 -0.867916 -0.243016 -0.433203 0.000000
297.72601318 174.88800049 362.50000000 -0.000978 -0.000978 -0.999999 0.000000
166.03999329 307.09500122 382.00000000 0.355496 -0.560027 -0.748326 0.000000
261.29098511 144.17799377 342.00000000 -0.160249 0.857113 -0.489569 0.000000
179.05200195 210.28199768 392.50000000 -0.000978 -0.000978 -0.999999 0.000000
154.06799316 194.66700745 302.50000000 0.946657 0.178435 -0.268333 0.000000
310.21798706 227.97900391 357.50000000 0.810732 0.539975 0.226143 0.000000
231.62199402 261.29098511 350.00000000 -0.947332 -0.317477 -0.042075 0.000000
307.61599731 210.28199768 330.00000000 0.662561 0.649408 -0.373204 0.000000
204.03599548 300.84899902 347.50000000 -0.542333 -0.793850 0.275096 0.000000
211.32299805 303.97198486 357.50000000 -0.514942 -0.599359 0.612865 0.000000
239.95100403 246.71699524 310.00000000 -0.999999 0.000978 0.000978 0.000000
220.17199707 198.83099365 270.00000000 -0.715900 0.536510 0.446815 0.000000
234.22500610 252.44299316 282.00000000 -0.897714 -0.339796 0.280443 0.000000
326.87399292 212.36399841 367.50000000 -0.000978 -0.000978 -0.999999 0.000000
238.38900757 204.03599548 297.50000000 -0.735176 -0.363513 0.572166 0.000000
281.07000732 131.68699646 282.00000000 -0.001223 0.954848 0.297091 0.000000
238.38900757 166.55999756 367.50000000 -0.055494 0.621822 -0.781190 0.000000
249.83999634 203.51600647 310.00000000 -0.819206 -0.500886 0.279310 0.000000
205.07699585 248.79899597 402.50000000 -0.000978 -0.000978 -0.999999 0.000000
197.78999329 188.42100525 247.50000000 -0.000978 -0.000978 0.999999 0.000000
229.02000427 156.14999390 352.50000000 0.192341 0.755514 -0.626261 0.000000
270.66000366 159.27299500 362.50000000 -0.000978 -0.000978 -0.999999 0.000000
325.83300781 205.07699585 337.50000000 -0.000978 -0.000978 -0.999999 0.000000
184.25700378 263.37298584 402.50000000 -0.000978 -0.000978 -0.999999 0.000000
138.45300293 275.86499023 362.50000000 0.978855 -0.001156 -0.204554 0.000000
319.58700562 167.60099792 297.50000000 0.000978 0.000978 0.999999 0.000000
301.89001465 234.22500610 377.50000000 -0.000978 -0.000978 -0.999999 0.000000
241.51199341 236.30700684 312.50000000 -0.730068 -0.114027 0.673795 0.000000
229.02000427 181.13400269 282.50000000 0.000978 0.000978 0.999999 0.000000
219.13099670 180.09300232 372.00000000 0.216440 0.805895 -0.551078 0.000000
173.84700012 276.90600586 282.50000000 0.001345 -0.848828 0.528668 0.000000
327.91500854 178.01100159 352.50000000 -0.375252 0.527952 -0.761875 0.000000
308.13598633 190.50300598 372.50000000 -0.000978 -0.000978 -0.999999 0.000000
150.42399597 258.16799927 382.00000000 0.603197 0.361264 -0.711085 0.000000
160.31399536 274.82400513 392.50000000 0.844105 -0.001351 -0.536176 0.000000
249.83999634 205.07699585 317.50000000 -0.845121 0.470875 0.253076 0.000000
221.73300171 159.79400635 350.00000000 0.536634 0.489825 -0.687092 0.000000
185.81799316 172.80599976 332.00000000 0.486466 0.611029 -0.624495 0.000000
164.47799683 311.77999878 380.00000000 0.425588 -0.564691 -0.707106 0.000000
222.77400208 220.69200134 257.50000000 -0.426823 0.426823 0.797273 0.000000
218.08999634 282.11099243 330.00000000 0.311750 -0.625115 0.715571 0.000000
165.51899719 190.50300598 247.50000000 0.691755 0.001381 0.722131 0.000000
200.91299438 249.83999634 252.50000000 -0.000978 -0.000978 0.999999 0.000000
147.82200623 226.93800354 307.50000000 0.903031 0.290207 -0.316724 0.000000
199.87199402 190.50300598 247.50000000 -0.498157 0.151358 0.853774 0.000000
209.24099731 145.74000549 282.50000000 0.513135 0.824406 0.238847 0.000000
231.10200500 173.84700012 372.50000000 0.191756 0.423034 -0.885591 0.000000
242.55299377 165.51899719 282.50000000 -0.768784 -0.001375 0.639507 0.000000
293.56201172 192.58500671 372.50000000 -0.000978 -0.000978 -0.999999 0.000000
188.42100525 164.47799683 327.50000000 0.285386 0.927150 -0.242791 0.000000
162.91700745 191.54400635 250.00000000 0.749665 0.510166 0.421584 0.000000
233.70399475 252.96299744 282.00000000 -0.903463 -0.380177 0.198039 0.000000
165.51899719 191.54400635 247.50000000 0.665456 0.431963 0.608750 0.000000
216.52799988 301.89001465 362.50000000 -0.734420 -0.591751 0.332353 0.000000
237.34800720 190.50300598 292.50000000 0.000978 0.000978 0.999999 0.000000
223.81500244 294.08200073 360.00000000 -0.459822 -0.767460 0.446731 0.000000
146.78100586 281.07000732 312.50000000 0.915803 -0.391707 0.088714 0.000000
173.84700012 228.49899292 400.00000000 0.425027 0.635040 -0.645040 0.000000
316.46398926 211.32299805 342.50000000 -0.000978 -0.000978 -0.999999 0.000000
289.39801025 227.97900391 377.50000000 -0.000978 -0.000978 -0.999999 0.000000
235.26600647 174.88800049 372.50000000 0.219742 0.746498 -0.628056 0.000000
174.88800049 254.00399780 402.50000000 -0.000978 -0.000978 -0.999999 0.000000
225.89700317 245.67599487 397.50000000 -0.000978 -0.000978 -0.999999 0.000000
207.15899658 220.69200134 247.50000000 -0.553013 0.156513 0.818340 0.000000
199.87199402 204.03599548 397.50000000 -0.145672 0.522360 -0.840190 0.000000
262.33200073 212.88499451 330.00000000 -0.023787 0.754181 0.656236 0.000000
171.76499939 208.19999695 382.50000000 -0.001345 0.848828 -0.528668 0.000000
243.59399414 149.90400696 272.50000000 -0.707936 0.136777 -0.692906 0.000000
150.94500732 300.84899902 327.50000000 0.569358 -0.569358 0.593011 0.000000
329.99700928 167.60099792 302.50000000 -0.333763 0.197417 0.921753 0.000000
267.53698730 199.87199402 312.50000000 -0.000978 -0.000978 -0.999999 0.000000
158.75300598 215.48699951 362.00000000 0.857729 0.514100 0.001342 0.000000
259.20901489 224.85600281 382.50000000 -0.530568 0.383641 -0.755855 0.000000
162.39599609 208.19999695 327.50000000 0.778177 0.466256 -0.420768 0.000000
145.21899414 240.47099304 310.00000000 0.917045 0.267171 -0.296054 0.000000
204.03599548 193.10499573 250.00000000 -0.612794 0.261269 0.745803 0.000000
315.42300415 168.64199829 347.50000000 -0.634192 0.482794 -0.603913 0.000000
233.18400574 239.42999268 277.50000000 0.000978 0.000978 0.999999 0.000000
189.46200562 219.65100098 402.50000000 -0.000978 -0.000978 -0.999999 0.000000
229.02000427 283.67300415 350.00000000 0.001358 -0.566240 0.824239 0.000000
159.27299500 195.70799255 312.50000000 0.717931 0.358148 -0.596913 0.000000
199.87199402 178.01100159 367.50000000 0.999999 -0.000978 -0.000978 0.000000
328.95599365 164.47799683 302.50000000 -0.856721 0.290701 0.426054 0.000000
215.48699951 301.89001465 362.50000000 -0.735285 -0.593076 0.328050 0.000000
256.08599854 251.92199707 347.50000000 0.480053 -0.797948 -0.364455 0.000000
181.13400269 162.91700745 310.00000000 0.569358 0.569358 -0.593011 0.000000
217.56900024 216.52799988 397.50000000 -0.000978 -0.000978 -0.999999 0.000000
227.45799255 246.71699524 270.00000000 -0.877615 0.085382 0.471701 0.000000
213.40499878 196.74899292 257.50000000 -0.546413 0.220104 0.808076 0.000000
232.14300537 196.22900391 382.00000000 -0.594345 0.201187 -0.778638 0.000000
274.82400513 202.99499512 307.50000000 -0.329259 0.429129 -0.841093 0.000000
162.39599609 195.70799255 247.50000000 0.627563 0.610738 0.482870 0.000000
271.18099976 239.42999268 332.00000000 -0.668451 -0.645458 0.369537 0.000000
206.11799622 190.50300598 382.50000000 0.460336 0.627730 -0.627730 0.000000
325.83300781 213.40499878 347.50000000 0.255358 0.693114 -0.674081 0.000000
284.19299316 223.81500244 377.50000000 0.000978 0.000978 -0.999999 0.000000
307.09500122 155.10899353 287.50000000 -0.000978 -0.000978 0.999999 0.000000
265.45498657 233.18400574 382.50000000 0.822021 0.568018 -0.040473 0.000000
258.16799927 245.67599487 332.50000000 -0.809358 -0.427918 0.402275 0.000000
168.64199829 255.04499817 247.50000000 0.001156 -0.978855 0.204554 0.000000
223.29400635 263.37298584 392.00000000 -0.558242 -0.297411 -0.774540 0.000000
262.33200073 190.50300598 317.50000000 -0.894688 0.446689 -0.001310 0.000000
197.78999329 275.86499023 402.50000000 -0.000978 -0.000978 -0.999999 0.000000
200.91299438 159.79400635 332.00000000 0.378763 0.788149 -0.485139 0.000000
315.42300415 180.09300232 362.50000000 -0.209501 0.631608 -0.746445 0.000000
263.37298584 150.94500732 357.50000000 -0.691818 0.555121 -0.461767 0.000000
154.58900452 191.54400635 300.00000000 0.967652 0.221141 -0.121436 0.000000
211.84399414 282.11099243 320.00000000 -0.373783 -0.749197 0.546800 0.000000
185.29800415 157.71200562 292.00000000 0.547033 0.819801 -0.169356 0.000000
164.47799683 278.46701050 282.00000000 -0.141682 -0.989507 -0.028336 0.000000
221.73300171 153.02699280 342.50000000 0.446699 0.492853 -0.746697 0.000000
216.52799988 272.74200439 302.50000000 -0.493103 -0.860399 0.128698 0.000000
232.14300537 225.89700317 302.50000000 -0.841954 0.326472 0.429568 0.000000
215.48699951 204.03599548 252.50000000 -0.728402 0.339056 0.595375 0.000000
202.99499512 197.78999329 247.50000000 -0.860973 -0.431249 -0.269721 0.000000
174.88800049 255.04499817 247.50000000 -0.151019 -0.910346 0.385309 0.000000
326.87399292 176.97000122 307.50000000 0.389504 0.884965 0.255192 0.000000
307.09500122 159.27299500 287.50000000 0.000978 0.000978 0.999999 0.000000
275.86499023 169.68299866 287.50000000 -0.000978 -0.000978 -0.999999 0.000000
159.27299500 296.16400146 320.00000000 -0.294212 -0.930500 0.218196 0.000000
234.22500610 257.12701416 382.50000000 -0.916595 -0.032876 0.398462 0.000000
214.44599915 245.67599487 257.50000000 -0.567068 -0.594152 0.570454 0.000000
162.39599609 256.60699463 250.00000000 0.340413 -0.685712 0.643364 0.000000
315.42300415 154.58900452 312.00000000 -0.699473 0.699473 -0.146542 0.000000
295.64401245 168.64199829 357.50000000 -0.307464 0.916617 -0.255498 0.000000
219.65100098 261.29098511 272.50000000 -0.000978 -0.000978 0.999999 0.000000
188.42100525 162.39599609 262.50000000 0.189942 0.952402 0.238437 0.000000
171.76499939 256.08599854 252.50000000 0.000978 0.000978 0.999999 0.000000
239.95100403 194.66700745 292.00000000 -0.457496 -0.457496 0.762493 0.000000
257.12701416 137.41200256 327.50000000 0.315534 0.946601 -0.066223 0.000000
156.67100525 199.87199402 250.00000000 0.596244 0.452611 0.663050 0.000000
285.23400879 153.02699280 347.50000000 -0.047579 0.890404 -0.452678 0.000000
201.95399475 199.87199402 247.50000000 -0.860973 -0.431249 -0.269721 0.000000
221.73300171 270.13900757 302.00000000 -0.251789 -0.909643 0.330382 0.000000
266.49600220 207.15899658 382.50000000 -0.369625 0.125977 -0.920601 0.000000
224.85600281 136.89100647 282.00000000 0.377077 0.871705 0.312959 0.000000
208.19999695 146.78100586 312.50000000 0.309345 0.930833 0.194565 0.000000
337.28399658 214.44599915 357.50000000 0.705324 0.705324 -0.070967 0.000000
237.34800720 230.06100464 392.50000000 -0.331350 -0.034542 -0.942876 0.000000
259.20901489 247.75799561 367.50000000 0.258284 -0.546309 -0.796766 0.000000
307.09500122 225.37600708 372.00000000 -0.468670 0.501791 -0.727018 0.000000
158.23199463 200.91299438 247.50000000 0.804686 0.441694 0.396721 0.000000
306.05398560 230.06100464 352.50000000 0.309345 0.930833 -0.194565 0.000000
241.51199341 187.38000488 382.50000000 -0.000978 -0.000978 -0.999999 0.000000
248.79899597 156.14999390 357.50000000 -0.000978 -0.000978 -0.999999 0.000000
198.83099365 231.10200500 402.50000000 -0.000978 -0.000978 -0.999999 0.000000
185.81799316 201.95399475 390.00000000 0.497755 0.857647 -0.129155 0.000000
149.38299561 268.57800293 382.00000000 0.616743 -0.040928 -0.786100 0.000000
287.31600952 194.66700745 302.50000000 -0.000978 -0.000978 -0.999999 0.000000
296.68499756 187.38000488 302.50000000 0.362624 -0.544749 -0.756144 0.000000
268.57800293 209.24099731 317.50000000 0.890796 -0.444701 0.093401 0.000000
227.97900391 146.78100586 337.50000000 0.001375 0.768784 -0.639507 0.000000
159.27299500 234.22500610 392.50000000 0.687294 0.269496 -0.674536 0.000000
192.58500671 170.72399902 342.50000000 0.601092 0.793208 -0.097514 0.000000
158.23199463 201.95399475 247.50000000 0.838823 0.359048 0.409220 0.000000
209.24099731 267.53698730 402.50000000 -0.521507 0.139558 -0.841756 0.000000
280.02899170 189.98199463 300.00000000 -0.043972 0.659573 -0.750353 0.000000
291.48001099 200.91299438 377.50000000 -0.287501 0.089763 -0.953565 0.000000
166.55999756 281.59100342 300.00000000 -0.192427 -0.822740 0.534856 0.000000
205.07699585 309.17700195 382.50000000 -0.520615 -0.846540 -0.111045 0.000000
182.17500305 175.92900085 332.50000000 0.732125 0.527196 -0.431343 0.000000
183.21600342 162.91700745 312.00000000 0.300416 0.901248 -0.312255 0.000000
151.98599243 202.47500610 250.00000000 0.505388 0.315273 0.803234 0.000000
207.15899658 264.41400146 272.50000000 -0.265840 -0.864359 0.426863 0.000000
140.53500366 285.75500488 342.00000000 0.901248 -0.300416 0.312255 0.000000
171.24499512 195.70799255 342.00000000 0.978855 0.001156 -0.204554 0.000000
272.22100830 206.11799622 310.00000000 -0.485171 0.642977 -0.592613 0.000000
196.74899292 167.60099792 342.50000000 0.609840 0.759571 -0.226156 0.000000
205.07699585 196.74899292 392.50000000 -0.000978 -0.000978 -0.999999 0.000000
175.92900085 314.38198853 377.50000000 0.104943 -0.896916 -0.429568 0.000000
302.93099976 211.84399414 322.00000000 0.420773 0.899245 -0.119618 0.000000
248.79899597 166.55999756 292.50000000 -0.940016 -0.114308 0.321408 0.000000
179.05200195 256.08599854 252.50000000 0.185797 -0.474155 0.860614 0.000000
140.53500366 244.63499451 292.50000000 0.978855 0.001156 -0.204554 0.000000
228.49899292 290.43899536 370.00000000 -0.830084 -0.555722 0.046194 0.000000
145.74000549 241.51199341 372.50000000 0.890013 0.444306 -0.102316 0.000000
209.24099731 215.48699951 402.50000000 -0.236737 0.951005 -0.198859 0.000000
296.68499756 181.13400269 367.50000000 -0.000978 -0.000978 -0.999999 0.000000
255.04499817 246.19700623 322.00000000 -0.723066 -0.626871 0.290188 0.000000
295.12399292 197.78999329 372.00000000 -0.527234 0.365008 -0.767329 0.000000
198.83099365 270.13900757 282.00000000 -0.315534 -0.946601 0.066223 0.000000
294.60299683 233.18400574 377.50000000 -0.000978 -0.000978 -0.999999 0.000000
215.48699951 277.94699097 397.50000000 -0.000978 -0.000978 -0.999999 0.000000
156.14999390 204.03599548 247.50000000 0.297089 0.420235 0.857403 0.000000
174.88800049 179.57200623 322.00000000 0.810732 0.539975 -0.226143 0.000000
164.47799683 239.42999268 397.50000000 -0.000978 -0.000978 -0.999999 0.000000
225.37600708 275.86499023 330.00000000 -0.699473 -0.699473 0.146542 0.000000
336.24301147 178.01100159 332.50000000 -0.679680 0.508502 -0.528640 0.000000
213.40499878 199.87199402 257.50000000 -0.000978 -0.000978 0.999999 0.000000
311.25900269 154.58900452 332.00000000 -0.000978 -0.000978 -0.999999 0.000000
213.40499878 144.69900513 317.50000000 0.819801 0.547033 -0.169356 0.000000
209.24099731 203.51600647 250.00000000 -0.001348 0.848073 0.529877 0.000000
144.17799377 271.70098877 300.00000000 0.925490 -0.370999 0.076343 0.000000
231.10200500 189.46200562 382.50000000 0.000978 0.000978 -0.999999 0.000000
169.68299866 281.59100342 300.00000000 -0.001381 -0.691755 0.722131 0.000000
146.25999451 276.90600586 292.00000000 0.699473 -0.699473 0.146542 0.000000
284.19299316 182.17500305 292.50000000 -0.000978 -0.000978 -0.999999 0.000000
161.87600708 191.54400635 312.00000000 0.699473 0.699473 -0.146542 0.000000
151.98599243 205.07699585 247.50000000 0.436933 0.219212 0.872374 0.000000
271.70098877 162.39599609 362.50000000 -0.000978 -0.000978 -0.999999 0.000000
221.73300171 206.11799622 397.50000000 -0.088769 0.486117 -0.869374 0.000000
155.10899353 205.07699585 247.50000000 0.283774 0.319061 0.904252 0.000000
258.16799927 136.89100647 322.00000000 0.315534 0.946601 -0.066223 0.000000
238.38900757 210.28199768 302.50000000 -0.001277 -0.923189 0.384343 0.000000
151.98599243 233.18400574 342.50000000 0.901248 0.300416 0.312255 0.000000
187.38000488 313.34100342 382.50000000 0.100951 -0.868751 -0.484851 0.000000
206.11799622 205.07699585 247.50000000 -0.548751 0.102800 0.829641 0.000000
164.47799683 275.86499023 397.50000000 0.141365 0.028273 -0.989554 0.000000
217.56900024 286.27499390 392.50000000 -0.460090 -0.184924 -0.868401 0.000000
168.64199829 298.24600220 322.00000000 0.006912 -0.651117 0.758946 0.000000
182.17500305 166.55999756 257.50000000 0.678049 0.678049 0.283723 0.000000
195.70799255 188.42100525 377.50000000 0.409696 0.501102 -0.762263 0.000000
159.27299500 275.86499023 392.50000000 0.714642 0.279782 -0.641100 0.000000
216.00799561 143.65800476 272.00000000 0.419923 0.902210 0.098398 0.000000
