220.04299927 124.52400208 137.50000000 -0.729001 0.342582 0.592618 0.000000
95.13289642 153.14100647 86.25000000 -0.666331 0.095190 0.739555 0.000000
158.16799927 203.41400146 167.50000000 -0.347639 -0.353764 -0.868331 0.000000
61.10160065 227.39100647 83.75000000 0.823392 -0.349270 0.447255 0.000000
217.33599854 164.35600281 167.50000000 -0.073686 -0.767198 -0.637164 0.000000
128.39100647 216.94900513 122.50000000 -0.179523 -0.885941 0.427645 0.000000
77.73049927 238.21899414 192.50000000 0.652709 -0.091993 -0.752003 0.000000
237.44500732 143.85899353 173.75000000 -0.000978 -0.000978 -0.999999 0.000000
110.60199738 147.72700500 103.75000000 -0.376443 0.014133 0.926332 0.000000
143.08599854 94.35939789 101.25000000 0.001351 0.544370 0.838844 0.000000
122.20300293 232.41799927 197.50000000 -0.247316 0.343901 -0.905851 0.000000
136.89900208 269.92999268 181.25000000 -0.474508 -0.714259 0.514467 0.000000
139.99200439 177.89100647 116.25000000 -0.821219 0.252088 0.511909 0.000000
94.35939789 256.00799561 148.75000000 -0.297999 -0.568908 0.766512 0.000000
106.73400116 145.40600586 101.25000000 -0.496215 -0.062548 0.865944 0.000000
71.15630341 265.67599487 142.50000000 -0.481119 -0.658815 0.578349 0.000000
88.94539642 198.00000000 178.75000000 0.192665 0.485395 -0.852802 0.000000
78.50399780 238.99200439 120.00000000 -0.685321 -0.537868 0.490951 0.000000
202.64100647 187.94500732 123.75000000 -0.732842 0.001380 0.680398 0.000000
235.89900208 108.28099823 168.75000000 -0.986317 0.151651 0.064657 0.000000
125.68399811 251.36700439 200.00000000 -0.482090 -0.147103 -0.863684 0.000000
218.88299561 156.23399353 136.25000000 -0.293463 -0.335174 0.895286 0.000000
77.34380341 184.46499634 160.00000000 0.258887 0.675012 -0.690895 0.000000
182.53100586 132.25799561 181.25000000 -0.608552 0.335921 -0.718903 0.000000
68.83599854 181.75799561 153.75000000 0.600786 0.634444 -0.486351 0.000000
160.10200500 202.25399780 130.00000000 -0.694716 -0.694716 0.186387 0.000000
74.63680267 144.63299561 110.00000000 0.857446 0.513922 0.025901 0.000000
94.35939789 216.56300354 193.75000000 0.232883 0.476420 -0.847815 0.000000
130.71099854 191.03900146 173.75000000 -0.000978 -0.000978 -0.999999 0.000000
102.48100281 122.97699738 160.00000000 0.786796 0.429899 -0.442877 0.000000
186.78500366 169.38299561 177.50000000 -0.794597 -0.097684 -0.599228 0.000000
90.49220276 190.26600647 86.25000000 -0.001373 -0.627537 0.778585 0.000000
114.46900177 223.52400208 196.25000000 -0.192546 0.161532 -0.967901 0.000000
157.78100586 136.12500000 108.75000000 -0.661422 0.098260 0.743550 0.000000
82.75789642 172.47700500 78.75000000 -0.000978 -0.000978 0.999999 0.000000
58.39459991 180.21099854 95.00000000 0.946128 0.314506 0.076995 0.000000
105.18800354 220.42999268 196.25000000 -0.120149 0.377019 -0.918380 0.000000
129.55099487 180.21099854 107.50000000 -0.512360 0.488995 0.705955 0.000000
245.17999268 154.68800354 161.25000000 -0.830689 -0.069579 0.552372 0.000000
88.94539642 162.03500366 157.50000000 0.270597 0.228536 -0.935173 0.000000
204.18800354 87.39849854 168.75000000 0.058634 0.440434 -0.895868 0.000000
67.28910065 237.44500732 181.25000000 0.955752 -0.001221 -0.294171 0.000000
106.73400116 198.00000000 181.25000000 -0.370305 0.549748 -0.748767 0.000000
155.46099854 201.09399414 168.75000000 -0.473309 -0.367416 -0.800615 0.000000
148.50000000 193.35899353 173.75000000 -0.224074 -0.504548 -0.833800 0.000000
84.30470276 215.78900146 93.75000000 -0.739124 -0.467946 0.484482 0.000000
117.56300354 139.21899414 103.75000000 -0.425264 -0.415635 0.803989 0.000000
111.37500000 252.91400146 201.25000000 -0.000978 -0.000978 -0.999999 0.000000
157.00799561 160.87500000 188.75000000 -0.000978 -0.000978 -0.999999 0.000000
154.68800354 214.24200439 166.25000000 -0.000978 -0.000978 -0.999999 0.000000
122.97699738 138.83200073 107.50000000 -0.293980 0.118390 0.948451 0.000000
129.16400146 191.03900146 103.75000000 -0.361305 -0.021858 0.932192 0.000000
188.71899414 187.55900574 130.00000000 0.573325 -0.798397 0.184012 0.000000
167.06300354 99.38680267 160.00000000 0.203144 0.557500 -0.804939 0.000000
129.16400146 235.89900208 148.75000000 -0.295076 -0.757628 0.582177 0.000000
150.82000732 86.62509918 123.75000000 -0.003481 0.978185 0.207705 0.000000
167.06300354 106.73400116 168.75000000 -0.142570 0.839253 -0.524717 0.000000
183.30499268 181.75799561 173.75000000 0.439194 -0.320408 -0.839314 0.000000
111.37500000 283.85198975 188.75000000 0.261831 -0.693456 -0.671240 0.000000
107.50800323 172.47700500 93.75000000 -0.736314 0.126951 0.664624 0.000000
83.53130341 174.79699707 78.75000000 -0.400545 0.133515 0.906497 0.000000
114.08200073 224.29699707 125.00000000 -0.247201 -0.800683 0.545708 0.000000
233.57800293 113.30899811 155.00000000 -0.545177 0.612691 0.572182 0.000000
90.49220276 228.16400146 196.25000000 0.202054 0.259783 -0.944292 0.000000
128.39100647 249.04699707 163.75000000 -0.319434 -0.464202 0.826122 0.000000
95.13289642 267.60998535 158.75000000 -0.296175 -0.490490 0.819573 0.000000
75.79689789 146.56599426 90.00000000 0.923832 0.379313 0.051544 0.000000
94.35939789 145.40600586 156.25000000 0.641037 -0.509801 -0.573737 0.000000
55.30080032 188.71899414 117.50000000 0.899841 0.421232 -0.113355 0.000000
199.54699707 152.36700439 178.75000000 -0.042871 -0.243753 -0.968889 0.000000
105.18800354 252.14100647 201.25000000 -0.000978 -0.000978 -0.999999 0.000000
108.28099823 185.23800659 172.50000000 0.450404 0.292531 -0.843541 0.000000
83.53130341 182.53100586 158.75000000 0.232220 -0.327416 -0.915900 0.000000
165.51600647 109.05500031 113.75000000 -0.291886 -0.404972 0.866487 0.000000
152.36700439 189.49200439 108.75000000 0.254861 0.558192 0.789600 0.000000
58.39459991 242.86000061 152.50000000 0.913682 -0.120990 -0.388002 0.000000
119.10900116 169.38299561 106.25000000 -0.534310 0.467729 0.704090 0.000000
68.83599854 252.91400146 121.25000000 -0.540202 -0.752366 0.376999 0.000000
58.39459991 180.21099854 122.50000000 0.882420 0.176484 -0.436105 0.000000
156.23399353 133.03100586 188.75000000 -0.006244 0.325946 -0.945368 0.000000
78.89070129 208.05499268 181.25000000 -0.075339 0.837260 -0.541589 0.000000
211.53500366 173.25000000 157.50000000 -0.759573 -0.378973 -0.528610 0.000000
85.85160065 253.68800354 143.75000000 -0.352195 -0.660160 0.663436 0.000000
205.34800720 185.62500000 157.50000000 -0.662965 -0.555548 -0.501840 0.000000
85.46489716 222.75000000 105.00000000 -0.613391 -0.726088 0.310721 0.000000
122.20300293 262.96899414 198.75000000 -0.711742 -0.226819 -0.664814 0.000000
73.47660065 221.97700500 186.25000000 0.687658 0.213626 -0.693895 0.000000
105.96099854 249.04699707 201.25000000 -0.000978 -0.000978 -0.999999 0.000000
198.77400208 128.39100647 148.75000000 -0.756608 -0.354812 -0.549229 0.000000
171.70300293 205.34800720 155.00000000 -0.842359 -0.485918 -0.233058 0.000000
180.21099854 122.20300293 118.75000000 -0.415945 0.214634 0.883698 0.000000
154.68800354 139.21899414 188.75000000 -0.000978 -0.000978 -0.999999 0.000000
109.05500031 216.56300354 193.75000000 0.117095 0.638837 -0.760379 0.000000
162.42199707 130.71099854 186.25000000 -0.000978 -0.000978 -0.999999 0.000000
215.78900146 143.08599854 176.25000000 0.000978 0.000978 -0.999999 0.000000
101.31999969 161.64900208 93.75000000 -0.760372 0.256606 0.596648 0.000000
90.49220276 170.92999268 81.25000000 -0.703968 -0.114117 0.701004 0.000000
139.99200439 175.18400574 180.00000000 0.343419 -0.496760 -0.797052 0.000000
257.94198608 124.52400208 170.00000000 -0.977490 -0.196474 -0.076881 0.000000
136.89900208 141.15199280 97.50000000 0.208222 -0.831369 0.515236 0.000000
237.44500732 117.56300354 158.75000000 -0.709380 0.283432 0.645327 0.000000
245.17999268 99.77349854 168.75000000 -0.200378 0.064364 -0.977602 0.000000
172.47700500 201.09399414 161.25000000 -0.837480 -0.500056 -0.220389 0.000000
93.97270203 226.61700439 197.50000000 0.216606 0.255236 -0.942304 0.000000
88.17189789 128.39100647 141.25000000 0.806716 0.548567 -0.219734 0.000000
90.49220276 232.03100586 198.75000000 0.187779 0.459836 -0.867923 0.000000
158.55499268 202.64100647 126.25000000 -0.630256 -0.704786 0.325660 0.000000
139.21899414 214.24200439 176.25000000 -0.470745 -0.118759 -0.874240 0.000000
186.39900208 117.56300354 121.25000000 -0.124569 0.222170 0.967018 0.000000
160.87500000 173.25000000 138.75000000 -0.380782 0.554014 0.740320 0.000000
66.12889862 162.42199707 82.50000000 0.878628 0.464154 0.112135 0.000000
217.33599854 105.96099854 176.25000000 0.202243 0.391391 -0.897725 0.000000
61.87500000 239.37899780 95.00000000 0.762288 -0.473766 0.440979 0.000000
77.34380341 271.86300659 172.50000000 0.590570 -0.590570 -0.549958 0.000000
78.50399780 264.51599121 182.50000000 0.642092 -0.438624 -0.628750 0.000000
212.69500732 128.39100647 151.25000000 -0.000978 -0.000978 -0.999999 0.000000
87.01180267 127.61699677 135.00000000 0.785791 0.578922 -0.217675 0.000000
182.53100586 130.71099854 181.25000000 -0.608552 0.335921 -0.718903 0.000000
117.56300354 112.14900208 166.25000000 0.448142 0.684708 -0.574755 0.000000
73.47660065 151.98100281 137.50000000 0.884179 0.176253 -0.432622 0.000000
187.17199707 131.48399353 121.25000000 -0.361827 -0.146687 0.920633 0.000000
132.25799561 228.93800354 143.75000000 -0.238464 -0.568884 0.787087 0.000000
156.62100220 106.73400116 105.00000000 -0.532898 -0.532898 0.657297 0.000000
186.39900208 138.44500732 118.75000000 -0.591427 -0.128958 0.795980 0.000000
251.36700439 170.15600586 168.75000000 -0.823019 -0.551142 -0.137416 0.000000
122.20300293 174.02400208 176.25000000 0.236395 -0.261573 -0.935787 0.000000
202.64100647 173.25000000 128.75000000 0.118325 0.466172 0.876746 0.000000
129.16400146 242.08599854 198.75000000 -0.585546 0.125369 -0.800886 0.000000
146.95300293 199.54699707 108.75000000 -0.432202 -0.461560 0.774702 0.000000
80.43750000 177.50399780 157.50000000 0.686975 -0.286640 -0.667759 0.000000
119.10900116 268.38299561 171.25000000 -0.153480 -0.375955 0.913839 0.000000
63.42190170 167.44900513 107.50000000 0.931337 0.309512 -0.191869 0.000000
88.94539642 187.94500732 168.75000000 0.317678 0.743398 -0.588591 0.000000
194.13299561 112.14900208 126.25000000 -0.204364 0.576215 0.791335 0.000000
184.85200500 179.43800354 131.25000000 0.558834 0.426173 0.711394 0.000000
219.65600586 103.25399780 150.00000000 -0.779394 0.366299 0.508301 0.000000
59.94139862 182.53100586 80.00000000 0.933463 0.243573 0.263284 0.000000
129.93800354 156.23399353 186.25000000 0.339345 -0.166181 -0.925867 0.000000
81.21099854 182.53100586 78.75000000 -0.537986 -0.034575 0.842245 0.000000
135.35200500 231.25799561 191.25000000 -0.324453 0.031809 -0.945367 0.000000
67.28910065 249.82000732 168.75000000 0.732842 0.001380 -0.680398 0.000000
108.66799927 154.68800354 172.50000000 0.741915 -0.104724 -0.662266 0.000000
71.15630341 227.39100647 186.25000000 0.713678 0.101534 -0.693077 0.000000
143.85899353 214.24200439 173.75000000 -0.475046 -0.001323 -0.879960 0.000000
112.92199707 218.11000061 116.25000000 -0.290715 -0.653707 0.698679 0.000000
136.12500000 161.64900208 186.25000000 -0.850780 0.001344 -0.525521 0.000000
80.43750000 183.30499268 78.75000000 -0.603892 -0.088339 0.792156 0.000000
203.41400146 105.96099854 173.75000000 -0.000978 -0.000978 -0.999999 0.000000
99.77349854 130.32400513 90.00000000 -0.425962 -0.741733 0.518062 0.000000
138.44500732 269.15600586 191.25000000 -0.868688 -0.113058 -0.482286 0.000000
141.15199280 153.91400146 137.50000000 -0.900868 0.360053 -0.242485 0.000000
160.87500000 142.31300354 188.75000000 -0.000978 -0.000978 -0.999999 0.000000
237.05900574 102.86699677 167.50000000 -0.388830 0.268728 0.881247 0.000000
198.77400208 122.97699738 151.25000000 -0.097047 -0.993898 -0.052428 0.000000
235.89900208 89.71880341 166.25000000 -0.293027 0.725363 0.622883 0.000000
256.00799561 130.71099854 173.75000000 -0.762225 -0.104274 -0.638859 0.000000
162.42199707 133.80499268 111.25000000 0.000978 0.000978 0.999999 0.000000
168.60899353 125.29699707 113.75000000 -0.167340 0.437995 0.883265 0.000000
132.25799561 132.25799561 186.25000000 0.395142 0.189610 -0.898839 0.000000
146.95300293 236.67199707 161.25000000 -0.571991 -0.659215 0.488121 0.000000
133.80499268 259.10198975 196.25000000 -0.338072 -0.130028 -0.932094 0.000000
193.35899353 122.97699738 173.75000000 0.205636 0.295164 -0.933055 0.000000
91.26570129 270.70300293 158.75000000 -0.359054 -0.438140 0.824083 0.000000
149.27400208 118.72299957 182.50000000 0.129807 0.514854 -0.847394 0.000000
116.01599884 125.29699707 176.25000000 0.461927 0.702062 -0.541972 0.000000
139.99200439 238.99200439 191.25000000 -0.575059 0.266260 -0.773572 0.000000
75.02349854 256.00799561 183.75000000 0.792014 -0.248383 -0.557691 0.000000
85.85160065 259.10198975 148.75000000 -0.354290 -0.452792 0.818204 0.000000
61.10160065 249.82000732 116.25000000 0.690783 -0.690783 0.213628 0.000000
105.18800354 121.43000031 86.25000000 -0.427921 -0.427921 0.796095 0.000000
193.35899353 196.06700134 142.50000000 0.477740 -0.793016 0.378009 0.000000
237.44500732 92.03910065 166.25000000 -0.851147 -0.522390 0.051542 0.000000
107.89499664 208.05499268 187.50000000 -0.091194 0.580458 -0.809167 0.000000
82.75789642 271.47698975 156.25000000 -0.226709 -0.541324 0.809673 0.000000
109.05500031 197.22700500 178.75000000 -0.303667 0.599301 -0.740692 0.000000
105.96099854 251.36700439 148.75000000 -0.262166 -0.783358 0.563578 0.000000
139.99200439 187.17199707 108.75000000 -0.283107 0.679776 0.676577 0.000000
133.03100586 154.68800354 113.75000000 0.083141 -0.402075 0.911824 0.000000
201.86700439 137.67199707 123.75000000 -0.133302 0.044434 0.990079 0.000000
198.77400208 196.06700134 145.00000000 0.322291 -0.642962 -0.694787 0.000000
196.83999634 147.72700500 180.00000000 -0.544370 -0.001351 -0.838844 0.000000
132.25799561 155.46099854 113.75000000 -0.247228 0.043050 0.968001 0.000000
160.10200500 191.81300354 171.25000000 -0.122955 -0.991534 -0.041737 0.000000
122.97699738 250.59399414 161.25000000 -0.349371 -0.745866 0.567118 0.000000
165.51600647 199.54699707 141.25000000 -0.650824 0.374018 -0.660710 0.000000
174.02400208 157.00799561 188.75000000 -0.250110 -0.526629 -0.812469 0.000000
234.35200500 88.17189789 168.75000000 -0.520801 0.396723 -0.755895 0.000000
78.89070129 248.66000366 132.50000000 -0.729059 -0.428178 0.533982 0.000000
157.00799561 151.59399414 121.25000000 -0.258425 -0.824794 -0.502923 0.000000
163.96899414 135.35200500 186.25000000 -0.238715 0.136968 -0.961382 0.000000
109.82800293 195.67999268 178.75000000 -0.303667 0.599301 -0.740692 0.000000
86.62509918 216.94900513 97.50000000 -0.811711 -0.284177 0.510263 0.000000
239.37899780 116.78900146 162.50000000 -0.637312 0.586865 0.499424 0.000000
186.39900208 161.64900208 181.25000000 -0.467190 -0.374073 -0.801126 0.000000
75.79689789 205.34800720 177.50000000 0.375114 0.001272 -0.926978 0.000000
226.61700439 139.99200439 138.75000000 -0.676569 0.182566 0.713389 0.000000
106.73400116 284.62500000 186.25000000 0.261831 -0.693456 -0.671240 0.000000
80.05079651 232.80499268 112.50000000 -0.789304 -0.532026 0.306510 0.000000
198.00000000 165.51600647 173.75000000 -0.208222 -0.831369 -0.515236 0.000000
252.91400146 136.12500000 168.75000000 -0.940298 -0.037303 0.338302 0.000000
87.39849854 170.92999268 158.75000000 0.597588 0.402254 -0.693599 0.000000
128.39100647 149.27400208 186.25000000 0.336246 -0.100472 -0.936399 0.000000
78.89070129 191.03900146 78.75000000 -0.638391 -0.041050 0.768617 0.000000
112.14900208 235.12500000 138.75000000 0.000978 0.000978 0.999999 0.000000
66.51570129 254.84800720 122.50000000 -0.208755 -0.877954 0.430834 0.000000
82.75789642 249.04699707 193.75000000 0.456915 -0.289638 -0.841034 0.000000
58.39459991 191.81300354 80.00000000 0.914671 0.367286 0.168753 0.000000
152.36700439 102.86699677 163.75000000 -0.027181 0.928044 -0.371477 0.000000
181.75799561 103.64099884 121.25000000 -0.544370 -0.001351 0.838844 0.000000
211.92199707 92.03910065 171.25000000 -0.227083 0.498363 -0.836701 0.000000
58.39459991 249.82000732 150.00000000 0.909522 -0.224842 -0.349593 0.000000
130.32400513 164.74200439 112.50000000 -0.393455 -0.027450 0.918934 0.000000
102.48100281 159.32800293 95.00000000 -0.914671 -0.367286 0.168753 0.000000
51.04690170 229.71099854 131.25000000 0.992893 -0.098497 0.066797 0.000000
100.54699707 127.61699677 86.25000000 -0.555309 -0.723384 0.410302 0.000000
61.10160065 186.39900208 148.75000000 0.811647 0.417830 -0.408225 0.000000
56.84769821 216.56300354 150.00000000 0.995794 0.009647 -0.091111 0.000000
58.00780106 193.35899353 78.75000000 0.973292 0.059989 0.221592 0.000000
242.08599854 161.64900208 176.25000000 -0.000978 -0.000978 -0.999999 0.000000
183.30499268 97.06649780 120.00000000 -0.690783 -0.690783 0.213628 0.000000
123.75000000 177.11700439 103.75000000 -0.569446 0.295091 0.767237 0.000000
136.12500000 231.25799561 146.25000000 -0.477663 -0.338014 0.810916 0.000000
184.46499634 122.97699738 120.00000000 -0.358340 0.349112 0.865860 0.000000
153.14100647 110.98799896 175.00000000 0.690783 0.690783 0.213628 0.000000
107.50800323 262.19500732 158.75000000 -0.417036 -0.599801 0.682876 0.000000
156.23399353 133.80499268 188.75000000 0.527918 -0.368731 -0.765075 0.000000
144.63299561 172.86300659 182.50000000 0.232300 -0.210565 -0.949578 0.000000
80.43750000 231.25799561 111.25000000 -0.762434 -0.577795 0.291285 0.000000
130.71099854 196.45300293 176.25000000 -0.296285 0.244757 -0.923206 0.000000
81.98439789 276.50399780 175.00000000 0.706355 -0.556774 -0.437109 0.000000
61.10160065 218.88299561 171.25000000 0.955752 0.001221 -0.294171 0.000000
210.37500000 127.61699677 151.25000000 -0.000978 -0.000978 -0.999999 0.000000
126.84400177 188.33200073 102.50000000 -0.520714 0.331655 0.786678 0.000000
209.98800659 150.82000732 130.00000000 -0.483092 0.068218 0.872908 0.000000
207.28100586 102.86699677 138.75000000 -0.537454 0.120891 0.834583 0.000000
126.84400177 277.66400146 191.25000000 -0.238692 -0.518964 -0.820794 0.000000
255.23500061 142.31300354 168.75000000 0.000978 0.000978 0.999999 0.000000
52.20709991 231.25799561 125.00000000 0.945667 -0.299126 0.127430 0.000000
83.53130341 254.46099854 143.75000000 -0.365917 -0.648148 0.667839 0.000000
223.52400208 109.05500031 148.75000000 -0.001373 0.627537 0.778585 0.000000
72.70320129 183.69200134 157.50000000 0.247679 0.661003 -0.708330 0.000000
156.23399353 122.20300293 108.75000000 -0.684918 -0.041123 0.727459 0.000000
162.42199707 211.14900208 141.25000000 -0.608747 -0.709933 0.354150 0.000000
225.07000732 119.10900116 176.25000000 -0.000978 -0.000978 -0.999999 0.000000
235.89900208 99.00009918 173.75000000 0.154399 0.389538 -0.907977 0.000000
180.98399353 148.50000000 186.25000000 -0.524195 0.464287 -0.713903 0.000000
220.81700134 125.29699707 137.50000000 -0.706672 0.372192 0.601737 0.000000
153.91400146 139.21899414 141.25000000 0.685137 -0.697566 0.209736 0.000000
120.65599823 187.94500732 173.75000000 0.179476 0.383360 -0.905993 0.000000
111.37500000 113.30899811 162.50000000 0.439221 0.663006 -0.606225 0.000000
168.60899353 181.75799561 133.75000000 0.125333 0.573582 0.809503 0.000000
202.64100647 127.61699677 123.75000000 -0.305493 0.225923 0.925004 0.000000
201.09399414 85.85160065 168.75000000 0.207568 0.373041 -0.904299 0.000000
52.59379959 226.61700439 141.25000000 0.925411 -0.056928 -0.374666 0.000000
79.66410065 258.32800293 143.75000000 -0.457439 -0.604892 0.651809 0.000000
67.28910065 180.59800720 150.00000000 0.667648 0.533109 -0.519655 0.000000
133.80499268 181.75799561 108.75000000 -0.429052 0.511246 0.744676 0.000000
58.00780106 198.00000000 78.75000000 0.955752 -0.001221 0.294171 0.000000
150.04699707 220.42999268 143.75000000 -0.382387 -0.717181 0.582607 0.000000
113.69499969 167.83599854 101.25000000 -0.582095 0.353823 0.732103 0.000000
187.17199707 88.55860138 165.00000000 0.425169 0.557517 -0.713026 0.000000
219.65600586 133.03100586 133.75000000 -0.803827 -0.481018 0.349976 0.000000
68.83599854 257.55499268 166.25000000 0.742373 -0.120505 -0.659061 0.000000
245.95300293 116.01599884 173.75000000 -0.000978 -0.000978 -0.999999 0.000000
221.97700500 102.09400177 153.75000000 -0.813131 0.348485 0.466237 0.000000
155.46099854 218.88299561 148.75000000 -0.660361 -0.536018 0.525936 0.000000
188.71899414 102.86699677 171.25000000 0.314185 0.152291 -0.937067 0.000000
179.43800354 153.14100647 143.75000000 0.000978 0.000978 0.999999 0.000000
124.52400208 201.86700439 103.75000000 -0.019576 -0.403274 0.914870 0.000000
149.27400208 168.22300720 185.00000000 0.361705 -0.272395 -0.891611 0.000000
153.91400146 188.71899414 108.75000000 0.314999 0.772308 0.551648 0.000000
170.15600586 116.78900146 178.75000000 -0.480593 0.720057 -0.500548 0.000000
110.60199738 179.43800354 93.75000000 -0.498172 0.213502 0.840382 0.000000
152.36700439 92.81259918 151.25000000 0.268563 0.643598 -0.716698 0.000000
94.35939789 232.03100586 198.75000000 0.191146 0.454898 -0.869788 0.000000
78.11720276 146.95300293 138.75000000 0.810166 0.483563 -0.331359 0.000000
117.17600250 196.45300293 177.50000000 0.097420 0.391052 -0.915198 0.000000
228.16400146 109.05500031 176.25000000 -0.000978 -0.000978 -0.999999 0.000000
158.55499268 192.58599854 171.25000000 -0.579363 -0.596254 -0.555716 0.000000
187.94500732 107.50800323 171.25000000 -0.000978 -0.000978 -0.999999 0.000000
191.81300354 93.58599854 126.25000000 -0.557835 -0.454594 0.694380 0.000000
211.92199707 156.23399353 173.75000000 -0.001351 -0.544370 -0.838844 0.000000
184.07800293 186.39900208 143.75000000 -0.040728 -0.985607 0.164074 0.000000
195.29299927 123.75000000 150.00000000 -0.134176 -0.969904 -0.203181 0.000000
184.07800293 131.48399353 118.75000000 -0.629314 0.104152 0.770140 0.000000
108.28099823 198.00000000 181.25000000 -0.274093 0.578289 -0.768411 0.000000
51.04690170 220.81700134 117.50000000 0.945844 -0.189715 0.263417 0.000000
201.86700439 95.13289642 171.25000000 -0.000978 -0.000978 -0.999999 0.000000
102.86699677 183.30499268 91.25000000 -0.283130 -0.558352 0.779795 0.000000
98.61329651 187.94500732 170.00000000 0.346027 -0.098288 -0.933062 0.000000
91.26570129 165.51600647 158.75000000 0.177395 0.444221 -0.878179 0.000000
187.94500732 166.28900146 133.75000000 -0.000978 -0.000978 0.999999 0.000000
106.73400116 252.91400146 151.25000000 -0.158080 -0.781369 0.603716 0.000000
84.30470276 130.71099854 91.25000000 0.836052 0.518980 0.177979 0.000000
109.82800293 149.66000366 102.50000000 -0.523616 0.225723 0.821508 0.000000
223.52400208 80.82430267 160.00000000 0.805445 0.322496 0.497247 0.000000
51.43360138 219.65600586 137.50000000 0.908469 0.194363 -0.370010 0.000000
92.42579651 179.43800354 85.00000000 -0.448583 -0.356648 0.819497 0.000000
198.77400208 136.51199341 150.00000000 -0.217425 -0.940329 0.261741 0.000000
65.74220276 227.39100647 178.75000000 0.857638 0.077455 -0.508387 0.000000
144.63299561 201.09399414 171.25000000 -0.892279 -0.294437 -0.342264 0.000000
52.20709991 209.60200500 135.00000000 0.952886 0.187343 -0.238559 0.000000
233.57800293 87.78520203 170.00000000 -0.514737 0.397083 -0.759850 0.000000
130.32400513 145.40600586 110.00000000 0.768989 -0.235532 0.594290 0.000000
51.04690170 227.77699280 127.50000000 0.977952 -0.174325 0.114980 0.000000
51.43360138 215.78900146 112.50000000 0.955752 0.001221 0.294171 0.000000
122.97699738 224.29699707 128.75000000 -0.513804 -0.684514 0.517151 0.000000
95.90630341 136.12500000 161.25000000 0.744573 0.162259 -0.647521 0.000000
160.87500000 154.68800354 148.75000000 -0.247409 0.203668 0.947263 0.000000
99.38680267 238.99200439 135.00000000 -0.502724 -0.576704 0.643958 0.000000
170.15600586 157.00799561 143.75000000 -0.150541 -0.480853 0.863781 0.000000
158.55499268 150.82000732 121.25000000 -0.197152 -0.793193 -0.576173 0.000000
74.63680267 146.17999268 97.50000000 0.690783 0.690783 -0.213628 0.000000
81.59770203 141.53900146 140.00000000 0.690783 0.690783 -0.213628 0.000000
92.03910065 211.14900208 188.75000000 -0.001373 0.627537 -0.778585 0.000000
204.18800354 88.17189789 168.75000000 0.049667 0.420158 -0.906091 0.000000
139.99200439 195.67999268 173.75000000 -0.000978 -0.000978 -0.999999 0.000000
100.54699707 282.30499268 186.25000000 -0.517423 0.557873 0.648885 0.000000
243.63299561 166.28900146 176.25000000 0.209024 -0.269932 -0.939918 0.000000
82.37110138 133.03100586 117.50000000 0.808900 0.585071 -0.058082 0.000000
172.86300659 201.86700439 157.50000000 -0.841703 -0.488583 -0.229832 0.000000
139.99200439 192.58599854 106.25000000 0.783452 0.037977 0.620291 0.000000
114.46900177 101.70700073 145.00000000 0.476964 0.845735 -0.239244 0.000000
228.16400146 153.14100647 173.75000000 -0.000978 -0.000978 -0.999999 0.000000
116.01599884 269.92999268 171.25000000 -0.252562 -0.519069 0.816566 0.000000
69.99610138 156.23399353 95.00000000 0.866322 0.499441 0.006695 0.000000
152.75399780 163.19500732 142.50000000 -0.573879 0.567107 0.590807 0.000000
194.90600586 84.30470276 161.25000000 0.064220 0.897713 -0.435876 0.000000
119.10900116 139.21899414 106.25000000 -0.500654 -0.304814 0.810206 0.000000
108.28099823 286.17199707 176.25000000 -0.336706 -0.609974 0.717329 0.000000
113.69499969 107.50800323 156.25000000 0.623660 0.728933 -0.282322 0.000000
65.74220276 244.02000427 170.00000000 0.929985 -0.331246 -0.159386 0.000000
145.40600586 129.93800354 186.25000000 0.118909 0.305956 -0.944591 0.000000
216.56300354 111.37500000 141.25000000 -0.698335 0.633222 0.333703 0.000000
243.63299561 145.40600586 173.75000000 0.095218 0.501670 -0.859803 0.000000
125.29699707 161.64900208 108.75000000 -0.403194 -0.063378 0.912917 0.000000
216.56300354 132.64500427 177.50000000 -0.003996 -0.488802 -0.872386 0.000000
125.68399811 137.67199707 102.50000000 0.769060 -0.621569 -0.148996 0.000000
123.36299896 103.64099884 160.00000000 0.573210 0.800074 -0.176954 0.000000
172.47700500 158.94099426 187.50000000 0.490141 -0.209630 -0.846060 0.000000
201.09399414 118.33599854 126.25000000 -0.687818 0.344726 0.638804 0.000000
61.10160065 202.64100647 161.25000000 0.659022 0.484624 -0.575177 0.000000
85.85160065 252.52699280 195.00000000 0.412039 -0.080765 -0.907580 0.000000
238.99200439 168.99600220 172.50000000 0.331710 0.147274 -0.931815 0.000000
160.87500000 184.07800293 176.25000000 -0.249376 -0.398703 -0.882523 0.000000
127.23100281 106.73400116 120.00000000 0.553855 -0.234263 0.798978 0.000000
102.86699677 139.99200439 168.75000000 0.964963 -0.191948 -0.178890 0.000000
129.93800354 93.19930267 112.50000000 0.584411 0.460496 0.668137 0.000000
122.20300293 226.61700439 131.25000000 -0.648216 -0.648216 0.399540 0.000000
128.39100647 113.69499969 176.25000000 0.154227 0.798088 -0.582469 0.000000
104.41400146 248.27400208 201.25000000 -0.000978 -0.000978 -0.999999 0.000000
94.35939789 228.16400146 121.25000000 -0.301788 -0.771236 0.560463 0.000000
169.38299561 135.35200500 113.75000000 -0.533609 0.063357 0.843355 0.000000
129.93800354 197.22700500 176.25000000 -0.276232 0.070013 -0.958538 0.000000
76.57039642 211.14900208 78.75000000 -0.853774 -0.151358 0.498157 0.000000
152.36700439 177.89100647 131.25000000 -0.508461 0.200669 0.837376 0.000000
97.45320129 225.84399414 198.75000000 0.121097 0.341521 -0.932040 0.000000
207.66799927 176.34399414 162.50000000 -0.856597 -0.388799 -0.339231 0.000000
109.05500031 286.55899048 185.00000000 0.339557 -0.589756 -0.732727 0.000000
51.43360138 230.48500061 137.50000000 0.988281 -0.001114 -0.152643 0.000000
203.41400146 100.54699707 136.25000000 -0.511352 0.326564 0.794906 0.000000
93.58599854 117.94899750 110.00000000 0.784556 0.612798 -0.094612 0.000000
77.73049927 211.92199707 80.00000000 -0.853774 -0.151358 0.498157 0.000000
71.15630341 272.63699341 155.00000000 0.705724 -0.708486 0.001381 0.000000
117.56300354 109.82800293 163.75000000 -0.001380 0.732842 -0.680398 0.000000
194.90600586 146.95300293 181.25000000 -0.272486 0.166745 -0.947601 0.000000
175.57000732 180.21099854 173.75000000 -0.189565 -0.725896 -0.661166 0.000000
127.61699677 155.46099854 111.25000000 -0.478415 0.124991 0.869193 0.000000
120.26999664 122.97699738 177.50000000 0.442605 0.596264 -0.669753 0.000000
191.03900146 147.72700500 181.25000000 -0.226851 0.342444 -0.911740 0.000000
140.76600647 210.37500000 118.75000000 -0.365934 -0.868135 0.335312 0.000000
153.52699280 228.93800354 162.50000000 -0.758047 -0.608000 0.236010 0.000000
105.18800354 185.62500000 93.75000000 -0.371818 -0.284509 0.883632 0.000000
77.34380341 213.46899414 78.75000000 -0.834985 -0.191069 0.516036 0.000000
177.89100647 170.15600586 138.75000000 0.161868 0.453523 0.876422 0.000000
85.85160065 201.09399414 178.75000000 0.212630 0.619264 -0.755844 0.000000
121.04299927 215.01600647 115.00000000 -0.215313 -0.826129 0.520721 0.000000
185.62500000 174.79699707 131.25000000 0.406497 0.432204 0.804960 0.000000
79.27739716 139.99200439 132.50000000 0.847215 0.507146 -0.158206 0.000000
147.72700500 148.50000000 138.75000000 0.250635 -0.442029 0.861274 0.000000
207.28100586 103.64099884 138.75000000 -0.468297 0.146434 0.871352 0.000000
144.63299561 86.23829651 132.50000000 0.252156 0.947289 -0.197636 0.000000
155.84800720 110.60199738 107.50000000 -0.646641 -0.492119 0.582816 0.000000
83.53130341 199.54699707 178.75000000 0.313424 0.589880 -0.744182 0.000000
197.22700500 124.52400208 151.25000000 -0.207973 -0.382496 -0.900247 0.000000
122.97699738 216.56300354 188.75000000 -0.231203 0.460894 -0.856809 0.000000
102.09400177 217.33599854 111.25000000 -0.335797 -0.605084 0.721882 0.000000
139.21899414 192.58599854 173.75000000 0.026739 -0.337426 -0.940972 0.000000
217.33599854 122.58999634 177.50000000 0.232612 0.610411 -0.757159 0.000000
87.39849854 128.00399780 87.50000000 0.774126 0.477514 0.415583 0.000000
217.33599854 116.01599884 176.25000000 -0.000978 -0.000978 -0.999999 0.000000
138.83200073 183.30499268 112.50000000 -0.504441 0.675381 0.537959 0.000000
153.91400146 157.78100586 188.75000000 -0.000978 -0.000978 -0.999999 0.000000
73.86329651 273.02398682 165.00000000 0.690783 -0.690783 -0.213628 0.000000
202.64100647 121.43000031 126.25000000 -0.687818 0.344726 0.638804 0.000000
80.82430267 251.36700439 192.50000000 0.428901 -0.259159 -0.865379 0.000000
91.26570129 275.34399414 186.25000000 0.389262 -0.573217 -0.721039 0.000000
138.44500732 253.68800354 193.75000000 -0.578269 -0.017942 -0.815649 0.000000
206.89500427 193.35899353 147.50000000 -0.569753 -0.764459 -0.301634 0.000000
207.66799927 189.49200439 152.50000000 -0.799300 -0.230359 -0.555026 0.000000
110.60199738 177.89100647 171.25000000 0.309465 0.443204 -0.841310 0.000000
59.55469894 218.11000061 78.75000000 -0.103551 -0.909864 0.401776 0.000000
87.78520203 200.32000732 180.00000000 0.152003 0.624567 -0.766036 0.000000
112.92199707 195.67999268 98.75000000 -0.289673 -0.337209 0.895757 0.000000
187.94500732 158.94099426 132.50000000 0.165859 -0.747127 0.643655 0.000000
145.40600586 94.35939789 101.25000000 0.001344 0.850780 0.525521 0.000000
234.35200500 97.06649780 172.50000000 0.008789 0.332742 -0.942977 0.000000
111.37500000 151.59399414 176.25000000 0.652612 -0.265173 -0.709775 0.000000
190.26600647 175.57000732 173.75000000 -0.164626 0.065140 -0.984203 0.000000
201.09399414 153.14100647 178.75000000 -0.262217 -0.653159 -0.710370 0.000000
179.43800354 183.30499268 171.25000000 0.448209 -0.334977 -0.828794 0.000000
138.44500732 267.99600220 180.00000000 -0.474508 -0.714259 0.514467 0.000000
117.56300354 231.25799561 136.25000000 -0.051125 -0.863600 0.501579 0.000000
91.26570129 231.64500427 125.00000000 -0.417957 -0.715318 0.560029 0.000000
178.66400146 186.01199341 170.00000000 0.976572 0.208834 -0.051907 0.000000
144.63299561 116.78900146 101.25000000 0.000978 0.000978 0.999999 0.000000
184.85200500 124.52400208 176.25000000 0.001373 -0.627537 -0.778585 0.000000
128.39100647 173.63699341 110.00000000 -0.561318 0.137738 0.816058 0.000000
224.29699707 92.81259918 158.75000000 -0.474302 -0.228817 0.850106 0.000000
84.30470276 221.97700500 101.25000000 -0.770443 -0.534626 0.347265 0.000000
94.74620056 190.26600647 90.00000000 -0.725996 -0.381845 0.571948 0.000000
98.22660065 114.08200073 125.00000000 0.800090 0.599020 -0.032115 0.000000
99.77349854 118.33599854 151.25000000 0.772185 0.361001 -0.522884 0.000000
55.30080032 225.84399414 147.50000000 0.889908 0.120258 -0.440002 0.000000
105.57399750 105.96099854 120.00000000 0.617497 0.785002 -0.049684 0.000000
163.19500732 165.51600647 141.25000000 0.525351 0.263455 0.809072 0.000000
121.43000031 243.63299561 151.25000000 -0.403597 -0.729769 0.551857 0.000000
63.42190170 238.99200439 91.25000000 0.664105 -0.610843 0.431086 0.000000
188.71899414 141.53900146 148.75000000 -0.281847 -0.536927 0.795155 0.000000
215.78900146 143.85899353 131.25000000 -0.325178 -0.036981 0.944929 0.000000
203.41400146 84.69149780 167.50000000 -0.387088 0.527550 -0.756210 0.000000
158.94099426 202.64100647 167.50000000 -0.347639 -0.353764 -0.868331 0.000000
149.27400208 215.78900146 138.75000000 -0.391107 -0.751121 0.531839 0.000000
194.90600586 129.93800354 176.25000000 -0.041410 0.190484 -0.980816 0.000000
92.81259918 204.18800354 93.75000000 -0.490180 -0.496826 0.716161 0.000000
77.34380341 176.34399414 153.75000000 0.778245 -0.164716 -0.605973 0.000000
114.46900177 170.92999268 101.25000000 -0.608989 0.239525 0.756148 0.000000
150.04699707 194.90600586 108.75000000 -0.544370 0.001351 0.838844 0.000000
227.39100647 163.58200073 170.00000000 0.622145 -0.527727 -0.578308 0.000000
145.40600586 139.99200439 136.25000000 0.189189 -0.884348 0.426775 0.000000
186.39900208 160.10200500 181.25000000 -0.479890 -0.331013 -0.812487 0.000000
85.07820129 130.71099854 136.25000000 0.590570 0.590570 -0.549958 0.000000
142.31300354 143.85899353 191.25000000 0.000978 0.000978 -0.999999 0.000000
53.75389862 232.80499268 145.00000000 0.903824 -0.066598 -0.422691 0.000000
146.95300293 184.07800293 128.75000000 -0.044447 0.210224 0.976642 0.000000
109.82800293 210.37500000 188.75000000 -0.359813 0.571468 -0.737536 0.000000
61.48830032 224.29699707 80.00000000 0.832027 -0.367860 0.415224 0.000000
218.88299561 166.67599487 162.50000000 -0.221049 -0.938417 -0.265537 0.000000
121.04299927 168.60899353 107.50000000 -0.534310 0.467729 0.704090 0.000000
203.80099487 138.44500732 150.00000000 -0.318533 -0.892790 0.318533 0.000000
61.87500000 225.07000732 78.75000000 0.831894 -0.364644 0.418315 0.000000
115.24199677 199.54699707 101.25000000 -0.457770 -0.272812 0.846180 0.000000
178.66400146 180.98399353 131.25000000 0.468968 0.156323 0.869271 0.000000
246.72700500 104.41400146 168.75000000 0.271132 -0.033427 0.961962 0.000000
186.01199341 186.39900208 137.50000000 0.340595 -0.937623 0.069697 0.000000
148.11300659 118.33599854 182.50000000 -0.176323 0.547052 -0.818318 0.000000
63.42190170 169.77000427 125.00000000 0.690783 0.690783 0.213628 0.000000
179.05099487 149.27400208 137.50000000 -0.906464 -0.312929 0.283546 0.000000
108.28099823 139.99200439 176.25000000 0.723223 0.146456 -0.674907 0.000000
139.21899414 224.68400574 142.50000000 -0.408580 -0.709640 0.573998 0.000000
123.75000000 99.00009918 121.25000000 0.569694 -0.258952 0.779995 0.000000
106.73400116 160.87500000 166.25000000 0.412020 0.060790 -0.909145 0.000000
121.43000031 238.99200439 198.75000000 -0.450404 0.292531 -0.843541 0.000000
163.96899414 130.71099854 186.25000000 -0.000978 -0.000978 -0.999999 0.000000
149.66000366 237.44500732 177.50000000 -0.590570 0.590570 -0.549958 0.000000
202.64100647 119.88300323 176.25000000 0.176357 0.171208 -0.969322 0.000000
119.88300323 161.64900208 178.75000000 0.570215 -0.414852 -0.709050 0.000000
106.73400116 168.60899353 93.75000000 -0.640819 0.362202 0.676875 0.000000
155.46099854 199.16000366 115.00000000 -0.432182 -0.801705 0.412902 0.000000
66.51570129 255.23500061 163.75000000 0.698386 -0.169630 -0.695329 0.000000
105.18800354 106.34799957 125.00000000 0.592612 0.805345 -0.015195 0.000000
112.92199707 227.39100647 128.75000000 -0.254359 -0.744119 0.617729 0.000000
110.60199738 162.42199707 168.75000000 0.628960 -0.544649 -0.554767 0.000000
175.57000732 95.13289642 163.75000000 0.030258 0.403876 -0.914313 0.000000
66.90239716 160.10200500 90.00000000 0.882306 0.469022 -0.039425 0.000000
130.71099854 133.03100586 126.25000000 0.561808 -0.448446 -0.695175 0.000000
85.07820129 194.90600586 83.75000000 -0.623879 -0.155592 0.765876 0.000000
153.14100647 118.33599854 106.25000000 -0.561711 0.063670 0.824880 0.000000
143.85899353 139.21899414 98.75000000 0.000978 0.000978 0.999999 0.000000
56.07429886 185.62500000 107.50000000 0.931992 0.362371 0.008900 0.000000
78.89070129 267.60998535 151.25000000 -0.376037 -0.717591 0.586224 0.000000
144.63299561 139.60600281 137.50000000 0.189189 -0.884348 0.426775 0.000000
50.66019821 226.61700439 132.50000000 0.992893 -0.098497 0.066797 0.000000
88.94539642 124.52400208 88.75000000 0.886398 0.442483 0.136039 0.000000
133.80499268 109.82800293 173.75000000 0.391652 0.745614 -0.539136 0.000000
187.94500732 85.07820129 123.75000000 -0.477148 0.477148 -0.738011 0.000000
121.81600189 250.59399414 160.00000000 -0.345873 -0.745331 0.569959 0.000000
145.02000427 99.00009918 157.50000000 0.001344 0.850780 -0.525521 0.000000
151.59399414 213.85600281 137.50000000 -0.361595 -0.789080 0.496590 0.000000
156.23399353 222.75000000 163.75000000 -0.915151 0.343361 -0.211189 0.000000
122.97699738 119.88300323 88.75000000 -0.661291 0.584280 0.470437 0.000000
177.11700439 161.64900208 186.25000000 -0.453332 -0.268926 -0.849805 0.000000
92.03910065 266.06298828 156.25000000 -0.307467 -0.546431 0.779023 0.000000
116.78900146 276.11700439 173.75000000 -0.279560 -0.461814 0.841768 0.000000
75.02349854 221.20300293 186.25000000 0.568054 0.294370 -0.768544 0.000000
177.89100647 148.50000000 148.75000000 -0.220810 0.884722 0.410499 0.000000
169.38299561 199.93400574 147.50000000 -0.952861 0.125550 0.276211 0.000000
122.20300293 266.83599854 198.75000000 -0.286885 -0.289797 -0.913080 0.000000
150.82000732 184.85200500 176.25000000 0.317930 -0.423389 -0.848329 0.000000
135.35200500 150.82000732 111.25000000 0.268184 -0.626821 0.731555 0.000000
153.14100647 149.66000366 132.50000000 0.107251 -0.771323 -0.627343 0.000000
54.91410065 229.32400513 147.50000000 0.924320 0.082072 -0.372688 0.000000
136.12500000 222.75000000 138.75000000 -0.518484 -0.599550 0.609683 0.000000
200.32000732 180.98399353 123.75000000 -0.497252 0.524040 0.691464 0.000000
89.71880341 221.20300293 193.75000000 0.921816 -0.335592 0.193992 0.000000
113.69499969 279.21099854 173.75000000 -0.290314 -0.422414 0.858653 0.000000
139.99200439 113.69499969 178.75000000 0.073565 0.624584 -0.777485 0.000000
112.14900208 115.24199677 166.25000000 0.327657 0.832469 -0.446806 0.000000
143.08599854 130.71099854 186.25000000 -0.117249 0.373818 -0.920061 0.000000
169.38299561 139.21899414 113.75000000 -0.500875 0.014851 0.865392 0.000000
187.17199707 106.73400116 123.75000000 0.000978 0.000978 0.999999 0.000000
116.78900146 105.18800354 158.75000000 0.543077 0.831360 -0.117934 0.000000
105.96099854 104.41400146 91.25000000 0.299454 0.600509 0.741429 0.000000
78.89070129 252.91400146 138.75000000 -0.717354 -0.572234 0.397431 0.000000
132.64500427 222.75000000 135.00000000 -0.510791 -0.717104 0.474187 0.000000
121.43000031 244.02000427 152.50000000 -0.458560 -0.796447 0.394201 0.000000
102.86699677 280.75799561 168.75000000 -0.602750 -0.659519 0.449141 0.000000
126.45700073 99.00009918 117.50000000 0.764616 -0.064555 0.641245 0.000000
191.03900146 183.30499268 168.75000000 -0.258887 -0.690895 -0.675012 0.000000
83.53130341 136.89900208 83.75000000 0.690783 0.690783 0.213628 0.000000
176.34399414 87.39849854 158.75000000 0.409113 0.829283 -0.380680 0.000000
167.06300354 92.81259918 103.75000000 -0.150440 0.817737 0.555584 0.000000
220.42999268 123.75000000 138.75000000 -0.685350 0.322423 0.652946 0.000000
243.63299561 169.38299561 173.75000000 0.191731 -0.520844 -0.831841 0.000000
106.73400116 284.62500000 176.25000000 -0.567307 -0.245364 0.786104 0.000000
107.50800323 286.17199707 176.25000000 -0.471304 -0.356274 0.806809 0.000000
67.28910065 211.53500366 175.00000000 0.661362 0.399470 -0.634842 0.000000
122.58999634 134.57800293 100.00000000 0.570310 -0.756665 0.319695 0.000000
184.07800293 163.96899414 181.25000000 -0.449249 -0.375707 -0.810567 0.000000
196.45300293 145.02000427 122.50000000 -0.448625 -0.234131 0.862507 0.000000
67.28910065 233.19200134 80.00000000 0.387561 -0.674522 0.628344 0.000000
167.06300354 104.41400146 111.25000000 -0.251320 -0.684412 0.684412 0.000000
252.91400146 109.82800293 168.75000000 -0.297503 0.093052 0.950175 0.000000
54.91410065 222.75000000 146.25000000 0.903008 0.101259 -0.417520 0.000000
255.23500061 113.30899811 170.00000000 -0.117235 0.169066 0.978607 0.000000
70.76959991 150.04699707 115.00000000 0.871684 0.489390 0.025757 0.000000
167.83599854 141.92599487 187.50000000 -0.484154 0.710425 -0.510774 0.000000
179.43800354 83.53130341 146.25000000 -0.622368 0.781150 0.049619 0.000000
101.31999969 287.71899414 173.75000000 -0.263730 -0.756448 0.598526 0.000000
133.03100586 238.21899414 193.75000000 -0.453113 0.300518 -0.839272 0.000000
119.88300323 279.21099854 176.25000000 0.786915 -0.525142 -0.324024 0.000000
129.16400146 124.52400208 91.25000000 -0.367628 -0.065032 0.927696 0.000000
250.20700073 157.78100586 167.50000000 -0.764671 -0.040990 0.643115 0.000000
81.21099854 266.83599854 151.25000000 -0.379797 -0.695473 0.609977 0.000000
99.00009918 209.60200500 101.25000000 -0.265985 -0.064290 0.961831 0.000000
112.53500366 190.26600647 97.50000000 -0.418100 0.014417 0.908287 0.000000
194.13299561 91.26570129 126.25000000 -0.551953 -0.465241 0.692025 0.000000
177.89100647 116.40200043 175.00000000 -0.315840 0.565947 -0.761544 0.000000
133.03100586 180.98399353 108.75000000 -0.445934 0.485427 0.752000 0.000000
157.78100586 184.85200500 116.25000000 -0.001297 0.906778 0.421606 0.000000
103.64099884 194.13299561 93.75000000 -0.494980 -0.189917 0.847896 0.000000
141.53900146 186.39900208 121.25000000 -0.714207 0.586142 0.382552 0.000000
226.61700439 146.17999268 173.75000000 -0.000978 -0.000978 -0.999999 0.000000
164.74200439 167.83599854 186.25000000 -0.224192 -0.570530 -0.790084 0.000000
78.11720276 272.63699341 155.00000000 -0.295808 -0.441389 0.847156 0.000000
108.28099823 153.52699280 172.50000000 0.762794 -0.119973 -0.635415 0.000000
241.31300354 163.96899414 176.25000000 -0.000978 -0.000978 -0.999999 0.000000
86.62509918 185.62500000 163.75000000 -0.105184 0.845794 -0.523038 0.000000
157.00799561 157.00799561 146.25000000 -0.331310 0.570500 0.751508 0.000000
174.79699707 178.66400146 133.75000000 0.316843 0.474476 0.821269 0.000000
55.30080032 235.12500000 147.50000000 0.884227 -0.096998 -0.456874 0.000000
256.00799561 126.84400177 173.75000000 -0.910032 -0.212004 -0.356225 0.000000
181.37100220 174.79699707 135.00000000 -0.237200 0.711600 0.661333 0.000000
233.57800293 101.31999969 173.75000000 0.162356 0.415229 -0.895112 0.000000
95.13289642 208.05499268 186.25000000 0.001373 0.627537 -0.778585 0.000000
106.73400116 282.30499268 188.75000000 0.244407 -0.726913 -0.641765 0.000000
151.20700073 117.56300354 105.00000000 -0.578214 -0.046426 0.814564 0.000000
57.23440170 208.05499268 81.25000000 -0.000978 -0.000978 0.999999 0.000000
202.64100647 190.26600647 156.25000000 -0.140535 -0.557700 -0.818059 0.000000
92.81259918 121.43000031 86.25000000 0.686555 0.456033 0.566283 0.000000
202.64100647 166.28900146 131.25000000 -0.295577 0.520026 0.801378 0.000000
187.94500732 109.05500031 171.25000000 0.070636 0.044555 -0.996507 0.000000
168.60899353 88.17189789 116.25000000 0.001221 0.955752 0.294171 0.000000
80.05079651 239.76600647 122.50000000 -0.624375 -0.597448 0.503202 0.000000
139.99200439 91.65239716 145.00000000 0.269932 0.939918 -0.209024 0.000000
159.32800293 124.13700104 185.00000000 -0.096089 0.254955 -0.962167 0.000000
121.04299927 101.31999969 117.50000000 -0.284098 0.956761 -0.062425 2.000000
128.39100647 103.25399780 110.00000000 -0.284098 0.956761 -0.062425 2.000000
119.10900116 99.77349854 103.75000000 -0.284098 0.956761 -0.062425 2.000000
123.75000000 102.09400177 103.75000000 -0.284098 0.956761 -0.062425 2.000000
115.24199677 97.83989716 120.00000000 -0.307156 0.949740 -0.060403 2.000000
129.16400146 103.64099884 101.25000000 -0.286438 0.956066 -0.062380 2.000000
121.04299927 100.54699707 102.50000000 -0.284098 0.956761 -0.062425 2.000000
121.43000031 100.16000366 117.50000000 -0.284098 0.956761 -0.062425 2.000000
112.92199707 99.77349854 123.75000000 -0.287743 0.955306 -0.067779 2.000000
115.24199677 99.38680267 115.00000000 -0.284098 0.956761 -0.062425 2.000000
129.93800354 102.48100281 102.50000000 -0.284098 0.956761 -0.062425 2.000000
112.14900208 100.16000366 120.00000000 -0.296249 0.952869 -0.065406 2.000000
124.52400208 102.48100281 102.50000000 -0.284098 0.956761 -0.062425 2.000000
126.06999969 102.48100281 102.50000000 -0.284098 0.956761 -0.062425 2.000000
130.71099854 104.41400146 98.75000000 -0.310237 0.948732 -0.060503 2.000000
129.55099487 102.09400177 105.00000000 -0.284098 0.956761 -0.062425 2.000000
134.57800293 102.86699677 96.25000000 -0.278164 0.957551 -0.075630 2.000000
121.43000031 104.41400146 118.75000000 -0.284098 0.956761 -0.062425 2.000000
103.64099884 121.43000031 83.75000000 -0.272495 -0.053997 0.960641 1.000000
125.29699707 113.30899811 90.00000000 -0.272495 -0.053997 0.960641 1.000000
156.23399353 100.54699707 96.25000000 -0.272495 -0.053997 0.960641 1.000000
101.31999969 119.88300323 83.75000000 -0.272495 -0.053997 0.960641 1.000000
103.64099884 117.56300354 83.75000000 -0.272495 -0.053997 0.960641 1.000000
129.16400146 114.46900177 91.25000000 -0.272495 -0.053997 0.960641 1.000000
186.39900208 92.03910065 113.75000000 -0.281707 -0.065009 0.957295 1.000000
167.06300354 95.90630341 98.75000000 -0.272495 -0.053997 0.960641 1.000000
102.86699677 120.65599823 83.75000000 -0.272495 -0.053997 0.960641 1.000000
137.67199707 108.28099823 93.75000000 -0.272495 -0.053997 0.960641 1.000000
163.19500732 99.00009918 96.25000000 -0.272495 -0.053997 0.960641 1.000000
123.75000000 107.50800323 91.25000000 -0.272495 -0.053997 0.960641 1.000000
167.06300354 95.51959991 100.00000000 -0.272495 -0.053997 0.960641 1.000000
129.16400146 118.33599854 91.25000000 -0.272495 -0.053997 0.960641 1.000000
135.35200500 121.43000031 93.75000000 -0.272495 -0.053997 0.960641 1.000000
104.41400146 110.60199738 83.75000000 -0.272495 -0.053997 0.960641 1.000000
164.74200439 95.13289642 98.75000000 -0.272495 -0.053997 0.960641 1.000000
90.49220276 134.57800293 83.75000000 -0.243296 -0.027840 0.969552 1.000000
117.56300354 111.37500000 86.25000000 -0.272495 -0.053997 0.960641 1.000000
148.50000000 101.31999969 93.75000000 -0.272495 -0.053997 0.960641 1.000000
89.71880341 126.06999969 86.25000000 -0.250168 -0.030508 0.967722 1.000000
159.32800293 95.51959991 97.50000000 -0.272495 -0.053997 0.960641 1.000000
124.52400208 118.33599854 88.75000000 -0.272495 -0.053997 0.960641 1.000000
95.90630341 118.33599854 83.75000000 -0.272495 -0.053997 0.960641 1.000000
107.12100220 117.56300354 85.00000000 -0.272495 -0.053997 0.960641 1.000000
106.73400116 110.60199738 83.75000000 -0.272495 -0.053997 0.960641 1.000000
116.01599884 117.56300354 86.25000000 -0.272495 -0.053997 0.960641 1.000000
101.31999969 110.98799896 85.00000000 -0.272495 -0.053997 0.960641 1.000000
163.19500732 96.29299927 97.50000000 -0.272495 -0.053997 0.960641 1.000000
138.44500732 113.69499969 93.75000000 -0.272495 -0.053997 0.960641 1.000000
104.80100250 119.88300323 85.00000000 -0.272495 -0.053997 0.960641 1.000000
143.85899353 100.54699707 93.75000000 -0.272495 -0.053997 0.960641 1.000000
135.35200500 119.10900116 93.75000000 -0.272495 -0.053997 0.960641 1.000000
174.79699707 91.65239716 107.50000000 -0.291987 -0.141284 0.945929 1.000000
155.84800720 99.00009918 95.00000000 -0.272495 -0.053997 0.960641 1.000000
129.93800354 112.14900208 91.25000000 -0.272495 -0.053997 0.960641 1.000000
