95.53220367 276.37701416 140.00000000 0.701680 -0.701680 0.123651 0.000000
197.28500366 159.07200623 172.50000000 -0.000978 -0.000978 -0.999999 0.000000
168.84800720 141.74299622 180.00000000 -0.722279 -0.629392 -0.286669 0.000000
186.17700195 231.05499268 195.00000000 -0.983257 0.181400 0.017331 0.000000
204.83900452 224.83399963 180.00000000 0.852843 -0.340205 0.396129 0.000000
141.29899597 147.52000427 172.50000000 0.086019 -0.683779 -0.724601 0.000000
132.41200256 203.50599670 247.50000000 -0.000978 -0.000978 -0.999999 0.000000
89.75589752 165.29299927 212.50000000 0.234929 0.388593 -0.890957 0.000000
209.72700500 212.39300537 207.50000000 -0.000978 -0.000978 -0.999999 0.000000
183.95500183 187.50999451 222.50000000 -0.049525 0.408246 -0.911527 0.000000
70.64939880 241.71899414 165.00000000 0.000978 0.000978 -0.999999 0.000000
140.41000366 154.18499756 170.00000000 0.246428 -0.767538 -0.591742 0.000000
231.94299316 133.30099487 202.50000000 -0.000978 -0.000978 -0.999999 0.000000
227.50000000 131.52299500 197.50000000 0.984462 -0.001133 0.175594 0.000000
83.53520203 264.82400513 207.50000000 0.801613 -0.509540 -0.312708 0.000000
158.18400574 254.16000366 227.50000000 -0.528804 -0.394557 -0.751459 0.000000
162.62699890 277.26599121 137.50000000 -0.585930 -0.132020 0.799535 0.000000
103.52999878 211.50399780 85.00000000 -0.924164 0.368849 -0.099358 0.000000
95.97660065 248.82800293 242.50000000 0.360149 -0.385095 -0.849703 0.000000
97.75389862 159.07200623 212.50000000 0.519153 0.795399 -0.312762 0.000000
166.18200684 212.39300537 132.50000000 -0.427964 0.113656 0.896621 0.000000
194.61900330 139.52099609 212.50000000 -0.000978 -0.000978 -0.999999 0.000000
221.27900696 146.63099670 212.50000000 -0.000978 -0.000978 -0.999999 0.000000
113.75000000 293.70599365 155.00000000 0.522280 -0.787412 0.327423 0.000000
97.75389862 258.60400391 92.50000000 -0.095514 -0.700929 0.706807 0.000000
157.29499817 133.30099487 182.50000000 -0.000978 -0.000978 -0.999999 0.000000
190.61999512 243.49600220 170.00000000 -0.894688 0.070091 0.441159 0.000000
190.17599487 188.84300232 195.00000000 0.260201 -0.946804 0.189361 0.000000
71.09380341 194.61900330 92.50000000 0.987098 0.142020 0.073944 0.000000
124.41400146 272.82199097 112.50000000 0.000978 0.000978 0.999999 0.000000
149.29699707 161.29400635 220.00000000 -0.133114 0.665569 -0.734369 0.000000
151.96299744 154.62899780 177.50000000 0.000978 0.000978 -0.999999 0.000000
194.61900330 143.07600403 182.50000000 -0.000978 -0.000978 -0.999999 0.000000
200.83999634 118.19300079 202.50000000 -0.000978 -0.000978 -0.999999 0.000000
91.53320313 159.07200623 207.50000000 0.311614 0.689425 -0.653904 0.000000
146.63099670 149.29699707 212.50000000 -0.000978 -0.000978 -0.999999 0.000000
147.52000427 262.15798950 122.50000000 0.000978 0.000978 0.999999 0.000000
73.75980377 254.16000366 142.50000000 0.662002 -0.662002 0.351433 0.000000
104.86299896 214.16999817 82.50000000 -0.938193 0.291545 0.186533 0.000000
226.61099243 172.40199280 217.50000000 -0.000978 -0.000978 -0.999999 0.000000
213.28100586 181.28900146 217.50000000 -0.000978 -0.000978 -0.999999 0.000000
198.17399597 175.95700073 167.50000000 -0.000978 -0.000978 -0.999999 0.000000
189.73100281 192.84199524 190.00000000 -0.327084 -0.874759 0.357510 0.000000
129.74600220 278.15399170 117.50000000 0.000978 0.000978 0.999999 0.000000
167.95899963 180.39999390 227.50000000 -0.000978 -0.000978 -0.999999 0.000000
166.18200684 143.07600403 207.50000000 0.873225 0.146261 -0.464851 0.000000
187.95399475 255.04899597 200.00000000 -0.703519 -0.383887 -0.598073 0.000000
170.62500000 279.04299927 197.50000000 -0.365854 -0.674286 -0.641474 0.000000
132.41200256 151.96299744 167.50000000 0.000978 0.000978 0.999999 0.000000
113.75000000 240.83000183 92.50000000 -0.881656 -0.001322 0.471891 0.000000
155.51800537 186.62100220 232.50000000 -0.486136 -0.028437 -0.873420 0.000000
103.97499847 215.94700623 82.50000000 -0.807132 -0.402764 0.431647 0.000000
71.09380341 217.27999878 95.00000000 0.974303 -0.163016 0.155434 0.000000
105.30799866 215.94700623 85.00000000 -0.869502 0.122161 0.478585 0.000000
73.75980377 216.83599854 82.50000000 0.889322 -0.357223 0.285480 0.000000
218.61300659 149.29699707 212.50000000 0.000000 0.000000 0.000000 0.000000
104.86299896 165.29299927 222.50000000 0.540969 0.551081 -0.635344 0.000000
167.07000732 251.49400330 222.50000000 -0.479490 -0.797012 -0.367235 0.000000
131.52299500 295.92800903 192.50000000 -0.000978 -0.000978 -0.999999 0.000000
133.30099487 220.39100647 247.50000000 0.000978 0.000978 -0.999999 0.000000
73.31539917 217.72500610 85.00000000 0.852207 -0.425330 0.304691 0.000000
207.94900513 202.61700439 162.50000000 -0.000978 -0.000978 -0.999999 0.000000
165.29299927 203.50599670 162.50000000 0.119515 0.315572 0.941345 0.000000
236.38699341 130.63499451 202.50000000 0.237538 -0.376224 -0.895562 0.000000
122.63700104 297.70498657 187.50000000 0.091517 -0.940372 -0.327605 0.000000
72.87110138 255.04899597 147.50000000 0.701680 -0.701680 0.123651 0.000000
168.84800720 160.85000610 177.50000000 0.984462 0.001133 -0.175594 0.000000
189.28700256 247.93899536 162.50000000 -0.362319 0.657420 0.660699 0.000000
181.28900146 168.84800720 222.50000000 -0.000978 -0.000978 -0.999999 0.000000
132.41200256 179.51199341 167.50000000 -0.313246 0.945024 0.093842 0.000000
91.53320313 205.28300476 237.50000000 -0.000978 -0.000978 -0.999999 0.000000
141.29899597 253.27200317 117.50000000 -0.000978 -0.000978 0.999999 0.000000
144.85400391 256.38198853 235.00000000 -0.468870 -0.468870 -0.748547 0.000000
155.07299805 297.70498657 165.00000000 -0.389572 -0.911795 0.129857 0.000000
89.75589752 259.93701172 225.00000000 0.733811 -0.482029 -0.478716 0.000000
133.30099487 171.51400757 232.50000000 -0.000978 -0.000978 -0.999999 0.000000
159.07200623 171.51400757 222.50000000 0.662002 0.662002 -0.351433 0.000000
95.97660065 229.27699280 242.50000000 -0.000978 -0.000978 -0.999999 0.000000
99.53130341 198.17399597 242.50000000 0.292576 0.444282 -0.846767 0.000000
136.85499573 150.18600464 212.50000000 0.116425 0.611600 -0.782554 0.000000
96.86519623 184.84399414 237.50000000 0.103726 0.203702 -0.973523 0.000000
164.40400696 149.29699707 182.50000000 -0.000978 -0.000978 -0.999999 0.000000
184.84399414 132.41200256 207.50000000 0.000978 0.000978 -0.999999 0.000000
131.52299500 249.71699524 112.50000000 -0.516774 -0.145757 0.843623 0.000000
235.94200134 199.06300354 180.00000000 0.735387 0.582790 -0.345778 0.000000
192.84199524 115.97200012 200.00000000 -0.168762 0.749546 -0.640079 0.000000
125.30300140 291.92898560 200.00000000 0.233828 -0.701483 -0.673235 0.000000
224.83399963 135.96699524 212.50000000 -0.701680 0.701680 -0.123651 0.000000
82.20220184 269.26800537 155.00000000 0.648210 -0.734844 0.199568 0.000000
229.27699280 164.40400696 192.50000000 0.726259 -0.599529 -0.336321 0.000000
75.53710175 221.27900696 82.50000000 0.000978 0.000978 0.999999 0.000000
247.05099487 203.50599670 207.50000000 0.000978 0.000978 -0.999999 0.000000
151.07400513 253.27200317 122.50000000 -0.000978 -0.000978 0.999999 0.000000
89.75589752 237.27499390 237.50000000 -0.000978 -0.000978 -0.999999 0.000000
149.29699707 293.26199341 192.50000000 -0.364072 -0.345638 -0.864862 0.000000
196.39700317 146.63099670 192.50000000 -0.598970 -0.598970 0.531480 0.000000
81.75779724 248.82800293 227.50000000 0.848746 -0.384661 -0.362858 0.000000
119.08200073 224.83399963 252.50000000 -0.000978 -0.000978 -0.999999 0.000000
173.29100037 172.40199280 167.50000000 -0.000978 -0.000978 -0.999999 0.000000
117.30500031 190.17599487 242.50000000 -0.000978 -0.000978 -0.999999 0.000000
138.63299561 301.70401001 175.00000000 -0.048545 -0.998778 -0.009296 0.000000
159.96099854 177.73399353 227.50000000 -0.000978 -0.000978 -0.999999 0.000000
187.06500244 243.49600220 210.00000000 -0.933859 -0.003791 -0.357621 0.000000
167.07000732 285.26400757 152.50000000 -0.845288 -0.484106 0.226118 0.000000
183.06599426 174.17999268 187.50000000 0.796987 -0.354395 0.489097 0.000000
106.64099884 177.73399353 237.50000000 -0.000978 -0.000978 -0.999999 0.000000
178.17900085 279.93200684 160.00000000 -0.701680 -0.701680 0.123651 0.000000
234.60899353 161.73800659 197.50000000 -0.000978 -0.000978 -0.999999 0.000000
99.53130341 159.96099854 217.50000000 -0.090379 0.830626 -0.549447 0.000000
143.96499634 139.52099609 202.50000000 -0.000978 -0.000978 -0.999999 0.000000
97.30960083 286.15200806 180.00000000 0.000978 0.000978 -0.999999 0.000000
84.42379761 259.04800415 220.00000000 0.697383 -0.605058 -0.384138 0.000000
153.74000549 152.85200500 212.50000000 -0.000978 -0.000978 -0.999999 0.000000
192.84199524 240.83000183 177.50000000 -0.745009 -0.172160 0.644455 0.000000
196.39700317 158.18400574 197.50000000 0.000978 0.000978 0.999999 0.000000
71.09380341 225.27799988 105.00000000 0.893319 -0.178085 0.412635 0.000000
129.74600220 288.37399292 205.00000000 -0.354945 -0.642827 -0.678813 0.000000
111.08399963 193.72999573 102.50000000 -0.678893 0.237849 0.694645 0.000000
212.39300537 193.72999573 162.50000000 -0.000978 -0.000978 -0.999999 0.000000
173.29100037 210.17100525 145.00000000 -0.701680 0.701680 0.123651 0.000000
95.08789825 239.94099426 242.50000000 -0.000978 -0.000978 -0.999999 0.000000
235.49800110 199.95100403 182.50000000 0.732695 0.607090 -0.307571 0.000000
139.52099609 222.16799927 247.50000000 -0.000978 -0.000978 -0.999999 0.000000
130.63499451 272.82199097 117.50000000 0.000978 0.000978 0.999999 0.000000
76.42579651 225.72300720 82.50000000 0.874111 -0.286321 0.392365 0.000000
187.50999451 166.18200684 197.50000000 0.000978 0.000978 0.999999 0.000000
77.31449890 225.72300720 82.50000000 0.874111 -0.286321 0.392365 0.000000
165.29299927 216.83599854 127.50000000 0.000978 0.000978 0.999999 0.000000
181.28900146 135.07800293 182.50000000 0.000000 0.000000 0.000000 0.000000
120.85900116 207.94900513 107.50000000 -0.591519 0.026444 0.805857 0.000000
143.96499634 166.18200684 167.50000000 0.000978 0.000978 0.999999 0.000000
69.76069641 195.50799561 180.00000000 0.948461 0.315309 0.031658 0.000000
191.95300293 247.05099487 202.50000000 -0.769047 -0.557999 -0.311776 0.000000
75.98149872 226.61099243 85.00000000 0.732638 -0.477951 0.484566 0.000000
85.75689697 271.93399048 200.00000000 0.685677 -0.685677 -0.244322 0.000000
175.51300049 190.17599487 190.00000000 -0.088494 0.877917 0.470564 0.000000
231.05499268 207.50500488 200.00000000 0.079298 -0.598341 -0.797308 0.000000
157.29499817 282.59799194 202.50000000 -0.662002 -0.662002 -0.351433 0.000000
102.19699860 153.74000549 207.50000000 0.243397 0.604567 -0.758457 0.000000
96.86519623 183.06599426 232.50000000 0.504752 -0.039885 -0.862342 0.000000
76.42579651 227.05599976 85.00000000 0.732638 -0.477951 0.484566 0.000000
181.28900146 282.59799194 172.50000000 -0.705724 -0.708486 0.001381 0.000000
98.64260101 181.73300171 235.00000000 0.680261 0.559920 -0.473007 0.000000
113.75000000 278.15399170 112.50000000 -0.743004 -0.637964 0.202356 0.000000
186.62100220 164.84899902 185.00000000 0.235780 0.763553 0.601161 0.000000
188.39799500 131.52299500 182.50000000 0.364059 -0.726485 -0.582821 0.000000
107.08499908 227.50000000 85.00000000 -0.966733 -0.241367 0.084668 0.000000
112.86100006 267.48999023 232.50000000 -0.000978 -0.000978 -0.999999 0.000000
83.53520203 169.73599243 127.50000000 0.701680 0.701680 -0.123651 0.000000
142.18800354 147.96400452 210.00000000 0.067356 0.892121 -0.446748 0.000000
241.71899414 152.85200500 202.50000000 0.394107 -0.256245 -0.882620 0.000000
111.97299957 188.39799500 242.50000000 -0.000978 -0.000978 -0.999999 0.000000
106.64099884 228.38900757 82.50000000 -0.778811 0.052680 0.625042 0.000000
209.72700500 153.74000549 212.50000000 -0.000978 -0.000978 -0.999999 0.000000
118.19300079 280.82000732 117.50000000 0.308018 -0.720860 0.620875 0.000000
147.52000427 250.60499573 122.50000000 -0.328020 -0.272124 0.904628 0.000000
72.87110138 253.27200317 157.50000000 0.899227 -0.386216 -0.205496 0.000000
150.63000488 202.61700439 155.00000000 -0.941995 -0.001248 0.335625 0.000000
215.94700623 207.06100464 207.50000000 -0.000978 -0.000978 -0.999999 0.000000
207.06100464 182.17799377 217.50000000 -0.000978 -0.000978 -0.999999 0.000000
218.61300659 131.52299500 212.50000000 0.475500 -0.860641 -0.182201 0.000000
80.86910248 176.84599304 217.50000000 0.891371 0.446377 -0.078772 0.000000
164.40400696 294.14999390 177.50000000 -0.513033 -0.857792 -0.031466 0.000000
143.52099609 204.39500427 130.00000000 0.225726 0.611794 0.758127 0.000000
207.06100464 139.52099609 212.50000000 -0.000978 -0.000978 -0.999999 0.000000
216.83599854 205.72799683 165.00000000 0.380229 -0.627131 -0.679803 0.000000
170.62500000 290.59600830 177.50000000 -0.310946 -0.935602 0.167220 0.000000
215.05900574 153.74000549 212.50000000 0.000978 0.000978 -0.999999 0.000000
173.29100037 231.94299316 227.50000000 -0.833930 -0.441308 -0.331373 0.000000
152.85200500 183.06599426 167.50000000 0.000978 0.000978 0.999999 0.000000
104.41899872 158.18400574 215.00000000 0.240949 0.725997 -0.644106 0.000000
173.29100037 202.61700439 162.50000000 0.000978 0.000978 0.999999 0.000000
175.06799316 198.17399597 227.50000000 -0.000978 -0.000978 -0.999999 0.000000
112.86100006 155.51800537 212.50000000 -0.000978 -0.000978 -0.999999 0.000000
197.28500366 238.16400146 202.50000000 -0.965634 0.257092 0.038133 0.000000
219.50199890 226.61099243 177.50000000 0.838065 0.531989 -0.120973 0.000000
141.29899597 237.27499390 117.50000000 -0.198288 -0.310792 0.929564 0.000000
207.06100464 170.62500000 217.50000000 -0.001292 0.412244 -0.911072 0.000000
119.08200073 248.82800293 247.50000000 -0.000978 -0.000978 -0.999999 0.000000
143.96499634 218.61300659 247.50000000 -0.443546 -0.001308 -0.896251 0.000000
162.62699890 290.59600830 152.50000000 -0.549725 -0.822365 0.146692 0.000000
199.95100403 191.06399536 222.50000000 -0.000978 -0.000978 -0.999999 0.000000
139.52099609 165.29299927 222.50000000 -0.126894 0.339747 -0.931917 0.000000
179.51199341 134.18899536 207.50000000 0.000978 0.000978 -0.999999 0.000000
186.62100220 186.62100220 197.50000000 0.000978 0.000978 0.999999 0.000000
177.73399353 229.27699280 222.50000000 -0.000978 -0.000978 -0.999999 0.000000
157.29499817 295.92800903 182.50000000 -0.001322 -0.881656 -0.471891 0.000000
175.95700073 280.82000732 192.50000000 -0.293135 -0.939959 -0.174780 0.000000
143.07600403 246.16200256 242.50000000 -0.000978 -0.000978 -0.999999 0.000000
191.06399536 161.73800659 167.50000000 0.446046 -0.357154 -0.820661 0.000000
111.97299957 271.93399048 227.50000000 0.153962 -0.984639 -0.082352 0.000000
108.41799927 271.48901367 225.00000000 0.673674 -0.532555 -0.512395 0.000000
133.30099487 175.95700073 232.50000000 0.093608 0.312465 -0.945306 0.000000
103.08599854 173.29100037 232.50000000 0.495399 0.816228 -0.297239 0.000000
156.40600586 188.39799500 172.50000000 0.079980 -0.484087 0.871357 0.000000
109.30699921 185.73199463 107.50000000 -0.766804 0.371243 0.523632 0.000000
193.72999573 139.52099609 182.50000000 -0.000978 -0.000978 -0.999999 0.000000
143.07600403 148.40800476 172.50000000 0.434362 -0.421444 -0.796062 0.000000
177.73399353 233.72099304 142.50000000 -0.898819 0.009212 0.438224 0.000000
217.72500610 228.83299255 175.00000000 0.838065 0.531989 -0.120973 0.000000
250.60499573 191.06399536 212.50000000 -0.000978 -0.000978 -0.999999 0.000000
207.94900513 161.73800659 212.50000000 -0.000978 -0.000978 -0.999999 0.000000
207.06100464 163.51600647 172.50000000 0.000978 0.000978 -0.999999 0.000000
135.96699524 288.81799316 132.50000000 -0.000978 -0.000978 0.999999 0.000000
142.18800354 182.17799377 167.50000000 0.000978 0.000978 0.999999 0.000000
81.75779724 234.60899353 82.50000000 0.831058 -0.414740 0.370585 0.000000
111.97299957 187.50999451 112.50000000 -0.633643 0.701707 0.325735 0.000000
81.31349945 250.60499573 225.00000000 0.801450 -0.484709 -0.350335 0.000000
184.84399414 179.06700134 195.00000000 -0.612795 -0.555399 0.562151 0.000000
111.08399963 285.70800781 135.00000000 0.436328 -0.882871 0.173656 0.000000
207.94900513 223.05700684 197.50000000 0.846381 -0.282127 -0.451712 0.000000
209.72700500 176.84599304 217.50000000 -0.000978 -0.000978 -0.999999 0.000000
134.18899536 281.70901489 122.50000000 0.101791 -0.511823 0.853039 0.000000
141.29899597 201.72900391 132.50000000 -0.327344 0.814406 0.479155 0.000000
183.06599426 239.05299377 217.50000000 0.000978 0.000978 -0.999999 0.000000
211.50399780 233.72099304 197.50000000 0.930035 -0.078726 -0.358938 0.000000
165.73699951 174.17999268 175.00000000 -0.145576 0.613822 0.775906 0.000000
103.08599854 138.63299561 187.50000000 0.407621 0.826344 -0.388588 0.000000
142.18800354 251.49400330 237.50000000 -0.000978 -0.000978 -0.999999 0.000000
118.19300079 134.18899536 187.50000000 0.169193 0.675246 -0.717925 0.000000
143.07600403 263.93600464 122.50000000 0.000978 0.000978 0.999999 0.000000
238.16400146 138.63299561 202.50000000 -0.000978 -0.000978 -0.999999 0.000000
251.49400330 190.17599487 202.50000000 0.784581 -0.194233 -0.588818 0.000000
151.07400513 149.29699707 212.50000000 -0.000978 -0.000978 -0.999999 0.000000
210.61500549 143.07600403 187.50000000 -0.000978 -0.000978 -0.999999 0.000000
105.75199890 236.38699341 82.50000000 -0.690281 -0.553228 0.466316 0.000000
188.39799500 169.73599243 182.50000000 0.520326 0.201759 0.829791 0.000000
225.72300720 153.74000549 192.50000000 -0.000978 -0.000978 -0.999999 0.000000
98.64260101 182.17799377 237.50000000 0.460512 0.424713 -0.779454 0.000000
117.30500031 291.48400879 142.50000000 -0.001133 -0.984462 0.175594 0.000000
169.29200745 279.04299927 200.00000000 -0.531383 -0.612356 -0.585365 0.000000
179.51199341 231.05499268 147.50000000 -0.000978 -0.000978 0.999999 0.000000
183.06599426 260.38101196 202.50000000 -0.855576 -0.195603 -0.479302 0.000000
95.08789825 279.04299927 152.50000000 0.000978 0.000978 0.999999 0.000000
157.29499817 261.26998901 132.50000000 -0.597920 -0.288596 0.747799 0.000000
106.64099884 137.74400330 187.50000000 -0.000978 -0.000978 -0.999999 0.000000
169.73599243 240.83000183 132.50000000 -0.921382 0.043499 0.386216 0.000000
127.08000183 215.05900574 252.50000000 -0.258576 0.384127 -0.886332 0.000000
104.86299896 152.85200500 207.50000000 0.243397 0.604567 -0.758457 0.000000
247.93899536 190.17599487 212.50000000 -0.000978 -0.000978 -0.999999 0.000000
137.74400330 159.51699829 220.00000000 -0.098423 0.697773 -0.709525 0.000000
135.96699524 217.72500610 117.50000000 -0.246864 0.131922 0.960028 0.000000
190.17599487 237.27499390 177.50000000 -0.769704 0.576883 0.273427 0.000000
92.42189789 259.49200439 102.50000000 0.653348 -0.738634 0.166002 0.000000
199.95100403 141.29899597 182.50000000 -0.001162 -0.210402 -0.977614 0.000000
124.41400146 138.18800354 195.00000000 -0.242154 0.782703 -0.573357 0.000000
228.38900757 159.51699829 215.00000000 -0.260906 0.489392 -0.832120 0.000000
82.64649963 238.60800171 85.00000000 0.905337 -0.361844 0.222338 0.000000
203.06199646 139.52099609 185.00000000 0.166304 -0.822532 -0.543860 0.000000
127.96900177 212.39300537 112.50000000 -0.000978 -0.000978 0.999999 0.000000
183.95500183 192.84199524 227.50000000 -0.310937 0.016234 -0.950292 0.000000
108.41799927 259.49200439 237.50000000 0.118482 -0.463936 -0.877910 0.000000
81.75779724 173.73500061 135.00000000 0.865099 0.288366 -0.410426 0.000000
204.39500427 183.95500183 162.50000000 -0.000978 -0.000978 -0.999999 0.000000
234.60899353 167.07000732 212.50000000 -0.384035 0.024734 -0.922987 0.000000
118.19300079 157.29499817 217.50000000 0.000978 0.000978 -0.999999 0.000000
72.87110138 188.39799500 172.50000000 0.662002 0.662002 0.351433 0.000000
103.08599854 288.37399292 165.00000000 0.507897 -0.759395 0.406644 0.000000
243.94000244 175.95700073 200.00000000 0.980186 0.195091 -0.034289 0.000000
181.28900146 155.51800537 217.50000000 -0.000978 -0.000978 -0.999999 0.000000
203.94999695 223.94500732 170.00000000 0.701680 -0.701680 0.123651 0.000000
150.18600464 206.61599731 130.00000000 -0.208703 0.965737 0.154259 0.000000
156.40600586 186.62100220 167.50000000 -0.209939 -0.847309 0.487845 0.000000
144.40899658 198.17399597 145.00000000 -0.815890 0.574670 0.063852 0.000000
117.30500031 278.15399170 217.50000000 0.001322 -0.881656 -0.471891 0.000000
127.96900177 242.60699463 107.50000000 0.025241 0.231980 0.972393 0.000000
204.39500427 187.50999451 162.50000000 -0.000978 -0.000978 -0.999999 0.000000
134.18899536 291.48400879 137.50000000 0.001248 -0.941995 0.335625 0.000000
128.85699463 167.95899963 227.50000000 -0.240949 0.725997 -0.644106 0.000000
157.29499817 162.62699890 172.50000000 -0.000978 -0.000978 -0.999999 0.000000
102.19699860 240.83000183 82.50000000 -0.515556 0.221827 0.827644 0.000000
116.41600037 214.16999817 252.50000000 0.451900 0.750976 -0.481479 0.000000
137.74400330 247.93899536 242.50000000 -0.000978 -0.000978 -0.999999 0.000000
97.75389862 173.73500061 115.00000000 -0.593509 0.679959 0.430585 0.000000
79.09179688 236.38699341 227.50000000 0.918379 -0.347763 -0.188786 0.000000
106.64099884 199.95100403 92.50000000 -0.662025 0.172769 0.729297 0.000000
208.83799744 207.94900513 162.50000000 -0.000978 -0.000978 -0.999999 0.000000
165.29299927 186.62100220 227.50000000 0.984462 0.001133 0.175594 0.000000
81.75779724 250.60499573 112.50000000 0.781622 -0.542837 0.307236 0.000000
186.62100220 271.93399048 187.50000000 -0.815719 -0.545331 -0.192917 0.000000
199.95100403 172.40199280 167.50000000 -0.000978 -0.000978 -0.999999 0.000000
207.94900513 174.17999268 167.50000000 0.000978 0.000978 -0.999999 0.000000
106.64099884 235.49800110 247.50000000 -0.000978 -0.000978 -0.999999 0.000000
83.09079742 247.93899536 100.00000000 0.761404 -0.624077 0.175474 0.000000
185.73199463 166.18200684 197.50000000 -0.536817 -0.223033 0.813685 0.000000
127.96900177 149.29699707 207.50000000 0.290931 0.767868 -0.570734 0.000000
106.19599915 241.71899414 85.00000000 -0.532132 0.172381 0.828927 0.000000
207.06100464 191.95300293 162.50000000 -0.000978 -0.000978 -0.999999 0.000000
214.16999817 127.96900177 197.50000000 0.000978 0.000978 -0.999999 0.000000
133.30099487 196.39700317 132.50000000 -0.590381 0.597147 0.543015 0.000000
218.61300659 136.85499573 192.50000000 0.440766 -0.795962 -0.414934 0.000000
191.06399536 219.05799866 175.00000000 -0.284498 -0.951415 -0.117769 0.000000
166.18200684 261.26998901 137.50000000 -0.150659 0.981120 -0.121262 0.000000
162.62699890 272.82199097 137.50000000 -0.387058 0.132745 0.912450 0.000000
102.19699860 242.60699463 82.50000000 -0.549162 0.183054 0.815422 0.000000
107.97399902 278.15399170 215.00000000 0.364572 -0.577103 -0.730780 0.000000
195.50799561 118.19300079 202.50000000 -0.288696 0.585367 -0.757628 0.000000
135.96699524 258.60400391 117.50000000 -0.669821 -0.149689 0.727278 0.000000
164.40400696 177.73399353 172.50000000 -0.411797 0.197839 0.889541 0.000000
68.87210083 224.83399963 125.00000000 -0.113070 -0.800299 -0.588844 0.000000
174.17999268 277.26599121 152.50000000 -0.818708 -0.346803 0.457653 0.000000
111.97299957 154.62899780 212.50000000 -0.352111 0.825802 -0.440533 0.000000
118.19300079 177.28999329 150.00000000 -0.527335 0.691395 0.493853 0.000000
127.08000183 199.06300354 247.50000000 -0.000978 -0.000978 -0.999999 0.000000
115.52700043 182.17799377 242.50000000 0.119313 0.312360 -0.942441 0.000000
143.07600403 273.71099854 122.50000000 -0.000978 -0.000978 0.999999 0.000000
159.07200623 135.96699524 182.50000000 -0.000978 -0.000978 -0.999999 0.000000
197.72999573 241.71899414 200.00000000 -0.699506 -0.308558 -0.644580 0.000000
203.50599670 187.50999451 197.50000000 0.126131 0.980885 0.148174 0.000000
179.51199341 214.16999817 152.50000000 -0.806815 0.521688 0.277294 0.000000
159.96099854 181.28900146 227.50000000 -0.000978 -0.000978 -0.999999 0.000000
86.20120239 260.38101196 117.50000000 0.876349 -0.477631 0.062300 0.000000
106.19599915 243.49600220 85.00000000 -0.618307 -0.113627 0.777680 0.000000
207.06100464 125.30300140 207.50000000 0.006708 0.505777 -0.862638 0.000000
80.86910248 247.05099487 107.50000000 0.776476 -0.564566 0.279911 0.000000
155.51800537 163.07099915 220.00000000 0.602931 0.643238 -0.471932 0.000000
116.41600037 191.95300293 247.50000000 0.460339 -0.211426 -0.862199 0.000000
181.28900146 204.39500427 182.50000000 -0.317364 0.088230 0.944191 0.000000
180.39999390 237.27499390 217.50000000 -0.463285 -0.106258 -0.879816 0.000000
215.05900574 148.40800476 187.50000000 -0.000978 -0.000978 -0.999999 0.000000
214.16999817 220.39100647 162.50000000 0.000978 0.000978 -0.999999 0.000000
94.19920349 158.62800598 150.00000000 0.732056 0.648126 0.209825 0.000000
204.39500427 215.94700623 197.50000000 0.598970 -0.598970 0.531480 0.000000
191.95300293 126.63600159 205.00000000 0.223349 0.663801 -0.713781 0.000000
67.98339844 238.16400146 175.00000000 0.685677 -0.685677 -0.244322 0.000000
170.62500000 163.51600647 217.50000000 0.001379 0.748548 -0.663079 0.000000
133.30099487 229.27699280 112.50000000 -0.282224 -0.620255 0.731869 0.000000
135.52200317 243.49600220 245.00000000 -0.534310 -0.467729 -0.704090 0.000000
202.61700439 202.61700439 217.50000000 0.371804 -0.574904 -0.728867 0.000000
88.86720276 245.27299500 82.50000000 0.207896 -0.830067 0.517464 0.000000
193.72999573 189.28700256 192.50000000 0.260201 -0.946804 0.189361 0.000000
103.97499847 179.51199341 112.50000000 0.000978 0.999999 0.000978 0.000000
216.83599854 151.96299744 187.50000000 0.556602 -0.315996 -0.768336 0.000000
157.29499817 207.94900513 132.50000000 -0.252627 0.779849 0.572726 0.000000
132.41200256 295.92800903 192.50000000 -0.000978 -0.000978 -0.999999 0.000000
183.06599426 201.72900391 167.50000000 0.000978 0.000978 0.999999 0.000000
186.62100220 170.62500000 167.50000000 -0.000978 -0.000978 -0.999999 0.000000
130.63499451 136.85499573 197.50000000 0.424984 0.497182 -0.756438 0.000000
183.95500183 163.96000671 195.00000000 -0.725070 -0.237496 0.646429 0.000000
103.97499847 245.27299500 82.50000000 -0.561814 -0.026227 0.826847 0.000000
151.96299744 159.07200623 217.50000000 -0.276649 0.311779 -0.908988 0.000000
82.64649963 245.27299500 232.50000000 0.000978 0.000978 -0.999999 0.000000
187.50999451 246.16200256 162.50000000 -0.656045 0.488258 0.575507 0.000000
179.51199341 168.84800720 222.50000000 -0.000978 -0.000978 -0.999999 0.000000
134.18899536 299.48199463 157.50000000 -0.001133 -0.984462 0.175594 0.000000
73.31539917 241.71899414 120.00000000 0.000978 0.000978 0.999999 0.000000
223.05700684 182.17799377 167.50000000 0.338821 -0.391424 -0.855563 0.000000
76.42579651 258.15899658 185.00000000 0.701680 -0.701680 -0.123651 0.000000
92.42189789 246.16200256 82.50000000 0.079914 -0.690166 0.719225 0.000000
223.94500732 164.40400696 217.50000000 0.220249 0.113307 -0.968840 0.000000
94.19920349 246.16200256 82.50000000 -0.001373 -0.627537 0.778585 0.000000
120.85900116 244.38499451 102.50000000 -0.581434 0.177618 0.793969 0.000000
168.84800720 211.50399780 137.50000000 0.152354 0.764788 0.626010 0.000000
157.29499817 207.94900513 237.50000000 -0.000978 -0.000978 -0.999999 0.000000
157.29499817 245.27299500 232.50000000 -0.623687 -0.145777 -0.767961 0.000000
221.27900696 145.74200439 192.50000000 0.942399 -0.061093 -0.328865 0.000000
134.18899536 181.73300171 240.00000000 -0.255711 0.460892 -0.849818 0.000000
112.86100006 206.17199707 247.50000000 -0.000978 -0.000978 -0.999999 0.000000
123.52500153 296.37200928 150.00000000 0.169193 -0.675246 0.717925 0.000000
96.86519623 198.61799622 240.00000000 0.790019 0.234367 -0.566517 0.000000
83.97949982 269.26800537 190.00000000 0.769832 -0.636072 -0.052650 0.000000
189.28700256 245.27299500 167.50000000 -0.894688 0.070091 0.441159 0.000000
70.64939880 223.05700684 105.00000000 0.893319 -0.178085 0.412635 0.000000
175.95700073 210.61500549 227.50000000 -0.567076 0.737035 -0.367701 0.000000
79.53610229 171.51400757 210.00000000 0.779173 0.301153 -0.549724 0.000000
169.29200745 283.48599243 195.00000000 -0.530256 -0.530256 -0.661557 0.000000
189.28700256 262.60299683 190.00000000 -0.927912 -0.233749 -0.290415 0.000000
123.52500153 262.15798950 237.50000000 0.082978 -0.656543 -0.749711 0.000000
158.18400574 166.18200684 172.50000000 0.574738 -0.128540 -0.808179 0.000000
145.74200439 263.04699707 122.50000000 0.000978 0.000978 0.999999 0.000000
181.73300171 272.82199097 195.00000000 -0.781566 -0.466340 -0.414344 0.000000
218.16900635 229.27699280 180.00000000 0.838065 0.531989 -0.120973 0.000000
92.42189789 253.27200317 232.50000000 0.161248 -0.510371 -0.844701 0.000000
81.75779724 174.62399292 215.00000000 0.845943 0.481443 -0.229331 0.000000
70.20510101 192.39700317 130.00000000 0.598970 -0.598970 -0.531480 0.000000
94.19920349 176.84599304 107.50000000 0.000978 0.000978 0.999999 0.000000
140.41000366 153.74000549 212.50000000 0.076613 0.305152 -0.949217 0.000000
123.52500153 295.92800903 192.50000000 0.207139 -0.938381 -0.276649 0.000000
114.63899994 152.85200500 162.50000000 -0.765776 0.333717 0.549746 0.000000
87.08989716 162.62699890 162.50000000 0.894688 0.446689 -0.001310 0.000000
199.50700378 199.06300354 175.00000000 0.800299 -0.113070 0.588844 0.000000
103.97499847 247.05099487 82.50000000 -0.554101 -0.102718 0.826088 0.000000
110.19499969 207.06100464 247.50000000 -0.000978 -0.000978 -0.999999 0.000000
179.51199341 158.18400574 172.50000000 -0.000978 -0.000978 -0.999999 0.000000
103.08599854 287.04098511 162.50000000 0.507897 -0.759395 0.406644 0.000000
69.76069641 199.06300354 100.00000000 0.985110 0.130788 0.111590 0.000000
188.39799500 185.73199463 222.50000000 -0.000978 -0.000978 -0.999999 0.000000
167.95899963 255.93800354 217.50000000 -0.000978 -0.000978 -0.999999 0.000000
146.63099670 250.16099548 120.00000000 -0.742716 -0.367277 0.559893 0.000000
88.86720276 163.51600647 152.50000000 0.812861 0.548491 0.195998 0.000000
172.40199280 178.62300110 222.50000000 -0.552808 0.693098 -0.462622 0.000000
132.41200256 289.70700073 132.50000000 -0.000978 -0.000978 0.999999 0.000000
184.84399414 203.50599670 182.50000000 0.000978 0.000978 0.999999 0.000000
151.07400513 164.40400696 222.50000000 -0.186868 0.560604 -0.806724 0.000000
207.06100464 227.50000000 177.50000000 0.852843 -0.340205 0.396129 0.000000
171.95799255 208.83799744 145.00000000 -0.623741 0.723155 0.296638 0.000000
124.41400146 239.94099426 102.50000000 -0.000978 -0.000978 0.999999 0.000000
87.08989716 239.05299377 237.50000000 -0.000978 -0.000978 -0.999999 0.000000
134.18899536 278.15399170 217.50000000 -0.000978 -0.000978 -0.999999 0.000000
177.73399353 163.51600647 217.50000000 -0.000978 -0.000978 -0.999999 0.000000
103.08599854 247.93899536 82.50000000 -0.605654 -0.645920 0.464727 0.000000
202.61700439 218.16900635 185.00000000 0.707106 -0.707106 0.001384 0.000000
104.41899872 247.93899536 85.00000000 -0.768244 -0.402880 0.497483 0.000000
249.71699524 195.50799561 212.50000000 -0.000978 -0.000978 -0.999999 0.000000
149.29699707 191.95300293 242.50000000 -0.225095 -0.127340 -0.965980 0.000000
139.52099609 207.06100464 122.50000000 -0.233789 0.635466 0.735885 0.000000
82.20220184 171.51400757 160.00000000 0.913331 0.303476 0.271531 0.000000
193.72999573 233.72099304 182.50000000 -0.598970 0.598970 0.531480 0.000000
146.63099670 221.27900696 242.50000000 -0.000978 -0.000978 -0.999999 0.000000
159.96099854 276.37701416 137.50000000 0.000978 0.000978 0.999999 0.000000
183.95500183 168.84800720 167.50000000 -0.000978 -0.000978 -0.999999 0.000000
115.52700043 249.71699524 97.50000000 -0.701931 -0.189753 0.686504 0.000000
238.16400146 203.94999695 205.00000000 -0.035289 -0.741074 -0.670495 0.000000
168.84800720 127.08000183 197.50000000 0.415380 0.523740 -0.743744 0.000000
183.06599426 204.39500427 182.50000000 -0.317364 0.088230 0.944191 0.000000
101.30899811 248.82800293 82.50000000 -0.570359 -0.654483 0.496330 0.000000
94.19920349 164.40400696 217.50000000 0.441606 0.691572 -0.571588 0.000000
115.52700043 267.48999023 102.50000000 -0.000978 -0.000978 0.999999 0.000000
169.73599243 289.70700073 162.50000000 -0.654574 -0.711632 0.255173 0.000000
116.41600037 185.28799438 125.00000000 -0.684514 0.513804 0.517151 0.000000
92.42189789 249.27200317 85.00000000 0.244167 -0.710446 0.660037 0.000000
175.06799316 272.82199097 147.50000000 -0.194700 0.783401 0.590233 0.000000
97.30960083 272.82199097 215.00000000 0.425330 -0.852207 -0.304691 0.000000
100.41999817 267.04598999 105.00000000 0.000978 0.000978 0.999999 0.000000
180.39999390 155.51800537 217.50000000 -0.000978 -0.000978 -0.999999 0.000000
146.63099670 248.82800293 237.50000000 -0.000978 -0.000978 -0.999999 0.000000
129.30200195 248.82800293 110.00000000 -0.829960 -0.335449 0.445690 0.000000
130.63499451 140.41000366 202.50000000 0.001248 0.941995 -0.335625 0.000000
115.52700043 230.16600037 92.50000000 -0.440706 0.792625 0.421335 0.000000
166.18200684 247.05099487 227.50000000 -0.975231 -0.195544 -0.103377 0.000000
74.64839935 255.04899597 142.50000000 0.662002 -0.662002 0.351433 0.000000
180.39999390 202.61700439 177.50000000 -0.999999 -0.000978 -0.000978 0.000000
112.86100006 161.73800659 222.50000000 0.141641 0.891337 -0.430646 0.000000
135.07800293 152.85200500 167.50000000 0.000978 0.000978 0.999999 0.000000
143.07600403 267.93499756 225.00000000 -0.805550 -0.270602 -0.527127 0.000000
141.29899597 194.61900330 147.50000000 -0.571557 0.531093 0.625510 0.000000
143.52099609 201.72900391 245.00000000 -0.410379 0.508478 -0.756994 0.000000
123.52500153 257.71499634 107.50000000 0.000978 0.000978 0.999999 0.000000
191.95300293 215.94700623 162.50000000 -0.000978 -0.000978 -0.999999 0.000000
117.74900055 178.62300110 145.00000000 -0.701680 0.701680 0.123651 0.000000
168.84800720 181.28900146 182.50000000 0.000978 0.000978 0.999999 0.000000
157.29499817 145.74200439 182.50000000 0.000978 0.000978 -0.999999 0.000000
90.64450073 248.82800293 237.50000000 0.560402 -0.466723 -0.684192 0.000000
99.53130341 250.60499573 82.50000000 -0.526956 -0.746931 0.405477 0.000000
116.41600037 169.73599243 232.50000000 0.000978 0.000978 -0.999999 0.000000
139.52099609 223.94500732 247.50000000 -0.000978 -0.000978 -0.999999 0.000000
230.61000061 174.17999268 185.00000000 0.678824 -0.554792 -0.481044 0.000000
130.63499451 281.70901489 212.50000000 -0.000978 -0.000978 -0.999999 0.000000
143.96499634 224.83399963 117.50000000 0.000978 0.000978 0.999999 0.000000
104.86299896 185.73199463 102.50000000 -0.672543 0.518244 0.528307 0.000000
111.97299957 249.71699524 247.50000000 -0.000978 -0.000978 -0.999999 0.000000
148.40800476 231.05499268 117.50000000 0.000978 0.000978 0.999999 0.000000
97.75389862 251.49400330 82.50000000 -0.549219 -0.724045 0.417274 0.000000
79.09179688 259.93701172 205.00000000 0.823587 -0.532374 -0.195659 0.000000
188.39799500 264.82400513 167.50000000 -0.881656 -0.001322 0.471891 0.000000
157.73899841 249.71699524 230.00000000 -0.755099 -0.376734 -0.536561 0.000000
100.41999817 251.05000305 85.00000000 -0.526956 -0.746931 0.405477 0.000000
190.17599487 189.28700256 177.50000000 0.779478 -0.335899 0.528759 0.000000
187.95399475 235.49800110 175.00000000 -0.701680 0.701680 0.123651 0.000000
179.51199341 133.30099487 182.50000000 0.000000 0.000000 0.000000 0.000000
130.63499451 288.37399292 205.00000000 -0.370285 -0.640181 -0.673095 0.000000
217.72500610 217.72500610 207.50000000 -0.000978 -0.000978 -0.999999 0.000000
168.84800720 254.16000366 217.50000000 -0.000978 -0.000978 -0.999999 0.000000
68.42769623 214.16999817 117.50000000 0.998002 -0.059943 0.019981 0.000000
188.84300232 197.28500366 225.00000000 0.509237 -0.696236 -0.505898 0.000000
190.17599487 210.61500549 217.50000000 0.000978 0.000978 -0.999999 0.000000
132.41200256 157.29499817 167.50000000 0.000978 0.000978 0.999999 0.000000
136.85499573 268.37899780 117.50000000 -0.214069 0.187477 0.958659 0.000000
181.28900146 148.40800476 172.50000000 -0.000978 -0.000978 -0.999999 0.000000
87.97850037 210.61500549 237.50000000 0.498200 -0.042546 -0.866018 0.000000
103.97499847 153.74000549 207.50000000 0.243397 0.604567 -0.758457 0.000000
131.52299500 246.16200256 112.50000000 -0.692039 -0.114105 0.712785 0.000000
158.18400574 210.17100525 150.00000000 0.001322 0.881656 -0.471891 0.000000
188.39799500 151.07400513 212.50000000 -0.000978 -0.000978 -0.999999 0.000000
199.95100403 198.17399597 172.50000000 0.986444 0.140921 -0.084079 0.000000
227.94400024 209.72700500 200.00000000 -0.512755 -0.823796 -0.241749 0.000000
211.50399780 193.72999573 162.50000000 -0.000978 -0.000978 -0.999999 0.000000
76.42579651 182.17799377 87.50000000 -0.012277 0.833454 0.552453 0.000000
205.28300476 183.06599426 162.50000000 -0.000978 -0.000978 -0.999999 0.000000
208.83799744 181.28900146 162.50000000 -0.000978 -0.000978 -0.999999 0.000000
83.09079742 252.38299561 225.00000000 0.784369 -0.542535 -0.300701 0.000000
128.85699463 249.71699524 112.50000000 -0.702401 -0.329301 0.631026 0.000000
154.62899780 258.60400391 227.50000000 -0.549174 -0.689388 -0.472390 0.000000
136.85499573 231.94299316 247.50000000 -0.000978 -0.000978 -0.999999 0.000000
174.17999268 253.27200317 217.50000000 -0.189091 -0.917020 -0.351169 0.000000
88.86720276 232.83200073 237.50000000 -0.000978 -0.000978 -0.999999 0.000000
106.64099884 135.96699524 187.50000000 -0.000978 -0.000978 -0.999999 0.000000
191.06399536 116.41600037 202.50000000 0.032367 0.637493 -0.769776 0.000000
215.94700623 164.40400696 212.50000000 0.134431 0.096362 -0.986226 0.000000
160.40499878 261.26998901 220.00000000 -0.703149 0.700163 -0.123909 0.000000
167.95899963 263.04699707 212.50000000 -0.631305 -0.631305 -0.450454 0.000000
107.52899933 135.96699524 187.50000000 -0.590460 -0.103513 -0.800401 0.000000
173.73500061 232.83200073 225.00000000 -0.438546 -0.681997 -0.585284 0.000000
193.72999573 167.07000732 167.50000000 -0.000978 -0.000978 -0.999999 0.000000
118.19300079 191.06399536 247.50000000 -0.000978 -0.000978 -0.999999 0.000000
170.62500000 195.50799561 177.50000000 -0.799991 -0.267707 0.536980 0.000000
108.41799927 146.63099670 162.50000000 -0.000978 -0.000978 0.999999 0.000000
217.72500610 216.83599854 162.50000000 -0.000978 -0.000978 -0.999999 0.000000
117.30500031 160.85000610 162.50000000 -0.294221 -0.183715 0.937914 0.000000
172.40199280 285.70800781 160.00000000 0.000978 0.000978 0.999999 0.000000
208.83799744 154.62899780 212.50000000 -0.000978 -0.000978 -0.999999 0.000000
203.50599670 135.96699524 187.50000000 0.296976 -0.394446 -0.869608 0.000000
131.52299500 146.63099670 207.50000000 0.143791 0.549962 -0.822719 0.000000
82.64649963 183.06599426 87.50000000 -0.136538 0.878154 0.458480 0.000000
67.98339844 218.61300659 205.00000000 0.984462 -0.001133 -0.175594 0.000000
235.49800110 197.28500366 177.50000000 0.811287 0.499375 -0.304036 0.000000
89.75589752 252.38299561 92.50000000 0.518337 -0.682729 0.514983 0.000000
97.75389862 215.05900574 242.50000000 -0.000978 -0.000978 -0.999999 0.000000
157.29499817 159.96099854 217.50000000 -0.005828 0.208650 -0.977973 0.000000
73.31539917 183.06599426 115.00000000 0.841581 0.533998 -0.081168 0.000000
189.28700256 171.51400757 187.50000000 0.832674 0.553762 0.001354 0.000000
136.85499573 225.27799988 115.00000000 -0.723237 0.445196 0.527947 0.000000
157.29499817 164.40400696 222.50000000 0.001322 0.881656 -0.471891 0.000000
119.08200073 135.07800293 192.50000000 -0.240218 0.962170 -0.128549 0.000000
86.20120239 183.95500183 87.50000000 -0.191574 0.862824 0.467796 0.000000
160.40499878 263.04699707 135.00000000 -0.742149 -0.229675 0.629654 0.000000
159.07200623 287.92999268 197.50000000 -0.476964 0.239244 -0.845735 0.000000
182.17799377 231.05499268 157.50000000 -0.894688 0.446689 0.001310 0.000000
150.18600464 158.18400574 172.50000000 0.595026 -0.500631 -0.628739 0.000000
173.29100037 235.49800110 222.50000000 -0.358628 -0.646840 -0.673041 0.000000
103.52999878 282.59799194 140.00000000 0.608722 -0.763613 0.215299 0.000000
169.73599243 239.05299377 227.50000000 -0.000978 -0.000978 -0.999999 0.000000
182.17799377 264.82400513 202.50000000 -0.908027 -0.374400 -0.187917 0.000000
111.97299957 147.52000427 162.50000000 0.081637 0.557138 0.826397 0.000000
67.98339844 206.17199707 115.00000000 0.984462 0.001133 0.175594 0.000000
203.50599670 204.39500427 212.50000000 0.149651 -0.918887 0.365037 0.000000
115.52700043 272.37799072 225.00000000 0.059933 -0.857179 -0.511520 0.000000
151.51899719 193.72999573 240.00000000 -0.762312 0.312949 -0.566518 0.000000
236.38699341 167.07000732 212.50000000 -0.000978 -0.000978 -0.999999 0.000000
73.31539917 242.60699463 215.00000000 0.965807 -0.143514 -0.215917 0.000000
122.63700104 289.26300049 135.00000000 0.238918 -0.870022 0.431254 0.000000
90.64450073 184.84399414 87.50000000 -0.174949 0.868867 0.463102 0.000000
103.97499847 274.60000610 117.50000000 0.467080 -0.850481 0.241908 0.000000
212.39300537 146.63099670 187.50000000 -0.000978 -0.000978 -0.999999 0.000000
173.29100037 209.72700500 227.50000000 -0.567076 0.737035 -0.367701 0.000000
163.51600647 210.17100525 150.00000000 -0.001322 0.881656 -0.471891 0.000000
224.83399963 186.62100220 212.50000000 -0.000978 -0.000978 -0.999999 0.000000
80.86910248 235.49800110 232.50000000 0.806229 -0.267699 -0.527571 0.000000
112.86100006 191.06399536 107.50000000 -0.941995 0.001248 -0.335625 0.000000
116.86000061 205.28300476 105.00000000 -0.684529 -0.203341 0.700052 0.000000
135.96699524 236.38699341 247.50000000 -0.000978 -0.000978 -0.999999 0.000000
223.05700684 194.61900330 162.50000000 -0.511612 0.850754 -0.120294 0.000000
103.08599854 188.84300232 240.00000000 0.553108 0.653979 -0.516122 0.000000
80.86910248 227.50000000 232.50000000 0.291929 0.411146 -0.863560 0.000000
139.52099609 297.70498657 152.50000000 -0.083530 -0.937396 0.338099 0.000000
138.63299561 232.83200073 112.50000000 -0.881656 0.001322 0.471891 0.000000
71.53810120 248.82800293 160.00000000 0.948315 -0.283019 -0.143522 0.000000
79.98049927 244.38499451 227.50000000 0.821571 -0.329575 -0.465189 0.000000
180.84500122 215.94700623 155.00000000 -0.914309 0.308634 0.262266 0.000000
131.52299500 212.39300537 247.50000000 -0.000978 -0.000978 -0.999999 0.000000
166.18200684 261.26998901 217.50000000 -0.000978 -0.000978 -0.999999 0.000000
158.18400574 183.95500183 232.50000000 0.000978 0.000978 -0.999999 0.000000
243.49600220 171.51400757 202.50000000 -0.000978 -0.000978 -0.999999 0.000000
235.49800110 165.29299927 192.50000000 0.701680 -0.701680 -0.123651 0.000000
72.87110138 239.94099426 212.50000000 0.984462 0.001133 -0.175594 0.000000
141.29899597 135.07800293 177.50000000 0.414765 0.470067 0.779107 0.000000
172.40199280 197.28500366 162.50000000 0.218222 0.825583 0.520377 0.000000
199.06300354 189.28700256 222.50000000 -0.000978 -0.000978 -0.999999 0.000000
137.74400330 253.71600342 240.00000000 -0.489413 -0.801872 -0.342748 0.000000
84.86820221 266.60198975 210.00000000 0.176708 -0.883541 0.433738 0.000000
220.83500671 209.72700500 195.00000000 0.822106 0.451445 -0.346900 0.000000
207.06100464 169.29200745 215.00000000 -0.061865 0.738067 -0.671885 0.000000
89.31150055 151.96299744 175.00000000 0.838346 0.394793 0.375919 0.000000
73.75980377 238.60800171 220.00000000 0.000978 0.000978 -0.999999 0.000000
191.06399536 256.82598877 172.50000000 -0.956808 -0.097369 0.273930 0.000000
103.97499847 233.72099304 247.50000000 -0.000978 -0.000978 -0.999999 0.000000
128.85699463 269.26800537 112.50000000 -0.329757 -0.050433 0.942718 0.000000
217.72500610 214.16999817 162.50000000 -0.000978 -0.000978 -0.999999 0.000000
183.95500183 239.94099426 157.50000000 -0.941790 0.171359 0.289254 0.000000
156.40600586 207.06100464 237.50000000 0.000978 0.000978 -0.999999 0.000000
122.63700104 201.72900391 112.50000000 -0.417738 0.556434 0.718245 0.000000
92.42189789 239.94099426 242.50000000 -0.000978 -0.000978 -0.999999 0.000000
125.30300140 243.49600220 107.50000000 -0.524156 0.042873 0.850543 0.000000
132.85600281 260.38101196 115.00000000 -0.627537 -0.001373 0.778585 0.000000
209.72700500 129.74600220 192.50000000 -0.000978 -0.000978 -0.999999 0.000000
174.17999268 146.63099670 212.50000000 -0.000978 -0.000978 -0.999999 0.000000
135.07800293 231.05499268 247.50000000 -0.000978 -0.000978 -0.999999 0.000000
140.41000366 139.52099609 202.50000000 -0.000978 -0.000978 -0.999999 0.000000
141.29899597 181.28900146 167.50000000 0.000978 0.000978 0.999999 0.000000
216.83599854 198.17399597 162.50000000 -0.000978 -0.000978 -0.999999 0.000000
155.51800537 252.38299561 127.50000000 0.000978 0.000978 0.999999 0.000000
151.07400513 196.39700317 167.50000000 0.000978 0.000978 0.999999 0.000000
87.97850037 201.72900391 232.50000000 0.000978 0.000978 -0.999999 0.000000
99.53130341 178.62300110 107.50000000 -0.525604 0.676736 0.515528 0.000000
120.85900116 197.28500366 247.50000000 -0.000978 -0.000978 -0.999999 0.000000
119.08200073 199.06300354 112.50000000 -0.417738 0.556434 0.718245 0.000000
183.51100159 226.61099243 185.00000000 -0.919328 0.322697 0.225171 0.000000
107.52899933 240.83000183 247.50000000 -0.000978 -0.000978 -0.999999 0.000000
139.52099609 237.72000122 115.00000000 -0.838007 -0.207607 0.504623 0.000000
188.39799500 138.63299561 182.50000000 0.149455 -0.830141 -0.537150 0.000000
131.52299500 159.07200623 222.50000000 0.040960 0.637004 -0.769772 0.000000
180.39999390 211.50399780 162.50000000 -0.000978 -0.000978 -0.999999 0.000000
143.07600403 140.41000366 202.50000000 -0.000978 -0.000978 -0.999999 0.000000
140.41000366 237.27499390 117.50000000 -0.360870 -0.321281 0.875529 0.000000
150.18600464 157.29499817 172.50000000 0.595026 -0.500631 -0.628739 0.000000
154.62899780 152.85200500 212.50000000 -0.000978 -0.000978 -0.999999 0.000000
121.74800110 165.29299927 162.50000000 -0.313073 0.310106 0.897675 0.000000
200.83999634 164.40400696 172.50000000 0.172097 -0.463338 -0.869310 0.000000
70.20510101 236.38699341 127.50000000 0.984462 -0.001133 0.175594 0.000000
91.53320313 147.07499695 180.00000000 0.807421 0.562931 0.176576 0.000000
172.40199280 242.60699463 222.50000000 -0.882662 -0.064922 -0.465504 0.000000
202.61700439 222.16799927 167.50000000 0.701680 -0.701680 0.123651 0.000000
232.83200073 145.74200439 197.50000000 0.000978 0.000978 -0.999999 0.000000
97.75389862 191.06399536 87.50000000 -0.781505 0.389944 0.487025 0.000000
93.31060028 150.18600464 197.50000000 0.368924 0.893418 -0.256321 0.000000
133.30099487 199.95100403 247.50000000 -0.000978 -0.000978 -0.999999 0.000000
131.52299500 242.60699463 112.50000000 -0.735030 -0.335875 0.588998 0.000000
138.63299561 291.92898560 200.00000000 -0.165942 -0.704874 -0.689650 0.000000
217.72500610 199.95100403 162.50000000 -0.000978 -0.000978 -0.999999 0.000000
139.52099609 192.84199524 147.50000000 -0.468360 0.786002 0.403535 0.000000
86.64550018 271.93399048 180.00000000 0.701919 -0.710497 -0.050035 0.000000
122.63700104 164.40400696 227.50000000 0.138982 0.769632 -0.623178 0.000000
71.53810120 192.84199524 90.00000000 0.984462 -0.001133 0.175594 0.000000
108.86199951 280.82000732 125.00000000 0.432962 -0.832862 0.344796 0.000000
135.96699524 199.06300354 132.50000000 -0.612659 0.659401 0.435706 0.000000
165.29299927 288.81799316 152.50000000 -0.718162 -0.590561 0.368078 0.000000
168.84800720 199.06300354 162.50000000 0.348002 0.401060 0.847376 0.000000
201.72900391 137.74400330 187.50000000 0.254805 -0.634637 -0.729596 0.000000
103.97499847 185.73199463 102.50000000 0.000978 0.000978 0.999999 0.000000
168.84800720 274.60000610 142.50000000 0.000978 0.000978 0.999999 0.000000
215.94700623 140.41000366 187.50000000 -0.000978 -0.000978 -0.999999 0.000000
111.97299957 288.81799316 197.50000000 0.243912 -0.725443 -0.643614 0.000000
79.98049927 239.05299377 227.50000000 0.784082 -0.187996 -0.591500 0.000000
198.17399597 197.72999573 175.00000000 0.805706 -0.076118 0.587404 0.000000
71.53810120 247.05099487 160.00000000 0.881656 -0.001322 -0.471891 0.000000
170.62500000 289.70700073 167.50000000 -0.620330 -0.776517 0.110510 0.000000
99.53130341 194.61900330 87.50000000 -0.781505 0.389944 0.487025 0.000000
