168.87500000 170.75999451 166.50000000 0.509246 -0.858918 0.054116 0.000000
100.26999664 205.81599426 75.75000000 0.413758 0.874157 -0.254273 0.000000
109.31600189 97.63079834 115.50000000 -0.311443 -0.937074 -0.157780 0.000000
92.73040009 127.41000366 63.75000000 -0.623724 -0.682970 -0.380159 0.000000
123.64099884 215.99400330 144.00000000 0.388552 0.639871 -0.663018 0.000000
145.50399780 131.93400574 44.25000000 0.849400 0.209710 -0.484294 0.000000
81.42189789 218.25599670 96.00000000 0.666485 0.666485 -0.334057 0.000000
45.23440170 189.98399353 152.25000000 -0.991433 -0.125198 0.037221 0.000000
46.36520004 202.80099487 121.50000000 -0.878997 0.020130 -0.476403 0.000000
184.70700073 165.48199463 186.00000000 -0.478310 0.403726 0.779888 0.000000
195.26199341 151.53500366 189.75000000 0.000978 0.000978 0.999999 0.000000
139.47300720 194.88499451 87.00000000 0.502490 0.856681 0.116624 0.000000
157.56599426 96.87689972 52.50000000 0.148717 -0.767621 -0.623411 0.000000
108.56199646 102.15399933 154.50000000 -0.488671 -0.727209 0.482045 0.000000
123.64099884 163.59800720 5.25000000 -0.272411 -0.134212 -0.952774 0.000000
116.85500336 106.30100250 66.75000000 -0.262389 -0.694934 -0.669491 0.000000
174.15199280 148.14300537 148.50000000 -0.023584 0.803260 -0.595161 0.000000
73.12889862 122.51000214 145.50000000 -0.642686 -0.764697 0.046818 0.000000
87.45310211 226.17199707 119.25000000 0.712500 0.529808 -0.460052 0.000000
76.14450073 140.60299683 73.50000000 -0.825308 -0.345588 -0.446582 0.000000
139.47300720 194.50799561 105.75000000 0.577179 0.775338 -0.256349 0.000000
94.23829651 217.12500000 116.25000000 -0.200823 0.066941 -0.977338 0.000000
52.01950073 180.18400574 107.25000000 -0.905813 -0.139899 -0.399914 0.000000
151.53500366 159.82800293 200.25000000 0.533405 0.267484 0.802453 0.000000
130.42599487 95.74610138 78.75000000 0.212418 -0.971594 0.104324 0.000000
161.33599854 126.27899933 88.50000000 0.941220 0.047771 -0.334398 0.000000
173.39799500 92.35350037 154.50000000 -0.053182 -0.968405 0.243647 0.000000
227.67999268 134.94900513 188.25000000 0.269158 -0.169069 0.948140 0.000000
49.75780106 214.10899353 177.75000000 -0.892078 0.172054 0.417845 0.000000
78.40619659 159.07400513 48.75000000 -0.618604 -0.588264 -0.520841 0.000000
143.24200439 212.22500610 187.50000000 0.549553 0.657111 0.515942 0.000000
140.60299683 190.73800659 100.50000000 0.534746 0.801335 -0.268157 0.000000
64.83589935 224.28700256 96.00000000 -0.284301 0.855976 -0.431830 0.000000
225.41799927 119.87100220 156.75000000 0.740729 0.571420 -0.353271 0.000000
156.05900574 181.31399536 58.50000000 0.654389 0.607527 -0.450206 0.000000
60.31250000 248.78900146 135.75000000 -0.663984 0.722525 -0.192571 0.000000
64.08200073 133.44099426 161.25000000 -0.699161 -0.699161 0.149497 0.000000
174.52900696 113.08599854 91.50000000 0.809916 0.518534 -0.274150 0.000000
154.17399597 201.29299927 183.00000000 0.847456 0.424506 0.318768 0.000000
165.10499573 121.37899780 84.75000000 0.878784 0.404090 0.253871 0.000000
147.38900757 196.01600647 193.50000000 0.482432 0.482432 0.731108 0.000000
94.23829651 262.35900879 179.25000000 0.408873 0.850393 0.331140 0.000000
136.83399963 168.87500000 130.50000000 0.417545 -0.339353 0.842909 0.000000
91.97650146 114.97100067 162.00000000 -0.250923 -0.856178 0.451661 0.000000
173.39799500 101.77700043 177.75000000 -0.105121 -0.842409 0.528486 0.000000
85.94529724 159.82800293 201.75000000 -0.368984 -0.001268 0.929435 0.000000
182.06799316 180.93699646 177.00000000 0.550836 0.787585 0.276207 0.000000
54.65819931 238.98800659 130.50000000 -0.787854 0.451358 -0.419002 0.000000
52.39649963 238.23399353 169.50000000 -0.832674 0.553762 -0.001354 0.000000
86.32219696 121.37899780 171.00000000 -0.412113 -0.841462 0.349434 0.000000
91.22260284 140.97999573 195.75000000 -0.303526 -0.595811 0.743560 0.000000
193.75399780 156.81199646 189.75000000 0.000978 0.000978 0.999999 0.000000
66.34369659 185.46099854 57.75000000 -0.740147 -0.202420 -0.641255 0.000000
104.79299927 99.13860321 145.50000000 -0.552783 -0.795696 0.247585 0.000000
153.41999817 159.07400513 120.00000000 0.748597 -0.179112 0.638374 0.000000
59.18159866 249.54299927 141.00000000 0.000978 0.000978 -0.999999 0.000000
152.28900146 119.11699677 185.25000000 -0.242869 -0.363568 0.899351 0.000000
137.21099854 196.01600647 48.75000000 0.625190 0.759705 0.178844 0.000000
131.93400574 228.43400574 161.25000000 0.560861 0.441033 -0.700660 0.000000
190.73800659 122.88700104 119.25000000 0.213053 0.713805 -0.667151 0.000000
161.33599854 143.24200439 141.75000000 0.509640 0.774976 0.373736 0.000000
63.32809830 158.32000732 189.75000000 -0.296397 0.744998 0.597601 0.000000
53.15039825 193.00000000 97.50000000 -0.953659 0.028823 -0.299507 0.000000
136.45700073 169.25199890 132.00000000 -0.698557 0.606512 0.379686 0.000000
112.33200073 204.68499756 109.50000000 0.460240 0.855166 -0.238474 0.000000
213.35499573 167.36700439 174.75000000 0.382977 0.754545 -0.532908 0.000000
86.69920349 180.93699646 21.75000000 -0.757439 -0.316806 -0.570894 0.000000
143.61900330 183.19900513 199.50000000 0.448776 0.145744 0.881679 0.000000
147.01199341 195.63900757 144.00000000 0.842359 0.485918 -0.233058 0.000000
65.96679688 153.04299927 87.00000000 -0.898117 -0.289476 -0.331042 0.000000
151.15800476 146.25799561 52.50000000 0.707590 -0.192699 -0.679841 0.000000
52.77339935 201.29299927 183.75000000 -0.766300 0.001376 0.642481 0.000000
74.25969696 211.09399414 66.00000000 -0.409315 0.863088 -0.295872 0.000000
125.14800262 119.11699677 51.75000000 -0.316123 -0.266592 -0.910492 0.000000
123.64099884 198.65400696 79.50000000 0.533609 0.843355 -0.063357 0.000000
82.92970276 153.04299927 48.75000000 -0.547549 -0.638526 -0.540810 0.000000
114.21700287 241.25000000 192.00000000 0.357853 0.529493 0.769141 0.000000
44.10350037 196.76899719 154.50000000 -0.997083 -0.020262 -0.073582 0.000000
90.46869659 127.78700256 67.50000000 -0.489784 -0.832787 -0.258025 0.000000
112.33200073 209.58599854 201.75000000 0.089378 0.342838 0.935133 0.000000
116.85500336 156.81199646 204.75000000 0.042147 -0.135552 0.989873 0.000000
76.14450073 237.47999573 111.75000000 0.467409 0.641640 -0.608134 0.000000
110.06999969 105.92400360 160.50000000 -0.315198 -0.619081 0.719298 0.000000
147.01199341 143.61900330 49.50000000 0.779912 -0.070379 -0.621919 0.000000
85.19139862 135.70300293 189.75000000 -0.505105 -0.531955 0.679627 0.000000
44.48049927 213.35499573 162.75000000 -0.992669 0.066782 0.100738 0.000000
142.11099243 179.42999268 201.00000000 0.432801 0.107850 0.895015 0.000000
156.81199646 159.07400513 113.25000000 0.893111 -0.001311 0.449834 0.000000
65.21289825 177.92199707 64.50000000 -0.974032 0.080447 -0.211638 0.000000
191.49200439 158.32000732 156.75000000 0.438317 0.722810 -0.534251 0.000000
53.90430069 152.28900146 135.00000000 -0.930047 -0.162654 -0.329479 0.000000
128.16400146 105.92400360 168.00000000 -0.387309 -0.591676 0.707044 0.000000
120.62500000 221.27099609 147.00000000 0.418561 0.570764 -0.706424 0.000000
77.65229797 129.29499817 87.00000000 -0.703424 -0.574325 -0.418744 0.000000
142.48800659 202.80099487 192.75000000 0.647773 0.279902 0.708552 0.000000
162.08999634 149.27299500 195.75000000 0.506050 0.113897 0.854951 0.000000
76.14450073 243.88900757 193.50000000 -0.361371 0.303914 0.881503 0.000000
47.87300110 208.07800293 175.50000000 -0.901392 0.063900 0.428263 0.000000
125.90200043 145.50399780 198.75000000 0.534173 0.051604 0.843799 0.000000
116.85500336 166.61300659 5.25000000 -0.220700 -0.070279 -0.972806 0.000000
159.07400513 139.47300720 98.25000000 0.834160 0.466194 -0.294685 0.000000
170.00599670 171.89100647 177.00000000 0.594931 -0.671589 -0.441616 0.000000
125.14800262 147.76600647 198.75000000 0.534173 0.051604 0.843799 0.000000
94.23829651 116.85500336 75.75000000 -0.624914 -0.424942 -0.654910 0.000000
146.25799561 182.82200623 43.50000000 0.760030 0.188856 0.621843 0.000000
94.99220276 104.03900146 117.75000000 -0.536151 -0.840491 -0.078218 0.000000
49.00389862 162.08999634 165.75000000 -0.942087 -0.286603 0.174156 0.000000
48.62689972 174.15199280 126.00000000 -0.964139 -0.261819 -0.043430 0.000000
130.42599487 121.37899780 48.75000000 -0.614465 -0.107055 -0.781647 0.000000
137.21099854 200.53900146 137.25000000 0.610405 0.749205 -0.257096 0.000000
169.62899780 90.84570313 87.00000000 0.375959 -0.894931 -0.240319 0.000000
52.39649963 223.91000366 180.00000000 -0.743398 0.317678 0.588591 0.000000
57.29690170 216.37100220 186.75000000 -0.764464 0.287667 0.576924 0.000000
102.53099823 207.70100403 40.50000000 0.003295 0.991705 0.128493 0.000000
59.55860138 210.33999634 189.75000000 -0.752412 0.082954 0.653449 0.000000
58.80469894 227.67999268 186.75000000 -0.762434 0.291285 0.577795 0.000000
93.86129761 108.56199646 90.00000000 -0.805857 -0.591519 -0.026444 0.000000
153.79699707 102.53099823 174.75000000 -0.168609 -0.770133 0.615195 0.000000
106.30100250 122.51000214 180.00000000 -0.078605 -0.827492 0.555949 0.000000
193.75399780 101.02300262 176.25000000 0.001311 -0.893111 0.449834 0.000000
145.88099670 138.71899414 48.00000000 0.893111 0.001311 -0.449834 0.000000
155.30499268 86.69920349 90.75000000 0.102243 -0.991410 0.081564 0.000000
83.68360138 165.85899353 201.75000000 -0.256058 -0.180189 0.949719 0.000000
118.36299896 225.04100037 148.50000000 0.530876 0.564582 -0.631995 0.000000
84.81439972 152.28900146 198.00000000 -0.482432 -0.482432 0.731108 0.000000
66.34369659 169.62899780 62.25000000 -0.931609 -0.354199 -0.081533 0.000000
104.79299927 203.93200684 97.50000000 0.057807 0.554098 0.830442 0.000000
174.90600586 153.04299927 159.75000000 -0.611849 0.747816 -0.257704 0.000000
85.19139862 204.30900574 201.75000000 -0.525127 -0.105025 0.844519 0.000000
62.19720078 252.55900574 141.00000000 -0.666485 0.666485 -0.334057 0.000000
221.64799500 159.82800293 174.75000000 0.450206 0.607527 -0.654389 0.000000
216.37100220 96.50000000 168.75000000 -0.141804 -0.855209 0.498507 0.000000
220.89399719 134.94900513 162.75000000 0.704084 0.322098 -0.632866 0.000000
71.62110138 124.77100372 130.50000000 -0.747379 -0.644292 -0.162210 0.000000
126.65599823 200.16200256 87.00000000 0.390567 0.911322 0.130189 0.000000
148.89599609 168.87500000 139.50000000 -0.894164 -0.001313 0.447738 0.000000
102.53099823 195.63900757 205.50000000 -0.146915 0.365189 0.919268 0.000000
107.05500031 103.28500366 84.75000000 -0.932146 -0.092544 -0.350058 0.000000
174.90600586 110.82399750 87.75000000 0.795203 0.540108 -0.275565 0.000000
116.10199738 110.82399750 60.75000000 -0.329114 -0.601485 -0.727942 0.000000
128.91799927 229.94099426 159.75000000 0.502582 0.549647 -0.667308 0.000000
150.78100586 206.57000732 165.75000000 0.763114 0.600149 -0.239746 0.000000
173.39799500 156.05900574 191.25000000 0.891965 0.011928 0.451947 0.000000
110.82399750 202.04699707 203.25000000 0.083495 0.173040 0.981369 0.000000
131.55700684 162.84399414 202.50000000 0.206287 -0.247271 0.946733 0.000000
108.56199646 137.96499634 45.75000000 -0.581864 0.058045 -0.811212 0.000000
210.33999634 109.31600189 117.75000000 0.442537 0.724302 -0.528724 0.000000
183.19900513 90.84570313 139.50000000 0.065707 -0.994521 0.081299 0.000000
156.43600464 132.68699646 57.00000000 0.908148 0.258844 -0.329039 0.000000
79.16010284 222.40199280 198.75000000 -0.104818 -0.055227 0.992957 0.000000
121.37899780 103.28500366 164.25000000 -0.232123 -0.524199 0.819350 0.000000
47.49610138 202.04699707 174.75000000 -0.893111 -0.001311 0.449834 0.000000
205.06199646 93.86129761 118.50000000 0.236009 -0.942656 -0.236009 0.000000
117.60900116 217.87899780 198.75000000 0.145040 0.262136 0.954069 0.000000
150.78100586 149.64999390 199.50000000 0.195803 0.056459 0.979017 0.000000
223.91000366 153.79699707 173.25000000 0.503836 0.355744 -0.787144 0.000000
157.18899536 128.16400146 67.50000000 0.878893 0.420858 0.224556 0.000000
163.22099304 178.67599487 78.00000000 0.661032 0.587398 -0.466906 0.000000
137.21099854 89.33789825 127.50000000 -0.116200 -0.990578 0.072481 0.000000
101.40000153 206.57000732 96.00000000 0.476187 0.866457 -0.149992 0.000000
107.05500031 147.76600647 203.25000000 -0.109678 -0.292033 0.950099 0.000000
100.26999664 208.07800293 36.75000000 -0.010405 0.981580 -0.190766 0.000000
173.39799500 170.38299561 147.75000000 -0.340226 0.835671 -0.431162 0.000000
196.76899719 161.71299744 162.00000000 0.428933 0.368788 -0.824628 0.000000
56.54290009 179.42999268 185.25000000 -0.419483 -0.214929 0.881952 0.000000
94.61519623 261.60501099 163.50000000 0.284301 0.855976 -0.431830 0.000000
97.25389862 143.99600220 48.75000000 -0.378007 -0.384281 -0.842282 0.000000
145.12699890 167.36700439 201.00000000 0.333398 0.077749 0.939575 0.000000
66.34369659 176.41400146 195.75000000 -0.648817 -0.175562 0.740415 0.000000
158.69700623 150.02699280 150.00000000 -0.511735 0.086470 0.854781 0.000000
52.39649963 199.03100586 183.00000000 -0.825618 0.049060 0.562093 0.000000
211.09399414 112.70899963 123.00000000 -0.666485 0.666485 -0.334057 0.000000
189.98399353 117.60900116 113.25000000 0.149183 0.760982 -0.631389 0.000000
115.34799957 202.04699707 89.25000000 0.098280 0.981586 -0.163800 0.000000
226.92599487 110.06999969 183.75000000 0.259086 -0.504209 0.823801 0.000000
117.98600006 235.97300720 157.50000000 -0.284301 -0.855976 -0.431830 0.000000
67.09760284 238.61099243 190.50000000 -0.579250 0.345603 0.738260 0.000000
154.17399597 180.18400574 136.50000000 0.950522 0.218308 0.221020 0.000000
52.01950073 236.35000610 141.00000000 -0.893300 0.445968 0.055917 0.000000
67.47460175 178.67599487 52.50000000 -0.787338 -0.148470 -0.598377 0.000000
95.74610138 202.04699707 204.75000000 0.000978 0.000978 0.999999 0.000000
75.39060211 129.67199707 99.75000000 -0.888302 -0.434823 -0.147811 0.000000
88.96089935 254.06599426 144.75000000 0.521642 0.629684 -0.575663 0.000000
123.64099884 192.62300110 15.00000000 0.321430 0.882801 -0.342557 0.000000
89.71479797 241.25000000 197.25000000 -0.067008 0.264237 0.962127 0.000000
182.06799316 134.94900513 135.00000000 -0.244591 0.789859 -0.562404 0.000000
140.60299683 224.66400146 181.50000000 0.849286 0.472501 0.235491 0.000000
86.69920349 111.20099640 144.00000000 -0.559790 -0.810263 0.173520 0.000000
144.75000000 94.99220276 165.75000000 -0.057436 -0.841923 0.536533 0.000000
49.75780106 213.35499573 177.75000000 -0.892078 0.172054 0.417845 0.000000
108.93900299 199.03100586 19.50000000 -0.043633 0.798054 -0.601004 0.000000
139.47300720 202.04699707 195.75000000 0.486877 0.367970 0.792180 0.000000
138.34199524 190.73800659 90.00000000 -0.049789 0.650101 0.758215 0.000000
128.16400146 168.87500000 5.25000000 0.389572 0.129857 -0.911795 0.000000
213.35499573 106.30100250 116.25000000 0.334001 0.653338 -0.679406 0.000000
127.03299713 192.24600220 18.00000000 0.669402 0.439035 -0.599290 0.000000
99.51560211 117.60900116 170.25000000 -0.211988 -0.923356 0.320116 0.000000
139.09599304 194.50799561 76.50000000 0.305492 0.951676 0.031429 0.000000
49.75780106 229.56399536 133.50000000 -0.922844 0.337764 -0.185134 0.000000
81.42189789 130.04899597 76.50000000 -0.713035 -0.516909 -0.473695 0.000000
134.94900513 177.16799927 201.75000000 0.156263 -0.062270 0.985751 0.000000
96.50000000 260.09799194 182.25000000 0.217143 0.802353 0.555949 0.000000
73.88279724 258.58999634 180.75000000 -0.307692 0.610551 0.729762 0.000000
157.94299316 155.30499268 57.00000000 0.411405 0.902845 -0.124966 0.000000
231.44900513 109.31600189 182.25000000 0.346535 0.346535 0.871681 0.000000
84.81439972 256.32800293 144.00000000 0.420193 0.760272 -0.495403 0.000000
185.46099854 115.34799957 188.25000000 0.999999 -0.000978 -0.000978 0.000000
130.04899597 235.97300720 183.00000000 0.648742 0.745524 0.152734 0.000000
153.04299927 174.15199280 125.25000000 0.723507 0.080066 -0.685658 0.000000
109.69300079 98.76170349 103.50000000 -0.311396 -0.931394 0.188513 0.000000
154.92799377 176.41400146 127.50000000 0.545083 0.391216 -0.741509 0.000000
136.08000183 201.29299927 136.50000000 0.521688 0.806815 -0.277294 0.000000
121.37899780 169.62899780 5.25000000 -0.000978 -0.000978 -0.999999 0.000000
164.72799683 119.11699677 60.00000000 0.489521 0.852570 -0.183012 0.000000
142.48800659 89.33789825 156.00000000 0.001311 -0.893111 0.449834 0.000000
91.22260284 146.25799561 198.75000000 -0.354193 -0.218299 0.909337 0.000000
162.46699524 159.82800293 139.50000000 0.216364 0.443174 0.869933 0.000000
65.58979797 176.41400146 62.25000000 -0.972499 0.209558 -0.101642 0.000000
201.29299927 162.08999634 189.75000000 0.000978 0.000978 0.999999 0.000000
196.01600647 157.94299316 156.00000000 -0.082398 0.793622 -0.602806 0.000000
60.31250000 171.13699341 188.25000000 -0.659573 -0.101360 0.744774 0.000000
45.61130142 205.06199646 123.00000000 -0.958304 0.148952 -0.243860 0.000000
104.03900146 148.51899719 203.25000000 -0.200474 -0.452922 0.868719 0.000000
62.19720078 215.61700439 192.00000000 -0.624318 0.129632 0.770340 0.000000
162.08999634 139.47300720 114.75000000 0.589200 0.701428 -0.401052 0.000000
85.19139862 181.69099426 204.75000000 0.000978 0.000978 0.999999 0.000000
178.67599487 171.89100647 183.75000000 0.313869 -0.099326 0.944257 0.000000
141.73399353 93.86129761 66.00000000 -0.406872 -0.855514 -0.320237 0.000000
64.83589935 233.71099854 189.75000000 -0.667842 0.152953 0.728418 0.000000
75.01360321 178.67599487 34.50000000 -0.688576 -0.227434 -0.688576 0.000000
59.93550110 252.55900574 157.50000000 -0.862943 0.463515 0.201204 0.000000
107.05500031 108.93900299 70.50000000 -0.644775 -0.530298 -0.550500 0.000000
162.08999634 147.76600647 152.25000000 -0.605913 0.184674 0.773799 0.000000
143.24200439 194.88499451 118.50000000 0.641240 0.766973 -0.023750 0.000000
212.22500610 122.13300323 138.00000000 0.786874 0.473417 -0.395861 0.000000
44.10350037 195.26199341 145.50000000 -0.984549 -0.123820 0.123820 0.000000
109.31600189 253.68899536 174.00000000 0.709863 0.704328 0.004151 0.000000
147.01199341 169.62899780 39.75000000 0.742386 -0.247462 -0.622596 0.000000
171.89100647 134.94900513 155.25000000 -0.932399 -0.288298 -0.217982 0.000000
193.75399780 117.23200226 114.00000000 0.340258 0.717960 -0.607254 0.000000
67.47460175 213.35499573 195.00000000 -0.415770 0.092547 0.904749 0.000000
131.93400574 183.95300293 201.75000000 0.001310 0.446689 0.894688 0.000000
97.25389862 188.47700500 206.25000000 -0.131896 0.149154 0.979978 0.000000
141.73399353 93.48429871 71.25000000 -0.049279 -0.818038 -0.573049 0.000000
124.39399719 234.46499634 159.75000000 0.416601 0.461989 -0.782950 0.000000
154.17399597 165.10499573 193.50000000 0.797807 0.602198 0.029341 0.000000
237.47999573 150.40400696 178.50000000 0.255868 0.390535 -0.884315 0.000000
232.95700073 92.35350037 159.00000000 0.156445 -0.953376 0.258067 0.000000
143.24200439 125.90200043 186.75000000 -0.642879 -0.445841 0.622842 0.000000
107.05500031 153.79699707 21.75000000 -0.420134 -0.525580 -0.739766 0.000000
107.80899811 243.13499451 193.50000000 0.282985 0.698669 0.657101 0.000000
174.15199280 118.73999786 103.50000000 0.854781 0.511735 -0.086470 0.000000
49.38079834 202.80099487 178.50000000 -0.819033 -0.004088 0.573732 0.000000
64.83589935 155.68200684 88.50000000 -0.909821 -0.236524 -0.341001 0.000000
56.91989899 213.35499573 96.00000000 -0.898059 0.255114 -0.358339 0.000000
143.99600220 192.24600220 63.75000000 0.482432 0.482432 -0.731108 0.000000
150.02699280 85.94529724 89.25000000 -0.024098 -0.998496 -0.049244 0.000000
70.49019623 137.21099854 106.50000000 -0.935348 -0.211117 -0.283820 0.000000
89.71479797 233.71099854 198.75000000 -0.008045 0.185046 0.982697 0.000000
222.40199280 154.55099487 171.75000000 0.531639 0.332475 -0.778987 0.000000
76.14450073 120.24800110 144.00000000 -0.539340 -0.826192 0.162848 0.000000
211.47099304 122.13300323 136.50000000 0.529808 0.712500 -0.460052 0.000000
105.54699707 102.53099823 84.75000000 -0.932146 -0.092544 -0.350058 0.000000
103.28500366 157.56599426 21.75000000 -0.476941 -0.547228 -0.687800 0.000000
238.23399353 150.78100586 179.25000000 0.317582 0.391224 -0.863762 0.000000
162.84399414 139.47300720 194.25000000 0.471072 -0.273376 0.838663 0.000000
47.49610138 222.40199280 173.25000000 -0.842201 0.345318 0.414069 0.000000
60.68939972 227.67999268 105.00000000 -0.569423 0.586320 -0.576182 0.000000
90.46869659 186.21499634 18.75000000 -0.345285 0.518730 -0.782111 0.000000
45.61130142 194.50799561 120.00000000 -0.948062 0.063377 -0.311709 0.000000
115.72499847 140.22700500 33.00000000 -0.395896 -0.737583 -0.547027 0.000000
88.20700073 201.29299927 203.25000000 -0.283871 0.114869 0.951957 0.000000
171.13699341 116.10199738 87.75000000 0.828754 0.526840 -0.188696 0.000000
138.71899414 88.96089935 125.25000000 -0.077253 -0.990455 0.114150 0.000000
168.12100220 168.12100220 78.75000000 -0.070429 -0.459859 -0.885194 0.000000
147.38900757 170.38299561 136.50000000 0.069382 0.904693 0.420376 0.000000
242.00399780 133.44099426 180.75000000 0.501226 0.122779 0.856562 0.000000
167.36700439 170.38299561 77.25000000 0.953868 -0.252849 -0.161877 0.000000
77.65229797 221.27099609 198.00000000 -0.137549 -0.412646 0.900447 0.000000
50.88869858 202.04699707 105.00000000 -0.893111 0.001311 -0.449834 0.000000
242.38099670 107.05500031 175.50000000 0.955675 -0.278793 0.094660 0.000000
160.58200073 94.99220276 65.25000000 0.115403 -0.982744 -0.144557 0.000000
168.49800110 156.81199646 81.00000000 0.980101 0.116533 -0.160692 0.000000
124.39399719 93.48429871 78.75000000 -0.313836 -0.272964 -0.909394 0.000000
213.35499573 164.35200500 189.75000000 0.000978 0.000978 0.999999 0.000000
116.85500336 122.13300323 180.75000000 -0.544345 0.182454 0.818779 0.000000
98.76170349 242.00399780 195.75000000 0.101768 0.172883 0.979671 0.000000
221.27099609 149.27299500 169.50000000 0.643863 0.282788 -0.710965 0.000000
66.72070313 232.20300293 105.00000000 -0.407978 0.579758 -0.705290 0.000000
65.58979797 181.31399536 64.50000000 -0.995656 -0.075912 -0.053908 0.000000
50.13479996 183.19900513 178.50000000 -0.763690 -0.149123 0.628124 0.000000
217.12500000 129.67199707 188.25000000 0.000978 0.000978 0.999999 0.000000
55.03509903 147.01199341 138.75000000 -0.907660 -0.399819 -0.127662 0.000000
116.85500336 100.26999664 159.75000000 -0.419526 -0.591980 0.688156 0.000000
158.32000732 116.10199738 47.25000000 0.451981 0.578736 -0.678806 0.000000
158.69700623 170.38299561 111.00000000 0.779372 0.129153 0.613106 0.000000
160.58200073 122.88700104 74.25000000 0.216598 0.967641 0.129446 0.000000
154.92799377 149.27299500 117.00000000 0.893111 0.001311 0.449834 0.000000
153.79699707 88.58399963 127.50000000 0.037123 -0.998067 0.049850 0.000000
174.52900696 133.44099426 135.00000000 -0.037977 0.783452 -0.620291 0.000000
84.43750000 209.20899963 51.00000000 -0.153443 0.257517 0.954013 0.000000
138.71899414 172.26800537 130.50000000 -0.710196 0.642864 0.286964 0.000000
105.54699707 208.45500183 37.50000000 0.049746 0.950278 0.307405 0.000000
115.34799957 115.72499847 58.50000000 -0.334165 -0.440847 -0.833059 0.000000
172.26800537 128.16400146 115.50000000 0.688082 0.688082 -0.230406 0.000000
140.97999573 216.37100220 159.75000000 0.676324 0.495076 -0.545423 0.000000
68.60540009 177.16799927 197.25000000 -0.620759 -0.175399 0.764129 0.000000
164.35200500 125.14800262 92.25000000 0.543411 -0.361733 -0.757531 0.000000
169.62899780 94.99220276 162.75000000 0.108939 -0.884242 0.454147 0.000000
246.52699280 122.88700104 174.75000000 0.994471 -0.104738 0.007558 0.000000
137.96499634 117.60900116 45.75000000 -0.332945 -0.631784 -0.699997 0.000000
159.45100403 150.02699280 96.00000000 0.741389 -0.307170 0.596649 0.000000
58.05080032 222.40199280 102.75000000 -0.778572 0.446988 -0.440486 0.000000
96.12300110 105.54699707 145.50000000 -0.519402 -0.808133 0.277747 0.000000
195.26199341 113.08599854 186.75000000 0.182935 -0.253399 0.949907 0.000000
91.22260284 105.92400360 121.50000000 -0.556576 -0.820914 -0.127763 0.000000
163.97500610 161.33599854 97.50000000 0.882865 -0.380519 0.275237 0.000000
53.52730179 148.51899719 165.75000000 -0.848687 -0.518403 0.104829 0.000000
68.60540009 260.85101318 170.25000000 -0.676744 0.707716 0.202868 0.000000
141.73399353 87.83000183 106.50000000 -0.122799 -0.990422 0.063121 0.000000
215.61700439 158.32000732 168.75000000 0.627240 0.402162 -0.666960 0.000000
196.01600647 126.65599823 126.75000000 0.399382 0.667846 -0.628073 0.000000
87.45310211 251.05099487 140.25000000 0.693596 0.444101 -0.567185 0.000000
123.64099884 98.38469696 162.00000000 -0.299022 -0.590048 0.749953 0.000000
188.47700500 99.51560211 171.75000000 0.025039 -0.910622 0.412481 0.000000
52.77339935 156.05900574 173.25000000 -0.899565 -0.288987 0.327519 0.000000
140.22700500 178.67599487 26.25000000 0.895281 0.243363 -0.373157 0.000000
194.50799561 98.38469696 169.50000000 -0.009277 -0.886570 0.462501 0.000000
54.65819931 242.00399780 151.50000000 -0.928510 0.370105 0.029868 0.000000
158.32000732 166.61300659 137.25000000 0.333332 0.665039 0.668291 0.000000
168.87500000 173.39799500 77.25000000 -0.426347 0.314722 -0.848044 0.000000
109.31600189 233.71099854 149.25000000 0.538373 0.354065 -0.764717 0.000000
104.03900146 221.64799500 200.25000000 0.070911 0.295248 0.952786 0.000000
139.09599304 215.61700439 156.00000000 0.655654 0.595287 -0.464491 0.000000
108.18599701 97.25389862 147.00000000 -0.521968 -0.802664 0.288581 0.000000
137.96499634 95.74610138 68.25000000 -0.423090 -0.812652 -0.400738 0.000000
113.08599854 153.79699707 204.75000000 0.000978 0.000978 0.999999 0.000000
101.40000153 126.65599823 186.00000000 0.109696 -0.808823 0.577731 0.000000
50.51169968 165.48199463 172.50000000 -0.879173 -0.256989 0.401263 0.000000
172.64399719 149.27299500 192.75000000 0.052071 0.295917 0.953793 0.000000
124.39399719 201.29299927 62.25000000 0.506211 0.834563 -0.217382 0.000000
145.12699890 168.12100220 126.00000000 0.482432 0.482432 -0.731108 0.000000
178.67599487 90.84570313 129.00000000 0.003481 -0.978185 -0.207705 0.000000
215.61700439 101.77700043 177.75000000 0.194700 -0.783401 0.590233 0.000000
80.66790009 236.72599792 195.75000000 -0.067478 0.033203 0.997168 0.000000
62.57419968 242.00399780 122.25000000 -0.615422 0.608677 -0.500768 0.000000
62.57419968 225.41799927 99.75000000 -0.574480 0.664923 -0.477337 0.000000
56.54290009 202.04699707 186.75000000 -0.761787 0.229003 0.606002 0.000000
116.10199738 139.47300720 33.75000000 -0.413344 -0.685586 -0.599265 0.000000
163.59800720 118.73999786 55.50000000 0.496799 0.848884 -0.180518 0.000000
70.86720276 159.07400513 59.25000000 -0.820669 -0.232497 -0.521964 0.000000
80.66790009 199.78500366 39.75000000 -0.000978 0.999999 -0.000978 0.000000
233.71099854 146.25799561 186.75000000 0.276133 -0.018409 0.960943 0.000000
211.47099304 135.70300293 151.50000000 0.719331 0.155981 -0.676929 0.000000
54.65819931 220.14100647 183.00000000 -0.634617 -0.126329 0.762432 0.000000
119.11699677 194.13099670 15.00000000 0.168528 0.611864 -0.772801 0.000000
193.00000000 138.71899414 143.25000000 0.206577 0.558523 -0.803355 0.000000
55.78900146 237.10299683 126.00000000 -0.808296 0.452966 -0.376138 0.000000
94.99220276 116.10199738 165.75000000 -0.555487 -0.565618 0.609516 0.000000
68.60540009 254.82000732 180.75000000 -0.492141 0.518833 0.699006 0.000000
110.06999969 174.15199280 5.25000000 -0.138498 0.600158 -0.787800 0.000000
77.65229797 125.52500153 97.50000000 -0.884741 -0.450181 -0.120711 0.000000
133.44099426 100.26999664 59.25000000 -0.513624 -0.719739 -0.467082 0.000000
104.79299927 147.01199341 36.75000000 -0.520782 -0.584826 -0.621904 0.000000
90.46869659 208.45500183 202.50000000 -0.316724 0.290207 0.903031 0.000000
153.04299927 184.70700073 59.25000000 0.552426 0.545668 -0.630137 0.000000
127.41000366 237.85699463 169.50000000 0.666600 0.695237 -0.268867 0.000000
230.69500732 94.23829651 141.75000000 0.395913 -0.895553 -0.203070 0.000000
140.60299683 165.10499573 129.00000000 0.553762 -0.001354 0.832674 0.000000
135.70300293 89.33789825 141.00000000 0.000978 -0.999999 0.000978 0.000000
116.10199738 160.20500183 205.50000000 0.030755 -0.056207 0.997945 0.000000
113.08599854 96.12300110 150.00000000 -0.455246 -0.733360 0.504909 0.000000
100.64600372 107.80899811 81.00000000 -0.150246 -0.019204 -0.988462 0.000000
124.39399719 197.89999390 78.00000000 0.263960 0.945059 0.192841 0.000000
193.75399780 128.54100037 127.50000000 0.294908 0.760385 -0.578658 0.000000
65.96679688 203.55499268 70.50000000 -0.648407 0.001377 -0.761293 0.000000
215.61700439 136.45700073 156.75000000 0.893111 0.001311 -0.449834 0.000000
74.25969696 122.88700104 121.50000000 -0.666485 -0.666485 0.334057 0.000000
233.71099854 153.79699707 179.25000000 0.409831 0.548087 -0.729136 0.000000
149.27299500 119.49400330 184.50000000 -0.346453 -0.154443 0.925266 0.000000
71.62110138 128.54100037 112.50000000 -0.826630 -0.451891 -0.335376 0.000000
131.17999268 216.37100220 149.25000000 0.503916 0.581442 -0.638744 0.000000
102.53099823 197.52299500 204.75000000 0.031025 0.157421 0.987044 0.000000
77.65229797 154.55099487 197.25000000 -0.962880 -0.241689 0.120198 0.000000
56.91989899 170.38299561 102.00000000 -0.926001 -0.304885 -0.222637 0.000000
70.11329651 176.41400146 198.75000000 -0.540740 -0.028895 0.840693 0.000000
131.55700684 197.52299500 27.00000000 0.823019 0.137416 -0.551142 0.000000
143.61900330 211.84800720 187.50000000 0.549553 0.657111 0.515942 0.000000
142.11099243 176.41400146 201.00000000 0.446689 -0.001310 0.894688 0.000000
70.11329651 173.39799500 197.25000000 -0.590766 -0.064059 0.804296 0.000000
77.65229797 243.51199341 194.25000000 -0.372823 0.294334 0.879983 0.000000
134.94900513 216.37100220 152.25000000 0.463834 0.641331 -0.611190 0.000000
86.69920349 134.19500732 189.75000000 -0.483078 -0.529882 0.697037 0.000000
162.08999634 97.25389862 53.25000000 0.313189 -0.823106 -0.473719 0.000000
71.99800110 124.39399719 151.50000000 -0.702227 -0.702227 0.117285 0.000000
140.22700500 167.36700439 201.75000000 0.155606 0.054989 0.986287 0.000000
207.32400513 131.17999268 188.25000000 0.000978 0.000978 0.999999 0.000000
142.11099243 214.86300659 159.00000000 0.691310 0.530618 -0.490445 0.000000
163.59800720 90.84570313 151.50000000 0.091700 -0.957033 0.275099 0.000000
152.28900146 196.39300537 190.50000000 0.830587 -0.001355 0.556887 0.000000
216.37100220 116.85500336 132.75000000 0.185621 0.737880 -0.648905 0.000000
227.30299377 134.19500732 168.00000000 0.467422 0.239040 -0.851103 0.000000
83.68360138 116.10199738 99.75000000 -0.721124 -0.675770 -0.152691 0.000000
135.70300293 213.73199463 150.00000000 0.276375 0.650200 -0.707712 0.000000
62.95119858 147.76600647 181.50000000 -0.576222 -0.576222 0.579601 0.000000
150.02699280 167.36700439 141.75000000 0.350297 0.584915 0.731551 0.000000
219.76400757 115.34799957 132.00000000 0.047009 0.303655 -0.951622 0.000000
47.49610138 164.72799683 151.50000000 -0.989946 -0.121289 -0.072773 0.000000
168.87500000 125.14800262 155.25000000 -0.638327 -0.236824 -0.732429 0.000000
89.71479797 162.08999634 203.25000000 -0.235894 -0.190063 0.953011 0.000000
110.82399750 205.43899536 58.50000000 0.191380 0.976657 0.097542 0.000000
69.35939789 146.25799561 84.75000000 -0.886593 -0.233158 -0.399487 0.000000
143.99600220 217.12500000 182.25000000 0.830477 0.397047 0.390720 0.000000
56.16600037 174.90600586 100.50000000 -0.958582 -0.267782 -0.097022 0.000000
70.86720276 204.30900574 63.75000000 -0.836582 0.545109 -0.054651 0.000000
93.10739899 133.44099426 57.00000000 -0.643626 -0.643626 -0.414116 0.000000
164.35200500 143.99600220 135.75000000 0.672515 0.652879 0.348529 0.000000
80.66790009 133.44099426 74.25000000 -0.757393 -0.468237 -0.455093 0.000000
101.77700043 217.12500000 125.25000000 0.499307 0.728225 -0.469448 0.000000
233.33399963 122.88700104 184.50000000 0.466949 -0.127872 0.874990 0.000000
112.33200073 109.31600189 63.75000000 -0.300799 -0.833820 -0.462887 0.000000
150.78100586 177.16799927 176.25000000 0.742386 0.247462 0.622596 0.000000
88.20700073 210.71699524 58.50000000 0.211643 0.975028 -0.067286 0.000000
185.83799744 171.13699341 180.00000000 0.663322 0.358685 0.656771 0.000000
98.00779724 245.77299500 146.25000000 0.663257 0.512135 -0.545718 0.000000
148.51899719 163.97500610 144.00000000 0.301886 0.377737 0.875317 0.000000
77.65229797 246.52699280 123.75000000 0.533320 0.651088 -0.540050 0.000000
235.97300720 132.68699646 185.25000000 0.536172 -0.090077 0.839289 0.000000
68.22850037 156.81199646 72.00000000 -0.999999 0.000978 0.000978 0.000000
47.11909866 169.62899780 148.50000000 -0.903997 -0.302316 -0.302316 0.000000
189.22999573 114.21700287 109.50000000 0.377568 0.671048 -0.638073 0.000000
154.55099487 167.74400330 138.00000000 0.333332 0.665039 0.668291 0.000000
85.56829834 150.78100586 51.00000000 -0.562344 -0.659705 -0.498556 0.000000
131.93400574 203.17799377 135.00000000 0.496448 0.725578 -0.476524 0.000000
187.72300720 167.74400330 186.00000000 -0.382137 0.512226 0.769152 0.000000
102.53099823 98.00779724 132.75000000 -0.479700 -0.876973 0.028377 0.000000
85.94529724 114.97100067 94.50000000 -0.805932 -0.564001 -0.179936 0.000000
164.35200500 174.90600586 99.75000000 0.609786 0.267672 0.745998 0.000000
91.97650146 120.24800110 172.50000000 -0.196241 -0.924733 0.326127 0.000000
66.34369659 258.58999634 147.75000000 -0.598341 0.797308 -0.079298 0.000000
81.42189789 209.58599854 200.25000000 -0.513737 -0.054297 0.856228 0.000000
137.58799744 197.52299500 43.50000000 0.804328 0.588498 -0.082016 0.000000
86.69920349 203.17799377 36.00000000 -0.497536 0.750408 -0.435138 0.000000
137.96499634 225.41799927 165.75000000 0.668004 0.651591 -0.359442 0.000000
123.64099884 188.47700500 204.75000000 0.428764 0.384135 0.817681 0.000000
85.19139862 227.30299377 117.00000000 0.710964 0.551867 -0.435859 0.000000
89.71479797 251.05099487 143.25000000 0.652182 0.524105 -0.547698 0.000000
127.41000366 200.16200256 108.00000000 0.203995 0.965405 -0.162417 0.000000
63.70510101 220.14100647 91.50000000 -0.623014 0.468520 -0.626373 0.000000
156.05900574 162.08999634 195.75000000 0.411997 0.696589 0.587385 0.000000
212.60200500 97.25389862 168.75000000 -0.084256 -0.896434 0.435095 0.000000
159.07400513 171.13699341 174.75000000 0.480763 0.873735 0.073856 0.000000
116.10199738 196.01600647 15.75000000 0.114030 0.647156 -0.753781 0.000000
44.85739899 213.35499573 147.00000000 -0.976528 0.205521 -0.064453 0.000000
52.77339935 185.46099854 102.75000000 -0.927083 -0.130866 -0.351272 0.000000
90.46869659 213.73199463 102.00000000 0.666485 0.666485 0.334057 0.000000
191.49200439 154.17399597 151.50000000 0.350223 0.601080 -0.718364 0.000000
63.70510101 207.32400513 76.50000000 -0.875092 0.415781 -0.247668 0.000000
80.66790009 131.55700684 180.00000000 -0.826687 -0.509560 0.238615 0.000000
142.11099243 114.59400177 180.00000000 -0.162549 -0.412846 0.896178 0.000000
81.42189789 156.05900574 48.75000000 -0.754231 -0.556347 -0.348731 0.000000
91.22260284 261.60501099 161.25000000 0.332039 0.857124 -0.393814 0.000000
104.41600037 254.82000732 183.00000000 0.502474 0.650360 0.569695 0.000000
76.89839935 138.71899414 183.75000000 -0.381230 -0.668391 0.638684 0.000000
130.42599487 90.09179688 108.00000000 -0.194751 -0.978594 -0.066530 0.000000
188.47700500 138.71899414 140.25000000 0.155224 0.779135 -0.607334 0.000000
133.44099426 159.82800293 20.25000000 0.177842 -0.874513 0.451219 0.000000
216.37100220 107.05500031 122.25000000 0.492619 0.613672 -0.617035 0.000000
88.58399963 110.06999969 105.00000000 -0.677244 -0.716814 -0.165887 0.000000
151.15800476 165.85899353 52.50000000 0.807163 -0.193050 -0.557870 0.000000
119.87100220 199.03100586 20.25000000 0.937074 0.311443 -0.157780 0.000000
52.39649963 150.78100586 168.00000000 -0.898685 -0.385983 0.208285 0.000000
137.21099854 160.20500183 135.00000000 0.713678 0.693077 0.101534 0.000000
156.81199646 191.49200439 177.75000000 0.797530 0.001368 -0.603278 0.000000
167.36700439 93.10739899 78.00000000 0.342124 -0.925830 -0.160589 0.000000
166.23599243 128.91799927 156.00000000 -0.361402 -0.346023 0.865827 0.000000
152.66600037 186.96899414 93.00000000 -0.040828 0.963788 0.263526 0.000000
181.69099426 130.04899597 127.50000000 -0.058461 0.779950 -0.623105 0.000000
106.30100250 233.71099854 147.75000000 0.542013 0.442561 -0.714396 0.000000
153.79699707 163.59800720 56.25000000 0.697828 -0.279450 -0.659503 0.000000
117.60900116 204.68499756 117.00000000 0.189851 0.946521 -0.260874 0.000000
105.92400360 122.13300323 58.50000000 -0.370917 -0.573533 -0.730397 0.000000
165.10499573 170.75999451 162.00000000 0.324698 0.910028 -0.257720 0.000000
51.26559830 165.85899353 126.75000000 -0.962956 -0.237175 -0.128308 0.000000
136.45700073 195.63900757 52.50000000 0.776244 0.619517 -0.116806 0.000000
76.52149963 119.11699677 139.50000000 -0.996523 -0.001055 -0.083307 0.000000
130.42599487 151.53500366 200.25000000 0.179297 -0.171558 0.968721 0.000000
185.46099854 128.91799927 189.75000000 0.000978 0.000978 0.999999 0.000000
180.18400574 95.74610138 165.75000000 -0.121166 -0.912229 0.391353 0.000000
183.95300293 94.23829651 162.75000000 -0.113734 -0.943327 0.311766 0.000000
128.16400146 124.77100372 184.50000000 -0.117248 -0.651543 0.749497 0.000000
86.32219696 211.09399414 73.50000000 0.436540 0.896491 -0.075740 0.000000
50.13479996 164.35200500 171.00000000 -0.882287 -0.262140 0.390963 0.000000
65.96679688 187.72300720 64.50000000 -0.893111 -0.001311 -0.449834 0.000000
157.94299316 145.50399780 150.00000000 -0.875942 -0.103302 0.471226 0.000000
142.86500549 189.98399353 36.00000000 0.553762 0.001354 -0.832674 0.000000
152.28900146 118.36299896 185.25000000 -0.242869 -0.363568 0.899351 0.000000
153.04299927 183.57600403 138.00000000 0.913699 0.395891 -0.091781 0.000000
56.54290009 174.15199280 185.25000000 -0.671241 -0.018142 0.741017 0.000000
146.63499451 156.05900574 42.00000000 0.925228 -0.101897 -0.365472 0.000000
154.17399597 199.78500366 169.50000000 0.986688 0.088837 -0.136217 0.000000
167.36700439 171.51400757 174.00000000 0.613965 -0.738352 -0.279075 0.000000
92.73040009 121.37899780 74.25000000 -0.624914 -0.424942 -0.654910 0.000000
85.94529724 183.95300293 204.75000000 0.000978 0.000978 0.999999 0.000000
195.26199341 165.48199463 169.50000000 -0.146781 0.946670 0.286829 0.000000
90.46869659 148.89599609 48.00000000 -0.398575 -0.533074 -0.746304 0.000000
140.22700500 169.25199890 142.50000000 -0.512794 0.440245 0.737039 0.000000
79.16010284 159.45100403 48.00000000 -0.658221 -0.631693 -0.409523 0.000000
130.42599487 103.28500366 167.25000000 -0.432202 -0.461560 0.774702 0.000000
68.60540009 174.15199280 51.75000000 -0.807575 -0.141289 -0.572590 0.000000
60.68939972 247.28100586 178.50000000 -0.529047 0.733414 0.426864 0.000000
119.11699677 140.22700500 32.25000000 -0.252457 -0.331259 -0.909138 0.000000
55.03509903 214.10899353 101.25000000 -0.901764 0.263321 -0.342759 0.000000
191.49200439 142.48800659 189.75000000 0.000978 0.000978 0.999999 0.000000
158.32000732 148.89599609 132.00000000 -0.311443 -0.937074 0.157780 0.000000
151.91200256 208.07800293 174.00000000 0.986470 -0.163847 -0.005650 0.000000
45.61130142 214.86300659 141.00000000 -0.962767 0.237768 -0.128629 0.000000
93.48429871 114.97100067 163.50000000 -0.282074 -0.792643 0.540510 0.000000
69.73629761 171.13699341 51.00000000 -0.763062 -0.117052 -0.635638 0.000000
78.02929688 178.67599487 31.50000000 -0.702174 -0.149495 -0.696134 0.000000
104.79299927 128.91799927 54.75000000 -0.120208 -0.654465 -0.746476 0.000000
148.14300537 192.24600220 141.00000000 0.760577 0.550651 -0.343955 0.000000
208.07800293 128.54100037 142.50000000 0.608076 0.608076 -0.510380 0.000000
77.65229797 205.43899536 54.00000000 -0.666485 0.666485 -0.334057 0.000000
47.49610138 222.77900696 141.00000000 -0.952007 0.303886 -0.036567 0.000000
197.52299500 120.62500000 188.25000000 0.000978 0.000978 0.999999 0.000000
190.73800659 167.74400330 180.00000000 -0.115989 0.929278 -0.350697 0.000000
203.17799377 132.68699646 142.50000000 0.440566 0.734276 -0.516469 0.000000
219.38699341 158.32000732 171.75000000 0.566713 0.459723 -0.683733 0.000000
165.10499573 148.89599609 84.00000000 0.933019 -0.347700 0.092631 0.000000
200.53900146 93.86129761 160.50000000 0.041803 -0.951341 0.305291 0.000000
50.13479996 168.12100220 132.00000000 -0.980724 -0.061071 -0.185607 0.000000
200.91600037 98.00779724 169.50000000 -0.020324 -0.865804 0.499971 0.000000
55.03509903 217.87899780 104.25000000 -0.826751 0.368323 -0.425231 0.000000
145.88099670 116.10199738 181.50000000 -0.165775 -0.413717 0.895185 0.000000
114.21700287 146.25799561 27.00000000 -0.373457 -0.873432 -0.312484 0.000000
54.65819931 241.25000000 136.50000000 -0.872374 0.436933 -0.219212 0.000000
208.83200073 138.71899414 188.25000000 0.000978 0.000978 0.999999 0.000000
168.12100220 135.32600403 145.50000000 0.327394 0.578988 0.746717 0.000000
156.81199646 147.01199341 141.75000000 0.547723 0.544352 0.635358 0.000000
70.86720276 249.54299927 186.75000000 -0.438810 0.592309 0.675733 0.000000
61.06639862 156.05900574 185.25000000 -0.537534 -0.368641 0.758394 0.000000
215.24000549 155.30499268 166.50000000 0.660485 0.402250 -0.633999 0.000000
143.24200439 94.61519623 165.00000000 -0.122779 -0.856562 0.501226 0.000000
49.75780106 227.30299377 129.00000000 -0.901439 0.386331 -0.195336 0.000000
191.49200439 125.14800262 122.25000000 0.212718 0.753052 -0.622627 0.000000
151.53500366 151.53500366 135.75000000 -0.999999 0.000978 0.000978 0.000000
54.28120041 147.38900757 144.00000000 -0.908277 -0.414325 -0.058033 0.000000
71.99800110 171.89100647 45.00000000 -0.934802 -0.299527 -0.190861 0.000000
215.61700439 99.51560211 174.75000000 0.370096 -0.741823 0.559220 0.000000
92.73040009 229.18699646 198.75000000 0.000978 0.000978 0.999999 0.000000
183.57600403 171.89100647 154.50000000 0.484643 0.714473 -0.504628 0.000000
88.96089935 201.29299927 32.25000000 -0.806394 0.160678 -0.569131 0.000000
120.62500000 200.91600037 94.50000000 0.153349 0.967775 0.199740 0.000000
146.63499451 177.16799927 39.00000000 0.962880 -0.120198 -0.241689 0.000000
85.19139862 111.57800293 111.75000000 -0.622911 -0.775341 -0.104063 0.000000
186.21499634 92.35350037 118.50000000 0.102554 -0.968566 -0.226632 0.000000
159.45100403 127.41000366 64.50000000 0.965524 0.251712 -0.066372 0.000000
47.11909866 180.93699646 124.50000000 -0.986949 -0.131199 -0.093376 0.000000
144.75000000 92.73040009 71.25000000 -0.162088 -0.768024 -0.619570 0.000000
44.10350037 196.76899719 139.50000000 -0.999411 -0.029605 -0.017354 0.000000
109.31600189 140.22700500 198.75000000 0.000978 0.000978 0.999999 0.000000
141.73399353 191.11500549 48.00000000 0.923510 0.369677 -0.102309 0.000000
176.79100037 113.08599854 97.50000000 0.812004 0.545923 -0.206442 0.000000
45.61130142 182.44500732 147.00000000 -0.993015 -0.093980 -0.071334 0.000000
100.26999664 206.19299316 96.00000000 0.805352 0.046544 0.590967 0.000000
109.31600189 205.06199646 65.25000000 -0.553762 0.001354 0.832674 0.000000
145.50399780 162.08999634 144.75000000 0.095582 0.123903 0.987680 0.000000
239.74200439 113.83999634 170.25000000 0.365189 -0.146915 -0.919268 0.000000
55.78900146 226.54899597 111.00000000 -0.801779 0.422581 -0.422581 0.000000
157.56599426 90.84570313 153.00000000 0.151051 -0.960159 0.235114 0.000000
90.46869659 211.09399414 201.75000000 -0.326269 0.177838 0.928398 0.000000
44.10350037 205.06199646 139.50000000 -0.982381 0.144862 -0.118080 0.000000
130.42599487 233.71099854 165.75000000 0.696932 0.614940 -0.368964 0.000000
168.12100220 125.14800262 155.25000000 -0.638327 -0.236824 -0.732429 0.000000
132.31100464 182.44500732 202.50000000 0.192660 0.235772 0.952520 0.000000
58.42770004 223.91000366 103.50000000 -0.752549 0.503339 -0.424641 0.000000
137.96499634 87.45310211 84.75000000 -0.365422 -0.914265 -0.174890 0.000000
204.30900574 92.35350037 150.00000000 -0.001311 -0.893111 -0.449834 0.000000
48.62689972 226.17199707 132.00000000 -0.901439 0.386331 -0.195336 0.000000
125.14800262 92.35350037 106.50000000 -0.404966 -0.912845 0.052124 0.000000
53.15039825 238.98800659 138.00000000 -0.835977 0.538548 0.105399 0.000000
68.60540009 200.53900146 195.75000000 -0.000978 -0.000978 0.999999 0.000000
66.34369659 169.25199890 66.00000000 -0.967806 -0.242886 -0.066015 0.000000
116.10199738 109.69300079 63.00000000 -0.281242 -0.754745 -0.592674 0.000000
97.25389862 139.85000610 49.50000000 -0.236618 -0.287626 -0.928053 0.000000
132.68699646 199.78500366 33.75000000 0.517548 0.799272 -0.305464 0.000000
153.04299927 173.39799500 119.25000000 0.988071 0.152794 0.019241 0.000000
238.98800659 148.89599609 178.50000000 0.317582 0.391224 -0.863762 0.000000
60.31250000 175.66000366 84.75000000 -0.940268 -0.189158 -0.283047 0.000000
178.67599487 172.26800537 151.50000000 -0.052321 0.801780 -0.595325 0.000000
122.13300323 213.35499573 198.75000000 0.000978 0.000978 0.999999 0.000000
159.82800293 88.58399963 121.50000000 0.112490 -0.991962 0.057950 0.000000
116.10199738 100.26999664 159.75000000 -0.419526 -0.591980 0.688156 0.000000
111.57800293 152.28900146 20.25000000 -0.408877 -0.889564 -0.203706 0.000000
85.19139862 113.83999634 102.75000000 -0.612222 -0.758656 -0.222768 0.000000
113.83999634 205.43899536 51.00000000 0.258159 0.965974 -0.015756 0.000000
155.30499268 147.01199341 198.75000000 -0.001354 -0.553762 0.832674 0.000000
158.32000732 185.46099854 71.25000000 0.655361 0.687725 -0.312308 0.000000
119.11699677 94.61519623 109.50000000 -0.319163 -0.947397 0.023969 0.000000
54.65819931 237.47999573 129.00000000 -0.806385 0.450485 -0.383153 0.000000
174.15199280 113.83999634 63.75000000 0.847309 -0.209939 -0.487845 0.000000
146.25799561 102.15399933 172.50000000 -0.247160 -0.612390 0.750926 0.000000
140.22700500 86.32219696 85.50000000 -0.513624 -0.719739 0.467082 0.000000
114.59400177 195.26199341 204.75000000 0.000978 0.000978 0.999999 0.000000
150.02699280 186.21499634 159.75000000 0.902867 0.266589 0.337286 0.000000
81.04489899 136.45700073 186.00000000 -0.618388 -0.402864 0.674756 0.000000
157.18899536 124.39399719 52.50000000 0.503621 0.402571 -0.764396 0.000000
163.22099304 179.42999268 99.00000000 0.667195 0.499136 0.552915 0.000000
199.78500366 115.34799957 188.25000000 0.001310 -0.446689 0.894688 0.000000
183.19900513 160.20500183 187.50000000 -0.348000 0.436180 0.829845 0.000000
222.02499390 93.48429871 159.00000000 -0.232626 -0.967368 0.100423 0.000000
217.12500000 171.13699341 186.75000000 0.232115 0.303316 0.924187 0.000000
182.44500732 123.64099884 119.25000000 0.029449 0.767083 -0.640872 0.000000
164.35200500 179.42999268 87.75000000 0.728494 0.682514 0.058912 0.000000
125.14800262 211.84800720 198.75000000 0.226845 0.055178 0.972367 0.000000
134.57200623 157.56599426 7.50000000 -0.209558 0.101642 -0.972499 0.000000
96.50000000 208.07800293 71.25000000 0.466672 0.884429 -0.001322 0.000000
150.78100586 95.36910248 55.50000000 -0.140905 -0.895242 -0.422714 0.000000
44.10350037 202.04699707 153.00000000 -0.999999 -0.000978 -0.000978 0.000000
236.35000610 123.64099884 183.00000000 0.503848 -0.101341 0.857827 0.000000
131.17999268 90.09179688 120.00000000 -0.266129 -0.926472 0.266129 0.000000
186.96899414 174.52900696 177.00000000 0.663322 0.358685 0.656771 0.000000
180.18400574 155.30499268 149.25000000 -0.001381 0.705724 0.708486 0.000000
235.97300720 92.35350037 156.00000000 0.250580 -0.962484 0.104087 0.000000
100.26999664 99.13860321 127.50000000 -0.587425 -0.809250 -0.006846 0.000000
103.28500366 136.45700073 50.25000000 -0.171772 -0.370516 -0.912804 0.000000
100.26999664 147.01199341 201.75000000 -0.236303 -0.402756 0.884279 0.000000
201.29299927 101.02300262 174.75000000 0.001310 -0.894688 0.446689 0.000000
85.19139862 211.47099304 63.00000000 0.139166 0.963757 -0.227608 0.000000
141.73399353 196.76899719 135.75000000 0.653017 0.719106 -0.237604 0.000000
101.77700043 143.24200439 45.75000000 -0.482183 -0.579627 -0.656911 0.000000
198.27699280 125.14800262 126.75000000 0.446769 0.644217 -0.620791 0.000000
