127.14800262 247.73399353 211.25000000 0.195875 -0.209200 -0.958055 0.000000
178.82800293 178.00799561 208.75000000 -0.480488 0.091589 -0.872206 0.000000
266.60101318 224.76499939 181.25000000 0.066895 0.570744 -0.818399 0.000000
97.61710358 264.14001465 201.25000000 0.215898 -0.297741 -0.929913 0.000000
91.87490082 306.38699341 172.50000000 0.504203 -0.678413 -0.534355 0.000000
231.32800293 207.53900146 198.75000000 -0.129925 -0.037283 -0.990823 0.000000
98.43740082 164.06199646 196.25000000 0.334766 0.514162 -0.789664 0.000000
268.24200439 218.20300293 193.75000000 -0.090412 0.204355 -0.974713 0.000000
121.40599823 172.26600647 203.75000000 0.264399 0.412462 -0.871761 0.000000
55.78120041 212.46099854 96.25000000 0.911211 0.147878 0.384483 0.000000
114.84400177 245.27299500 126.25000000 -0.108798 -0.456388 0.883104 0.000000
77.10929871 170.62500000 181.25000000 0.760926 0.516518 -0.392684 0.000000
270.70300293 181.28900146 168.75000000 0.341850 0.472229 -0.812489 0.000000
105.41000366 121.40599823 152.50000000 0.361044 0.921429 -0.143581 0.000000
266.60101318 218.20300293 193.75000000 -0.041410 0.190484 -0.980816 0.000000
271.11300659 162.42199707 162.50000000 0.482076 0.382113 -0.788411 0.000000
134.53100586 232.14799500 216.25000000 0.062964 -0.074010 -0.995268 0.000000
154.21899414 228.86700439 138.75000000 -0.178297 0.894384 0.410228 0.000000
97.61710358 138.63299561 126.25000000 0.000978 0.000978 0.999999 0.000000
197.69500732 114.84400177 138.75000000 0.200240 0.967611 0.153733 0.000000
100.07800293 305.97601318 178.75000000 0.487070 -0.550673 -0.677880 0.000000
176.36700439 189.49200439 136.25000000 -0.159150 0.536944 -0.828470 0.000000
86.95310211 275.62500000 193.75000000 0.457359 -0.386749 -0.800780 0.000000
105.00000000 200.15600586 213.75000000 0.263017 0.048615 -0.963566 0.000000
242.81199646 192.77299500 193.75000000 -0.495543 0.180062 -0.849715 0.000000
263.32000732 195.23399353 171.25000000 0.325263 0.224962 -0.918475 0.000000
202.61700439 134.12100220 120.00000000 0.237013 0.648254 -0.723596 0.000000
85.31250000 214.10099792 96.25000000 -0.623352 0.113471 0.773664 0.000000
185.39100647 220.66400146 201.25000000 -0.000978 -0.000978 -0.999999 0.000000
176.36700439 122.63700104 185.00000000 0.119941 0.777394 -0.617473 0.000000
191.95300293 257.98800659 182.50000000 -0.384572 -0.920562 0.068339 0.000000
79.57029724 147.24600220 162.50000000 0.746410 0.592312 -0.303379 0.000000
206.71899414 216.97300720 150.00000000 -0.827096 -0.519410 0.214771 0.000000
135.35099792 288.75000000 196.25000000 -0.064381 -0.447929 -0.891748 0.000000
257.57800293 130.42999268 146.25000000 0.527667 0.051514 -0.847888 0.000000
86.13279724 214.92199707 96.25000000 -0.222031 0.222031 0.949423 0.000000
121.40599823 214.92199707 126.25000000 -0.555689 0.272335 0.785521 0.000000
246.91400146 219.84399414 196.25000000 -0.130093 0.083213 -0.988004 0.000000
124.68699646 145.19500732 191.25000000 0.001369 0.792878 -0.609379 0.000000
203.43699646 164.06199646 203.75000000 -0.332271 -0.262011 -0.906061 0.000000
218.20300293 134.53100586 126.25000000 0.304691 0.425330 -0.852207 0.000000
114.02300262 246.91400146 208.75000000 0.056698 -0.199047 -0.978348 0.000000
84.49210358 264.96099854 118.75000000 -0.730266 -0.189100 0.656470 0.000000
85.31250000 144.78500366 170.00000000 0.612356 0.531383 -0.585365 0.000000
173.08599854 180.46899414 211.25000000 -0.330316 0.181322 -0.926290 0.000000
75.46869659 158.72999573 170.00000000 0.763566 0.475798 -0.436557 0.000000
275.62500000 180.46899414 181.25000000 -0.132577 0.293277 -0.946790 0.000000
253.47599792 211.64100647 171.25000000 0.363273 0.363273 -0.857943 0.000000
219.02299500 225.17599487 165.00000000 0.134615 0.864145 -0.484905 0.000000
55.78120041 251.83599854 121.25000000 0.925242 -0.193524 0.326307 0.000000
264.14001465 164.06199646 181.25000000 -0.432644 0.305487 -0.848231 0.000000
186.21099854 134.53100586 113.75000000 0.063938 0.581124 -0.811300 0.000000
146.83599854 243.63299561 213.75000000 -0.014085 -0.364942 -0.930924 0.000000
140.27299500 139.04299927 152.50000000 -0.653050 0.491886 -0.575825 0.000000
139.45300293 186.21099854 133.75000000 0.205731 -0.358231 0.910684 0.000000
56.19139862 190.31199646 125.00000000 0.959600 0.269608 0.080499 0.000000
70.95700073 238.71099854 192.50000000 0.631351 -0.202218 -0.748668 0.000000
91.87490082 210.00000000 203.75000000 0.621865 -0.275148 -0.733197 0.000000
262.50000000 227.22599792 183.75000000 0.114158 0.659745 -0.742769 0.000000
214.92199707 176.36700439 201.25000000 -0.000978 -0.000978 -0.999999 0.000000
52.08980179 210.82000732 132.50000000 0.950151 0.001232 0.311788 0.000000
196.87500000 248.55499268 156.25000000 -0.691292 -0.605499 0.394317 0.000000
164.47300720 249.37500000 197.50000000 -0.956436 -0.001222 -0.291939 0.000000
180.46899414 209.17999268 151.25000000 0.378210 0.558309 0.738409 0.000000
78.75000000 262.50000000 193.75000000 0.506677 -0.316077 -0.802106 0.000000
85.31250000 222.30499268 203.75000000 0.049929 0.225291 -0.973011 0.000000
85.31250000 287.92999268 126.25000000 -0.700596 -0.248293 0.668966 0.000000
117.30500031 280.54699707 201.25000000 0.048068 -0.346871 -0.936680 0.000000
63.16400146 199.33599854 181.25000000 0.744356 0.260762 -0.614766 0.000000
236.25000000 168.98399353 193.75000000 -0.468880 0.106242 -0.876849 0.000000
274.80499268 204.25799561 176.25000000 0.104154 0.248169 -0.963101 0.000000
230.50799561 180.46899414 143.75000000 0.409376 0.175033 -0.895419 0.000000
56.19139862 261.67999268 157.50000000 0.912869 -0.366002 -0.180865 0.000000
185.39100647 242.81199646 188.75000000 0.740196 0.574262 -0.349763 0.000000
263.32000732 214.10099792 176.25000000 0.081719 0.441835 -0.893366 0.000000
131.25000000 171.44500732 208.75000000 0.348343 0.472411 -0.809620 0.000000
281.36700439 204.25799561 188.75000000 -0.659545 0.219848 -0.718795 0.000000
203.43699646 150.52699280 130.00000000 0.457748 0.261789 -0.849666 0.000000
205.89799500 234.60899353 156.25000000 -0.715380 -0.459768 0.526161 0.000000
238.71099854 116.89399719 155.00000000 -0.193092 0.957470 -0.214399 0.000000
270.70300293 141.91400146 166.25000000 -0.000978 -0.000978 -0.999999 0.000000
55.78120041 220.66400146 96.25000000 0.950151 -0.001232 0.311788 0.000000
97.61710358 312.94900513 167.50000000 0.406652 -0.818088 -0.406652 0.000000
127.14800262 194.41400146 146.25000000 0.191703 -0.312041 0.930527 0.000000
225.58599854 159.96099854 198.75000000 -0.471124 -0.053568 -0.880439 0.000000
116.48400116 282.18701172 151.25000000 -0.392355 -0.503061 0.770057 0.000000
199.33599854 185.39100647 131.25000000 -0.000978 -0.000978 -0.999999 0.000000
187.03100586 186.21099854 131.25000000 0.107071 0.212882 -0.971194 0.000000
75.87889862 172.26600647 180.00000000 0.769771 0.544786 -0.332657 0.000000
54.14059830 232.96899414 176.25000000 0.835164 0.004074 -0.549986 0.000000
166.52299500 164.06199646 206.25000000 -0.001253 0.339429 -0.940631 0.000000
136.58200073 309.25799561 177.50000000 -0.577220 -0.791573 -0.200573 0.000000
98.43740082 270.70300293 201.25000000 0.198523 -0.256026 -0.946065 0.000000
87.77339935 132.89100647 151.25000000 -0.000978 0.999999 -0.000978 0.000000
97.61710358 175.54699707 203.75000000 0.307332 0.457097 -0.834631 0.000000
182.10899353 148.47599792 201.25000000 0.071141 0.489615 -0.869032 0.000000
294.08200073 205.07800293 172.50000000 -0.149262 0.281043 -0.948017 0.000000
117.30500031 136.99200439 181.25000000 0.466723 0.473320 -0.747086 0.000000
271.52301025 190.31199646 171.25000000 0.286194 0.155983 -0.945390 0.000000
187.03100586 255.93699646 171.25000000 0.992817 -0.100753 -0.064527 0.000000
60.70309830 269.88299561 141.25000000 0.688576 -0.688576 0.227434 0.000000
55.78120041 223.12500000 96.25000000 0.908629 -0.100959 0.405218 0.000000
148.47599792 225.99600220 145.00000000 -0.364010 0.158815 0.917755 0.000000
102.53900146 304.33599854 146.25000000 0.000978 0.000978 0.999999 0.000000
183.75000000 231.32800293 141.25000000 -0.373176 0.701966 0.606617 0.000000
222.30499268 135.35099792 133.75000000 0.852672 0.267895 -0.448533 0.000000
112.38300323 274.80499268 143.75000000 -0.296084 -0.536751 0.790084 0.000000
173.90600586 221.48399353 146.25000000 -0.689615 -0.189760 0.698872 0.000000
278.08599854 216.56199646 181.25000000 0.319675 0.474000 -0.820446 0.000000
136.99200439 270.70300293 151.25000000 -0.309453 -0.582028 0.751986 0.000000
68.90619659 200.15600586 188.75000000 0.517227 0.801939 -0.298948 0.000000
150.93699646 274.80499268 161.25000000 -0.699233 -0.408299 0.586827 0.000000
72.59760284 264.14001465 105.00000000 -0.578200 -0.323728 0.748922 0.000000
63.16400146 221.07400513 185.00000000 0.858186 -0.006736 -0.513295 0.000000
231.32800293 147.65600586 141.25000000 0.468912 0.056379 -0.881444 0.000000
55.37110138 224.76499939 97.50000000 0.933935 -0.089519 0.346050 0.000000
263.32000732 167.34399414 161.25000000 0.384661 0.362858 -0.848746 0.000000
127.96900177 246.09399414 128.75000000 -0.267538 -0.409620 0.872144 0.000000
141.09399414 272.75399780 155.00000000 -0.404877 -0.489430 0.772356 0.000000
58.65230179 227.22599792 177.50000000 0.720100 0.257970 -0.644133 0.000000
94.33589935 143.55499268 176.25000000 0.504088 0.588384 -0.632218 0.000000
248.55499268 206.71899414 166.25000000 0.580716 0.580716 -0.570558 0.000000
107.46099854 127.55899811 170.00000000 0.662755 0.366735 -0.652887 0.000000
77.92960358 295.72198486 140.00000000 0.787556 -0.612544 0.067423 0.000000
140.27299500 262.91000366 205.00000000 -0.416088 -0.765275 -0.491147 0.000000
66.85540009 266.60101318 180.00000000 0.700075 -0.486210 -0.522968 0.000000
124.68699646 201.79699707 213.75000000 0.513455 -0.171152 -0.840875 0.000000
55.78120041 237.88999939 176.25000000 0.745068 -0.095146 -0.660168 0.000000
191.95300293 125.50800323 191.25000000 0.045969 0.842770 -0.536308 0.000000
66.85540009 280.54699707 155.00000000 0.839562 -0.542761 -0.023359 0.000000
180.46899414 176.36700439 131.25000000 -0.077218 0.256972 -0.963329 0.000000
273.98400879 180.46899414 181.25000000 -0.000978 -0.000978 -0.999999 0.000000
150.11700439 198.51600647 141.25000000 -0.093197 -0.841639 0.531939 0.000000
244.45300293 200.15600586 158.75000000 0.526503 0.453424 -0.719167 0.000000
107.46099854 189.08200073 212.50000000 0.079837 0.252184 -0.964380 0.000000
252.65600586 182.10899353 158.75000000 0.491254 0.254097 -0.833129 0.000000
158.32000732 187.03100586 136.25000000 -0.257869 -0.539182 0.801740 0.000000
239.53100586 168.16400146 191.25000000 -0.568901 0.214301 -0.793994 0.000000
174.72599792 143.55499268 196.25000000 0.273264 0.244946 -0.930230 0.000000
167.34399414 210.00000000 148.75000000 -0.141951 0.501950 0.853168 0.000000
62.75389862 273.98400879 150.00000000 0.705724 -0.708486 0.001381 0.000000
78.75000000 254.29699707 193.75000000 0.861549 -0.246806 -0.443645 0.000000
255.11700439 229.68699646 183.75000000 0.463989 0.520532 -0.716771 0.000000
215.74200439 116.48400116 168.75000000 -0.132707 0.978560 -0.157512 0.000000
56.60150146 228.86700439 96.25000000 0.922406 -0.134546 0.362027 0.000000
111.56199646 297.77301025 151.25000000 -0.698444 -0.156051 0.698444 0.000000
272.34399414 191.95300293 188.75000000 -0.031683 0.320628 -0.946675 0.000000
73.41790009 257.57800293 102.50000000 -0.694183 -0.486764 0.530255 0.000000
272.34399414 168.16400146 166.25000000 0.154100 0.233125 -0.960159 0.000000
67.26560211 280.95700073 160.00000000 0.889746 -0.454999 -0.036454 0.000000
184.57000732 233.78900146 138.75000000 -0.525009 0.481675 0.701679 0.000000
235.42999268 152.57800293 193.75000000 -0.519624 0.009448 -0.854343 0.000000
242.81199646 205.89799500 161.25000000 0.577091 0.371104 -0.727494 0.000000
257.57800293 187.85099792 188.75000000 -0.293646 0.092662 -0.951413 0.000000
100.07800293 288.75000000 141.25000000 -0.660895 -0.169421 0.731105 0.000000
168.57400513 269.88299561 175.00000000 -0.867287 -0.125131 0.481826 0.000000
166.52299500 276.85501099 180.00000000 -0.839845 -0.526185 0.133378 0.000000
109.10199738 165.29299927 140.00000000 0.299669 -0.387897 0.871627 0.000000
228.04699707 190.31199646 198.75000000 -0.094825 0.027249 -0.995121 0.000000
289.57000732 210.00000000 188.75000000 -0.112124 0.246158 -0.962722 0.000000
223.94500732 195.23399353 143.75000000 0.427070 0.283182 -0.858731 0.000000
81.62100220 230.50799561 97.50000000 -0.606176 -0.275245 0.746185 0.000000
134.12100220 209.17999268 147.50000000 -0.091320 -0.598652 0.795787 0.000000
241.17199707 142.73399353 146.25000000 0.126852 0.255011 -0.958581 0.000000
169.80499268 116.89399719 152.50000000 0.157202 0.986296 -0.050072 0.000000
68.90619659 159.14100647 136.25000000 0.865641 0.490388 0.100920 0.000000
76.28900146 263.32000732 191.25000000 0.619657 -0.420303 -0.662850 0.000000
164.47300720 279.72601318 180.00000000 -0.753279 -0.626962 0.198718 0.000000
108.28099823 141.09399414 128.75000000 -0.477631 -0.047900 0.877254 0.000000
101.71900177 187.03100586 118.75000000 -0.704397 0.575119 0.416008 0.000000
186.21099854 148.47599792 123.75000000 0.104385 0.302583 -0.947390 0.000000
188.67199707 256.75799561 163.75000000 0.590565 -0.699745 0.401981 0.000000
225.17599487 214.92199707 155.00000000 0.281464 0.583600 -0.761701 0.000000
226.40600586 204.25799561 198.75000000 -0.212997 0.090929 -0.972812 0.000000
123.86699677 236.25000000 123.75000000 -0.336560 -0.395496 0.854582 0.000000
120.17600250 308.43701172 182.50000000 0.101542 -0.699023 -0.707853 0.000000
147.65600586 188.67199707 133.75000000 0.000978 0.000978 0.999999 0.000000
104.18000031 121.81600189 152.50000000 0.319380 0.936208 -0.146668 0.000000
83.67179871 168.16400146 186.25000000 0.624389 0.405770 -0.667450 0.000000
159.14100647 214.10099792 146.25000000 -0.021709 0.351181 0.936056 0.000000
165.70300293 257.16799927 190.00000000 -0.903994 0.253470 0.344309 0.000000
80.80069733 232.96899414 97.50000000 -0.654485 -0.169342 0.736867 0.000000
246.09399414 223.12500000 173.75000000 0.405219 0.580538 -0.706239 0.000000
157.50000000 176.36700439 213.75000000 0.089894 0.195796 -0.976516 0.000000
110.74199677 301.87500000 151.25000000 -0.672564 -0.301605 0.675790 0.000000
258.39801025 220.66400146 193.75000000 -0.000978 -0.000978 -0.999999 0.000000
238.71099854 187.03100586 196.25000000 -0.000978 -0.000978 -0.999999 0.000000
111.56199646 286.28900146 148.75000000 -0.581962 -0.378685 0.719665 0.000000
145.19500732 203.02699280 147.50000000 -0.359190 -0.781199 0.510598 0.000000
178.00799561 142.73399353 121.25000000 -0.049796 0.426629 -0.903055 0.000000
52.08980179 219.02299500 112.50000000 0.988942 0.124637 0.080373 0.000000
231.32800293 142.73399353 141.25000000 0.528103 0.069005 -0.846372 0.000000
275.62500000 186.21099854 183.75000000 -0.385226 0.515261 -0.765576 0.000000
164.88299561 276.85501099 187.50000000 -0.570273 -0.680649 -0.459898 0.000000
87.77339935 263.32000732 121.25000000 -0.624523 -0.254552 0.738360 0.000000
156.67999268 217.38299561 146.25000000 0.000978 0.000978 0.999999 0.000000
150.93699646 260.85900879 203.75000000 -0.351259 -0.372922 -0.858805 0.000000
219.84399414 132.07000732 126.25000000 0.471082 0.575022 -0.668903 0.000000
89.41400146 253.47599792 201.25000000 0.541471 0.078165 -0.837078 0.000000
104.18000031 186.21099854 131.25000000 -0.720615 0.665064 0.195970 0.000000
123.04699707 247.73399353 128.75000000 -0.227895 -0.503205 0.833576 0.000000
242.81199646 224.76499939 196.25000000 -0.000978 -0.000978 -0.999999 0.000000
91.05460358 282.18701172 131.25000000 -0.688683 -0.217068 0.691807 0.000000
111.56199646 178.82800293 208.75000000 -0.347400 0.696432 -0.627930 0.000000
258.39801025 200.97599792 191.25000000 -0.162056 0.127418 -0.978521 0.000000
194.41400146 255.11700439 161.25000000 -0.648573 -0.684334 0.333227 0.000000
147.65600586 181.28900146 133.75000000 0.627288 0.046728 0.777384 0.000000
177.18699646 207.53900146 208.75000000 -0.000978 -0.000978 -0.999999 0.000000
182.51899719 202.61700439 155.00000000 0.265005 0.642677 0.718846 0.000000
118.94499969 244.45300293 126.25000000 -0.187571 -0.450465 0.872868 0.000000
137.81199646 242.81199646 128.75000000 -0.259769 -0.474963 0.840792 0.000000
141.09399414 178.00799561 133.75000000 0.106475 -0.340990 0.934017 0.000000
120.58599854 266.60101318 206.25000000 -0.133389 -0.226632 -0.964803 0.000000
82.03119659 246.09399414 106.25000000 -0.729538 -0.435076 0.527716 0.000000
155.03900146 215.74200439 146.25000000 0.000978 0.000978 0.999999 0.000000
69.72650146 181.28900146 101.25000000 0.434285 0.792692 0.427827 0.000000
118.94499969 164.06199646 131.25000000 0.613798 -0.427496 0.663701 0.000000
103.35900116 312.53900146 173.75000000 0.445305 -0.572058 -0.688805 0.000000
233.78900146 232.14799500 178.75000000 0.702468 -0.702468 0.114355 0.000000
216.97300720 221.48399353 157.50000000 0.291076 0.774611 -0.561474 0.000000
230.09800720 186.21099854 197.50000000 -0.331847 0.117840 -0.935944 0.000000
247.73399353 198.51600647 191.25000000 -0.669278 0.348548 -0.656187 0.000000
106.64099884 189.90199280 212.50000000 0.079837 0.252184 -0.964380 0.000000
198.51600647 200.15600586 136.25000000 0.019752 0.420062 -0.907281 0.000000
159.96099854 243.63299561 133.75000000 -0.293612 -0.620917 0.726810 0.000000
161.60099792 241.99200439 133.75000000 -0.523873 -0.281601 0.803901 0.000000
61.52339935 263.32000732 108.75000000 0.962540 -0.193033 0.190407 0.000000
141.09399414 150.11700439 133.75000000 0.170938 0.202255 0.964299 0.000000
212.46099854 186.21099854 201.25000000 -0.000978 -0.000978 -0.999999 0.000000
228.45700073 129.60899353 187.50000000 -0.403597 0.729769 -0.551857 0.000000
149.29699707 254.29699707 141.25000000 -0.381443 -0.731782 0.564798 0.000000
88.18350220 157.50000000 182.50000000 0.698050 0.307916 -0.646462 0.000000
163.24200439 251.83599854 173.75000000 -0.986976 -0.112560 -0.114930 0.000000
111.56199646 270.70300293 141.25000000 -0.238300 -0.565377 0.789659 0.000000
193.59399414 212.87100220 202.50000000 0.025985 0.518339 -0.854780 0.000000
75.46869659 151.34800720 160.00000000 0.779228 0.572270 -0.255562 0.000000
257.57800293 222.30499268 181.25000000 0.296904 0.452351 -0.840968 0.000000
178.82800293 116.48400116 163.75000000 0.045477 0.985342 -0.164418 0.000000
284.64801025 219.02299500 181.25000000 0.257789 0.959907 -0.110111 0.000000
107.46099854 315.00000000 158.75000000 -0.353766 -0.718944 0.598305 0.000000
150.11700439 196.05499268 138.75000000 -0.038195 -0.737027 0.674783 0.000000
75.46869659 241.17199707 96.25000000 -0.543281 -0.336931 0.768976 0.000000
52.08980179 250.19500732 145.00000000 0.979842 -0.178928 -0.088855 0.000000
63.98429871 207.53900146 186.25000000 0.626417 0.261668 -0.734256 0.000000
249.37500000 191.13299561 191.25000000 -0.094552 0.080882 -0.992229 0.000000
281.36700439 218.20300293 191.25000000 -0.000978 -0.000978 -0.999999 0.000000
201.79699707 243.63299561 156.25000000 -0.711699 -0.429674 0.555756 0.000000
186.21099854 129.60899353 111.25000000 0.101530 0.424199 -0.899859 0.000000
171.44500732 264.96099854 181.25000000 -0.708511 0.521798 0.475119 0.000000
208.35899353 133.71099854 196.25000000 -0.205920 0.431099 -0.878493 0.000000
241.17199707 168.98399353 191.25000000 -0.399048 0.136776 -0.906671 0.000000
227.22599792 117.71499634 167.50000000 -0.001307 0.897798 -0.440405 0.000000
86.95310211 259.21899414 118.75000000 -0.655340 -0.428555 0.621989 0.000000
109.10199738 306.79699707 181.25000000 0.140008 -0.687995 -0.712082 0.000000
282.18701172 205.89799500 176.25000000 -0.212406 0.429268 -0.877846 0.000000
116.48400116 291.21099854 196.25000000 0.082754 -0.631540 -0.770914 0.000000
132.89100647 157.50000000 131.25000000 0.000978 0.000978 0.999999 0.000000
92.28510284 168.98399353 195.00000000 0.580716 0.580716 -0.570558 0.000000
173.08599854 148.47599792 123.75000000 -0.014526 0.437102 -0.899295 0.000000
263.32000732 196.87500000 171.25000000 0.200771 0.252671 -0.946493 0.000000
59.47259903 256.75799561 107.50000000 0.909138 -0.331259 0.252457 0.000000
113.20300293 315.82000732 166.25000000 -0.268921 -0.892936 0.361037 0.000000
285.46899414 226.40600586 193.75000000 0.005839 0.977391 -0.211359 0.000000
296.13299561 213.28100586 176.25000000 -0.127086 0.686263 -0.716165 0.000000
131.25000000 274.80499268 201.25000000 -0.270719 -0.481107 -0.833815 0.000000
265.78100586 227.22599792 193.75000000 -0.000978 -0.000978 -0.999999 0.000000
51.26950073 223.94500732 115.00000000 0.800114 -0.160623 0.577943 0.000000
256.75799561 162.42199707 156.25000000 0.447638 0.206716 -0.869994 0.000000
73.82810211 244.45300293 96.25000000 -0.581314 -0.291453 0.759690 0.000000
202.61700439 138.63299561 123.75000000 0.360389 0.525231 -0.770877 0.000000
116.48400116 222.30499268 213.75000000 0.006755 -0.522804 -0.852426 0.000000
234.60899353 157.50000000 143.75000000 0.304391 0.364966 -0.879856 0.000000
139.04299927 255.11700439 207.50000000 -0.229922 -0.482683 -0.845076 0.000000
82.85150146 301.46499634 152.50000000 0.734188 -0.672640 -0.092323 0.000000
283.82800293 196.05499268 171.25000000 -0.195575 0.319392 -0.927221 0.000000
105.81999969 211.64100647 113.75000000 -0.495948 -0.036889 0.867568 0.000000
143.55499268 276.44500732 158.75000000 -0.508600 -0.455586 0.730594 0.000000
118.53500366 132.89100647 180.00000000 0.234101 0.454609 -0.859376 0.000000
174.72599792 192.77299500 211.25000000 -0.261951 0.196120 -0.944944 0.000000
100.07800293 171.44500732 201.25000000 0.486290 0.597346 -0.637730 0.000000
165.70300293 249.37500000 168.75000000 -0.874395 -0.299575 -0.381692 0.000000
79.57029724 146.83599854 128.75000000 0.360238 0.338777 0.869171 0.000000
50.03900146 223.12500000 161.25000000 0.981788 0.075707 -0.174246 0.000000
168.16400146 231.32800293 201.25000000 -0.077956 -0.414398 -0.906751 0.000000
191.54299927 258.39801025 182.50000000 -0.384572 -0.920562 0.068339 0.000000
109.92199707 178.00799561 141.25000000 -0.230024 -0.003539 0.973179 0.000000
171.44500732 241.58200073 140.00000000 0.059053 -0.883046 0.465556 0.000000
201.79699707 232.14799500 191.25000000 -0.826590 0.017880 -0.562521 0.000000
132.89100647 217.79299927 217.50000000 0.324298 0.052973 -0.944470 0.000000
102.53900146 202.61700439 111.25000000 -0.626974 0.123023 0.769265 0.000000
50.44919968 233.78900146 137.50000000 0.950151 -0.001232 0.311788 0.000000
213.28100586 130.42999268 121.25000000 0.322233 0.639608 -0.697902 0.000000
244.45300293 181.28900146 153.75000000 0.528385 0.175130 -0.830746 0.000000
179.64799500 163.24200439 128.75000000 -0.000978 -0.000978 -0.999999 0.000000
155.03900146 221.48399353 146.25000000 0.000978 0.000978 0.999999 0.000000
260.85900879 225.99600220 182.50000000 0.031582 0.525903 -0.849958 0.000000
99.66790009 182.10899353 207.50000000 0.230358 0.450177 -0.862714 0.000000
49.62889862 219.84399414 157.50000000 0.981788 0.075707 -0.174246 0.000000
203.43699646 235.42999268 188.75000000 -0.763477 -0.132973 -0.631998 0.000000
211.64100647 210.82000732 201.25000000 0.000978 0.000978 -0.999999 0.000000
136.17199707 276.03500366 155.00000000 -0.297881 -0.427529 0.853514 0.000000
205.89799500 223.94500732 151.25000000 -0.811218 0.233322 0.536177 0.000000
247.32400513 200.15600586 162.50000000 0.385308 0.872654 -0.300022 0.000000
105.00000000 233.78900146 116.25000000 -0.382726 -0.205188 0.900788 0.000000
164.47300720 251.01499939 190.00000000 -0.915502 0.198525 0.349919 0.000000
199.33599854 198.51600647 136.25000000 0.069554 0.421413 -0.904198 0.000000
232.96899414 231.32800293 178.75000000 0.702468 -0.702468 0.114355 0.000000
174.72599792 243.22300720 170.00000000 -0.126297 -0.892592 -0.432815 0.000000
126.32800293 307.61700439 183.75000000 0.009669 -0.614677 -0.788720 0.000000
154.21899414 217.79299927 217.50000000 -0.396678 -0.097454 -0.912770 0.000000
272.34399414 196.87500000 173.75000000 0.014492 0.436066 -0.899798 0.000000
140.27299500 195.23399353 216.25000000 0.263321 0.342759 -0.901764 0.000000
82.85150146 233.78900146 203.75000000 0.136793 -0.174442 -0.975119 0.000000
208.35899353 187.85099792 201.25000000 -0.279352 0.125775 -0.951916 0.000000
52.91009903 203.43699646 127.50000000 0.972375 0.215945 0.088625 0.000000
247.73399353 238.30099487 190.00000000 0.090294 0.895990 -0.434798 0.000000
164.06199646 168.57400513 157.50000000 -0.406717 -0.662368 0.629166 0.000000
187.03100586 155.85899353 203.75000000 -0.000978 -0.000978 -0.999999 0.000000
211.22999573 125.50800323 117.50000000 0.514908 0.211128 -0.830840 0.000000
219.84399414 232.55799866 187.50000000 0.138818 -0.963941 -0.227039 0.000000
217.38299561 191.13299561 201.25000000 -0.325964 0.037070 -0.944655 0.000000
201.79699707 113.61299896 140.00000000 0.177296 0.979406 0.096596 0.000000
61.52339935 270.29299927 132.50000000 0.920133 -0.377104 0.105589 0.000000
235.42999268 162.42199707 146.25000000 0.503926 0.092268 -0.858804 0.000000
185.80099487 235.42999268 140.00000000 -0.640914 0.446799 0.624180 0.000000
90.23429871 139.45300293 168.75000000 0.541585 0.619195 -0.568580 0.000000
137.81199646 284.64801025 161.25000000 -0.268680 -0.327408 0.905878 0.000000
59.06250000 260.03900146 116.25000000 0.930040 -0.326696 0.168214 0.000000
264.55099487 169.80499268 162.50000000 0.401345 0.401345 -0.823313 0.000000
217.38299561 197.69500732 141.25000000 0.269208 0.358449 -0.893891 0.000000
147.24600220 288.75000000 167.50000000 -0.519720 -0.553359 0.650911 0.000000
232.96899414 193.59399414 148.75000000 0.529902 0.386421 -0.754906 0.000000
260.03900146 187.03100586 166.25000000 0.378392 0.305449 -0.873797 0.000000
94.33589935 126.73799896 150.00000000 0.495574 0.824921 -0.271867 0.000000
165.70300293 141.09399414 121.25000000 -0.284738 0.480787 -0.829318 0.000000
255.11700439 132.89100647 173.75000000 -0.565928 0.596336 -0.569306 0.000000
132.07000732 288.75000000 196.25000000 0.044704 -0.448391 -0.892719 0.000000
111.56199646 296.13299561 191.25000000 0.172564 -0.682619 -0.710107 0.000000
179.64799500 132.89100647 193.75000000 0.371572 0.517604 -0.770727 0.000000
266.19100952 173.08599854 182.50000000 -0.464493 0.217966 -0.858334 0.000000
149.29699707 255.52699280 142.50000000 -0.478480 -0.765895 0.429489 0.000000
135.35099792 271.52301025 203.75000000 -0.085403 -0.316649 -0.944690 0.000000
152.57800293 196.05499268 138.75000000 -0.211902 -0.774912 0.595491 0.000000
102.53900146 134.12100220 127.50000000 -0.148735 0.179244 0.972496 0.000000
106.64099884 144.37500000 183.75000000 0.383131 0.600184 -0.702133 0.000000
141.09399414 258.39801025 141.25000000 -0.304066 -0.834234 0.459998 0.000000
165.70300293 233.37899780 135.00000000 0.312753 0.575786 0.755418 0.000000
120.58599854 215.33200073 125.00000000 -0.567715 0.287833 0.771266 0.000000
69.72650146 162.01199341 120.00000000 0.644348 0.654287 0.395885 0.000000
73.82810211 162.01199341 170.00000000 0.798244 0.383864 -0.464170 0.000000
151.75799561 273.98400879 161.25000000 -0.699233 -0.408299 0.586827 0.000000
264.96099854 213.28100586 191.25000000 -0.082154 0.370367 -0.925245 0.000000
84.49210358 258.39801025 113.75000000 -0.687725 -0.312308 0.655361 0.000000
102.94899750 195.23399353 115.00000000 -0.806908 0.372296 0.458579 0.000000
151.75799561 246.91400146 201.25000000 -0.090534 -0.005326 -0.995879 0.000000
184.57000732 246.91400146 171.25000000 0.771646 -0.498727 -0.394758 0.000000
155.03900146 287.10900879 173.75000000 -0.718858 -0.479792 0.503034 0.000000
127.96900177 199.33599854 216.25000000 0.266782 0.018273 -0.963584 0.000000
108.28099823 155.03900146 191.25000000 0.334787 0.409531 -0.848647 0.000000
212.46099854 204.25799561 201.25000000 -0.278728 -0.134696 -0.950877 0.000000
51.26950073 207.53900146 135.00000000 0.990006 0.075264 0.119264 0.000000
162.01199341 136.99200439 120.00000000 -0.326171 0.498007 -0.803494 0.000000
232.96899414 122.63700104 175.00000000 -0.297881 0.853514 -0.427529 0.000000
173.08599854 211.64100647 148.75000000 -0.473033 0.327484 0.817920 0.000000
200.15600586 150.11700439 203.75000000 -0.000978 -0.000978 -0.999999 0.000000
159.96099854 251.01499939 201.25000000 -0.354576 -0.003786 -0.935020 0.000000
118.12500000 134.12100220 130.00000000 -0.382392 0.254432 0.888280 0.000000
128.78900146 286.28900146 196.25000000 0.000978 0.000978 -0.999999 0.000000
97.61710358 237.07000732 206.25000000 -0.304739 -0.711058 -0.633664 0.000000
185.39100647 192.36300659 135.00000000 -0.179643 0.686330 -0.704755 0.000000
215.74200439 151.75799561 133.75000000 0.350501 0.127830 -0.927798 0.000000
99.25779724 269.88299561 133.75000000 -0.558883 -0.160323 0.813601 0.000000
126.32800293 312.12899780 167.50000000 -0.171152 -0.513455 0.840875 0.000000
97.61710358 219.43299866 205.00000000 0.638768 0.055731 -0.767379 0.000000
162.83200073 164.06199646 207.50000000 -0.148571 0.442827 -0.884212 0.000000
106.64099884 267.42199707 203.75000000 0.239326 -0.393922 -0.887439 0.000000
173.90600586 173.08599854 208.75000000 -0.018488 0.287186 -0.957696 0.000000
99.25779724 277.26501465 136.25000000 -0.625926 -0.315389 0.713265 0.000000
53.32030106 212.46099854 166.25000000 0.390864 -0.588770 -0.707513 0.000000
241.99200439 121.81600189 167.50000000 -0.348753 0.854056 -0.385953 0.000000
169.80499268 191.13299561 141.25000000 -0.518270 0.768470 -0.375299 0.000000
59.88280106 262.50000000 116.25000000 0.919940 -0.329467 0.212513 0.000000
218.20300293 147.65600586 133.75000000 0.516192 0.283984 -0.808021 0.000000
200.15600586 212.87100220 147.50000000 -0.380190 0.533571 -0.755485 0.000000
164.88299561 270.29299927 192.50000000 -0.318804 -0.687775 -0.652173 0.000000
210.82000732 221.48399353 156.25000000 0.105215 0.840282 -0.531842 0.000000
67.26560211 184.57000732 98.75000000 0.260550 0.525781 0.809733 0.000000
61.11320114 246.09399414 182.50000000 0.772801 -0.168528 -0.611864 0.000000
94.33589935 290.39001465 188.75000000 0.377112 -0.437577 -0.816280 0.000000
287.10900879 194.41400146 183.75000000 -0.383152 0.370641 -0.846062 0.000000
104.18000031 277.26501465 198.75000000 0.515340 -0.280383 -0.809821 0.000000
161.60099792 253.47599792 163.75000000 -0.897798 -0.001307 0.440405 0.000000
216.56199646 166.52299500 136.25000000 0.427408 0.218916 -0.877154 0.000000
171.44500732 241.99200439 171.25000000 -0.377128 0.129420 -0.917074 0.000000
254.29699707 130.01899719 145.00000000 0.139947 0.723811 -0.675657 0.000000
197.69500732 191.95300293 133.75000000 0.205830 0.476264 -0.854872 0.000000
239.53100586 230.50799561 176.25000000 0.140950 0.808606 -0.571217 0.000000
63.57419968 185.39100647 100.00000000 0.387591 0.317120 0.865568 0.000000
127.96900177 196.05499268 146.25000000 -0.189483 0.005742 0.981867 0.000000
64.80460358 184.97999573 100.00000000 0.260550 0.525781 0.809733 0.000000
260.03900146 210.82000732 191.25000000 -0.148946 0.449729 -0.880658 0.000000
266.60101318 235.42999268 193.75000000 -0.094941 0.638298 -0.763912 0.000000
103.35900116 246.91400146 208.75000000 0.299798 -0.160166 -0.940462 0.000000
75.46869659 291.21099854 128.75000000 0.666404 -0.643368 0.376806 0.000000
249.37500000 225.58599854 196.25000000 -0.273633 -0.043731 -0.960840 0.000000
176.36700439 220.25399780 150.00000000 0.421444 0.434362 0.796062 0.000000
237.07000732 180.87899780 195.00000000 -0.258582 0.198383 -0.945399 0.000000
192.77299500 116.89399719 172.50000000 0.048855 0.980672 -0.189462 0.000000
123.86699677 287.92999268 196.25000000 -0.178576 -0.419582 -0.889978 0.000000
118.94499969 132.47999573 180.00000000 0.371694 0.371694 -0.850698 0.000000
180.46899414 164.88299561 206.25000000 -0.241093 0.249455 -0.937895 0.000000
62.34370041 171.85499573 127.50000000 0.903820 0.427571 -0.017103 0.000000
172.26600647 116.07399750 145.00000000 0.189942 0.952402 0.238437 0.000000
147.65600586 155.03900146 153.75000000 0.269322 0.337020 0.902155 0.000000
56.19139862 253.47599792 170.00000000 0.849674 -0.069045 -0.522768 0.000000
151.75799561 269.88299561 158.75000000 -0.544640 -0.435381 0.716806 0.000000
135.35099792 269.88299561 151.25000000 -0.320573 -0.587986 0.742634 0.000000
222.30499268 140.27299500 136.25000000 0.584161 0.112733 -0.803771 0.000000
222.30499268 133.71099854 193.75000000 -0.236038 0.532243 -0.813021 0.000000
100.07800293 151.75799561 186.25000000 0.348714 0.476098 -0.807297 0.000000
243.22300720 207.53900146 162.50000000 0.609214 0.333037 -0.719684 0.000000
276.44500732 233.78900146 191.25000000 -0.000978 -0.000978 -0.999999 0.000000
221.48399353 229.27699280 195.00000000 0.069360 -0.547799 -0.833730 0.000000
133.71099854 220.25399780 217.50000000 0.351144 0.133572 -0.926745 0.000000
123.04699707 163.24200439 201.25000000 0.636920 0.268427 -0.722689 0.000000
172.67599487 173.08599854 210.00000000 -0.046932 0.300617 -0.952589 0.000000
146.01600647 165.70300293 131.25000000 0.000978 0.000978 0.999999 0.000000
255.52699280 130.42999268 170.00000000 -0.483809 0.674654 -0.557468 0.000000
53.32030106 227.22599792 173.75000000 0.624960 0.261059 -0.735713 0.000000
119.35500336 119.76599884 167.50000000 0.374237 0.852514 -0.364920 0.000000
120.58599854 219.84399414 213.75000000 -0.232134 -0.388861 -0.891572 0.000000
204.25799561 189.49200439 203.75000000 -0.320597 0.114020 -0.940328 0.000000
58.24219894 208.35899353 176.25000000 0.715147 0.269175 -0.645066 0.000000
164.06199646 187.85099792 216.25000000 -0.373733 0.280675 -0.884051 0.000000
137.81199646 176.77699280 132.50000000 0.148478 -0.388870 0.909249 0.000000
100.07800293 233.78900146 208.75000000 0.453113 -0.300518 -0.839272 0.000000
166.52299500 169.80499268 208.75000000 -0.062870 0.389262 -0.918979 0.000000
187.85099792 216.97300720 145.00000000 -0.045614 0.353185 0.934441 0.000000
286.28900146 229.68699646 193.75000000 -0.032206 -0.211131 -0.976927 0.000000
196.05499268 256.34799194 172.50000000 -0.688576 -0.688576 0.227434 0.000000
57.01169968 262.50000000 135.00000000 0.950151 0.001232 0.311788 0.000000
139.45300293 262.50000000 206.25000000 -0.416088 -0.765275 -0.491147 0.000000
196.05499268 232.14799500 196.25000000 -0.452858 0.171470 -0.874939 0.000000
146.01600647 181.28900146 213.75000000 -0.212253 0.526815 -0.823052 0.000000
54.96089935 230.50799561 101.25000000 0.945888 -0.135896 0.294665 0.000000
75.05850220 187.03100586 100.00000000 -0.487748 0.682177 0.544736 0.000000
118.94499969 262.50000000 206.25000000 -0.000978 -0.000978 -0.999999 0.000000
101.71900177 297.77301025 186.25000000 0.276851 -0.574267 -0.770436 0.000000
252.65600586 143.55499268 181.25000000 -0.598167 0.232707 -0.766840 0.000000
173.90600586 240.35099792 183.75000000 -0.221620 -0.967184 -0.124261 0.000000
100.07800293 200.15600586 111.25000000 -0.632925 0.139154 0.761605 0.000000
155.85899353 214.92199707 216.25000000 -0.303316 -0.232115 -0.924187 0.000000
64.80460358 187.85099792 98.75000000 0.260317 0.522193 0.812127 0.000000
83.26170349 302.69500732 147.50000000 0.657709 -0.745992 -0.104468 0.000000
84.90229797 304.33599854 145.00000000 0.564374 0.470590 0.678253 0.000000
156.67999268 254.29699707 201.25000000 -0.000978 -0.000978 -0.999999 0.000000
232.14799500 202.61700439 198.75000000 -0.041781 0.058922 -0.997388 0.000000
210.82000732 132.89100647 123.75000000 0.301046 0.559085 -0.772525 0.000000
227.22599792 214.10099792 156.25000000 0.300625 0.551941 -0.777808 0.000000
171.44500732 118.94499969 176.25000000 0.065095 0.928600 -0.365329 0.000000
228.86700439 147.65600586 138.75000000 0.491794 0.077062 -0.867295 0.000000
225.58599854 225.58599854 166.25000000 0.171960 0.768494 -0.616317 0.000000
155.85899353 170.62500000 211.25000000 -0.154108 0.380322 -0.911924 0.000000
174.72599792 218.20300293 148.75000000 0.004017 0.499448 0.866335 0.000000
81.21089935 161.60099792 178.75000000 0.562639 0.538984 -0.626844 0.000000
55.78120041 235.83999634 177.50000000 0.704039 -0.026700 -0.709660 0.000000
125.50800323 297.77301025 191.25000000 -0.105377 -0.529770 -0.841570 0.000000
189.49200439 127.14800262 111.25000000 0.274820 0.376938 -0.884529 0.000000
140.27299500 238.71099854 213.75000000 0.411435 -0.414637 -0.811663 0.000000
164.88299561 264.96099854 196.25000000 -0.357452 -0.306172 -0.882319 0.000000
267.83200073 165.70300293 180.00000000 -0.494144 0.307853 -0.813049 0.000000
115.66400146 290.39001465 196.25000000 0.082754 -0.631540 -0.770914 0.000000
205.89799500 228.86700439 151.25000000 -0.596414 -0.321643 0.735416 0.000000
231.32800293 214.10099792 156.25000000 0.302554 0.574693 -0.760387 0.000000
157.50000000 123.86699677 181.25000000 0.311121 0.627078 -0.714127 0.000000
182.10899353 132.89100647 113.75000000 -0.159265 0.325455 -0.932048 0.000000
139.45300293 265.78100586 148.75000000 -0.229655 -0.610852 0.757706 0.000000
224.76499939 159.14100647 198.75000000 -0.564246 -0.112266 -0.817938 0.000000
155.03900146 246.50399780 135.00000000 -0.354559 -0.697680 0.622520 0.000000
118.12500000 228.86700439 213.75000000 0.817774 -0.205586 -0.537569 0.000000
271.52301025 226.40600586 193.75000000 -0.309706 -0.249205 -0.917594 0.000000
186.21099854 132.89100647 196.25000000 0.190987 0.506793 -0.840645 0.000000
292.03100586 191.13299561 171.25000000 -0.675591 0.735580 -0.049991 0.000000
159.14100647 272.34399414 163.75000000 -0.371694 -0.371694 0.850698 0.000000
191.95300293 232.14799500 198.75000000 -0.520278 0.239297 -0.819785 0.000000
121.40599823 312.53900146 178.75000000 0.055668 -0.760793 -0.646603 0.000000
210.00000000 145.19500732 203.75000000 0.031053 0.465800 -0.884345 0.000000
77.10929871 189.49200439 98.75000000 -0.345544 0.472933 0.810515 0.000000
94.33589935 193.18299866 107.50000000 -0.525231 0.360389 0.770877 0.000000
87.77339935 136.17199707 161.25000000 0.651389 0.690181 -0.315188 0.000000
140.27299500 274.80499268 201.25000000 -0.243673 -0.345811 -0.906112 0.000000
88.18350220 305.15600586 170.00000000 0.612284 -0.745183 -0.264216 0.000000
52.91009903 228.04699707 107.50000000 0.870617 -0.482732 0.094848 0.000000
167.34399414 213.28100586 211.25000000 -0.661340 -0.300902 -0.687086 0.000000
139.45300293 136.17199707 151.25000000 -0.614381 0.503288 -0.607648 0.000000
147.65600586 200.56599426 145.00000000 -0.213598 -0.843789 0.492337 0.000000
194.41400146 181.28900146 203.75000000 0.000978 0.000978 -0.999999 0.000000
74.64839935 244.45300293 193.75000000 0.579051 -0.163939 -0.798639 0.000000
50.44919968 225.58599854 132.50000000 0.994243 -0.025212 0.104138 0.000000
55.37110138 244.45300293 175.00000000 0.634377 -0.035165 -0.772224 0.000000
84.49210358 303.10501099 155.00000000 0.707106 -0.707106 -0.001384 0.000000
286.28900146 200.15600586 186.25000000 -0.519801 0.284242 -0.805614 0.000000
164.06199646 161.60099792 131.25000000 0.000978 0.000978 0.999999 0.000000
187.85099792 214.10099792 206.25000000 0.000978 0.000978 -0.999999 0.000000
120.58599854 225.58599854 121.25000000 -0.170859 0.173428 0.969912 0.000000
191.13299561 246.91400146 196.25000000 0.123453 0.512694 -0.849649 0.000000
150.11700439 246.91400146 201.25000000 -0.281022 -0.064851 -0.957508 0.000000
128.78900146 237.07000732 126.25000000 -0.107446 -0.497119 0.861004 0.000000
93.10540009 309.25799561 170.00000000 0.486852 -0.744307 -0.457146 0.000000
153.39799500 177.18699646 131.25000000 0.000978 0.000978 0.999999 0.000000
223.53500366 194.41400146 142.50000000 0.437737 0.295434 -0.849179 0.000000
293.67199707 211.64100647 176.25000000 -0.195998 0.539375 -0.818938 0.000000
189.90199280 155.85899353 127.50000000 0.183809 0.363343 -0.913344 0.000000
265.78100586 173.90600586 183.75000000 -0.486261 0.230174 -0.842954 0.000000
100.07800293 305.97601318 146.25000000 -0.332490 -0.614700 0.715258 0.000000
95.56639862 210.82000732 105.00000000 -0.647039 0.067730 0.759442 0.000000
228.04699707 116.07399750 145.00000000 -0.165311 0.986241 0.001125 0.000000
182.92999268 235.42999268 198.75000000 -0.101539 -0.710772 -0.696056 0.000000
117.30500031 198.92599487 135.00000000 -0.888315 0.056119 0.455792 0.000000
251.01499939 189.49200439 161.25000000 0.422098 0.412468 -0.807282 0.000000
73.00779724 182.10899353 178.75000000 0.223207 0.438924 -0.870359 0.000000
182.10899353 232.14799500 201.25000000 -0.154421 -0.793095 -0.589199 0.000000
170.62500000 155.85899353 126.25000000 -0.240213 0.369898 -0.897482 0.000000
176.36700439 192.77299500 138.75000000 -0.348261 0.632756 -0.691617 0.000000
247.73399353 148.47599792 148.75000000 0.412984 0.250794 -0.875526 0.000000
141.91400146 238.71099854 128.75000000 -0.521588 -0.235407 0.820079 0.000000
95.15619659 212.46099854 203.75000000 0.515521 -0.312485 -0.797867 0.000000
187.85099792 116.07399750 152.50000000 0.000978 0.999999 0.000978 0.000000
146.83599854 181.28900146 133.75000000 0.627288 0.046728 0.777384 0.000000
122.22599792 166.52299500 201.25000000 0.562800 0.345465 -0.750940 0.000000
127.14800262 300.23400879 188.75000000 -0.151923 -0.606189 -0.780675 0.000000
173.08599854 197.69500732 213.75000000 -0.322895 0.037012 -0.945711 0.000000
82.85150146 147.65600586 168.75000000 0.690405 0.509863 -0.513206 0.000000
152.57800293 281.36700439 166.25000000 -0.544186 -0.678139 0.493953 0.000000
161.60099792 118.12500000 151.25000000 0.325122 0.934211 0.146785 0.000000
75.87889862 257.57800293 105.00000000 -0.694183 -0.486764 0.530255 0.000000
228.04699707 209.17999268 151.25000000 0.396014 0.415099 -0.819064 0.000000
265.78100586 177.18699646 183.75000000 -0.557429 0.210379 -0.803127 0.000000
205.07800293 178.00799561 131.25000000 0.335103 0.069649 -0.939604 0.000000
196.87500000 143.55499268 123.75000000 0.315961 0.431138 -0.845156 0.000000
194.00399780 255.93699646 182.50000000 -0.686002 -0.596307 -0.416916 0.000000
227.22599792 157.50000000 196.25000000 -0.456319 -0.241046 -0.856545 0.000000
96.79679871 284.64801025 193.75000000 0.259368 -0.366079 -0.893708 0.000000
79.16010284 189.49200439 190.00000000 0.882515 0.047740 -0.467856 0.000000
188.67199707 159.96099854 128.75000000 0.060551 0.307907 -0.949488 0.000000
271.52301025 201.38699341 175.00000000 0.183331 0.396977 -0.899333 0.000000
128.78900146 306.38699341 165.00000000 -0.082554 -0.385704 0.918922 0.000000
268.24200439 212.46099854 191.25000000 0.132577 0.293277 -0.946790 0.000000
208.35899353 131.25000000 121.25000000 0.380477 0.660481 -0.647304 0.000000
194.41400146 205.07800293 143.75000000 -0.580329 0.218204 -0.784605 0.000000
189.49200439 211.64100647 158.75000000 -0.308263 0.924788 0.223029 0.000000
216.56199646 185.39100647 201.25000000 -0.247409 0.203668 -0.947263 0.000000
246.91400146 208.35899353 166.25000000 0.597482 0.434381 -0.674039 0.000000
77.92960358 171.44500732 183.75000000 0.754621 0.445539 -0.481708 0.000000
94.33589935 304.33599854 141.25000000 -0.389566 -0.523224 0.757941 0.000000
164.06199646 167.34399414 208.75000000 -0.122200 0.411548 -0.903158 0.000000
217.38299561 114.43399811 140.00000000 -0.158945 0.985460 0.060046 0.000000
185.39100647 228.04699707 146.25000000 -0.207386 0.566856 0.797286 0.000000
131.25000000 231.32800293 216.25000000 -0.000978 -0.000978 -0.999999 0.000000
199.33599854 216.97300720 150.00000000 -0.233569 0.032675 0.971791 0.000000
245.27299500 227.22599792 196.25000000 -0.000978 -0.000978 -0.999999 0.000000
104.18000031 243.63299561 208.75000000 0.243252 -0.079404 -0.966707 0.000000
219.84399414 228.04699707 171.25000000 0.505364 0.757229 -0.413777 0.000000
210.00000000 227.22599792 168.75000000 -0.773712 0.001374 -0.633537 0.000000
132.89100647 228.04699707 216.25000000 -0.033484 -0.274076 -0.961125 0.000000
187.03100586 147.65600586 201.25000000 0.070003 0.437862 -0.896313 0.000000
52.08980179 248.55499268 152.50000000 0.988851 0.141264 -0.047088 0.000000
181.28900146 166.52299500 128.75000000 -0.000978 -0.000978 -0.999999 0.000000
82.85150146 272.34399414 118.75000000 -0.650715 -0.241064 0.720041 0.000000
187.03100586 195.23399353 206.25000000 -0.424697 -0.069645 -0.902653 0.000000
102.53900146 255.11700439 206.25000000 0.070466 -0.079414 -0.994348 0.000000
181.28900146 184.57000732 208.75000000 -0.367451 0.266290 -0.891106 0.000000
250.19500732 235.42999268 186.25000000 0.188396 0.827435 -0.529016 0.000000
70.54679871 277.26501465 111.25000000 -0.001374 -0.633537 0.773712 0.000000
164.88299561 245.68299866 155.00000000 -0.590788 -0.806626 0.017987 0.000000
257.57800293 200.56599426 170.00000000 0.549943 0.272608 -0.789460 0.000000
59.47259903 255.11700439 107.50000000 0.933500 -0.273733 0.231620 0.000000
51.26950073 205.89799500 155.00000000 -0.000978 0.999999 -0.000978 0.000000
250.19500732 222.30499268 176.25000000 0.439229 0.501740 -0.745208 0.000000
270.70300293 172.26600647 166.25000000 -0.000978 -0.000978 -0.999999 0.000000
261.67999268 136.17199707 171.25000000 -0.495489 0.552596 -0.670170 0.000000
151.75799561 250.60499573 137.50000000 -0.354729 -0.714362 0.603203 0.000000
287.92999268 189.49200439 178.75000000 -0.655113 0.513649 -0.554068 0.000000
196.46499634 114.84400177 155.00000000 -0.001052 0.996710 -0.081042 0.000000
148.47599792 223.12500000 146.25000000 -0.364010 0.158815 0.917755 0.000000
185.39100647 248.55499268 158.75000000 0.394328 -0.815796 0.423064 0.000000
183.75000000 236.66000366 137.50000000 -0.490714 -0.383825 0.782227 0.000000
209.17999268 182.10899353 201.25000000 -0.000978 -0.000978 -0.999999 0.000000
216.56199646 167.34399414 136.25000000 0.441164 -0.027989 -0.896990 0.000000
186.21099854 247.73399353 171.25000000 0.807370 -0.465237 -0.362917 0.000000
109.10199738 260.03900146 206.25000000 -0.000978 -0.000978 -0.999999 0.000000
217.38299561 198.51600647 201.25000000 -0.000978 -0.000978 -0.999999 0.000000
168.98399353 234.60899353 198.75000000 -0.335188 -0.390796 -0.857279 0.000000
68.08589935 274.80499268 108.75000000 0.195659 -0.473464 0.858807 0.000000
135.35099792 301.87500000 188.75000000 -0.062675 -0.502794 -0.862131 0.000000
86.95310211 200.15600586 98.75000000 -0.680790 0.226930 0.696440 0.000000
134.53100586 270.70300293 151.25000000 -0.359626 -0.554899 0.750171 0.000000
144.37500000 289.98001099 192.50000000 -0.295021 -0.469848 -0.831989 0.000000
296.13299561 220.66400146 188.75000000 -0.654465 -0.120208 -0.746476 0.000000
105.00000000 259.21899414 206.25000000 0.235948 -0.258286 -0.936812 0.000000
180.46899414 164.06199646 128.75000000 -0.000978 -0.000978 -0.999999 0.000000
119.76599884 256.75799561 133.75000000 -0.187006 -0.564060 0.804279 0.000000
132.07000732 141.91400146 191.25000000 -0.032255 0.612844 -0.789545 0.000000
79.16010284 186.21099854 190.00000000 0.708972 -0.052994 -0.703243 0.000000
77.10929871 232.14799500 198.75000000 0.625945 -0.185182 -0.757562 0.000000
82.03119659 256.75799561 111.25000000 -0.589539 -0.263949 0.763397 0.000000
213.28100586 138.63299561 198.75000000 -0.054467 0.532096 -0.844930 0.000000
270.70300293 198.51600647 173.75000000 0.256313 0.468116 -0.845678 0.000000
94.33589935 144.37500000 176.25000000 0.503699 0.574453 -0.645206 0.000000
196.87500000 226.40600586 201.25000000 -0.000978 -0.000978 -0.999999 0.000000
259.21899414 184.57000732 188.75000000 -0.273509 0.175536 -0.945717 0.000000
213.28100586 127.55899811 120.00000000 0.364043 0.449888 -0.815521 0.000000
155.85899353 122.63700104 180.00000000 0.402122 0.696681 -0.594082 0.000000
197.69500732 153.39799500 203.75000000 -0.000978 -0.000978 -0.999999 0.000000
129.60899353 158.32000732 131.25000000 0.000978 0.000978 0.999999 0.000000
201.79699707 247.73399353 176.25000000 -0.775338 -0.577179 -0.256349 0.000000
136.99200439 120.17600250 167.50000000 -0.388961 0.920672 -0.032741 0.000000
139.45300293 298.59399414 166.25000000 -0.478948 -0.452614 0.752163 0.000000
86.13279724 202.61700439 98.75000000 -0.360898 0.146310 0.921057 0.000000
71.36710358 285.87899780 142.50000000 0.705724 -0.708486 -0.001381 0.000000
209.17999268 186.21099854 133.75000000 0.197946 0.278231 -0.939896 0.000000
196.87500000 147.65600586 203.75000000 0.268680 0.131031 -0.954276 0.000000
164.06199646 214.92199707 213.75000000 -0.621865 -0.275148 -0.733197 0.000000
99.25779724 250.60499573 122.50000000 -0.485411 -0.569393 0.663451 0.000000
191.95300293 207.53900146 146.25000000 -0.518461 0.613033 -0.596145 0.000000
235.01899719 148.47599792 142.50000000 0.283634 0.192317 -0.939450 0.000000
241.17199707 228.04699707 173.75000000 0.140950 0.808606 -0.571217 0.000000
63.16400146 179.64799500 103.75000000 0.709495 0.631920 0.311919 0.000000
