251.63699341 160.83200073 176.25000000 0.000978 0.000978 0.999999 0.000000
198.92399597 126.20300293 125.00000000 -0.242926 0.095390 -0.965343 0.000000
122.35500336 200.07800293 68.75000000 0.573310 0.382754 -0.724441 0.000000
203.15600586 173.14399719 181.25000000 0.105857 -0.156960 -0.981915 0.000000
84.64839935 220.08599854 71.25000000 -0.790634 0.559838 -0.247950 0.000000
103.50199890 221.62500000 57.50000000 0.492981 0.529746 -0.690173 0.000000
180.07000732 165.44900513 123.75000000 0.478312 -0.478312 -0.736502 0.000000
90.03510284 209.69700623 45.00000000 -0.444455 0.574296 -0.687491 0.000000
133.12899780 243.94099426 158.75000000 0.145839 0.626958 0.765280 0.000000
103.88700104 152.36700439 163.75000000 -0.616930 0.055566 0.785054 0.000000
277.80099487 124.66400146 151.25000000 -0.788025 -0.231589 0.570424 0.000000
226.24200439 128.51199341 101.25000000 0.114532 -0.889388 0.442573 0.000000
169.29699707 158.52299500 126.25000000 0.126482 -0.333204 -0.934332 0.000000
116.96900177 215.46899414 71.25000000 0.704883 0.404441 -0.582725 0.000000
140.05499268 195.84599304 75.00000000 0.317041 0.484237 -0.815475 0.000000
150.44299316 116.96900177 157.50000000 0.020933 -0.760566 0.648923 0.000000
184.68699646 111.19699860 165.00000000 -0.280801 -0.904151 0.321966 0.000000
84.26360321 153.13699341 97.50000000 -0.835202 -0.541947 -0.093439 0.000000
85.41790009 241.63299561 111.25000000 -0.641578 0.677677 -0.359349 0.000000
130.05099487 160.06199646 43.75000000 0.423458 0.679193 -0.599483 0.000000
258.56201172 142.36300659 171.25000000 0.000978 0.000978 0.999999 0.000000
202.77099609 136.20700073 147.50000000 0.232883 -0.847815 -0.476420 0.000000
248.55900574 160.83200073 153.75000000 -0.311646 -0.657202 0.686267 0.000000
240.09399414 123.12500000 173.75000000 0.325172 0.295476 0.898308 0.000000
240.86300659 163.91000366 176.25000000 0.216716 -0.495567 -0.841099 0.000000
115.43000031 125.04900360 62.50000000 -0.467854 -0.883724 0.011996 0.000000
156.21499634 111.19699860 122.50000000 -0.273314 -0.958522 -0.080839 0.000000
170.83599854 209.31199646 111.25000000 0.928104 0.147999 -0.341642 0.000000
174.29899597 210.85200500 122.50000000 0.932248 0.185335 -0.310749 0.000000
78.10739899 230.08999634 147.50000000 -0.788052 0.438526 0.432053 0.000000
113.89099884 241.24800110 82.50000000 0.098121 0.771786 -0.628266 0.000000
87.72650146 245.47999573 141.25000000 -0.627914 0.680652 0.377408 0.000000
113.89099884 213.16000366 66.25000000 0.633222 0.333703 -0.698335 0.000000
218.54699707 156.98399353 183.75000000 0.152243 0.030906 0.987860 0.000000
140.05499268 191.61300659 176.25000000 0.000978 0.000978 0.999999 0.000000
143.90199280 213.16000366 86.25000000 0.502806 0.177549 -0.845968 0.000000
141.59399414 220.08599854 88.75000000 0.363694 0.439927 -0.821091 0.000000
141.97799683 174.68400574 67.50000000 0.570300 0.298728 -0.765192 0.000000
120.81600189 170.06599426 46.25000000 0.474345 0.418923 -0.774274 0.000000
141.59399414 237.01600647 161.25000000 0.140329 0.412483 0.900092 0.000000
126.97299957 256.25399780 106.25000000 -0.097387 0.582867 -0.806711 0.000000
210.08200073 106.19499969 136.25000000 -0.174246 -0.981788 0.075707 0.000000
106.96499634 208.54299927 53.75000000 0.720594 0.328720 -0.610481 0.000000
144.67199707 151.59800720 43.75000000 0.568076 0.628760 -0.530990 0.000000
188.53500366 135.43699646 183.75000000 -0.315220 -0.079786 0.945659 0.000000
73.87500000 195.84599304 155.00000000 -0.267106 0.876773 0.399905 0.000000
277.03100586 111.19699860 155.00000000 0.299471 -0.921341 0.247888 0.000000
134.66799927 121.97100067 22.50000000 -0.155759 -0.933174 -0.323923 0.000000
218.54699707 102.73200226 95.00000000 -0.482597 -0.644023 0.593578 0.000000
160.06199646 203.92599487 166.25000000 0.342738 0.522958 0.780414 0.000000
223.16400146 104.27100372 130.00000000 0.011031 -0.999826 0.015043 0.000000
104.65599823 180.83999634 36.25000000 0.841470 0.233657 -0.487167 0.000000
227.78100586 165.44900513 168.75000000 0.305163 -0.909650 0.281802 0.000000
198.53900146 179.30099487 156.25000000 -0.777566 -0.592063 -0.211782 0.000000
136.97700500 121.97100067 22.50000000 0.025263 -0.900174 -0.434796 0.000000
132.74400330 224.70300293 85.00000000 0.490751 0.247683 -0.835354 0.000000
226.24200439 166.21899414 176.25000000 0.206746 -0.952651 -0.222961 0.000000
225.47300720 131.97500610 107.50000000 0.143264 -0.710289 0.689177 0.000000
96.19139862 147.75000000 36.25000000 -0.812326 -0.574005 -0.103176 0.000000
211.23599243 167.75799561 140.00000000 0.648216 0.648216 -0.399540 0.000000
66.17970276 185.45700073 136.25000000 -0.916105 -0.228667 0.329338 0.000000
150.82800293 177.76199341 178.75000000 -0.058079 0.318790 0.946044 0.000000
152.36700439 164.67999268 181.25000000 -0.485047 0.085762 0.870273 0.000000
77.72260284 164.29499817 90.00000000 -0.872350 -0.485254 -0.059447 0.000000
178.53100586 174.29899597 145.00000000 0.788719 0.612501 0.052581 0.000000
176.22300720 208.92799377 130.00000000 0.997512 0.056786 0.041786 0.000000
131.58999634 213.16000366 78.75000000 0.466666 0.318967 -0.824914 0.000000
220.47099304 163.14100647 145.00000000 0.501178 0.773663 -0.387642 0.000000
254.71499634 105.04100037 112.50000000 0.120868 -0.992445 -0.021069 0.000000
77.72260284 199.30900574 158.75000000 -0.640856 -0.004135 0.767650 0.000000
139.28500366 168.52699280 58.75000000 0.647304 0.660481 -0.380477 0.000000
107.73400116 192.38299561 48.75000000 0.899006 0.255383 -0.355764 0.000000
116.96900177 249.32800293 153.75000000 -0.177924 0.603724 0.777085 0.000000
86.18750000 209.31199646 163.75000000 -0.419214 0.217754 0.881387 0.000000
98.50000000 225.08799744 60.00000000 -0.510439 0.764843 -0.393022 0.000000
81.57029724 237.78500366 141.25000000 -0.690783 0.690783 0.213628 0.000000
143.90199280 114.27500153 145.00000000 0.163482 -0.986530 0.005637 0.000000
110.04299927 173.91400146 38.75000000 0.544370 -0.001351 -0.838844 0.000000
245.47999573 140.82400513 126.25000000 -0.223479 -0.843747 0.488005 0.000000
113.12100220 230.85899353 71.25000000 0.650200 0.276375 -0.707712 0.000000
75.79879761 195.46099854 75.00000000 -0.999999 0.000978 0.000978 0.000000
103.88700104 132.35899353 151.25000000 -0.552365 -0.439570 0.708288 0.000000
130.05099487 251.63699341 98.75000000 0.141352 0.861224 -0.488173 0.000000
125.04900360 121.58599854 155.00000000 -0.006439 -0.390178 0.920717 0.000000
166.21899414 111.96700287 65.00000000 -0.246104 -0.968500 -0.037956 0.000000
140.05499268 115.04499817 112.50000000 -0.300720 -0.953712 0.001227 0.000000
144.67199707 192.38299561 76.25000000 0.499409 0.506090 -0.703181 0.000000
88.49610138 216.62300110 57.50000000 -0.668839 0.615730 -0.416572 0.000000
186.99600220 125.43399811 78.75000000 0.752189 0.386700 -0.533549 0.000000
137.74600220 220.85499573 168.75000000 0.074204 0.101603 0.992054 0.000000
130.43600464 245.47999573 157.50000000 0.133541 0.709718 0.691713 0.000000
188.53500366 168.91200256 135.00000000 0.450034 0.845940 -0.286104 0.000000
251.63699341 105.04100037 100.00000000 0.230017 -0.969086 -0.089241 0.000000
160.06199646 152.36700439 178.75000000 -0.251670 -0.564303 0.786273 0.000000
84.64839935 215.46899414 63.75000000 -0.855469 0.423881 -0.297487 0.000000
189.30499268 116.19899750 71.25000000 -0.703926 -0.537513 0.464292 0.000000
76.56829834 166.98800659 85.00000000 -0.866289 -0.495222 -0.065565 0.000000
201.61700439 119.27700043 183.75000000 -0.138113 -0.422882 0.895598 0.000000
163.91000366 117.73799896 163.75000000 -0.264091 -0.593020 0.760647 0.000000
71.18160248 173.91400146 137.50000000 -0.854300 -0.443254 0.271474 0.000000
232.39799500 143.90199280 126.25000000 -0.169791 -0.860767 0.479845 0.000000
166.21899414 121.58599854 168.75000000 -0.207767 -0.455891 0.865446 0.000000
184.68699646 125.43399811 176.25000000 -0.522841 -0.453129 0.722019 0.000000
150.82800293 120.81600189 161.25000000 -0.098237 -0.637809 0.763904 0.000000
123.89399719 180.07000732 56.25000000 0.459676 0.476152 -0.749651 0.000000
119.66200256 122.35500336 100.00000000 -0.303258 -0.946852 -0.107266 0.000000
129.28100586 118.89299774 82.50000000 -0.328951 -0.944326 -0.006254 0.000000
106.19499969 256.25399780 141.25000000 -0.321672 0.806557 0.495977 0.000000
157.36900330 243.17199707 115.00000000 0.383480 0.692896 -0.610605 0.000000
122.35500336 229.32000732 78.75000000 0.473843 0.301821 -0.827271 0.000000
106.19499969 153.13699341 163.75000000 -0.468502 -0.429324 0.772131 0.000000
270.87500000 118.50800323 166.25000000 0.279613 -0.420183 0.863286 0.000000
225.47300720 163.52499390 155.00000000 0.542748 0.799262 -0.258079 0.000000
75.02929688 221.62500000 107.50000000 -0.901778 0.273042 -0.335030 0.000000
166.21899414 128.51199341 171.25000000 -0.264091 -0.322454 0.908999 0.000000
97.34570313 230.08999634 70.00000000 -0.454451 0.773707 -0.441420 0.000000
80.03119659 172.37500000 156.25000000 -0.711793 -0.294036 0.637882 0.000000
147.75000000 125.43399811 21.25000000 0.420737 -0.379457 -0.824010 0.000000
160.06199646 124.66400146 166.25000000 -0.378615 -0.837352 0.394325 0.000000
179.30099487 145.05700684 132.50000000 0.551544 0.816045 -0.172827 0.000000
142.36300659 202.38699341 78.75000000 0.432202 0.290698 -0.853637 0.000000
176.99200439 110.42800140 152.50000000 -0.218811 -0.970104 0.104979 0.000000
263.17999268 147.75000000 171.25000000 0.000978 0.000978 0.999999 0.000000
166.60299683 238.55499268 125.00000000 0.795706 0.563947 -0.220944 0.000000
75.79879761 199.30900574 77.50000000 -0.999999 0.000978 0.000978 0.000000
218.54699707 166.21899414 173.75000000 -0.631656 -0.738238 -0.236675 0.000000
121.58599854 126.20300293 21.25000000 -0.261745 -0.936403 -0.233751 0.000000
230.08999634 123.89399719 98.75000000 -0.323201 -0.674011 0.664267 0.000000
156.98399353 151.98199463 65.00000000 0.825887 0.372521 -0.423247 0.000000
170.06599426 170.06599426 106.25000000 0.626932 -0.778406 0.032258 0.000000
128.51199341 155.06100464 35.00000000 0.507343 0.681480 -0.527435 0.000000
140.05499268 257.40798950 145.00000000 0.223033 0.813685 0.536817 0.000000
188.53500366 106.58000183 97.50000000 0.238066 -0.953609 0.184266 0.000000
146.97999573 160.06199646 178.75000000 -0.175733 -0.728909 0.661672 0.000000
193.92199707 136.97700500 183.75000000 -0.066646 0.020100 0.997574 0.000000
122.35500336 178.53100586 176.25000000 0.000978 0.000978 0.999999 0.000000
144.67199707 116.96900177 156.25000000 -0.159681 -0.698034 0.698034 0.000000
151.59800720 125.81800079 22.50000000 0.298841 0.098736 -0.949181 0.000000
150.82800293 113.50599670 147.50000000 -0.069190 -0.992483 0.100950 0.000000
238.16999817 146.21099854 132.50000000 0.124408 0.931007 -0.343146 0.000000
196.61500549 130.05099487 140.00000000 -0.070327 0.793693 0.604240 0.000000
113.89099884 173.14399719 41.25000000 0.661324 0.347808 -0.664590 0.000000
109.27300262 126.20300293 151.25000000 -0.410717 -0.502351 0.760890 0.000000
107.73400116 222.39399719 61.25000000 0.671529 0.333325 -0.661773 0.000000
125.43399811 153.90600586 31.25000000 0.480515 0.671381 -0.564228 0.000000
173.14399719 174.68400574 103.75000000 0.953427 -0.203631 -0.222511 0.000000
129.28100586 255.48399353 148.75000000 -0.049877 0.671197 0.739599 0.000000
135.43699646 248.55900574 98.75000000 0.325827 0.611129 -0.721359 0.000000
140.82400513 220.85499573 168.75000000 0.230229 0.283902 0.930803 0.000000
149.28900146 254.33000183 122.50000000 0.626131 0.768907 -0.129391 0.000000
133.12899780 117.35299683 90.00000000 -0.288534 -0.957238 -0.021052 0.000000
126.20300293 251.63699341 98.75000000 0.112365 0.821581 -0.558909 0.000000
147.75000000 240.09399414 158.75000000 0.341174 0.683981 0.644803 0.000000
277.03100586 155.44500732 161.25000000 0.876085 0.437301 0.203086 0.000000
166.98800659 156.98399353 126.25000000 -0.008222 -0.217296 -0.976071 0.000000
146.97999573 127.74199677 21.25000000 0.436838 0.515963 -0.736855 0.000000
74.64450073 176.22300720 151.25000000 -0.636197 -0.481764 0.602625 0.000000
123.89399719 208.54299927 173.75000000 0.056342 0.264182 0.962826 0.000000
188.14999390 140.05499268 125.00000000 -0.021960 -0.179147 0.983577 0.000000
93.88279724 250.48199463 115.00000000 -0.590048 0.749953 -0.299022 0.000000
128.51199341 114.27500153 132.50000000 -0.027035 -0.995977 -0.085431 0.000000
165.06399536 204.69500732 97.50000000 0.830494 0.318696 -0.456850 0.000000
218.54699707 106.58000183 152.50000000 0.054226 -0.994886 0.085213 0.000000
144.67199707 154.67599487 173.75000000 -0.185291 -0.614064 0.767198 0.000000
210.08200073 105.81099701 115.00000000 -0.140973 -0.989105 -0.042407 0.000000
99.26950073 181.60899353 28.75000000 0.698823 0.165951 -0.695778 0.000000
148.51899719 116.58399963 50.00000000 -0.363728 -0.931498 0.003802 0.000000
132.35899353 119.66200256 65.00000000 -0.705724 -0.708486 -0.001381 0.000000
91.57420349 204.69500732 168.75000000 -0.079083 -0.104297 0.991397 0.000000
120.43199921 201.61700439 67.50000000 0.624670 0.399325 -0.671064 0.000000
71.95110321 193.92199707 95.00000000 -0.984742 0.109149 -0.135537 0.000000
270.87500000 115.81400299 112.50000000 0.959206 0.099406 -0.264653 0.000000
85.41790009 153.52099609 77.50000000 -0.690783 -0.690783 -0.213628 0.000000
155.44500732 240.09399414 156.25000000 0.305117 0.657051 0.689339 0.000000
277.03100586 139.28500366 168.75000000 0.728898 0.381648 0.568377 0.000000
84.26360321 211.62100220 162.50000000 -0.326307 0.193524 0.925242 0.000000
157.75399780 223.93400574 98.75000000 0.862089 0.144411 -0.485745 0.000000
108.50399780 195.46099854 173.75000000 0.000978 0.000978 0.999999 0.000000
270.48999023 141.59399414 170.00000000 0.431084 -0.399033 0.809283 0.000000
115.43000031 218.93200684 170.00000000 0.028489 0.278697 0.959956 0.000000
158.90800476 234.70700073 107.50000000 0.690967 0.344667 -0.635428 0.000000
273.56799316 153.13699341 157.50000000 0.215783 -0.248768 0.944220 0.000000
165.44900513 145.05700684 95.00000000 0.944064 -0.243941 -0.221890 0.000000
125.43399811 122.73999786 42.50000000 -0.261194 -0.964314 -0.043326 0.000000
165.83399963 196.22999573 92.50000000 0.723980 0.379228 -0.576229 0.000000
120.43199921 117.73799896 122.50000000 -0.305163 -0.909650 -0.281802 0.000000
244.71099854 103.88700104 103.75000000 0.216690 -0.975705 -0.032324 0.000000
280.49398804 146.21099854 162.50000000 0.957033 -0.275099 0.091700 0.000000
257.02301025 153.52099609 175.00000000 0.230734 -0.374759 0.897952 0.000000
129.28100586 228.55099487 83.75000000 0.415968 0.046813 -0.908174 0.000000
89.26560211 169.29699707 163.75000000 -0.499383 -0.283349 0.818737 0.000000
167.75799561 112.35199738 56.25000000 -0.000978 -0.999999 -0.000978 0.000000
245.47999573 168.52699280 171.25000000 0.006924 -0.999964 0.004945 0.000000
151.59800720 186.22700500 176.25000000 0.154646 0.209227 0.965561 0.000000
111.58200073 130.82000732 21.25000000 -0.618519 -0.767450 -0.168687 0.000000
143.13299561 247.40400696 105.00000000 0.340543 0.656645 -0.672939 0.000000
171.60499573 145.82600403 120.00000000 0.798330 0.599103 -0.061191 0.000000
227.01199341 141.59399414 181.25000000 0.081130 0.029207 0.996276 0.000000
220.08599854 122.35500336 93.75000000 0.034262 -0.505704 0.862026 0.000000
83.49410248 158.52299500 67.50000000 -0.793779 -0.595704 -0.122688 0.000000
148.90400696 256.25399780 140.00000000 0.559697 0.811786 0.166559 0.000000
260.48599243 140.05499268 140.00000000 -0.675382 -0.629146 0.384753 0.000000
267.79699707 137.74600220 146.25000000 -0.356274 -0.471304 0.806809 0.000000
110.04299927 250.09800720 151.25000000 0.000978 0.000978 0.999999 0.000000
191.99800110 120.81600189 180.00000000 -0.623465 -0.304483 0.720126 0.000000
110.81199646 131.20500183 22.50000000 -0.614064 -0.767198 -0.185291 0.000000
81.57029724 198.15400696 50.00000000 -0.532898 0.532898 -0.657297 0.000000
155.44500732 154.29100037 117.50000000 0.471413 0.711284 -0.521387 0.000000
92.34369659 197.76899719 168.75000000 -0.387064 -0.009001 0.922009 0.000000
186.61099243 128.51199341 180.00000000 -0.522262 -0.430001 0.736439 0.000000
143.13299561 131.58999634 21.25000000 0.496379 0.526462 -0.690251 0.000000
274.72299194 109.65799713 137.50000000 0.416132 -0.909229 0.011740 0.000000
164.67999268 221.62500000 158.75000000 0.592620 0.372645 0.714099 0.000000
228.93499756 165.44900513 167.50000000 0.305163 -0.909650 0.281802 0.000000
115.04499817 205.46499634 65.00000000 0.590008 0.430457 -0.683080 0.000000
114.66000366 227.78100586 71.25000000 0.625087 0.199102 -0.754735 0.000000
88.11129761 223.93400574 70.00000000 -0.705048 0.620377 -0.343568 0.000000
252.40600586 119.66200256 102.50000000 -0.234263 -0.798978 0.553855 0.000000
191.61300659 167.75799561 178.75000000 0.132453 -0.035094 -0.990568 0.000000
149.28900146 130.05099487 166.25000000 -0.533386 -0.199070 0.822114 0.000000
96.96089935 217.77699280 166.25000000 -0.295978 0.328699 0.896858 0.000000
144.67199707 155.83000183 175.00000000 -0.177136 -0.567742 0.803923 0.000000
143.51800537 132.35899353 22.50000000 0.365289 0.764672 -0.530887 0.000000
110.81199646 125.04900360 100.00000000 0.237033 0.946761 0.217851 0.000000
125.43399811 155.83000183 32.50000000 0.573235 0.542798 -0.613818 0.000000
95.80660248 230.85899353 160.00000000 -0.394758 0.498727 0.771646 0.000000
216.23800659 145.82600403 130.00000000 0.376611 0.073714 -0.923434 0.000000
65.02539825 197.00000000 137.50000000 -0.996703 0.079949 0.013858 0.000000
85.03320313 180.07000732 30.00000000 -0.908562 0.071979 -0.411501 0.000000
65.02539825 195.46099854 127.50000000 -0.690783 0.690783 -0.213628 0.000000
227.78100586 130.43600464 105.00000000 0.142302 -0.843545 0.517863 0.000000
220.85499573 146.21099854 181.25000000 0.088142 -0.029381 0.995675 0.000000
128.51199341 239.32400513 161.25000000 0.001287 0.397643 0.917539 0.000000
84.64839935 242.01800537 112.50000000 -0.689048 0.669863 -0.276578 0.000000
130.05099487 114.66000366 151.25000000 -0.406554 -0.827346 0.387571 0.000000
100.03900146 245.47999573 151.25000000 -0.216455 0.541904 0.812088 0.000000
93.11329651 249.32800293 113.75000000 -0.587102 0.753475 -0.295951 0.000000
212.77499390 173.91400146 170.00000000 -0.690783 -0.690783 -0.213628 0.000000
152.36700439 157.75399780 113.75000000 0.583775 0.549933 0.597312 0.000000
163.14100647 166.98800659 116.25000000 0.584971 -0.797416 -0.148113 0.000000
193.15199280 142.36300659 146.25000000 0.770592 0.298345 -0.563186 0.000000
123.12500000 240.86300659 83.75000000 0.248352 0.688109 -0.681782 0.000000
162.37100220 110.42800140 92.50000000 -0.216924 -0.973060 -0.078093 0.000000
250.86700439 126.97299957 171.25000000 0.261084 0.093888 0.960739 0.000000
124.66400146 118.50800323 153.75000000 -0.006439 -0.390178 0.920717 0.000000
152.36700439 163.91000366 71.25000000 0.664309 0.384079 -0.641231 0.000000
73.49019623 229.32000732 140.00000000 -0.770726 0.631386 0.085636 0.000000
130.05099487 231.62899780 83.75000000 0.565955 0.280599 -0.775216 0.000000
141.20899963 214.69900513 85.00000000 0.490571 0.163524 -0.855921 0.000000
259.71701050 113.12100220 167.50000000 0.401332 -0.711827 0.576398 0.000000
218.54699707 117.73799896 183.75000000 0.419820 0.027811 0.907181 0.000000
224.31799316 134.66799927 110.00000000 0.202480 -0.737275 0.644536 0.000000
100.80899811 137.36099243 62.50000000 -0.705724 -0.708486 -0.001381 0.000000
95.03710175 133.89799500 112.50000000 -0.702968 -0.702968 -0.108035 0.000000
73.10540009 221.24000549 147.50000000 -0.654910 0.424942 0.624914 0.000000
103.11699677 175.45300293 171.25000000 -0.376603 -0.330488 0.865418 0.000000
158.52299500 149.67399597 175.00000000 -0.308002 -0.544191 0.780379 0.000000
178.91600037 173.14399719 132.50000000 0.596324 0.795587 -0.106957 0.000000
149.28900146 199.30900574 81.25000000 0.441130 0.399423 -0.803658 0.000000
119.27700043 202.38699341 66.25000000 0.575045 0.400389 -0.713451 0.000000
145.44099426 113.50599670 102.50000000 -0.447499 -0.893653 -0.033596 0.000000
196.22999573 165.44900513 178.75000000 0.073886 -0.098894 -0.992351 0.000000
164.67999268 154.29100037 112.50000000 0.749180 0.585548 0.309618 0.000000
91.57420349 252.79100037 130.00000000 -0.698034 0.698034 0.159681 0.000000
243.17199707 139.28500366 121.25000000 -0.376983 -0.831256 0.408530 0.000000
166.98800659 157.75399780 183.75000000 -0.237686 -0.351426 0.905541 0.000000
147.75000000 194.69099426 173.75000000 0.118032 0.335102 0.934759 0.000000
168.52699280 181.60899353 173.75000000 0.702669 0.411682 0.580322 0.000000
95.03710175 246.25000000 102.50000000 -0.576233 0.777208 -0.252789 0.000000
236.24600220 115.43000031 93.75000000 0.332784 -0.624984 0.706151 0.000000
98.11519623 146.21099854 30.00000000 -0.853048 -0.496507 -0.160591 0.000000
150.05900574 113.50599670 90.00000000 -0.242814 -0.970072 0.001184 0.000000
152.36700439 245.47999573 151.25000000 0.143280 0.701318 0.698301 0.000000
228.55099487 133.12899780 181.25000000 0.362371 -0.275879 0.890269 0.000000
149.67399597 237.78500366 100.00000000 0.540969 0.551081 -0.635344 0.000000
110.81199646 162.37100220 168.75000000 0.123214 -0.639822 0.758582 0.000000
131.58999634 233.55299377 87.50000000 0.756438 0.424984 -0.497182 0.000000
237.78500366 111.96700287 87.50000000 0.504891 -0.834366 0.221176 0.000000
138.51600647 114.66000366 151.25000000 0.001221 -0.955752 0.294171 0.000000
133.12899780 199.30900574 73.75000000 0.515834 0.411030 -0.751644 0.000000
145.82600403 243.17199707 157.50000000 0.554237 0.638468 0.534022 0.000000
66.17970276 199.30900574 121.25000000 -0.955752 -0.001221 -0.294171 0.000000
172.75999451 218.54699707 122.50000000 0.871868 0.316071 -0.374094 0.000000
224.70300293 104.27100372 132.50000000 -0.003176 -0.996311 0.085761 0.000000
100.03900146 193.15199280 36.25000000 0.770354 0.368148 -0.520597 0.000000
79.26170349 159.29299927 143.75000000 -0.828794 -0.448209 0.334977 0.000000
175.83799744 177.76199341 140.00000000 0.980491 0.196558 0.001149 0.000000
108.50399780 244.32600403 87.50000000 -0.240792 0.832803 -0.498455 0.000000
73.10540009 213.92999268 151.25000000 -0.833656 0.357731 0.420768 0.000000
95.42179871 249.71299744 110.00000000 -0.588875 0.754845 -0.288852 0.000000
104.65599823 173.14399719 171.25000000 -0.340781 -0.349950 0.872584 0.000000
257.02301025 121.58599854 171.25000000 0.000978 0.000978 0.999999 0.000000
257.02301025 129.28100586 171.25000000 0.000978 0.000978 0.999999 0.000000
215.85299683 169.29699707 175.00000000 -0.716040 -0.594789 -0.365394 0.000000
230.85899353 129.66600037 102.50000000 0.063369 -0.837883 0.542159 0.000000
99.65429688 153.13699341 160.00000000 -0.615174 -0.457609 0.641993 0.000000
186.99600220 108.88899994 157.50000000 -0.223786 -0.945940 0.234769 0.000000
170.06599426 169.68200684 115.00000000 0.366964 -0.847921 -0.382580 0.000000
261.64099121 161.98599243 160.00000000 -0.426779 -0.569592 0.702442 0.000000
158.52299500 115.04499817 50.00000000 -0.154152 -0.972049 -0.177084 0.000000
101.57800293 253.94500732 111.25000000 -0.469848 0.831989 -0.295021 0.000000
158.52299500 237.78500366 108.75000000 0.825588 0.366048 -0.429433 0.000000
223.16400146 121.20099640 95.00000000 0.004058 -0.534243 0.845321 0.000000
108.50399780 152.36700439 166.25000000 -0.470515 -0.424929 0.773338 0.000000
115.43000031 198.53900146 173.75000000 0.000978 0.000978 0.999999 0.000000
245.09599304 136.20700073 117.50000000 -0.295091 -0.800060 0.522327 0.000000
151.21299744 237.78500366 160.00000000 0.370128 0.630041 0.682681 0.000000
111.58200073 243.17199707 83.75000000 0.006842 0.811489 -0.584327 0.000000
200.46299744 123.12500000 112.50000000 0.977679 0.097398 0.186166 0.000000
121.58599854 193.92199707 176.25000000 -0.000978 -0.000978 0.999999 0.000000
121.20099640 122.35500336 82.50000000 -0.444950 -0.893982 -0.053067 0.000000
217.00799561 129.66600037 105.00000000 0.004058 -0.840071 0.542461 0.000000
120.04699707 193.92199707 176.25000000 0.585546 0.800886 0.125369 0.000000
80.80079651 227.39599609 152.50000000 -0.674756 0.402864 0.618388 0.000000
263.94900513 146.21099854 171.25000000 0.000978 0.000978 0.999999 0.000000
164.67999268 206.23399353 163.75000000 0.557043 0.287250 0.779225 0.000000
126.97299957 139.28500366 21.25000000 0.372164 0.582018 -0.723014 0.000000
101.57800293 131.58999634 88.75000000 -0.619263 -0.767644 -0.165036 0.000000
129.28100586 114.27500153 135.00000000 -0.027035 -0.995977 -0.085431 0.000000
111.58200073 127.35700226 52.50000000 -0.440278 -0.897744 0.014544 0.000000
159.29299927 227.39599609 102.50000000 0.820418 0.192593 -0.538352 0.000000
161.60200500 233.93699646 156.25000000 0.581367 0.444771 0.681316 0.000000
279.33999634 148.51899719 166.25000000 0.698673 -0.058821 0.713019 0.000000
139.66999817 115.43000031 115.00000000 -0.333605 -0.942466 0.021564 0.000000
172.37500000 227.01199341 126.25000000 0.991596 0.127984 -0.018919 0.000000
167.37300110 166.98800659 105.00000000 0.790055 -0.574445 0.214069 0.000000
82.33979797 149.28900146 126.25000000 -0.903886 -0.409068 -0.125110 0.000000
175.45300293 176.22300720 156.25000000 0.770443 0.534626 0.347265 0.000000
248.55900574 160.06199646 176.25000000 0.000978 0.000978 0.999999 0.000000
82.72460175 216.23800659 70.00000000 -0.836569 0.501332 -0.220952 0.000000
270.10501099 127.74199677 141.25000000 -0.625380 -0.438600 0.645392 0.000000
161.60200500 151.59800720 76.25000000 0.902725 0.226046 -0.366048 0.000000
162.37100220 203.15600586 166.25000000 0.408846 0.450862 0.793453 0.000000
86.18750000 243.17199707 111.25000000 -0.592692 0.723313 -0.354309 0.000000
123.12500000 251.25199890 97.50000000 0.037819 0.802610 -0.595304 0.000000
118.12300110 118.50800323 150.00000000 0.001374 -0.630540 0.776155 0.000000
200.07800293 106.58000183 140.00000000 -0.163698 -0.985673 0.040634 0.000000
153.90600586 116.58399963 45.00000000 -0.478312 -0.478312 -0.736502 0.000000
159.67799377 193.15199280 172.50000000 0.507897 0.406644 0.759395 0.000000
160.83200073 148.51899719 176.25000000 -0.273203 -0.560619 0.781708 0.000000
240.09399414 128.51199341 106.25000000 -0.208325 -0.591025 0.779289 0.000000
99.26950073 143.13299561 153.75000000 -0.470964 -0.305110 0.827708 0.000000
124.66400146 126.20300293 158.75000000 -0.426810 -0.401233 0.810460 0.000000
167.75799561 161.98599243 125.00000000 0.232040 -0.580879 -0.780216 0.000000
103.11699677 198.53900146 171.25000000 -0.316068 0.105356 0.942869 0.000000
120.04699707 237.01600647 161.25000000 0.000978 0.000978 0.999999 0.000000
98.50000000 248.94299316 105.00000000 -0.460201 0.844984 -0.272427 0.000000
166.98800659 217.77699280 108.75000000 0.801090 0.336044 -0.495306 0.000000
151.59800720 202.38699341 83.75000000 0.349109 0.576436 -0.738813 0.000000
163.52499390 243.94099426 130.00000000 0.690783 0.690783 -0.213628 0.000000
99.26950073 128.89599609 117.50000000 -0.702968 -0.702968 -0.108035 0.000000
198.53900146 148.51899719 183.75000000 0.000978 0.000978 0.999999 0.000000
273.18399048 108.88899994 130.00000000 0.732733 -0.670310 -0.117416 0.000000
230.08999634 116.58399963 177.50000000 0.253686 -0.293817 0.921583 0.000000
95.42179871 129.66600037 135.00000000 -0.746769 -0.650991 -0.136184 0.000000
136.20700073 170.83599854 178.75000000 0.003939 0.442477 0.896771 0.000000
121.58599854 163.91000366 176.25000000 -0.798639 0.163939 0.579051 0.000000
178.53100586 172.37500000 126.25000000 0.846591 0.490449 -0.206743 0.000000
267.79699707 156.60000610 157.50000000 -0.426963 -0.573160 0.699421 0.000000
78.10739899 196.22999573 65.00000000 -0.987585 0.090636 -0.128304 0.000000
114.66000366 228.55099487 166.25000000 -0.365008 0.527234 0.767329 0.000000
104.65599823 132.35899353 71.25000000 -0.633648 -0.750252 -0.188714 0.000000
235.09199524 126.20300293 177.50000000 0.275099 -0.091700 0.957033 0.000000
271.64401245 117.35299683 120.00000000 -0.473350 -0.879859 0.042288 0.000000
91.18939972 217.77699280 55.00000000 -0.607910 0.624750 -0.490033 0.000000
166.21899414 123.89399719 56.25000000 0.517038 0.806202 -0.287593 0.000000
154.29100037 130.82000732 32.50000000 0.591689 0.520888 -0.615289 0.000000
139.28500366 255.86900330 112.50000000 0.489699 0.817215 -0.303897 0.000000
126.97299957 253.55999756 150.00000000 -0.012516 0.677244 0.735652 0.000000
267.79699707 160.06199646 171.25000000 0.330909 0.563353 0.757056 0.000000
253.94500732 154.67599487 151.25000000 -0.509081 -0.556125 0.656933 0.000000
103.50199890 201.61700439 45.00000000 0.795648 0.306507 -0.522492 0.000000
106.96499634 259.71701050 132.50000000 -0.399120 0.867055 0.298193 0.000000
69.64260101 197.76899719 105.00000000 -0.963340 0.035862 -0.265877 0.000000
207.00399780 161.60200500 181.25000000 -0.088993 0.403892 0.910468 0.000000
237.01600647 149.28900146 178.75000000 0.000978 0.000978 0.999999 0.000000
104.65599823 242.78700256 87.50000000 -0.356222 0.892791 -0.275737 0.000000
123.12500000 115.81400299 127.50000000 -0.034987 -0.973591 -0.225603 0.000000
100.80899811 256.25399780 136.25000000 -0.350909 0.884049 0.308739 0.000000
128.51199341 244.71099854 91.25000000 0.314751 0.711821 -0.627887 0.000000
197.76899719 140.05499268 136.25000000 -0.708110 0.531499 -0.464853 0.000000
81.57029724 166.21899414 53.75000000 -0.889504 -0.354307 -0.288528 0.000000
76.95310211 210.85200500 156.25000000 -0.516311 0.316141 0.795913 0.000000
217.77699280 142.36300659 123.75000000 0.085640 0.782371 -0.616897 0.000000
240.09399414 116.96900177 173.75000000 0.316653 -0.383961 0.867355 0.000000
99.26950073 229.70500183 162.50000000 -0.324145 0.572495 0.753113 0.000000
121.58599854 164.67999268 43.75000000 0.626144 0.585638 -0.514754 0.000000
170.83599854 137.74600220 173.75000000 -0.401345 -0.401345 0.823313 0.000000
126.20300293 142.74800110 22.50000000 0.321160 0.601974 -0.731084 0.000000
227.78100586 146.21099854 181.25000000 0.302835 0.008652 0.953004 0.000000
101.57800293 143.51800537 22.50000000 -0.814654 -0.579946 -0.001365 0.000000
151.59800720 146.21099854 43.75000000 0.616059 0.558673 -0.555297 0.000000
265.87298584 114.66000366 102.50000000 -0.685712 -0.643364 0.340413 0.000000
83.49410248 153.13699341 102.50000000 -0.820562 -0.568299 -0.060940 0.000000
253.17599487 111.58200073 168.75000000 0.340719 -0.757332 0.557099 0.000000
160.44700623 127.74199677 55.00000000 0.713178 0.642977 -0.279208 0.000000
137.74600220 247.01899719 98.75000000 0.484755 0.655846 -0.578687 0.000000
113.50599670 203.92599487 62.50000000 0.556803 0.597421 -0.577112 0.000000
163.91000366 121.58599854 166.25000000 -0.341850 -0.472229 0.812489 0.000000
162.37100220 112.35199738 73.75000000 -0.446689 -0.894688 -0.001310 0.000000
193.15199280 108.11900330 155.00000000 -0.070878 -0.988806 0.131299 0.000000
110.81199646 168.91200256 35.00000000 0.705290 0.579758 -0.407978 0.000000
230.08999634 104.27100372 132.50000000 0.032612 -0.998346 0.047340 0.000000
240.09399414 106.19499969 148.75000000 0.047564 -0.987240 0.151972 0.000000
123.12500000 203.92599487 71.25000000 0.523632 0.371243 -0.766804 0.000000
154.67599487 136.20700073 168.75000000 -0.287729 -0.323141 0.901550 0.000000
231.62899780 105.04100037 140.00000000 0.033735 -0.995726 0.085970 0.000000
180.83999634 105.81099701 102.50000000 0.089562 -0.989833 0.110498 0.000000
154.67599487 134.66799927 36.25000000 0.597197 0.499627 -0.627478 0.000000
100.80899811 145.05700684 22.50000000 -0.814654 -0.579946 -0.001365 0.000000
146.21099854 242.78700256 157.50000000 0.554237 0.638468 0.534022 0.000000
84.64839935 166.21899414 43.75000000 -0.896224 -0.343329 -0.280906 0.000000
226.24200439 116.19899750 178.75000000 0.362760 -0.378329 0.851629 0.000000
257.02301025 109.65799713 162.50000000 0.212614 -0.938004 0.273758 0.000000
146.97999573 228.55099487 93.75000000 -0.494420 -0.776482 -0.390673 0.000000
120.81600189 239.32400513 81.25000000 0.339046 0.452587 -0.824750 0.000000
103.11699677 216.23800659 53.75000000 0.601629 0.470913 -0.645201 0.000000
65.41010284 195.46099854 126.25000000 -0.994035 -0.003238 -0.109009 0.000000
230.85899353 121.58599854 178.75000000 0.100313 -0.119196 0.987790 0.000000
149.28900146 112.73600006 127.50000000 -0.195544 -0.975231 -0.103377 0.000000
86.95700073 213.92999268 56.25000000 -0.753777 0.538877 -0.376074 0.000000
99.65429688 146.21099854 22.50000000 -0.814654 -0.579946 -0.001365 0.000000
217.77699280 150.05900574 131.25000000 0.858302 -0.198529 -0.473185 0.000000
83.49410248 180.07000732 162.50000000 -0.582741 -0.207573 0.785701 0.000000
74.25969696 186.22700500 77.50000000 -0.989446 0.058745 -0.132464 0.000000
190.07400513 171.60499573 156.25000000 -0.365794 0.929564 -0.045888 0.000000
78.10739899 172.37500000 60.00000000 -0.916265 -0.204409 -0.344493 0.000000
197.76899719 176.99200439 178.75000000 0.245890 -0.514977 -0.821180 0.000000
164.67999268 244.32600403 137.50000000 0.727224 0.684362 -0.052863 0.000000
240.09399414 135.43699646 113.75000000 -0.318885 -0.861143 0.395910 0.000000
190.84399414 161.60200500 123.75000000 -0.001351 -0.544370 -0.838844 0.000000
222.39399719 129.28100586 181.25000000 0.408434 0.103839 0.906862 0.000000
91.18939972 252.40600586 127.50000000 -0.708486 0.705724 0.001381 0.000000
277.80099487 141.59399414 166.25000000 0.744492 0.348727 0.569317 0.000000
155.44500732 111.96700287 132.50000000 -0.165244 -0.985683 0.033511 0.000000
230.85899353 134.66799927 178.75000000 0.403860 -0.003871 0.914813 0.000000
215.85299683 170.06599426 152.50000000 0.497166 0.789995 -0.358796 0.000000
247.78900146 163.91000366 156.25000000 -0.295118 -0.879299 0.373816 0.000000
130.82000732 216.23800659 81.25000000 0.497767 0.296776 -0.814956 0.000000
235.47599792 156.21499634 141.25000000 -0.286618 -0.546316 0.787012 0.000000
156.98399353 158.52299500 111.25000000 0.430435 0.235464 0.871368 0.000000
118.50800323 227.01199341 73.75000000 0.652446 0.213330 -0.727189 0.000000
76.18360138 209.31199646 156.25000000 -0.419218 0.258795 0.870219 0.000000
279.33999634 144.67199707 156.25000000 -0.675974 -0.455657 0.579168 0.000000
186.99600220 107.73400116 136.25000000 -0.129610 -0.991461 0.014401 0.000000
141.20899963 258.56201172 142.50000000 0.184891 0.889515 0.417825 0.000000
174.68400574 177.76199341 153.75000000 0.738949 0.590189 0.325008 0.000000
126.20300293 120.43199921 67.50000000 -0.169836 -0.978108 -0.120249 0.000000
199.30900574 118.50800323 116.25000000 0.291051 -0.932207 0.215125 0.000000
112.35199738 125.43399811 151.25000000 -0.341659 -0.413424 0.844008 0.000000
166.60299683 230.08999634 115.00000000 0.798118 0.407927 -0.443399 0.000000
118.50800323 148.51899719 21.25000000 0.493642 0.614946 -0.614946 0.000000
118.50800323 246.63499451 90.00000000 0.037947 0.796887 -0.602936 0.000000
81.95510101 156.98399353 97.50000000 -0.867973 -0.493008 -0.059717 0.000000
131.97500610 166.98800659 52.50000000 0.000978 0.000978 -0.999999 0.000000
110.04299927 163.91000366 171.25000000 -0.320405 -0.308483 0.895644 0.000000
131.58999634 187.76600647 176.25000000 0.000978 0.000978 0.999999 0.000000
99.26950073 203.15600586 41.25000000 0.693235 0.377080 -0.614196 0.000000
137.74600220 155.06100464 42.50000000 0.298912 0.762464 -0.573846 0.000000
162.37100220 126.20300293 56.25000000 0.578477 0.783192 -0.227979 0.000000
204.69500732 162.37100220 181.25000000 -0.021677 0.348105 0.937205 0.000000
178.53100586 136.20700073 176.25000000 -0.590298 -0.386407 0.708687 0.000000
166.21899414 242.40199280 133.75000000 0.724373 0.672956 -0.149714 0.000000
102.34799957 159.29299927 166.25000000 -0.458570 -0.265326 0.848125 0.000000
140.05499268 239.32400513 93.75000000 0.633199 0.420471 -0.649818 0.000000
142.36300659 152.36700439 171.25000000 0.081444 -0.555821 0.827302 0.000000
155.44500732 140.82400513 43.75000000 0.831657 0.466539 -0.301144 0.000000
86.18750000 159.67799377 47.50000000 -0.868371 -0.381348 -0.317024 0.000000
257.40798950 123.12500000 110.00000000 -0.351509 -0.704652 0.616366 0.000000
81.57029724 160.44700623 150.00000000 -0.817415 -0.434999 0.377636 0.000000
100.80899811 220.47099304 55.00000000 0.399869 0.551259 -0.732269 0.000000
79.26170349 239.70899963 127.50000000 -0.828260 0.508635 -0.235109 0.000000
263.94900513 126.97299957 131.25000000 -0.839070 -0.421888 0.343470 0.000000
179.30099487 136.59199524 90.00000000 -0.001221 0.955752 -0.294171 0.000000
167.75799561 192.38299561 168.75000000 0.385323 0.040768 0.921881 0.000000
99.26950073 149.28900146 156.25000000 -0.474576 -0.527862 0.704371 0.000000
273.18399048 127.74199677 168.75000000 0.317330 0.052674 0.946851 0.000000
136.20700073 260.48599243 140.00000000 0.001221 0.955752 0.294171 0.000000
114.66000366 150.82800293 21.25000000 0.453962 0.758789 -0.467073 0.000000
177.76199341 146.21099854 181.25000000 -0.382246 -0.326981 0.864275 0.000000
153.13699341 221.24000549 95.00000000 0.232118 0.116700 -0.965662 0.000000
270.87500000 133.89799500 146.25000000 -0.567104 -0.262344 0.780749 0.000000
176.22300720 110.81199646 151.25000000 -0.209960 -0.971852 0.106866 0.000000
164.67999268 211.62100220 101.25000000 0.993672 0.088902 -0.068646 0.000000
163.91000366 176.99200439 83.75000000 0.796904 -0.103817 -0.595119 0.000000
126.97299957 163.14100647 178.75000000 -0.061515 -0.633751 0.771087 0.000000
123.89399719 121.20099640 77.50000000 -0.394864 -0.917827 -0.040939 0.000000
221.62500000 118.50800323 181.25000000 0.455987 0.117903 0.882142 0.000000
89.26560211 153.52099609 50.00000000 -0.797305 -0.571682 -0.193609 0.000000
118.50800323 254.71499634 106.25000000 -0.158944 0.746282 -0.646374 0.000000
158.90800476 144.67199707 172.50000000 -0.079781 -0.388089 0.918162 0.000000
134.66799927 237.01600647 163.75000000 -0.046023 0.372130 0.927039 0.000000
151.59800720 195.46099854 81.25000000 0.489083 0.426925 -0.760614 0.000000
132.35899353 213.16000366 173.75000000 0.154625 0.392945 0.906469 0.000000
110.81199646 167.37300110 32.50000000 0.660847 0.600618 -0.450045 0.000000
127.74199677 121.97100067 40.00000000 -0.310105 -0.950403 0.023854 0.000000
126.97299957 196.22999573 68.75000000 0.341119 0.432294 -0.834721 0.000000
100.80899811 125.43399811 138.75000000 -0.690783 -0.690783 0.213628 0.000000
203.92599487 183.91799927 171.25000000 -0.401855 -0.824359 -0.398678 0.000000
269.33599854 126.97299957 168.75000000 0.124916 -0.108261 0.986243 0.000000
218.54699707 170.45100403 165.00000000 -0.000978 -0.000978 -0.999999 0.000000
80.41600037 152.36700439 130.00000000 -0.894791 -0.442629 -0.058563 0.000000
110.04299927 241.63299561 158.75000000 -0.391712 0.505487 0.768795 0.000000
102.34799957 233.16799927 71.25000000 -0.296910 0.611474 -0.733447 0.000000
169.68200684 192.38299561 95.00000000 0.723116 0.304385 -0.620043 0.000000
150.05900574 241.63299561 103.75000000 0.520533 0.631715 -0.574440 0.000000
180.83999634 112.73600006 165.00000000 -0.240131 -0.909589 0.339095 0.000000
205.85000610 179.30099487 155.00000000 -0.196538 0.697943 -0.688657 0.000000
141.20899963 118.50800323 52.50000000 -0.223220 -0.968135 -0.113523 0.000000
110.04299927 249.71299744 97.50000000 -0.198299 0.860291 -0.469656 0.000000
80.80079651 227.01199341 153.75000000 -0.660634 0.344182 0.667159 0.000000
229.32000732 165.83399963 180.00000000 0.074094 -0.947624 -0.310675 0.000000
120.81600189 243.94099426 158.75000000 -0.115246 0.558723 0.821308 0.000000
262.41000366 160.83200073 171.25000000 0.334794 0.362311 0.869853 0.000000
151.21299744 112.35199738 105.00000000 0.705724 -0.708486 -0.001381 0.000000
152.36700439 230.85899353 98.75000000 0.920073 0.143805 -0.364399 0.000000
255.48399353 105.81099701 137.50000000 0.105645 -0.982373 0.154217 0.000000
208.54299927 109.65799713 102.50000000 -0.469149 -0.752285 -0.462565 0.000000
81.95510101 198.53900146 50.00000000 -0.532898 0.532898 -0.657297 0.000000
217.00799561 164.67999268 143.75000000 0.539099 0.663377 -0.518945 0.000000
81.57029724 189.30499268 43.75000000 -0.958593 0.091602 -0.269645 0.000000
90.80470276 214.31399536 165.00000000 -0.457835 0.328823 0.825992 0.000000
66.17970276 189.30499268 123.75000000 -0.942965 -0.216758 -0.252654 0.000000
210.85200500 174.29899597 152.50000000 0.423997 0.905147 0.030570 0.000000
142.36300659 154.67599487 43.75000000 0.379408 0.579787 -0.721039 0.000000
156.98399353 250.86700439 138.75000000 0.512514 0.856968 -0.054168 0.000000
74.64450073 204.69500732 88.75000000 -0.946761 0.237033 -0.217851 0.000000
71.18160248 173.14399719 122.50000000 -0.862460 -0.430470 -0.266192 0.000000
80.80079651 192.76800537 47.50000000 -0.958281 0.105035 -0.265829 0.000000
118.12300110 160.06199646 30.00000000 0.586857 0.603769 -0.539502 0.000000
192.38299561 137.74600220 183.75000000 0.000978 0.000978 0.999999 0.000000
101.96299744 137.74600220 42.50000000 -0.814841 -0.575098 -0.072779 0.000000
83.87889862 160.44700623 55.00000000 -0.862941 -0.483305 -0.147474 0.000000
84.64839935 240.86300659 111.25000000 -0.655553 0.662125 -0.363101 0.000000
184.68699646 123.12500000 173.75000000 -0.472584 -0.439879 0.763656 0.000000
200.84800720 133.89799500 138.75000000 -0.863587 0.128743 0.487486 0.000000
165.44900513 151.59800720 178.75000000 -0.156353 -0.711939 0.684615 0.000000
201.23199463 178.53100586 157.50000000 -0.256807 0.481320 -0.838082 0.000000
70.02729797 215.85299683 145.00000000 -0.906249 0.121860 0.404800 0.000000
172.37500000 126.20300293 66.25000000 0.211040 0.836568 -0.505585 0.000000
179.30099487 143.51800537 125.00000000 0.419500 0.901717 -0.104527 0.000000
231.62899780 102.73200226 92.50000000 0.175925 -0.702171 -0.689932 0.000000
227.01199341 146.97999573 128.75000000 0.710821 0.692939 -0.120705 0.000000
122.35500336 187.38099670 60.00000000 0.475956 0.430160 -0.767091 0.000000
169.29699707 177.76199341 176.25000000 0.566900 -0.023448 0.823453 0.000000
125.81800079 260.10101318 140.00000000 -0.119386 0.861590 0.493365 0.000000
94.26750183 156.98399353 22.50000000 -0.680398 0.001380 -0.732842 0.000000
91.95899963 150.05900574 50.00000000 -0.784424 -0.601441 -0.151485 0.000000
105.42600250 194.69099426 173.75000000 -0.410566 -0.069105 0.909208 0.000000
230.08999634 120.04699707 178.75000000 0.213137 -0.160834 0.963693 0.000000
235.47599792 163.91000366 151.25000000 -0.001221 -0.955752 0.294171 0.000000
162.37100220 153.90600586 78.75000000 0.902725 0.226046 -0.366048 0.000000
94.26750183 157.75399780 22.50000000 -0.846714 -0.203031 -0.491786 0.000000
276.26199341 156.98399353 161.25000000 0.000978 0.000978 0.999999 0.000000
173.52900696 188.53500366 102.50000000 0.968245 0.207022 -0.140158 0.000000
133.12899780 123.12500000 158.75000000 -0.402409 -0.340261 0.849876 0.000000
224.70300293 157.75399780 141.25000000 0.318187 0.489152 -0.812088 0.000000
130.05099487 210.08200073 78.75000000 0.421987 0.310694 -0.851702 0.000000
224.70300293 107.34999847 160.00000000 -0.001221 -0.955752 0.294171 0.000000
193.15199280 142.36300659 183.75000000 0.000978 0.000978 0.999999 0.000000
190.07400513 107.34999847 147.50000000 -0.191948 -0.964963 0.178890 0.000000
160.83200073 180.07000732 81.25000000 0.595325 -0.052321 -0.801780 0.000000
175.83799744 212.39100647 135.00000000 0.908224 0.001296 -0.418483 0.000000
192.38299561 106.58000183 92.50000000 0.238066 -0.953609 0.184266 0.000000
90.03510284 239.32400513 98.75000000 -0.540410 0.769480 -0.340378 0.000000
76.95310211 223.16400146 151.25000000 -0.810467 0.291139 0.508312 0.000000
74.64450073 221.62500000 148.75000000 -0.755678 0.330307 0.565550 0.000000
110.42800140 221.62500000 65.00000000 0.755519 0.306378 -0.579071 0.000000
164.67999268 154.29100037 115.00000000 0.749180 0.585548 0.309618 0.000000
212.39100647 169.68200684 145.00000000 0.648216 0.648216 -0.399540 0.000000
170.06599426 112.35199738 56.25000000 0.000978 -0.999999 0.000978 0.000000
210.85200500 174.29899597 155.00000000 0.423997 0.905147 0.030570 0.000000
154.67599487 113.12100220 83.75000000 -0.237168 -0.965338 -0.108969 0.000000
202.38699341 181.99400330 175.00000000 -0.202090 -0.766710 -0.609357 0.000000
137.74600220 181.60899353 178.75000000 -0.374714 0.175247 0.910427 0.000000
189.30499268 124.66400146 81.25000000 0.766744 0.503023 -0.398837 0.000000
175.83799744 202.38699341 125.00000000 0.988098 0.026213 -0.151577 0.000000
227.01199341 147.75000000 131.25000000 0.999999 0.000978 0.000978 0.000000
118.50800323 124.27899933 47.50000000 -0.536406 -0.806941 -0.247213 0.000000
118.50800323 209.31199646 173.75000000 -0.047301 0.221950 0.973910 0.000000
241.63299561 138.51600647 118.75000000 -0.257087 -0.835916 0.484924 0.000000
173.14399719 205.46499634 156.25000000 0.743578 0.436914 0.506160 0.000000
121.58599854 162.75599670 175.00000000 -0.798639 0.163939 0.579051 0.000000
239.32400513 105.81099701 147.50000000 0.049975 -0.986716 0.154574 0.000000
121.97100067 205.46499634 70.00000000 0.549229 0.354812 -0.756608 0.000000
143.13299561 116.19899750 73.75000000 -0.264007 -0.949071 -0.171943 0.000000
145.05700684 259.33200073 132.50000000 0.495378 0.858559 -0.132198 0.000000
127.74199677 242.40199280 161.25000000 0.096998 0.456874 0.884227 0.000000
81.95510101 156.98399353 95.00000000 -0.861665 -0.507260 -0.014880 0.000000
173.14399719 136.59199524 85.00000000 0.245267 0.822183 -0.513672 0.000000
248.55900574 135.05299377 117.50000000 -0.373532 -0.751957 0.543171 0.000000
170.83599854 156.98399353 126.25000000 0.288060 -0.514730 -0.807512 0.000000
137.74600220 144.67199707 168.75000000 -0.150588 -0.423081 0.893490 0.000000
134.66799927 220.08599854 83.75000000 0.464860 0.305211 -0.831114 0.000000
104.65599823 127.74199677 148.75000000 -0.530096 -0.434316 0.728263 0.000000
143.90199280 173.14399719 181.25000000 -0.098150 0.243463 0.964931 0.000000
80.80079651 174.68400574 48.75000000 -0.922542 -0.368743 -0.113776 0.000000
129.28100586 121.58599854 43.75000000 -0.254741 -0.965532 -0.053434 0.000000
100.80899811 172.75999451 27.50000000 0.661745 0.326808 -0.674752 0.000000
136.20700073 167.75799561 181.25000000 -0.178280 0.458224 0.870774 0.000000
141.59399414 120.04699707 158.75000000 0.095390 -0.242926 0.965343 0.000000
147.36500549 113.12100220 127.50000000 -0.173628 -0.978967 -0.107132 0.000000
206.23399353 112.73600006 180.00000000 -0.222989 -0.847964 0.480867 0.000000
135.43699646 132.35899353 163.75000000 -0.213149 -0.202425 0.955820 0.000000
176.99200439 171.99000549 157.50000000 0.612222 0.758656 0.222768 0.000000
165.83399963 184.68699646 175.00000000 0.340936 0.560685 0.754582 0.000000
171.60499573 180.45500183 162.50000000 0.917427 0.325909 -0.228280 0.000000
130.05099487 252.40600586 151.25000000 -0.012490 0.650855 0.759099 0.000000
219.31599426 154.29100037 135.00000000 0.825479 0.127561 -0.549830 0.000000
101.57800293 146.21099854 156.25000000 -0.652039 -0.275801 0.706243 0.000000
110.04299927 220.85499573 63.75000000 0.805566 0.264351 -0.530266 0.000000
103.88700104 162.75599670 22.50000000 0.503813 0.641983 -0.577953 0.000000
136.97700500 176.99200439 178.75000000 0.000978 0.000978 0.999999 0.000000
77.72260284 158.90800476 127.50000000 -0.915770 -0.396699 -0.063203 0.000000
101.57800293 130.82000732 91.25000000 -0.624846 -0.759287 -0.181801 0.000000
90.80470276 218.93200684 57.50000000 -0.620631 0.657236 -0.427619 0.000000
234.70700073 103.50199890 92.50000000 0.175925 -0.702171 -0.689932 0.000000
108.50399780 234.70700073 161.25000000 -0.310707 0.493662 0.812255 0.000000
178.53100586 108.88899994 135.00000000 -0.001114 -0.988281 0.152643 0.000000
199.30900574 123.89399719 126.25000000 -0.211734 0.768115 -0.604292 0.000000
163.14100647 138.51600647 83.75000000 0.749456 0.449674 -0.485911 0.000000
146.21099854 239.32400513 161.25000000 0.102800 0.548751 0.829641 0.000000
163.91000366 163.91000366 88.75000000 0.848499 0.353412 -0.393890 0.000000
93.88279724 173.91400146 166.25000000 -0.608615 -0.598499 0.520947 0.000000
139.28500366 245.09599304 157.50000000 -0.001380 0.735490 0.677534 0.000000
240.86300659 136.97700500 176.25000000 0.232612 -0.610411 0.757159 0.000000
161.60200500 164.67999268 111.25000000 0.374666 -0.925411 0.056928 0.000000
156.21499634 200.84800720 86.25000000 0.504863 0.387981 -0.771093 0.000000
100.80899811 164.67999268 21.25000000 0.617158 0.546142 -0.566432 0.000000
178.14599609 201.61700439 137.50000000 0.995025 0.078759 0.061010 0.000000
68.48829651 183.14799500 121.25000000 -0.910458 -0.302512 -0.282052 0.000000
259.33200073 143.90199280 171.25000000 0.000978 0.000978 0.999999 0.000000
