195.46899414 228.86099243 442.50000000 0.000978 0.000978 0.999999 0.000000
89.58979797 157.59700012 350.00000000 -0.648785 -0.628771 -0.428632 0.000000
132.75599670 288.31600952 427.50000000 0.464292 0.703926 0.537513 0.000000
99.36329651 144.15800476 352.50000000 -0.702468 -0.702468 -0.114355 0.000000
167.77699280 142.52900696 432.50000000 0.000978 0.000978 0.999999 0.000000
191.39599609 205.24200439 442.50000000 0.549194 0.304046 0.778423 0.000000
85.51760101 248.40800476 317.50000000 -0.077996 0.339747 -0.937277 0.000000
100.17800140 298.08999634 387.50000000 -0.897798 0.001307 0.440405 0.000000
230.49000549 133.57000732 397.50000000 -0.610794 -0.614159 -0.499740 0.000000
212.57200623 193.83999634 372.50000000 -0.000978 -0.000978 -0.999999 0.000000
182.02999878 261.43899536 405.00000000 0.933663 0.302847 -0.191199 0.000000
126.23999786 287.90899658 430.00000000 -0.245364 0.786104 0.567307 0.000000
162.07600403 147.41600037 377.50000000 0.373115 -0.747860 0.549082 0.000000
119.72499847 144.15800476 427.50000000 0.271507 -0.541445 0.795689 0.000000
124.61100006 245.96499634 357.50000000 0.685165 0.354847 -0.636108 0.000000
193.02499390 183.25199890 442.50000000 0.000978 0.000978 0.999999 0.000000
127.86900330 127.86900330 377.50000000 -0.441887 -0.885213 0.145376 0.000000
131.94099426 284.24398804 432.50000000 -0.200669 0.334449 0.920802 0.000000
81.44529724 182.84500122 320.00000000 -0.896461 -0.424937 -0.125646 0.000000
146.60200500 161.26199341 452.50000000 0.000978 0.000978 0.999999 0.000000
247.59399414 138.45700073 377.50000000 0.637439 0.417747 -0.647425 0.000000
190.58200073 203.61300659 367.50000000 -0.816019 0.134282 -0.562212 0.000000
223.97500610 187.32400513 377.50000000 0.350250 0.396950 -0.848384 0.000000
226.41799927 126.23999786 377.50000000 -0.612056 -0.612056 0.500773 0.000000
245.96499634 149.04499817 387.50000000 0.811971 -0.236632 -0.533581 0.000000
80.22360229 233.74800110 300.00000000 0.001351 0.838844 -0.544370 0.000000
119.72499847 150.67399597 437.50000000 -0.580888 -0.496701 0.644870 0.000000
155.56100464 178.77200317 360.00000000 0.037774 0.807250 -0.588999 0.000000
228.86099243 137.64300537 362.50000000 0.354395 0.489097 -0.796987 0.000000
169.40600586 263.88299561 432.50000000 0.000978 0.000978 0.999999 0.000000
118.09600067 193.02499390 337.50000000 -0.000978 -0.000978 -0.999999 0.000000
92.84760284 259.81100464 332.50000000 -0.000978 -0.000978 -0.999999 0.000000
223.16000366 206.87100220 402.50000000 -0.484165 -0.353137 -0.800549 0.000000
140.89999390 139.27099609 432.50000000 -0.286752 -0.719283 0.632776 0.000000
201.16999817 211.75799561 437.50000000 0.999999 -0.000978 -0.000978 0.000000
158.00399780 136.01400757 432.50000000 -0.000978 -0.000978 0.999999 0.000000
72.89350128 208.50000000 405.00000000 -0.987280 -0.107596 0.117055 0.000000
113.20899963 288.31600952 357.50000000 -0.000978 -0.000978 -0.999999 0.000000
109.13700104 179.99400330 457.50000000 0.000978 0.000978 0.999999 0.000000
70.45020294 186.50999451 380.00000000 -0.966093 -0.108765 0.234166 0.000000
238.22799683 137.64300537 405.00000000 -0.118914 -0.805971 0.579888 0.000000
87.14649963 156.37500000 357.50000000 -0.541542 -0.811545 -0.219378 0.000000
191.39599609 155.56100464 347.50000000 0.061604 0.760740 -0.646127 0.000000
127.05500031 266.32598877 447.50000000 0.000978 0.000978 0.999999 0.000000
220.71699524 228.86099243 402.50000000 0.916566 -0.352087 0.189585 0.000000
245.96499634 143.34399414 412.50000000 0.000978 0.000978 0.999999 0.000000
116.46700287 252.47999573 352.50000000 0.307853 0.494144 -0.813049 0.000000
95.29100037 284.24398804 342.50000000 0.169923 0.489083 -0.855526 0.000000
223.97500610 124.20400238 370.00000000 -0.086102 -0.939170 0.332485 0.000000
221.53100586 213.38699341 392.50000000 0.859383 -0.407400 0.309009 0.000000
134.38499451 156.37500000 447.50000000 -0.359458 -0.664750 0.654902 0.000000
133.57000732 215.83000183 347.50000000 0.288321 -0.404259 -0.868013 0.000000
89.58979797 234.15499878 300.00000000 -0.436612 -0.312310 -0.843702 0.000000
201.98399353 179.17999268 437.50000000 0.527394 -0.042911 0.848537 0.000000
210.94299316 181.62300110 367.50000000 0.335493 0.097574 -0.936976 0.000000
171.03500366 236.19099426 452.50000000 0.000978 0.000978 0.999999 0.000000
158.00399780 208.09300232 385.00000000 -0.579183 -0.404273 -0.707891 0.000000
128.68400574 160.44700623 352.50000000 -0.431876 0.668658 -0.605293 0.000000
204.42799377 202.79899597 442.50000000 0.000978 0.000978 0.999999 0.000000
140.89999390 230.49000549 357.50000000 -0.000978 -0.000978 -0.999999 0.000000
187.73100281 208.50000000 450.00000000 0.468877 0.413715 0.780381 0.000000
142.52900696 183.25199890 362.50000000 -0.000978 -0.000978 -0.999999 0.000000
170.22099304 261.43899536 387.50000000 -0.000978 -0.000978 -0.999999 0.000000
138.45700073 176.32899475 465.00000000 -0.193083 -0.675017 0.712089 0.000000
112.39499664 135.60600281 410.00000000 -0.477621 -0.877679 -0.039462 0.000000
161.26199341 158.00399780 447.50000000 0.477568 -0.717184 0.507520 0.000000
121.35399628 236.19099426 352.50000000 0.225201 0.222471 -0.948573 0.000000
154.74600220 175.92199707 467.50000000 0.089052 -0.496145 0.863661 0.000000
203.61300659 217.45899963 367.50000000 -0.000978 -0.000978 -0.999999 0.000000
84.70310211 260.62500000 327.50000000 0.000978 0.000978 -0.999999 0.000000
226.41799927 171.03500366 427.50000000 0.365805 -0.190792 0.910925 0.000000
154.74600220 272.84201050 432.50000000 0.702468 -0.702468 -0.114355 0.000000
216.64500427 201.16999817 377.50000000 -0.500585 -0.399490 -0.767999 0.000000
114.02300262 151.48800659 432.50000000 -0.429938 -0.858345 0.279995 0.000000
67.59960175 209.31399536 342.50000000 -0.939466 -0.330873 -0.089030 0.000000
104.25000000 206.05700684 322.50000000 0.652050 -0.312272 -0.690882 0.000000
129.49800110 245.96499634 357.50000000 -0.000978 -0.000978 -0.999999 0.000000
105.06400299 221.53100586 327.50000000 -0.000978 -0.000978 -0.999999 0.000000
101.80699921 224.78900146 322.50000000 -0.000978 -0.000978 -0.999999 0.000000
113.20899963 285.87298584 357.50000000 -0.000978 -0.000978 -0.999999 0.000000
130.31199646 201.98399353 347.50000000 0.806928 -0.517504 -0.284706 0.000000
137.64300537 219.90199280 467.50000000 0.000978 0.000978 0.999999 0.000000
121.35399628 177.55099487 367.50000000 0.000978 0.000978 -0.999999 0.000000
151.48800659 262.25399780 442.50000000 0.000978 0.000978 0.999999 0.000000
87.14649963 228.86099243 447.50000000 0.000978 0.000978 0.999999 0.000000
180.80900574 231.30499268 452.50000000 0.654591 0.104440 0.748734 0.000000
107.50800323 172.66400146 447.50000000 -0.373977 -0.644164 0.667229 0.000000
166.96299744 245.96499634 447.50000000 0.612056 -0.612056 0.500773 0.000000
91.62599945 159.63299561 425.00000000 -0.502332 -0.566174 0.653536 0.000000
184.06599426 205.24200439 372.50000000 -0.874206 0.436358 -0.212967 0.000000
237.00599670 193.02499390 402.50000000 -0.000978 -0.000978 -0.999999 0.000000
92.84760284 171.85000610 302.50000000 0.474884 0.662823 0.578922 0.000000
117.28099823 236.19099426 457.50000000 0.000978 0.000978 0.999999 0.000000
81.85250092 268.76998901 410.00000000 -0.889425 0.444008 0.108535 0.000000
199.54100037 233.34100342 390.00000000 -0.096377 0.995175 -0.018409 0.000000
165.33399963 156.37500000 442.50000000 0.000978 0.000978 0.999999 0.000000
96.91989899 171.85000610 302.50000000 -0.001357 -0.563126 0.826370 0.000000
73.30079651 210.53599548 430.00000000 -0.551551 0.551551 0.625766 0.000000
238.63499451 132.75599670 392.50000000 -0.616391 -0.787381 -0.009653 0.000000
97.73439789 163.70500183 437.50000000 -0.549287 -0.512332 0.660152 0.000000
100.17800140 213.38699341 307.50000000 -0.942839 -0.285999 -0.171052 0.000000
138.45700073 162.07600403 352.50000000 -0.000978 -0.000978 -0.999999 0.000000
131.12699890 264.69699097 447.50000000 0.000978 0.000978 0.999999 0.000000
164.52000427 228.86099243 362.50000000 -0.000978 -0.000978 -0.999999 0.000000
96.91989899 302.56900024 370.00000000 -0.001120 0.987081 -0.160219 0.000000
231.30499268 134.38499451 357.50000000 -0.338007 0.845795 0.412773 0.000000
243.52099609 136.42100525 400.00000000 0.269837 -0.878855 0.393450 0.000000
225.60299683 170.22099304 427.50000000 0.192510 -0.476052 0.858088 0.000000
220.71699524 164.52000427 367.50000000 -0.000978 -0.000978 -0.999999 0.000000
100.17800140 231.30499268 327.50000000 0.713271 0.483827 -0.507104 0.000000
182.84500122 258.99600220 415.00000000 0.894688 0.446689 0.001310 0.000000
105.06400299 159.63299561 317.50000000 0.000978 0.000978 -0.999999 0.000000
136.01400757 144.97300720 437.50000000 0.000978 0.000978 0.999999 0.000000
111.58000183 208.50000000 332.50000000 -0.000978 -0.000978 -0.999999 0.000000
91.62599945 173.47799683 305.00000000 0.854987 0.511858 0.083655 0.000000
177.95799255 254.92399597 430.00000000 0.684708 0.574755 0.448142 0.000000
148.22999573 262.66101074 375.00000000 0.528385 -0.175130 -0.830746 0.000000
207.68600464 123.38999939 355.00000000 -0.124637 -0.988942 0.080373 0.000000
134.38499451 235.37699890 457.50000000 0.000978 0.000978 0.999999 0.000000
226.41799927 148.22999573 362.50000000 0.642737 0.642737 -0.416866 0.000000
146.60200500 158.00399780 452.50000000 0.000978 0.000978 0.999999 0.000000
209.31399536 184.88099670 437.50000000 0.000978 0.000978 0.999999 0.000000
194.65400696 179.99400330 442.50000000 0.592909 0.738309 0.321496 0.000000
123.79699707 307.86300659 387.50000000 -0.019524 0.917618 -0.396984 0.000000
240.26400757 155.56100464 382.50000000 0.565386 0.548509 -0.616017 0.000000
149.85899353 292.38900757 422.50000000 0.148899 0.633196 0.759534 0.000000
142.52900696 254.10899353 367.50000000 -0.000978 -0.000978 -0.999999 0.000000
180.80900574 254.10899353 387.50000000 -0.000978 -0.000978 -0.999999 0.000000
109.13700104 303.79098511 367.50000000 0.441887 0.885213 -0.145376 0.000000
151.48800659 241.89300537 367.50000000 0.702468 0.702468 -0.114355 0.000000
221.53100586 218.27299500 382.50000000 0.490619 0.490619 -0.720129 0.000000
72.48629761 215.83000183 312.50000000 -0.000978 -0.000978 -0.999999 0.000000
219.90199280 136.82800293 407.50000000 0.094688 -0.937541 0.334741 0.000000
129.90499878 174.29299927 460.00000000 -0.772929 -0.335847 0.538319 0.000000
155.56100464 203.20599365 385.00000000 0.001374 0.776155 -0.630540 0.000000
164.52000427 141.71499634 377.50000000 -0.906047 -0.412341 0.095156 0.000000
73.30079651 213.38699341 427.50000000 -0.953302 -0.227876 -0.198211 0.000000
223.97500610 193.02499390 432.50000000 0.253538 0.008411 0.967289 0.000000
109.54399872 180.80900574 335.00000000 0.924742 0.369626 0.090714 0.000000
205.24200439 232.93400574 382.50000000 -0.000978 -0.000978 -0.999999 0.000000
100.17800140 177.55099487 312.50000000 0.000978 0.000978 0.999999 0.000000
234.56199646 152.30299377 422.50000000 0.229735 -0.232486 0.945078 0.000000
157.18899536 265.51199341 382.50000000 0.097299 0.276329 -0.956125 0.000000
112.39499664 246.77900696 452.50000000 0.000978 0.000978 0.999999 0.000000
206.87100220 225.60299683 422.50000000 0.000978 0.000978 0.999999 0.000000
90.40429688 175.92199707 302.50000000 0.854987 0.511858 0.083655 0.000000
223.97500610 134.38499451 402.50000000 -0.297466 -0.892399 0.339321 0.000000
229.67599487 196.28300476 407.50000000 -0.000978 -0.000978 -0.999999 0.000000
142.93699646 207.68600464 355.00000000 0.812516 -0.523553 -0.256339 0.000000
206.05700684 231.30499268 382.50000000 -0.000978 -0.000978 -0.999999 0.000000
71.67189789 220.71699524 407.50000000 -0.987081 -0.001120 0.160219 0.000000
79.00189972 200.35499573 437.50000000 -0.451627 -0.136205 0.881749 0.000000
210.94299316 178.36500549 362.50000000 0.750195 0.548407 -0.369402 0.000000
74.11519623 240.26400757 417.50000000 -0.865672 0.122433 0.485410 0.000000
231.71200562 124.61100006 360.00000000 0.969645 -0.231464 -0.078823 0.000000
124.61100006 188.13900757 362.50000000 0.563126 0.001357 -0.826370 0.000000
231.30499268 132.75599670 397.50000000 -0.610794 -0.614159 -0.499740 0.000000
107.50800323 207.68600464 327.50000000 0.897798 -0.001307 -0.440405 0.000000
100.17800140 210.12899780 317.50000000 0.000978 0.000978 -0.999999 0.000000
94.47650146 155.56100464 347.50000000 -0.000978 -0.000978 -0.999999 0.000000
158.81799316 199.54100037 467.50000000 0.000978 0.000978 0.999999 0.000000
119.72499847 186.50999451 357.50000000 -0.000978 -0.000978 -0.999999 0.000000
77.37300110 274.06298828 370.00000000 -0.612056 0.612056 -0.500773 0.000000
237.00599670 136.01400757 402.50000000 0.299798 -0.817773 0.491292 0.000000
98.95600128 177.55099487 305.00000000 -0.001343 0.522373 0.852716 0.000000
139.27099609 237.82000732 357.50000000 -0.000978 -0.000978 -0.999999 0.000000
179.17999268 248.00100708 385.00000000 0.692395 0.472163 -0.545574 0.000000
166.14799500 138.45700073 432.50000000 0.000978 0.000978 0.999999 0.000000
226.41799927 131.94099426 352.50000000 -0.042324 0.989470 -0.138411 0.000000
102.21399689 146.60200500 340.00000000 -0.664243 -0.693054 -0.280103 0.000000
205.64900208 149.85899353 425.00000000 0.377568 -0.671048 0.638073 0.000000
95.29100037 234.56199646 452.50000000 0.000978 0.000978 0.999999 0.000000
150.67399597 198.31900024 375.00000000 -0.612056 -0.612056 0.500773 0.000000
143.34399414 158.81799316 352.50000000 -0.000978 -0.000978 -0.999999 0.000000
122.16799927 182.84500122 365.00000000 0.453791 -0.499995 -0.737617 0.000000
179.17999268 131.12699890 392.50000000 -0.032657 -0.971239 0.235855 0.000000
132.75599670 148.22999573 437.50000000 -0.672960 -0.698176 0.244283 0.000000
88.36810303 179.99400330 305.00000000 0.614159 0.610794 -0.499740 0.000000
93.66210175 256.55300903 437.50000000 -0.392491 0.062959 0.917598 0.000000
127.05500031 191.39599609 467.50000000 0.000978 0.000978 0.999999 0.000000
178.77200317 241.89300537 380.00000000 0.753472 -0.229317 -0.616193 0.000000
97.32710266 166.96299744 440.00000000 -0.650023 -0.439476 0.619945 0.000000
124.61100006 217.86599731 345.00000000 0.633751 0.061515 -0.771087 0.000000
87.55370331 180.80900574 305.00000000 -0.120252 0.434322 -0.892695 0.000000
73.70800018 188.13900757 400.00000000 -0.968356 0.121204 0.218167 0.000000
151.89500427 302.16198730 400.00000000 0.335059 0.780734 -0.527437 0.000000
221.53100586 153.11700439 362.50000000 0.642737 0.642737 -0.416866 0.000000
180.80900574 136.42100525 415.00000000 0.624329 -0.774168 0.104300 0.000000
85.11029816 160.44700623 350.00000000 -0.588241 -0.779690 -0.214608 0.000000
83.48139954 287.50201416 355.00000000 0.689222 -0.689222 0.223489 0.000000
98.54879761 296.05398560 400.00000000 -0.554433 0.830951 -0.046086 0.000000
177.55099487 140.08599854 427.50000000 0.223945 -0.700023 0.678098 0.000000
80.22360229 246.77900696 430.00000000 -0.551551 0.551551 0.625766 0.000000
165.74099731 242.70700073 370.00000000 0.319695 0.570310 -0.756665 0.000000
131.94099426 189.76800537 467.50000000 0.000978 0.000978 0.999999 0.000000
129.49800110 308.26998901 400.00000000 0.217537 0.961120 -0.170075 0.000000
138.45700073 127.05500031 397.50000000 -0.162259 -0.942195 -0.293157 0.000000
152.30299377 235.37699890 362.50000000 -0.000978 -0.000978 -0.999999 0.000000
246.77900696 170.22099304 422.50000000 0.315450 0.013715 0.948843 0.000000
217.45899963 197.09800720 377.50000000 -0.000978 -0.000978 -0.999999 0.000000
172.66400146 205.24200439 387.50000000 0.103302 -0.471226 -0.875942 0.000000
150.26699829 292.38900757 390.00000000 0.558342 0.524606 -0.642684 0.000000
189.76800537 234.56199646 442.50000000 0.000978 0.000978 0.999999 0.000000
110.76599884 213.38699341 332.50000000 -0.000978 -0.000978 -0.999999 0.000000
165.33399963 161.26199341 387.50000000 -0.581314 0.291453 0.759690 0.000000
73.30079651 241.07800293 317.50000000 -0.677620 0.226916 -0.699529 0.000000
231.30499268 151.48800659 372.50000000 -0.000978 -0.000978 -0.999999 0.000000
138.45700073 223.16000366 462.50000000 0.000978 0.000978 0.999999 0.000000
175.92199707 129.09100342 355.00000000 -0.225836 -0.973842 -0.025093 0.000000
225.19599915 172.66400146 430.00000000 0.724887 -0.386278 0.570376 0.000000
179.99400330 200.35499573 457.50000000 0.602471 0.145012 0.784857 0.000000
180.80900574 233.74800110 452.50000000 0.654591 0.104440 0.748734 0.000000
129.49800110 132.75599670 422.50000000 -0.000978 -0.000978 -0.999999 0.000000
228.86099243 164.52000427 427.50000000 0.000978 0.000978 0.999999 0.000000
95.29100037 175.10699463 442.50000000 -0.589068 -0.538431 0.602570 0.000000
103.43599701 193.02499390 322.50000000 -0.668277 -0.668277 -0.326821 0.000000
117.28099823 265.51199341 357.50000000 0.654976 0.261673 -0.708896 0.000000
105.87899780 237.00599670 452.50000000 0.000978 0.000978 0.999999 0.000000
190.58200073 247.18600464 415.00000000 0.951115 -0.001230 0.308835 0.000000
126.23999786 145.78700256 432.50000000 -0.451660 -0.571658 0.684990 0.000000
160.44700623 280.98599243 387.50000000 0.221638 0.930313 -0.292223 0.000000
200.35499573 192.21099854 442.50000000 0.000978 0.000978 0.999999 0.000000
219.90199280 217.45899963 417.50000000 -0.055186 0.813639 -0.578745 0.000000
218.27299500 199.54100037 432.50000000 0.402608 0.033001 0.914778 0.000000
215.83000183 134.38499451 352.50000000 -0.054571 0.976221 -0.209797 0.000000
162.07600403 162.07600403 352.50000000 -0.000978 -0.000978 -0.999999 0.000000
225.60299683 165.33399963 372.50000000 0.000978 0.000978 -0.999999 0.000000
90.40429688 259.81100464 432.50000000 -0.820839 0.492503 0.289248 0.000000
79.81639862 219.08799744 442.50000000 0.000978 0.000978 0.999999 0.000000
208.50000000 221.53100586 427.50000000 0.579734 0.774549 -0.252946 0.000000
124.20400238 243.52099609 355.00000000 0.682326 0.423341 -0.595998 0.000000
71.26460266 210.12899780 325.00000000 -0.889441 -0.213172 -0.404292 0.000000
211.75799561 168.59199524 432.50000000 0.000978 0.000978 0.999999 0.000000
66.78510284 225.60299683 332.50000000 -0.549197 -0.552577 -0.626930 0.000000
125.42600250 148.22999573 337.50000000 -0.000978 -0.000978 -0.999999 0.000000
202.79899597 235.78399658 395.00000000 -0.001374 0.776155 -0.630540 0.000000
173.88600159 268.76998901 425.00000000 0.683779 0.086019 0.724601 0.000000
133.57000732 250.03700256 362.50000000 -0.000978 -0.000978 -0.999999 0.000000
179.17999268 181.62300110 452.50000000 0.000978 0.000978 0.999999 0.000000
163.70500183 291.57400513 402.50000000 0.672877 0.606420 -0.423663 0.000000
101.80699921 188.95300293 302.50000000 -0.794720 0.091531 0.600035 0.000000
126.23999786 227.23199463 347.50000000 -0.000978 -0.000978 -0.999999 0.000000
221.53100586 226.82499695 400.00000000 0.846051 -0.219459 0.485836 0.000000
137.64300537 266.32598877 442.50000000 0.000978 0.000978 0.999999 0.000000
176.73599243 222.34599304 452.50000000 0.000978 0.000978 0.999999 0.000000
149.04499817 210.12899780 362.50000000 0.631313 -0.377469 -0.677467 0.000000
232.11900330 193.02499390 407.50000000 0.171658 0.462156 -0.870026 0.000000
212.57200623 208.90699768 370.00000000 0.916251 -0.400127 -0.019550 0.000000
201.98399353 130.72000122 390.00000000 -0.008483 -0.963431 0.267822 0.000000
222.34599304 157.18899536 427.50000000 0.089235 -0.502829 0.859767 0.000000
136.42100525 126.23999786 400.00000000 -0.084829 -0.925037 -0.370284 0.000000
131.12699890 256.55300903 452.50000000 0.000978 0.000978 0.999999 0.000000
81.85250092 190.58200073 305.00000000 0.689850 0.539519 0.482728 0.000000
187.32400513 193.02499390 362.50000000 -0.000978 -0.000978 -0.999999 0.000000
100.17800140 223.97500610 322.50000000 -0.000978 -0.000978 -0.999999 0.000000
203.61300659 218.27299500 367.50000000 -0.000978 -0.000978 -0.999999 0.000000
215.01600647 194.65400696 437.50000000 0.000978 0.000978 0.999999 0.000000
237.00599670 201.98399353 412.50000000 -0.561808 -0.448446 -0.695175 0.000000
215.01600647 161.26199341 432.50000000 0.969137 -0.243201 0.040330 0.000000
213.38699341 189.76800537 372.50000000 0.229735 0.232486 -0.945078 0.000000
113.20899963 300.53298950 412.50000000 -0.253673 0.804594 0.536915 0.000000
83.07420349 191.39599609 302.50000000 0.886168 0.242765 0.394680 0.000000
222.34599304 186.50999451 432.50000000 -0.000978 -0.000978 0.999999 0.000000
223.97500610 208.50000000 427.50000000 0.000978 0.000978 0.999999 0.000000
223.97500610 208.50000000 402.50000000 -0.484165 -0.353137 -0.800549 0.000000
182.84500122 218.27299500 375.00000000 -0.610975 -0.785956 -0.094781 0.000000
112.39499664 284.24398804 357.50000000 -0.000978 -0.000978 -0.999999 0.000000
233.74800110 153.11700439 372.50000000 -0.000978 -0.000978 -0.999999 0.000000
232.11900330 160.44700623 427.50000000 0.000978 0.000978 0.999999 0.000000
158.81799316 132.75599670 382.50000000 0.000978 0.000978 -0.999999 0.000000
93.66210175 208.50000000 452.50000000 0.000978 0.000978 0.999999 0.000000
139.27099609 206.05700684 467.50000000 0.000978 0.000978 0.999999 0.000000
139.27099609 136.82800293 427.50000000 0.951115 -0.001230 0.308835 0.000000
149.04499817 229.67599487 462.50000000 0.263311 0.292088 0.919430 0.000000
82.25980377 193.02499390 302.50000000 0.886168 0.242765 0.394680 0.000000
173.47799683 237.00599670 367.50000000 -0.000978 -0.000978 -0.999999 0.000000
70.04299927 238.22799683 385.00000000 -0.923966 0.252770 0.287044 0.000000
121.35399628 206.87100220 342.50000000 -0.000978 -0.000978 -0.999999 0.000000
138.45700073 300.53298950 417.50000000 -0.184519 0.925412 0.331007 0.000000
150.67399597 205.24200439 387.50000000 -0.073788 0.374307 -0.924364 0.000000
131.94099426 304.60501099 382.50000000 0.336179 0.729201 -0.596028 0.000000
166.96299744 285.87298584 422.50000000 0.295562 0.355574 0.886685 0.000000
192.21099854 242.70700073 422.50000000 0.000978 0.000978 0.999999 0.000000
98.54879761 243.52099609 447.50000000 -0.453234 -0.210911 0.866081 0.000000
134.38499451 221.53100586 462.50000000 -0.066275 0.540067 0.839008 0.000000
75.74410248 268.76998901 377.50000000 0.001314 0.456129 -0.889912 0.000000
187.73100281 248.40800476 400.00000000 0.813041 0.544570 -0.205930 0.000000
82.25980377 170.22099304 342.50000000 -0.711215 -0.589667 -0.382709 0.000000
142.52900696 160.44700623 352.50000000 -0.000978 -0.000978 -0.999999 0.000000
159.63299561 261.43899536 377.50000000 0.236426 0.530026 -0.814355 0.000000
148.22999573 193.02499390 467.50000000 0.000978 0.000978 0.999999 0.000000
233.74800110 159.63299561 377.50000000 -0.000978 -0.000978 -0.999999 0.000000
188.13900757 225.60299683 372.50000000 0.295434 0.849179 -0.437737 0.000000
101.80699921 195.46899414 302.50000000 -0.771093 -0.387981 0.504863 0.000000
79.00189972 171.44200134 350.00000000 -0.766843 -0.605729 -0.212237 0.000000
124.61100006 154.74600220 442.50000000 -0.881410 -0.422188 -0.211835 0.000000
122.98200226 210.12899780 342.50000000 -0.000978 -0.000978 -0.999999 0.000000
203.61300659 169.40600586 357.50000000 -0.000978 -0.000978 -0.999999 0.000000
74.92970276 269.58401489 367.50000000 -0.819667 0.541916 -0.185670 0.000000
197.09800720 212.57200623 367.50000000 -0.000978 -0.000978 -0.999999 0.000000
108.32199860 187.32400513 327.50000000 0.866598 -0.077249 -0.492992 0.000000
138.45700073 261.43899536 447.50000000 0.000978 0.000978 0.999999 0.000000
174.29299927 139.27099609 427.50000000 0.220462 -0.705167 0.673896 0.000000
135.19900513 195.46899414 367.50000000 0.580536 -0.742245 -0.334738 0.000000
90.81150055 171.03500366 325.00000000 -0.702468 -0.702468 -0.114355 0.000000
77.37300110 221.53100586 437.50000000 0.000978 0.000978 0.999999 0.000000
142.52900696 217.45899963 467.50000000 0.000978 0.000978 0.999999 0.000000
195.46899414 131.94099426 397.50000000 -0.001307 -0.897798 0.440405 0.000000
154.74600220 219.08799744 467.50000000 0.000978 0.000978 0.999999 0.000000
213.38699341 214.20100403 397.50000000 0.000978 0.000978 -0.999999 0.000000
104.25000000 153.93200684 337.50000000 -0.138498 0.588244 -0.796735 0.000000
100.99199677 272.02700806 432.50000000 0.000978 0.000978 0.999999 0.000000
85.51760101 287.90899658 350.00000000 0.668277 -0.668277 0.326821 0.000000
88.77539825 154.74600220 417.50000000 -0.657937 -0.503128 0.560340 0.000000
144.97300720 127.05500031 392.50000000 -0.344380 -0.789672 -0.507761 0.000000
96.91989899 272.84201050 342.50000000 0.637227 0.311354 -0.704983 0.000000
102.21399689 197.91200256 305.00000000 -0.957975 -0.013527 -0.286532 0.000000
161.26199341 258.99600220 437.50000000 0.702468 0.702468 0.114355 0.000000
163.70500183 237.00599670 362.50000000 0.134618 0.920121 -0.367771 0.000000
179.17999268 208.90699768 455.00000000 0.894374 0.212249 0.393759 0.000000
122.98200226 157.59700012 345.00000000 0.092630 0.850774 -0.517304 0.000000
209.31399536 218.27299500 372.50000000 0.000978 0.000978 -0.999999 0.000000
141.71499634 248.40800476 452.50000000 0.000978 0.000978 0.999999 0.000000
166.96299744 130.31199646 342.50000000 -0.184519 -0.925412 0.331007 0.000000
78.18750000 245.14999390 312.50000000 -0.308050 -0.258877 -0.915471 0.000000
155.96800232 281.80099487 430.00000000 0.445285 0.595381 0.668762 0.000000
220.30999756 184.06599426 375.00000000 0.897798 0.001307 -0.440405 0.000000
108.32199860 158.81799316 437.50000000 -0.140027 -0.697122 0.703145 0.000000
190.58200073 242.70700073 432.50000000 0.656822 0.559391 0.505635 0.000000
73.30079651 264.69699097 362.50000000 -0.160125 0.480374 -0.862323 0.000000
109.13700104 304.60501099 387.50000000 -0.249011 0.968374 -0.015638 0.000000
161.66900635 265.51199341 435.00000000 0.272414 0.502799 0.820356 0.000000
73.70800018 244.33599854 410.00000000 -0.988851 -0.047088 0.141264 0.000000
239.44900513 193.02499390 407.50000000 -0.000978 -0.000978 -0.999999 0.000000
202.79899597 188.13900757 367.50000000 -0.000978 -0.000978 -0.999999 0.000000
170.22099304 255.33099365 435.00000000 0.001120 0.987081 0.160219 0.000000
77.37300110 200.35499573 302.50000000 -0.310618 0.929043 -0.200988 0.000000
136.01400757 232.11900330 357.50000000 -0.000978 -0.000978 -0.999999 0.000000
183.25199890 254.10899353 427.50000000 -0.237693 0.713080 0.659560 0.000000
115.24500275 220.71699524 460.00000000 -0.510658 0.567959 0.645485 0.000000
144.15800476 161.26199341 352.50000000 -0.000978 -0.000978 -0.999999 0.000000
104.25000000 185.69500732 322.50000000 0.933270 -0.141155 -0.330276 0.000000
153.11700439 151.48800659 352.50000000 -0.000978 -0.000978 -0.999999 0.000000
210.94299316 171.03500366 362.50000000 0.667300 0.230807 -0.708123 0.000000
231.30499268 148.63800049 420.00000000 -0.479660 -0.236023 0.845115 0.000000
201.57699585 164.52000427 355.00000000 0.490619 0.490619 -0.720129 0.000000
102.62100220 291.57400513 417.50000000 0.000978 0.000978 0.999999 0.000000
148.22999573 222.34599304 462.50000000 0.000978 0.000978 0.999999 0.000000
190.58200073 222.34599304 447.50000000 0.776155 0.001374 0.630540 0.000000
184.88099670 239.04200745 445.00000000 0.612056 0.612056 0.500773 0.000000
213.38699341 139.27099609 412.50000000 0.001225 -0.953933 0.300017 0.000000
79.81639862 201.16999817 302.50000000 0.836359 0.398491 0.376441 0.000000
79.81639862 197.09800720 437.50000000 0.000978 0.000978 0.999999 0.000000
220.71699524 224.78900146 402.50000000 0.816304 -0.323679 0.478414 0.000000
101.80699921 201.16999817 302.50000000 -0.749632 0.271009 0.603826 0.000000
115.24500275 186.50999451 460.00000000 -0.702468 -0.702468 0.114355 0.000000
204.42799377 227.23199463 422.50000000 0.000978 0.000978 0.999999 0.000000
163.70500183 165.33399963 452.50000000 0.016024 -0.287198 0.957737 0.000000
185.69500732 240.26400757 442.50000000 0.764464 0.576924 0.287667 0.000000
111.58000183 298.08999634 417.50000000 0.187512 0.511533 0.838554 0.000000
210.12899780 188.95300293 367.50000000 0.895948 0.256197 -0.362822 0.000000
199.54100037 185.69500732 442.50000000 0.001169 -0.218539 0.975828 0.000000
169.40600586 283.42999268 422.50000000 0.434634 0.206192 0.876686 0.000000
90.81150055 146.60200500 410.00000000 -0.607628 -0.486439 0.627826 0.000000
244.33599854 188.13900757 422.50000000 0.788518 -0.261794 0.556509 0.000000
153.93200684 292.38900757 422.50000000 -0.110442 0.418001 0.901708 0.000000
228.86099243 179.99400330 432.50000000 0.887476 -0.322855 -0.328862 0.000000
101.80699921 155.96800232 340.00000000 0.370756 0.863045 -0.343064 0.000000
118.09600067 302.97698975 367.50000000 -0.000978 -0.000978 -0.999999 0.000000
97.73439789 228.45399475 320.00000000 0.750339 0.250113 -0.611911 0.000000
164.52000427 276.91400146 392.50000000 -0.000978 -0.000978 -0.999999 0.000000
113.20899963 250.03700256 347.50000000 0.289455 0.224504 -0.930491 0.000000
184.47399902 215.83000183 375.00000000 -0.428804 0.362348 -0.827545 0.000000
128.68400574 184.88099670 467.50000000 0.000978 0.000978 0.999999 0.000000
144.15800476 196.28300476 372.50000000 -0.184375 -0.781690 0.595791 0.000000
70.45020294 252.47999573 340.00000000 -0.924742 0.369626 -0.090714 0.000000
146.60200500 184.88099670 362.50000000 -0.000978 -0.000978 -0.999999 0.000000
122.98200226 280.17199707 367.50000000 0.652010 0.216299 -0.726703 0.000000
108.32199860 203.61300659 462.50000000 0.184519 -0.925412 0.331007 0.000000
250.03700256 141.71499634 382.50000000 0.627563 0.482870 -0.610738 0.000000
159.63299561 285.87298584 427.50000000 -0.000978 -0.000978 0.999999 0.000000
127.05500031 241.07800293 357.50000000 0.693257 0.365476 -0.621145 0.000000
127.05500031 243.52099609 457.50000000 0.000978 0.000978 0.999999 0.000000
151.48800659 294.83200073 392.50000000 0.494540 0.432106 -0.754132 0.000000
220.71699524 122.57499695 360.00000000 -0.758582 -0.639822 0.123214 0.000000
114.83799744 219.90199280 337.50000000 0.491293 0.014806 -0.870868 0.000000
203.61300659 143.75100708 420.00000000 -0.347689 -0.170325 0.922010 0.000000
73.30079651 255.33099365 380.00000000 -0.942592 0.321248 0.091219 0.000000
72.48629761 219.90199280 312.50000000 -0.799744 0.073226 -0.595859 0.000000
180.40100098 212.57200623 380.00000000 -0.776155 -0.001374 -0.630540 0.000000
180.80900574 133.16299438 400.00000000 0.142956 -0.967209 0.209927 0.000000
180.80900574 193.02499390 452.50000000 -0.000978 -0.000978 0.999999 0.000000
100.99199677 196.28300476 457.50000000 0.000978 0.000978 0.999999 0.000000
175.92199707 204.42799377 387.50000000 -0.125468 -0.991309 0.039562 0.000000
133.57000732 193.02499390 467.50000000 0.000978 0.000978 0.999999 0.000000
141.71499634 293.60998535 425.00000000 -0.810835 0.469934 0.348866 0.000000
179.17999268 265.51199341 397.50000000 0.000978 0.000978 -0.999999 0.000000
122.16799927 294.83200073 422.50000000 -0.054782 0.554839 0.830152 0.000000
135.19900513 215.01600647 467.50000000 -0.000978 -0.000978 0.999999 0.000000
156.37500000 292.38900757 397.50000000 0.514913 0.595948 -0.616207 0.000000
195.46899414 160.44700623 352.50000000 0.127430 0.299126 -0.945667 0.000000
144.97300720 254.92399597 367.50000000 -0.000978 -0.000978 -0.999999 0.000000
176.73599243 181.62300110 357.50000000 0.549197 -0.552577 0.626930 0.000000
199.54100037 230.49000549 422.50000000 0.303028 0.442887 0.843816 0.000000
206.87100220 219.90199280 432.50000000 0.380190 0.533571 0.755485 0.000000
125.42600250 245.96499634 357.50000000 0.015827 0.269054 -0.962995 0.000000
124.61100006 131.53399658 345.00000000 -0.393640 -0.886805 -0.242126 0.000000
105.06400299 244.33599854 452.50000000 -0.820177 0.409292 0.399737 0.000000
160.44700623 294.01800537 402.50000000 0.564885 0.752641 -0.338284 0.000000
118.09600067 197.09800720 462.50000000 0.000978 0.000978 0.999999 0.000000
130.31199646 287.90899658 430.00000000 0.085070 0.803115 0.589720 0.000000
210.12899780 143.34399414 417.50000000 0.000978 0.000978 0.999999 0.000000
202.79899597 134.79200745 405.00000000 -0.001120 -0.987081 0.160219 0.000000
162.89100647 154.74600220 442.50000000 0.398272 0.011676 0.917193 0.000000
118.09600067 306.23400879 372.50000000 0.169745 0.985435 0.010253 0.000000
101.80699921 241.07800293 332.50000000 -0.000978 -0.000978 -0.999999 0.000000
210.12899780 139.67900085 350.00000000 0.958723 -0.138088 -0.248558 0.000000
73.70800018 246.77900696 320.00000000 -0.414021 -0.720825 -0.555876 0.000000
166.96299744 222.34599304 362.50000000 -0.000978 -0.000978 -0.999999 0.000000
227.23199463 127.46199799 380.00000000 -0.612056 -0.612056 0.500773 0.000000
219.08799744 232.11900330 387.50000000 0.626162 0.278825 -0.728133 0.000000
122.98200226 234.56199646 352.50000000 0.379498 -0.032603 -0.924618 0.000000
114.83799744 194.65400696 337.50000000 -0.000978 -0.000978 -0.999999 0.000000
149.04499817 145.78700256 347.50000000 -0.000978 -0.000978 -0.999999 0.000000
87.14649963 158.41099548 420.00000000 -0.530246 -0.709766 0.463758 0.000000
143.34399414 183.25199890 362.50000000 -0.000978 -0.000978 -0.999999 0.000000
178.36500549 204.02000427 385.00000000 -0.673568 -0.449602 -0.586656 0.000000
125.42600250 219.90199280 462.50000000 0.000978 0.000978 0.999999 0.000000
109.95099640 169.40600586 362.50000000 -0.000978 -0.000978 -0.999999 0.000000
211.75799561 131.94099426 387.50000000 -0.001267 -0.931504 0.363730 0.000000
140.89999390 213.38699341 352.50000000 -0.000978 -0.000978 -0.999999 0.000000
93.66210175 268.76998901 337.50000000 -0.000978 -0.000978 -0.999999 0.000000
187.73100281 243.52099609 435.00000000 0.464504 0.847758 0.256014 0.000000
171.03500366 129.09100342 410.00000000 0.379269 -0.921853 0.079633 0.000000
178.36500549 237.41299438 375.00000000 0.692677 0.576400 -0.433546 0.000000
110.76599884 166.14799500 362.50000000 -0.000978 -0.000978 -0.999999 0.000000
92.84760284 215.83000183 452.50000000 0.000978 0.000978 0.999999 0.000000
215.83000183 161.26199341 362.50000000 0.825992 0.328823 -0.457835 0.000000
203.61300659 224.78900146 372.50000000 -0.000978 -0.000978 -0.999999 0.000000
93.66210175 177.55099487 442.50000000 -0.665234 -0.601878 0.441822 0.000000
153.11700439 241.89300537 452.50000000 0.000978 0.000978 0.999999 0.000000
90.40429688 290.76000977 377.50000000 -0.702468 0.702468 0.114355 0.000000
193.02499390 230.49000549 442.50000000 0.000978 0.000978 0.999999 0.000000
149.04499817 186.50999451 367.50000000 0.148780 -0.764941 0.626681 0.000000
210.12899780 139.27099609 347.50000000 0.941511 -0.253005 0.222589 0.000000
85.51760101 286.68701172 347.50000000 0.668277 -0.668277 0.326821 0.000000
147.41600037 164.52000427 457.50000000 0.000978 0.000978 0.999999 0.000000
105.06400299 178.36500549 327.50000000 0.901084 -0.078176 -0.426540 0.000000
74.11519623 218.27299500 312.50000000 -0.915674 -0.102962 -0.388509 0.000000
194.65400696 239.44900513 412.50000000 0.661646 0.749114 0.032447 0.000000
171.85000610 168.59199524 452.50000000 -0.395698 -0.440554 0.805813 0.000000
89.58979797 245.14999390 317.50000000 -0.000978 -0.000978 -0.999999 0.000000
181.62300110 244.74299622 385.00000000 0.722610 0.378510 -0.578416 0.000000
74.92970276 217.45899963 307.50000000 -0.835783 0.227663 -0.499636 0.000000
131.12699890 234.15499878 355.00000000 -0.490619 0.490619 -0.720129 0.000000
139.27099609 163.70500183 452.50000000 -0.000978 -0.000978 0.999999 0.000000
68.82129669 199.54100037 355.00000000 -0.436898 0.440147 0.784468 0.000000
105.87899780 266.32598877 347.50000000 0.448391 0.044704 -0.892719 0.000000
149.85899353 194.24699402 370.00000000 -0.348563 -0.662761 0.662761 0.000000
130.31199646 188.13900757 467.50000000 0.000978 0.000978 0.999999 0.000000
222.34599304 205.24200439 387.50000000 0.000978 0.000978 -0.999999 0.000000
124.61100006 263.06799316 362.50000000 0.553028 -0.017840 -0.832972 0.000000
128.27600098 278.54299927 370.00000000 0.148193 0.441700 -0.884839 0.000000
113.20899963 135.60600281 400.00000000 -0.215125 -0.932207 0.291051 0.000000
232.11900330 159.63299561 377.50000000 -0.000978 -0.000978 -0.999999 0.000000
75.74410248 232.93400574 432.50000000 -0.794526 0.171012 0.582652 0.000000
107.50800323 294.83200073 417.50000000 -0.146925 0.817732 0.556532 0.000000
96.91989899 295.23901367 355.00000000 -0.314251 0.947882 -0.052589 0.000000
208.50000000 228.04699707 422.50000000 0.000978 0.000978 0.999999 0.000000
158.00399780 192.21099854 367.50000000 0.000978 0.000978 0.999999 0.000000
103.02799988 143.34399414 345.00000000 0.000978 0.000978 -0.999999 0.000000
125.42600250 237.82000732 352.50000000 -0.000978 -0.000978 -0.999999 0.000000
92.03320313 267.95498657 427.50000000 -0.476667 0.109562 0.872230 0.000000
89.58979797 275.28500366 337.50000000 0.397837 0.314891 -0.861725 0.000000
238.22799683 202.79899597 425.00000000 0.705609 -0.525453 0.475410 0.000000
87.14649963 148.22999573 407.50000000 -0.584919 -0.504008 0.635488 0.000000
171.03500366 219.90199280 457.50000000 0.000978 0.000978 0.999999 0.000000
140.08599854 252.47999573 452.50000000 0.000978 0.000978 0.999999 0.000000
218.68099976 189.76800537 375.00000000 0.784092 0.265554 -0.560964 0.000000
174.69999695 266.32598877 425.00000000 0.657713 0.145991 0.738986 0.000000
187.32400513 149.85899353 432.50000000 0.000978 0.000978 0.999999 0.000000
197.91200256 144.97300720 347.50000000 0.217585 -0.375297 -0.901005 0.000000
105.06400299 262.25399780 347.50000000 0.000978 0.000978 -0.999999 0.000000
148.63800049 273.65600586 380.00000000 0.303802 0.737806 -0.602782 0.000000
108.32199860 140.08599854 342.50000000 -0.609379 -0.001369 -0.792878 0.000000
237.82000732 199.54100037 422.50000000 -0.728106 -0.070929 0.681785 0.000000
100.58499908 212.57200623 305.00000000 -0.966769 -0.224681 0.121970 0.000000
104.25000000 257.36700439 342.50000000 0.485763 0.106839 -0.867536 0.000000
155.56100464 250.03700256 447.50000000 0.415826 0.571553 0.707401 0.000000
101.80699921 229.67599487 452.50000000 0.000978 0.000978 0.999999 0.000000
126.64700317 196.28300476 355.00000000 0.482057 -0.806610 -0.342054 0.000000
85.51760101 223.16000366 447.50000000 -0.000978 -0.000978 0.999999 0.000000
171.85000610 227.23199463 452.50000000 -0.000978 -0.000978 0.999999 0.000000
175.10699463 144.15800476 432.50000000 -0.568076 -0.628760 -0.530990 0.000000
130.31199646 238.63499451 457.50000000 0.000978 0.000978 0.999999 0.000000
107.50800323 259.81100464 447.50000000 0.000978 0.000978 0.999999 0.000000
114.83799744 176.73599243 457.50000000 -0.702468 0.702468 0.114355 0.000000
179.17999268 269.58401489 397.50000000 0.000978 0.000978 -0.999999 0.000000
102.62100220 155.56100464 317.50000000 -0.339088 0.039969 -0.939905 0.000000
114.02300262 169.40600586 447.50000000 0.001307 -0.897798 -0.440405 0.000000
223.16000366 223.16000366 392.50000000 0.439521 -0.439521 -0.783353 0.000000
220.71699524 171.03500366 367.50000000 -0.000978 -0.000978 -0.999999 0.000000
99.36329651 214.20100403 302.50000000 -0.923966 -0.252770 0.287044 0.000000
78.59470367 184.06599426 330.00000000 -0.612056 -0.612056 -0.500773 0.000000
104.25000000 153.52400208 430.00000000 -0.604823 0.303214 0.736376 0.000000
153.93200684 232.11900330 362.50000000 -0.000978 -0.000978 -0.999999 0.000000
76.15139771 215.01600647 305.00000000 -0.668277 -0.668277 0.326821 0.000000
217.45899963 232.93400574 382.50000000 0.771371 0.151868 -0.617999 0.000000
142.52900696 193.83999634 367.50000000 -0.560029 -0.417957 0.715318 0.000000
223.16000366 231.71200562 395.00000000 0.949175 0.314746 -0.001234 0.000000
188.13900757 232.11900330 442.50000000 0.000978 0.000978 0.999999 0.000000
93.66210175 267.14099121 432.50000000 -0.000978 -0.000978 0.999999 0.000000
75.74410248 269.99099731 365.00000000 -0.841245 0.509528 -0.180800 0.000000
245.14999390 166.14799500 397.50000000 0.875995 0.314265 -0.365883 0.000000
103.43599701 144.56500244 420.00000000 -0.297466 -0.892399 0.339321 0.000000
112.39499664 258.99600220 352.50000000 -0.000978 -0.000978 -0.999999 0.000000
237.82000732 186.50999451 427.50000000 0.000978 0.000978 0.999999 0.000000
123.79699707 223.16000366 462.50000000 0.000978 0.000978 0.999999 0.000000
176.73599243 202.79899597 457.50000000 0.501858 0.351141 0.790467 0.000000
221.53100586 206.05700684 387.50000000 0.000978 0.000978 -0.999999 0.000000
110.76599884 269.17700195 440.00000000 -0.659557 0.495087 0.565574 0.000000
158.00399780 175.92199707 357.50000000 0.071151 0.379920 -0.922279 0.000000
143.34399414 280.98599243 377.50000000 0.937401 -0.313379 0.151900 0.000000
167.77699280 216.64500427 457.50000000 0.545521 0.060613 0.835902 0.000000
162.07600403 293.20300293 407.50000000 0.627715 0.773357 -0.088841 0.000000
136.82800293 205.24200439 352.50000000 0.703654 -0.176297 -0.688324 0.000000
118.09600067 245.96499634 452.50000000 -0.285754 0.123605 0.950298 0.000000
123.79699707 139.27099609 427.50000000 0.145912 -0.457961 -0.876916 0.000000
219.08799744 229.67599487 387.50000000 0.987081 -0.001120 -0.160219 0.000000
99.36329651 217.05200195 305.00000000 -0.979252 -0.146950 0.139540 0.000000
83.88870239 266.73300171 420.00000000 -0.576473 0.462849 0.673387 0.000000
128.68400574 240.26400757 357.50000000 -0.000978 -0.000978 -0.999999 0.000000
84.29589844 282.61499023 395.00000000 0.846613 -0.424083 -0.321558 0.000000
135.19900513 153.93200684 442.50000000 -0.109331 -0.464300 0.878904 0.000000
183.65899658 253.29499817 400.00000000 0.814861 0.573421 -0.084792 0.000000
190.98899841 197.91200256 370.00000000 -0.542210 0.315089 -0.778927 0.000000
132.75599670 285.05899048 372.50000000 0.880377 0.155190 -0.448166 0.000000
79.40920258 267.95498657 400.00000000 -0.612056 -0.612056 -0.500773 0.000000
150.67399597 200.35499573 377.50000000 -0.472384 -0.871094 0.134348 0.000000
139.27099609 154.74600220 347.50000000 -0.000978 -0.000978 -0.999999 0.000000
149.85899353 150.67399597 442.50000000 0.022179 -0.397912 0.917155 0.000000
176.73599243 240.26400757 377.50000000 0.729490 0.458206 -0.507831 0.000000
113.20899963 269.58401489 442.50000000 -0.659557 0.495087 0.565574 0.000000
87.96089935 267.14099121 422.50000000 -0.451044 -0.544248 0.707356 0.000000
187.32400513 131.12699890 342.50000000 0.702468 -0.702468 -0.114355 0.000000
86.33200073 262.66101074 425.00000000 -0.614384 0.680625 0.399101 0.000000
115.65200043 133.57000732 392.50000000 -0.163138 -0.969836 0.181122 0.000000
102.21399689 201.98399353 320.00000000 0.902183 -0.226642 -0.367014 0.000000
72.07910156 216.64500427 415.00000000 -0.987081 0.001120 0.160219 0.000000
109.13700104 279.35699463 432.50000000 0.000978 0.000978 0.999999 0.000000
202.79899597 147.41600037 347.50000000 -0.000978 -0.000978 -0.999999 0.000000
114.43099976 266.32598877 355.00000000 0.828241 0.066542 -0.556408 0.000000
98.95600128 221.53100586 305.00000000 -0.770896 -0.266424 0.578566 0.000000
228.86099243 174.29299927 427.50000000 0.202367 0.044305 0.978307 0.000000
113.20899963 307.45599365 370.00000000 0.088628 0.991018 0.100138 0.000000
205.24200439 236.19099426 412.50000000 0.000978 0.000978 -0.999999 0.000000
206.87100220 170.22099304 357.50000000 -0.000978 -0.000978 -0.999999 0.000000
179.99400330 263.06799316 392.50000000 0.839995 -0.420780 0.342568 0.000000
108.32199860 302.97698975 402.50000000 -0.701004 0.703968 -0.114117 0.000000
173.47799683 238.63499451 447.50000000 -0.000978 -0.000978 0.999999 0.000000
186.50999451 138.45700073 412.50000000 0.449334 -0.851128 0.271441 0.000000
166.96299744 166.14799500 392.50000000 0.885213 -0.441887 0.145376 0.000000
169.40600586 190.58200073 367.50000000 0.000978 0.000978 0.999999 0.000000
228.04699707 157.18899536 427.50000000 0.000978 0.000978 0.999999 0.000000
200.35499573 162.07600403 352.50000000 0.214235 0.374547 -0.902119 0.000000
85.51760101 261.43899536 427.50000000 -0.588807 0.773103 0.235835 0.000000
113.20899963 238.63499451 347.50000000 -0.642737 0.642737 0.416866 0.000000
188.13900757 236.19099426 442.50000000 0.000978 0.000978 0.999999 0.000000
100.17800140 143.34399414 352.50000000 -0.656849 -0.730687 -0.186133 0.000000
96.10549927 270.39801025 432.50000000 0.000978 0.000978 0.999999 0.000000
210.94299316 139.27099609 352.50000000 0.837144 -0.146168 -0.527091 0.000000
221.12399292 235.37699890 390.00000000 0.541445 0.271507 -0.795689 0.000000
104.25000000 179.17999268 322.50000000 0.987081 0.001120 -0.160219 0.000000
67.19239807 215.83000183 335.00000000 -0.993685 -0.110653 0.018625 0.000000
157.18899536 255.73800659 442.50000000 0.000978 0.000978 0.999999 0.000000
163.70500183 228.86099243 362.50000000 -0.000978 -0.000978 -0.999999 0.000000
179.99400330 224.78900146 452.50000000 0.000978 0.000978 0.999999 0.000000
160.44700623 293.20300293 422.50000000 0.128202 0.409964 0.903047 0.000000
149.85899353 151.48800659 352.50000000 -0.000978 -0.000978 -0.999999 0.000000
74.92970276 237.82000732 312.50000000 -0.000978 -0.000978 -0.999999 0.000000
193.83999634 158.81799316 437.50000000 0.065829 -0.508428 0.858585 0.000000
106.28600311 206.05700684 325.00000000 0.827892 -0.149583 -0.540573 0.000000
166.96299744 133.97799683 425.00000000 0.112942 -0.796463 0.594047 0.000000
94.47650146 227.23199463 302.50000000 -0.840343 -0.535023 0.087030 0.000000
76.96579742 257.36700439 415.00000000 -0.935477 0.103643 0.337848 0.000000
171.03500366 196.28300476 377.50000000 0.132746 0.774104 -0.618985 0.000000
93.25489807 292.38900757 385.00000000 -0.659957 0.751272 0.006918 0.000000
183.25199890 188.13900757 357.50000000 -0.000978 -0.000978 -0.999999 0.000000
85.51760101 249.22300720 317.50000000 -0.077996 0.339747 -0.937277 0.000000
76.55860138 266.32598877 337.50000000 -0.876355 0.447719 -0.177620 0.000000
221.53100586 140.49299622 355.00000000 0.775263 0.411198 -0.479461 0.000000
240.26400757 131.12699890 387.50000000 0.668277 -0.668277 -0.326821 0.000000
184.88099670 207.68600464 452.50000000 0.194454 0.375944 0.906010 0.000000
182.84500122 251.66600037 430.00000000 -0.631142 0.506597 0.587383 0.000000
128.68400574 200.35499573 347.50000000 0.668277 -0.668277 -0.326821 0.000000
223.97500610 153.93200684 367.50000000 -0.000978 -0.000978 -0.999999 0.000000
101.80699921 210.12899780 457.50000000 -0.176984 -0.352553 0.918903 0.000000
232.11900330 203.61300659 427.50000000 0.000978 0.000978 0.999999 0.000000
132.75599670 128.68400574 397.50000000 0.001120 -0.987081 -0.160219 0.000000
79.40920258 230.49000549 305.00000000 -0.863422 0.125405 -0.488648 0.000000
245.14999390 146.60200500 412.50000000 0.000978 0.000978 0.999999 0.000000
72.48629761 220.71699524 417.50000000 -0.987081 0.001120 0.160219 0.000000
133.57000732 298.08999634 422.50000000 -0.620820 0.132501 0.772675 0.000000
174.29299927 264.69699097 387.50000000 0.539354 0.613748 -0.576551 0.000000
144.97300720 216.64500427 467.50000000 0.000978 0.000978 0.999999 0.000000
140.89999390 125.83300018 400.00000000 -0.084829 -0.925037 -0.370284 0.000000
72.89350128 224.78900146 430.00000000 -0.772402 0.171476 0.611548 0.000000
197.09800720 213.38699341 367.50000000 -0.000978 -0.000978 -0.999999 0.000000
117.28099823 220.71699524 462.50000000 -0.670397 0.502378 0.546063 0.000000
160.44700623 286.68701172 392.50000000 -0.055566 0.631173 -0.773650 0.000000
191.39599609 210.94299316 367.50000000 -0.000978 -0.000978 -0.999999 0.000000
69.22850037 225.60299683 327.50000000 -0.949081 -0.063272 -0.308613 0.000000
159.63299561 157.18899536 352.50000000 0.000978 0.000978 -0.999999 0.000000
183.25199890 131.94099426 397.50000000 -0.171665 -0.940726 0.292518 0.000000
99.36329651 268.76998901 342.50000000 0.775920 0.427813 -0.463600 0.000000
80.63079834 232.52600098 305.00000000 -0.830733 0.201252 -0.519019 0.000000
143.34399414 218.27299500 352.50000000 0.378984 0.040652 -0.924510 0.000000
146.19400024 219.08799744 355.00000000 0.339398 0.492366 -0.801489 0.000000
241.07800293 194.65400696 407.50000000 -0.000978 -0.000978 -0.999999 0.000000
87.14649963 145.78700256 397.50000000 -0.684553 -0.658660 0.312337 0.000000
114.83799744 217.45899963 337.50000000 0.533188 0.239548 -0.811373 0.000000
131.12699890 271.21301270 367.50000000 0.645605 0.706481 -0.289962 0.000000
138.45700073 297.27499390 382.50000000 -0.000978 -0.000978 -0.999999 0.000000
110.76599884 289.94500732 357.50000000 -0.000978 -0.000978 -0.999999 0.000000
115.65200043 198.72700500 462.50000000 0.000978 0.000978 0.999999 0.000000
91.21869659 158.00399780 347.50000000 -0.467746 -0.845010 -0.259177 0.000000
136.82800293 129.49800110 417.50000000 0.000000 0.000000 0.000000 0.000000
97.73439789 218.27299500 452.50000000 -0.414069 -0.345318 0.842201 0.000000
250.44400024 162.89100647 400.00000000 0.606001 0.582369 -0.541856 0.000000
