160.28100586 310.98098755 133.75000000 -0.001335 -0.864020 0.503455 0.000000
142.85899353 243.90600586 233.75000000 -0.423086 0.119476 -0.898178 0.000000
224.74200439 154.18400574 171.25000000 -0.001244 0.944109 -0.329630 0.000000
189.89799500 160.28100586 91.25000000 0.472931 -0.079519 0.877504 0.000000
263.94100952 175.96099854 171.25000000 -0.963427 -0.220324 -0.152532 0.000000
195.99600220 225.61300659 158.75000000 -0.944109 -0.001244 0.329630 0.000000
202.96499634 206.44900513 143.75000000 0.076291 0.233875 0.969269 0.000000
180.75199890 218.64500427 122.50000000 -0.679356 0.340492 0.650031 0.000000
148.08599854 198.17399597 117.50000000 -0.339320 0.525866 0.779953 0.000000
187.28500366 252.61700439 203.75000000 -0.631103 -0.308288 -0.711806 0.000000
195.99600220 280.49200439 161.25000000 -0.979252 -0.139540 0.146950 0.000000
95.38480377 251.74600220 137.50000000 0.944109 -0.001244 0.329630 0.000000
192.07600403 294.42999268 157.50000000 -0.932816 -0.156160 0.324758 0.000000
172.47700500 203.83599854 211.25000000 -0.650376 0.186041 -0.736478 0.000000
168.99200439 293.55899048 198.75000000 0.366786 0.062235 -0.928221 0.000000
202.09399414 222.56500244 190.00000000 -0.900412 -0.300137 -0.314922 0.000000
217.77299500 199.91600037 137.50000000 -0.101162 -0.775574 0.623098 0.000000
245.64799500 208.19099426 176.25000000 -0.279318 -0.959613 0.033518 0.000000
160.28100586 308.36700439 188.75000000 -0.001381 -0.691755 -0.722131 0.000000
176.39700317 206.44900513 207.50000000 -0.759573 0.378973 -0.528610 0.000000
148.95700073 229.09800720 231.25000000 -0.309384 -0.021294 -0.950699 0.000000
148.08599854 235.19500732 108.75000000 -0.089196 0.105413 0.990420 0.000000
120.21099854 310.54501343 175.00000000 0.756511 -0.649472 0.076664 0.000000
156.79699707 245.64799500 228.75000000 -0.552075 -0.124473 -0.824451 0.000000
228.66200256 196.86700439 142.50000000 -0.836224 0.078351 0.542762 0.000000
147.64999390 197.73800659 117.50000000 -0.339320 0.525866 0.779953 0.000000
170.73399353 202.96499634 148.75000000 -0.154605 -0.595903 0.788033 0.000000
97.99810028 270.03900146 142.50000000 0.880146 -0.310551 0.359027 0.000000
235.19500732 169.86300659 181.25000000 0.126951 0.736314 -0.664624 0.000000
202.96499634 244.34199524 185.00000000 -0.734757 0.450761 -0.506900 0.000000
96.69139862 279.62100220 158.75000000 0.850856 -0.455323 0.262156 0.000000
241.72900391 183.80099487 152.50000000 -0.705841 -0.549725 0.446756 0.000000
200.35200500 150.26400757 147.50000000 -0.001244 0.944109 -0.329630 0.000000
189.89799500 265.68399048 193.75000000 -0.558850 -0.280217 -0.780490 0.000000
121.08200073 184.67199707 113.75000000 -0.691755 -0.001381 0.722131 0.000000
152.44099426 218.64500427 111.25000000 0.335059 0.787147 0.517818 0.000000
144.60200500 252.61700439 106.25000000 -0.429988 -0.117013 0.895220 0.000000
204.70700073 201.22300720 193.75000000 -0.340378 0.540410 -0.769480 0.000000
113.24199677 236.93800354 228.75000000 0.517083 -0.065862 -0.853397 0.000000
164.63699341 291.81600952 116.25000000 -0.944109 0.001244 0.329630 0.000000
185.97900391 236.93800354 125.00000000 -0.841029 -0.130177 0.525095 0.000000
185.54299927 192.07600403 140.00000000 0.466245 -0.859030 0.211384 0.000000
191.64100647 294.42999268 156.25000000 -0.932816 -0.156160 0.324758 0.000000
102.78900146 256.10198975 116.25000000 0.924117 -0.238528 0.298517 0.000000
124.56600189 309.67401123 182.50000000 0.378973 -0.759573 -0.528610 0.000000
136.76199341 162.02299500 121.25000000 0.764121 0.092045 0.638472 0.000000
95.38480377 234.32400513 212.50000000 0.745145 0.035348 -0.665965 0.000000
169.86300659 256.10198975 216.25000000 -0.639026 -0.205788 -0.741146 0.000000
106.27300262 197.73800659 211.25000000 0.501947 0.748806 -0.432826 0.000000
139.37500000 258.71499634 101.25000000 -0.502755 0.502755 0.703189 0.000000
118.46900177 202.96499634 106.25000000 0.000978 0.000978 0.999999 0.000000
202.09399414 189.02699280 128.75000000 0.125599 -0.793488 0.595485 0.000000
251.31100464 169.86300659 152.50000000 -0.960424 0.274228 0.048835 0.000000
221.25799561 224.30700684 167.50000000 0.128023 -0.904602 0.406578 0.000000
192.51199341 166.37899780 183.75000000 0.099528 0.540913 -0.835169 0.000000
135.89100647 158.10400391 165.00000000 0.499906 0.778172 -0.380188 0.000000
139.37500000 154.61900330 150.00000000 -0.242814 -0.970072 0.001184 0.000000
266.11898804 162.02299500 155.00000000 -0.346023 -0.865827 -0.361402 0.000000
141.98800659 296.17199707 111.25000000 0.130849 -0.872809 0.470195 0.000000
110.62899780 213.41799927 98.75000000 -0.657231 0.297281 0.692583 0.000000
189.02699280 230.83999634 203.75000000 -0.883730 -0.182589 -0.430910 0.000000
164.63699341 213.85400391 115.00000000 -0.005950 0.243931 0.969774 0.000000
168.12100220 194.25399780 201.25000000 -0.610605 0.692896 -0.383480 0.000000
181.18800354 304.88299561 176.25000000 -0.527033 -0.709915 -0.467180 0.000000
155.92599487 152.44099426 113.75000000 -0.162131 -0.411784 0.896743 0.000000
262.19900513 183.80099487 171.25000000 -0.928964 -0.364430 0.064935 0.000000
215.16000366 221.69299316 162.50000000 0.323371 -0.931252 0.167931 0.000000
121.95300293 193.38299561 108.75000000 -0.073763 0.646514 0.759328 0.000000
247.39100647 182.92999268 178.75000000 -0.687573 0.275987 -0.671620 0.000000
157.66799927 272.21701050 217.50000000 -0.448889 -0.455419 -0.768825 0.000000
200.35200500 221.25799561 196.25000000 -0.918973 0.230818 -0.319705 0.000000
229.09800720 153.31300354 123.75000000 -0.180034 0.967523 0.177444 0.000000
108.88700104 267.42599487 108.75000000 0.688385 -0.685235 0.237863 0.000000
130.22900391 230.83999634 235.00000000 0.544642 0.179536 -0.819226 0.000000
141.98800659 191.64100647 216.25000000 0.277866 0.830494 -0.482773 0.000000
249.13299561 190.77000427 163.75000000 -0.625405 -0.233547 0.744530 0.000000
177.70300293 164.63699341 183.75000000 -0.041018 0.632243 -0.773684 0.000000
198.60899353 221.25799561 156.25000000 -0.492947 -0.821578 0.286379 0.000000
182.92999268 300.96301270 142.50000000 -0.808520 -0.349242 0.473630 0.000000
187.28500366 286.58999634 186.25000000 -0.431343 -0.732125 -0.527196 0.000000
157.66799927 304.88299561 123.75000000 -0.204793 -0.832825 0.514258 0.000000
175.08999634 257.84399414 123.75000000 -0.528932 -0.263686 0.806660 0.000000
121.51799774 168.12100220 157.50000000 0.688385 0.685235 -0.237863 0.000000
202.09399414 261.32800293 178.75000000 0.000978 0.000978 -0.999999 0.000000
189.02699280 213.85400391 137.50000000 -0.569358 0.569358 -0.593011 0.000000
173.34800720 211.24000549 132.50000000 -0.102945 0.955176 -0.277561 0.000000
181.18800354 192.07600403 147.50000000 -0.652205 -0.740382 -0.162671 0.000000
94.07810211 271.78100586 156.25000000 0.940442 -0.234763 0.245876 0.000000
224.74200439 164.63699341 91.25000000 -0.383131 -0.600184 0.702133 0.000000
137.63299561 309.23800659 188.75000000 -0.944109 0.001244 -0.329630 0.000000
157.66799927 315.33599854 176.25000000 -0.189692 -0.880819 -0.433792 0.000000
236.06599426 153.74800110 165.00000000 0.687867 0.684719 -0.240832 0.000000
189.02699280 196.86700439 196.25000000 0.637827 0.212609 -0.740252 0.000000
138.50399780 309.23800659 136.25000000 0.444867 -0.444867 0.777295 0.000000
154.61900330 155.92599487 115.00000000 0.194500 -0.336470 0.921389 0.000000
201.22300720 257.84399414 161.25000000 -0.664750 -0.359458 0.654902 0.000000
105.83799744 191.64100647 145.00000000 0.944309 0.328945 -0.008755 0.000000
246.08399963 165.50799561 112.50000000 -0.758856 -0.640053 -0.120288 0.000000
142.85899353 183.36500549 207.50000000 -0.205372 0.826054 -0.524841 0.000000
190.77000427 165.50799561 91.25000000 -0.001360 -0.819933 0.572458 0.000000
270.03900146 166.37899780 166.25000000 -0.582761 -0.420053 -0.695661 0.000000
171.60600281 173.34800720 121.25000000 0.933019 -0.347700 0.092631 0.000000
126.30899811 179.44500732 196.25000000 0.244762 0.787293 -0.565916 0.000000
123.26000214 201.22300720 222.50000000 -0.101367 0.639052 -0.762455 0.000000
229.96899414 201.22300720 183.75000000 -0.201986 0.533061 -0.821613 0.000000
87.54489899 251.74600220 170.00000000 0.985368 -0.001129 0.170436 0.000000
224.74200439 165.50799561 91.25000000 -0.277342 -0.762295 0.584796 0.000000
209.93400574 156.36099243 175.00000000 -0.001244 0.944109 -0.329630 0.000000
206.44900513 253.48800659 173.75000000 -0.901248 -0.300416 -0.312255 0.000000
132.40600586 246.52000427 233.75000000 0.043926 -0.116010 -0.992276 0.000000
121.95300293 208.19099426 106.25000000 -0.174686 0.060605 0.982757 0.000000
185.54299927 148.08599854 138.75000000 -0.175991 0.952500 -0.248537 0.000000
91.46489716 250.00399780 206.25000000 0.903324 -0.066762 -0.423731 0.000000
124.56600189 245.64799500 233.75000000 0.001360 -0.819933 -0.572458 0.000000
159.41000366 169.42799377 120.00000000 0.283873 -0.049205 0.957599 0.000000
192.94700623 272.65200806 152.50000000 -0.935192 -0.094991 0.341164 0.000000
149.39300537 232.58200073 110.00000000 -0.601601 0.232828 0.764112 0.000000
152.44099426 238.67999268 111.25000000 -0.292988 -0.089850 0.951885 0.000000
109.75800323 296.60800171 152.50000000 0.685235 -0.688385 0.237863 0.000000
141.98800659 267.42599487 226.25000000 -0.435377 -0.403246 -0.804885 0.000000
249.13299561 155.49000549 132.50000000 -0.195965 0.979827 0.039193 0.000000
187.28500366 192.94700623 140.00000000 0.441244 -0.883935 0.154797 0.000000
95.82029724 222.12899780 146.25000000 0.900412 0.300137 0.314922 0.000000
104.96700287 246.52000427 222.50000000 0.841029 0.130177 -0.525095 0.000000
162.02299500 262.19900513 116.25000000 -0.650779 -0.613974 0.446679 0.000000
98.43360138 206.01400757 205.00000000 0.999999 -0.000978 -0.000978 0.000000
158.10400391 212.54699707 225.00000000 -0.418570 0.150000 -0.895712 0.000000
169.86300659 207.32000732 151.25000000 -0.112252 -0.055559 0.992125 0.000000
137.63299561 260.45700073 98.75000000 -0.707716 0.202868 0.676744 0.000000
161.15199280 308.36700439 128.75000000 0.032379 -0.767241 0.640541 0.000000
95.38480377 209.06300354 100.00000000 0.984091 -0.121955 -0.129200 0.000000
202.09399414 221.25799561 191.25000000 -0.900412 -0.300137 -0.314922 0.000000
107.58000183 189.02699280 160.00000000 0.691522 -0.682071 -0.237858 0.000000
225.61300659 191.20500183 137.50000000 -0.362155 -0.637459 0.680066 0.000000
235.63099670 174.21899414 125.00000000 -0.522524 -0.818468 0.238912 0.000000
185.54299927 185.54299927 153.75000000 -0.976255 -0.198206 -0.087407 0.000000
138.50399780 270.91000366 96.25000000 -0.634263 0.630916 0.446829 0.000000
110.62899780 195.99600220 211.25000000 0.298780 0.875108 -0.380679 0.000000
215.16000366 167.25000000 91.25000000 -0.378973 -0.759573 0.528610 0.000000
206.44900513 150.69900513 113.75000000 -0.300416 0.901248 -0.312255 0.000000
137.19700623 263.07000732 97.50000000 -0.575774 0.255725 0.776588 0.000000
150.69900513 314.89999390 180.00000000 0.001244 -0.944109 -0.329630 0.000000
175.08999634 230.40400696 217.50000000 -0.363277 0.335686 -0.869106 0.000000
179.44500732 204.70700073 153.75000000 -0.402446 -0.174537 0.898651 0.000000
182.05900574 270.91000366 201.25000000 -0.632660 -0.373023 -0.678672 0.000000
150.69900513 196.43200684 125.00000000 0.326009 -0.686078 -0.650396 0.000000
236.93800354 197.73800659 181.25000000 -0.291281 -0.165469 -0.942218 0.000000
230.83999634 170.73399353 181.25000000 -0.000978 -0.000978 -0.999999 0.000000
195.99600220 228.22700500 163.75000000 -0.982619 -0.177038 0.055844 0.000000
160.28100586 301.83401489 120.00000000 -0.129420 -0.917074 0.377128 0.000000
205.57800293 248.26199341 166.25000000 -0.581753 -0.001362 -0.813364 0.000000
199.04499817 265.68399048 160.00000000 -0.872171 -0.115623 0.475340 0.000000
153.31300354 243.90600586 111.25000000 -0.192055 -0.017460 0.981229 0.000000
120.21099854 194.25399780 108.75000000 0.354031 0.426411 0.832367 0.000000
224.74200439 189.02699280 183.75000000 -0.000978 -0.000978 -0.999999 0.000000
130.66400146 297.91400146 121.25000000 0.460770 -0.762485 0.454211 0.000000
199.04499817 168.12100220 92.50000000 0.130789 -0.904272 0.406430 0.000000
226.91999817 193.38299561 140.00000000 -0.562800 -0.345465 0.750940 0.000000
204.70700073 152.44099426 163.75000000 -0.300416 0.901248 0.312255 0.000000
128.05099487 307.06100464 190.00000000 0.117834 -0.833565 -0.539708 0.000000
127.18000031 168.99200439 176.25000000 0.210288 0.916970 -0.339036 0.000000
90.15820313 259.58599854 160.00000000 0.919484 -0.201003 0.337857 0.000000
141.11700439 213.41799927 111.25000000 0.000978 0.000978 0.999999 0.000000
164.63699341 184.67199707 126.25000000 0.068126 -0.485223 0.871733 0.000000
170.29899597 169.86300659 135.00000000 -0.350593 -0.452122 0.820165 0.000000
113.24199677 267.42599487 96.25000000 0.655374 -0.537440 0.530701 0.000000
175.96099854 181.18800354 126.25000000 0.356680 -0.773077 0.524530 0.000000
140.24600220 153.74800110 132.50000000 -0.234763 -0.940442 0.245876 0.000000
190.33399963 268.29699707 147.50000000 -0.791752 -0.230863 0.565537 0.000000
121.95300293 288.33200073 113.75000000 0.378973 -0.759573 0.528610 0.000000
250.87500000 194.25399780 178.75000000 -0.618641 -0.018073 -0.785466 0.000000
185.54299927 182.92999268 153.75000000 -0.537405 -0.182146 0.823419 0.000000
153.31300354 197.30299377 125.00000000 0.369230 -0.710563 -0.598973 0.000000
213.41799927 185.54299927 126.25000000 -0.061397 -0.792454 0.606834 0.000000
118.03299713 173.34800720 165.00000000 0.782598 0.622490 -0.006901 0.000000
145.90800476 186.41400146 135.00000000 0.274845 -0.327756 0.903901 0.000000
101.91799927 198.60899353 121.25000000 0.961120 0.170075 -0.217537 0.000000
121.95300293 202.09399414 106.25000000 -0.310111 0.151640 0.938529 0.000000
212.54699707 220.82200623 165.00000000 0.441244 -0.883935 0.154797 0.000000
152.00599670 173.34800720 122.50000000 0.229657 -0.333652 0.914294 0.000000
171.60600281 265.68399048 211.25000000 -0.691864 -0.568495 -0.445127 0.000000
187.72099304 259.58599854 200.00000000 -0.702669 -0.411682 -0.580322 0.000000
164.63699341 305.75399780 126.25000000 -0.091771 -0.782241 0.616179 0.000000
114.11299896 298.35000610 145.00000000 0.754768 -0.452203 0.475224 0.000000
185.54299927 179.00999451 152.50000000 0.673428 -0.223434 0.704678 0.000000
143.73100281 168.12100220 121.25000000 0.339784 -0.542689 0.768138 0.000000
184.67199707 215.59599304 130.00000000 -0.429988 0.895220 0.117013 0.000000
184.67199707 301.39898682 178.75000000 -0.000978 -0.000978 -0.999999 0.000000
202.09399414 168.55700684 92.50000000 0.138715 -0.971003 -0.194710 0.000000
96.25589752 260.45700073 210.00000000 0.825271 -0.175877 -0.536652 0.000000
230.83999634 174.65400696 120.00000000 -0.438586 -0.771194 0.461412 0.000000
197.30299377 238.67999268 155.00000000 -0.802574 0.574553 0.160515 0.000000
220.38699341 200.35200500 138.75000000 -0.216268 -0.627021 0.748380 0.000000
180.75199890 210.80499268 205.00000000 -0.918973 0.230818 -0.319705 0.000000
153.31300354 270.03900146 108.75000000 0.000978 0.999999 0.000978 0.000000
210.80499268 161.15199280 181.25000000 -0.004041 0.526721 -0.850028 0.000000
180.31599426 262.19900513 206.25000000 -0.486136 -0.590428 -0.644256 0.000000
163.33000183 201.22300720 132.50000000 0.741946 -0.667031 -0.067712 0.000000
222.56500244 207.32000732 157.50000000 -0.767736 0.559373 0.312544 0.000000
162.02299500 175.96099854 123.75000000 0.301830 -0.206367 0.930758 0.000000
102.78900146 276.13699341 138.75000000 0.801779 -0.422581 0.422581 0.000000
105.83799744 255.23100281 102.50000000 0.894121 -0.355565 0.272253 0.000000
132.40600586 249.13299561 98.75000000 -0.692076 0.130045 0.710013 0.000000
179.00999451 153.31300354 120.00000000 -0.945644 -0.325182 0.003738 0.000000
101.04699707 286.58999634 193.75000000 0.531895 -0.698633 -0.478539 0.000000
96.69139862 197.73800659 91.25000000 0.108886 -0.332036 -0.936961 0.000000
213.41799927 208.62699890 142.50000000 0.113488 -0.900900 0.418926 0.000000
94.07810211 242.16400146 211.25000000 0.653708 0.326043 -0.682906 0.000000
94.94920349 198.60899353 91.25000000 0.711053 0.258133 0.654042 0.000000
187.28500366 249.13299561 133.75000000 -0.853514 -0.427529 0.297881 0.000000
252.61700439 202.09399414 178.75000000 0.000000 0.000000 0.000000 0.000000
227.35600281 178.13900757 122.50000000 0.001244 -0.944109 0.329630 0.000000
136.76199341 316.20700073 173.75000000 0.260662 -0.964075 -0.051135 0.000000
222.12899780 152.87699890 167.50000000 -0.313483 0.943117 -0.110720 0.000000
152.44099426 282.23400879 106.25000000 -0.672243 0.230349 0.703583 0.000000
169.86300659 306.62500000 183.75000000 -0.446544 -0.718786 -0.532865 0.000000
193.38299561 170.73399353 186.25000000 0.104355 0.496045 -0.862003 0.000000
201.22300720 149.39300537 132.50000000 -0.064788 0.992284 -0.105707 0.000000
260.45700073 174.21899414 163.75000000 -0.382855 -0.489472 0.783479 0.000000
146.77900696 239.55099487 232.50000000 -0.411789 -0.014380 -0.911166 0.000000
139.37500000 249.13299561 233.75000000 0.038142 -0.385363 -0.921977 0.000000
138.50399780 307.49600220 131.25000000 0.244051 0.244051 0.938551 0.000000
192.51199341 266.98999023 150.00000000 -0.794496 -0.183813 0.578782 0.000000
97.56250000 200.35200500 91.25000000 0.424995 0.195586 -0.883813 0.000000
174.65400696 249.13299561 215.00000000 -0.536207 -0.136623 -0.832957 0.000000
180.31599426 274.39498901 133.75000000 -0.775472 0.015260 0.631198 0.000000
229.96899414 178.57400513 181.25000000 -0.239894 0.341667 -0.908688 0.000000
223.00000000 179.44500732 121.25000000 -0.387589 -0.796084 0.464785 0.000000
165.50799561 189.89799500 128.75000000 0.000978 0.000978 0.999999 0.000000
114.11299896 195.99600220 213.75000000 0.365563 0.761995 -0.534534 0.000000
94.07810211 202.09399414 91.25000000 0.663563 0.392180 0.637086 0.000000
129.79299927 305.75399780 138.75000000 0.479591 -0.841199 0.249755 0.000000
137.63299561 313.59399414 153.75000000 0.300137 -0.900412 0.314922 0.000000
141.98800659 183.80099487 208.75000000 -0.186124 0.812590 -0.552319 0.000000
160.28100586 220.38699341 226.25000000 -0.399755 0.142669 -0.905451 0.000000
128.05099487 170.73399353 131.25000000 -0.249537 0.095976 0.963597 0.000000
244.77699280 166.37899780 116.25000000 -0.433397 -0.896059 0.096156 0.000000
162.02299500 314.89999390 175.00000000 -0.250113 -0.750339 -0.611911 0.000000
221.25799561 152.00599670 140.00000000 -0.581753 -0.001362 -0.813364 0.000000
117.59799957 278.31500244 105.00000000 0.754698 -0.539535 0.373274 0.000000
183.80099487 221.25799561 206.25000000 -0.451126 0.393330 -0.801110 0.000000
245.64799500 173.78300476 145.00000000 -0.763282 -0.547045 0.343719 0.000000
166.37899780 216.03100586 148.75000000 -0.686203 0.686203 0.241354 0.000000
121.08200073 199.48100281 106.25000000 -0.338893 0.279698 0.898288 0.000000
211.67599487 179.44500732 186.25000000 -0.043681 0.395779 -0.917306 0.000000
106.27300262 280.92800903 207.50000000 0.569358 -0.569358 -0.593011 0.000000
236.50199890 154.18400574 167.50000000 -0.001131 0.985302 -0.170816 0.000000
191.20500183 250.00399780 142.50000000 -0.819933 0.001360 0.572458 0.000000
197.30299377 230.83999634 172.50000000 -0.971481 -0.138783 0.192259 0.000000
155.05499268 288.33200073 108.75000000 -0.645598 -0.205910 0.735394 0.000000
97.56250000 226.91999817 135.00000000 0.000000 0.000000 0.000000 0.000000
163.76600647 228.22700500 113.75000000 -0.653648 -0.196249 0.730911 0.000000
121.51799774 173.34800720 177.50000000 0.488605 0.837828 -0.243537 0.000000
148.95700073 233.45300293 231.25000000 -0.000978 -0.000978 -0.999999 0.000000
126.30899811 310.54501343 182.50000000 0.326043 -0.653708 -0.682906 0.000000
173.34800720 217.77299500 216.25000000 -0.691755 -0.001381 -0.722131 0.000000
209.93400574 155.49000549 172.50000000 0.035343 0.922848 -0.383538 0.000000
172.47700500 209.93400574 213.75000000 0.830494 0.277866 -0.482773 0.000000
108.01599884 188.59199524 167.50000000 0.840757 0.540781 0.026145 0.000000
168.99200439 210.80499268 218.75000000 0.001302 -0.430994 -0.902354 0.000000
169.86300659 166.81399536 185.00000000 -0.001381 0.691755 -0.722131 0.000000
99.30470276 206.44900513 91.25000000 0.763317 -0.195053 -0.615875 0.000000
194.25399780 245.64799500 196.25000000 -0.667486 -0.247743 -0.702201 0.000000
216.03100586 205.14300537 140.00000000 -0.006482 -0.405769 0.913953 0.000000
92.77149963 227.35600281 157.50000000 0.921923 0.307308 0.235841 0.000000
93.20709991 207.32000732 91.25000000 0.900412 -0.300137 -0.314922 0.000000
161.58799744 211.67599487 115.00000000 -0.253365 0.474483 0.843014 0.000000
179.00999451 283.10598755 132.50000000 -0.686901 0.686901 0.237350 0.000000
144.60200500 266.98999023 225.00000000 -0.362681 -0.870740 -0.332075 0.000000
184.67199707 290.94500732 138.75000000 -0.896105 -0.064301 0.439160 0.000000
182.92999268 296.17199707 183.75000000 -0.187827 0.910461 -0.368486 0.000000
202.09399414 263.07000732 163.75000000 -0.845797 -0.395539 0.358018 0.000000
154.18400574 181.62300110 197.50000000 -0.687867 0.684719 -0.240832 0.000000
105.40200043 292.68798828 193.75000000 -0.001172 -0.974073 0.226229 0.000000
218.64500427 211.24000549 145.00000000 -0.936055 -0.349236 0.042843 0.000000
104.96700287 192.51199341 172.50000000 0.900412 0.300137 0.314922 0.000000
194.25399780 286.58999634 178.75000000 -0.830494 -0.277866 -0.482773 0.000000
220.38699341 155.05499268 103.75000000 -0.271826 0.881557 0.385963 0.000000
204.70700073 220.82200623 167.50000000 -0.109345 -0.991008 -0.077117 0.000000
262.19900513 179.44500732 166.25000000 -0.716369 -0.301036 0.629439 0.000000
163.76600647 216.90199280 113.75000000 -0.032000 0.102621 0.994206 0.000000
223.87100220 170.73399353 183.75000000 -0.250757 0.537337 -0.805227 0.000000
172.91200256 256.97299194 122.50000000 -0.557592 -0.099932 0.824078 0.000000
138.50399780 311.41598511 147.50000000 0.245256 -0.912815 0.326524 0.000000
226.48399353 173.34800720 111.25000000 -0.250789 -0.921469 0.296647 0.000000
120.21099854 217.77299500 103.75000000 0.001302 0.430994 0.902354 0.000000
110.62899780 185.97900391 192.50000000 0.767362 0.639705 -0.043971 0.000000
109.75800323 267.42599487 106.25000000 0.853514 -0.427529 0.297881 0.000000
171.16999817 213.41799927 217.50000000 -0.688914 0.426628 -0.585992 0.000000
135.02000427 157.23199463 160.00000000 -0.313483 -0.943117 0.110720 0.000000
129.79299927 219.51600647 106.25000000 -0.261180 0.492997 0.829903 0.000000
172.47700500 173.34800720 118.75000000 0.535894 -0.757418 0.373008 0.000000
88.41600037 251.74600220 185.00000000 0.999999 0.000978 0.000978 0.000000
97.12699890 231.71099854 127.50000000 0.999999 -0.000978 -0.000978 0.000000
135.02000427 202.96499634 111.25000000 0.569358 0.569358 0.593011 0.000000
165.50799561 251.74600220 116.25000000 -0.099207 -0.365572 0.925481 0.000000
145.90800476 175.96099854 190.00000000 -0.319916 0.919578 -0.228101 0.000000
126.30899811 164.63699341 163.75000000 0.564169 0.737508 -0.371207 0.000000
247.82600403 170.73399353 145.00000000 -0.753376 -0.555716 0.351575 0.000000
150.69900513 186.41400146 133.75000000 0.379228 -0.576229 0.723980 0.000000
229.96899414 206.44900513 183.75000000 -0.141357 0.373686 -0.916721 0.000000
167.25000000 313.15798950 142.50000000 -0.352909 -0.850402 0.390221 0.000000
200.35200500 243.03500366 188.75000000 -0.752629 0.254032 -0.607468 0.000000
177.70300293 293.55899048 191.25000000 -0.703424 -0.418744 -0.574325 0.000000
250.00399780 193.38299561 178.75000000 -0.618641 -0.018073 -0.785466 0.000000
179.88099670 216.90199280 122.50000000 -0.435769 0.616087 0.656157 0.000000
162.89500427 234.32400513 226.25000000 -0.636820 0.168704 -0.752329 0.000000
130.66400146 223.00000000 233.75000000 -0.000978 -0.000978 -0.999999 0.000000
93.64260101 278.75000000 177.50000000 0.900636 -0.423257 0.098529 0.000000
223.00000000 202.09399414 186.25000000 -0.181665 -0.218793 -0.958711 0.000000
193.81799316 230.83999634 152.50000000 -0.685235 0.688385 0.237863 0.000000
206.44900513 212.11099243 187.50000000 -0.290325 -0.290325 -0.911824 0.000000
128.92199707 277.44299316 220.00000000 0.256837 -0.317782 -0.912715 0.000000
173.34800720 196.43200684 142.50000000 -0.242890 -0.769412 0.590770 0.000000
163.76600647 270.91000366 216.25000000 -0.120628 -0.728238 -0.674625 0.000000
218.64500427 181.18800354 121.25000000 -0.268225 -0.850656 0.452150 0.000000
100.61100006 201.22300720 117.50000000 0.944109 0.001244 -0.329630 0.000000
128.92199707 174.65400696 130.00000000 -0.462541 0.294344 0.836312 0.000000
195.99600220 153.31300354 168.75000000 0.001244 0.944109 -0.329630 0.000000
161.15199280 188.15600586 128.75000000 0.219146 -0.750693 0.623246 0.000000
186.85000610 240.42199707 127.50000000 -0.802979 -0.200362 0.561320 0.000000
171.60600281 202.09399414 148.75000000 -0.457645 -0.638691 0.618575 0.000000
116.72699738 292.25201416 202.50000000 0.280217 -0.558850 -0.780490 0.000000
162.02299500 207.32000732 221.25000000 -0.374396 0.343582 -0.861266 0.000000
155.05499268 222.12899780 228.75000000 -0.709693 0.176274 -0.682102 0.000000
207.32000732 186.41400146 188.75000000 -0.361406 0.073348 -0.929519 0.000000
156.79699707 215.16000366 113.75000000 -0.180298 0.159838 0.970538 0.000000
187.28500366 180.75199890 190.00000000 0.148759 0.446277 -0.882444 0.000000
102.35399628 198.60899353 165.00000000 0.871733 0.485223 -0.068126 0.000000
110.19300079 182.92999268 150.00000000 0.926105 0.310593 0.214153 0.000000
148.08599854 260.45700073 106.25000000 -0.539535 0.379794 0.751437 0.000000
172.47700500 264.81298828 211.25000000 -0.687186 -0.577369 -0.440931 0.000000
196.86700439 270.91000366 158.75000000 -0.829641 -0.102800 0.548751 0.000000
230.83999634 152.87699890 127.50000000 -0.069910 0.991340 0.111168 0.000000
219.51600647 155.05499268 103.75000000 -0.208091 0.954533 0.213461 0.000000
217.77299500 219.95100403 155.00000000 0.191617 -0.941544 0.277087 0.000000
105.40200043 264.81298828 216.25000000 0.444867 -0.444867 -0.777295 0.000000
100.61100006 211.67599487 127.50000000 0.993127 0.110347 -0.039012 0.000000
105.83799744 216.90199280 92.50000000 -0.622842 0.445841 0.642879 0.000000
183.80099487 224.74200439 208.75000000 -0.656380 0.254644 -0.710156 0.000000
154.18400574 251.74600220 228.75000000 -0.546737 -0.186284 -0.816319 0.000000
192.07600403 236.06599426 137.50000000 -0.894177 -0.169013 0.414586 0.000000
143.73100281 293.55899048 106.25000000 -0.088841 -0.773357 0.627715 0.000000
184.67199707 235.19500732 208.75000000 -0.692865 -0.210195 -0.689751 0.000000
149.82800293 184.67199707 131.25000000 0.478536 -0.659876 0.579281 0.000000
135.02000427 315.77200317 175.00000000 0.260662 -0.964075 -0.051135 0.000000
151.57000732 247.82600403 110.00000000 -0.185282 0.113159 0.976148 0.000000
104.09600067 235.19500732 222.50000000 0.652818 -0.052854 -0.755669 0.000000
192.07600403 264.81298828 192.50000000 -0.652946 -0.322423 -0.685350 0.000000
185.54299927 166.37899780 183.75000000 -0.001381 0.691755 -0.722131 0.000000
172.47700500 210.80499268 151.25000000 0.091304 -0.011816 0.995753 0.000000
233.45300293 156.79699707 176.25000000 -0.088186 0.883256 -0.460525 0.000000
116.72699738 198.60899353 218.75000000 0.242535 0.849635 -0.468291 0.000000
188.15600586 170.73399353 186.25000000 -0.151485 0.601441 -0.784424 0.000000
164.63699341 209.06300354 221.25000000 -0.527571 0.267699 -0.806229 0.000000
152.87699890 229.09800720 230.00000000 -0.355326 0.032302 -0.934184 0.000000
267.86099243 160.28100586 157.50000000 -0.960571 0.248941 0.123819 0.000000
107.14499664 220.38699341 91.25000000 -0.629668 0.435924 0.643030 0.000000
155.05499268 256.97299194 226.25000000 -0.617243 -0.322392 -0.717687 0.000000
172.47700500 172.47700500 188.75000000 -0.207551 0.339238 -0.917518 0.000000
165.50799561 165.50799561 123.75000000 0.752905 -0.431403 -0.497016 0.000000
185.10699463 255.23100281 132.50000000 -0.851702 -0.310694 0.421987 0.000000
189.89799500 241.29299927 201.25000000 -0.646306 -0.279268 -0.710139 0.000000
179.44500732 154.18400574 176.25000000 -0.028377 0.876973 -0.479700 0.000000
142.85899353 309.23800659 191.25000000 -0.094747 -0.776929 -0.622418 0.000000
160.28100586 150.26400757 142.50000000 -0.661324 -0.664590 0.347808 0.000000
98.43360138 192.94700623 97.50000000 0.943117 0.313483 0.110720 0.000000
178.57400513 205.57800293 203.75000000 -0.501621 0.782271 -0.369361 0.000000
202.09399414 216.90199280 196.25000000 -0.590787 -0.563702 -0.577244 0.000000
103.66000366 294.86499023 172.50000000 0.737906 -0.667208 0.101628 0.000000
108.88700104 222.12899780 91.25000000 -0.543127 0.482965 0.686846 0.000000
103.66000366 293.55899048 186.25000000 0.686203 -0.686203 -0.241354 0.000000
181.18800354 254.35899353 208.75000000 -0.673428 -0.223434 -0.704678 0.000000
117.59799957 213.41799927 103.75000000 -0.581753 0.001362 0.813364 0.000000
222.12899780 174.65400696 112.50000000 -0.281584 -0.924796 0.255856 0.000000
92.33599854 258.71499634 151.25000000 0.984275 -0.082321 0.156291 0.000000
183.80099487 263.07000732 203.75000000 -0.514815 -0.488158 -0.704746 0.000000
124.56600189 232.58200073 101.25000000 0.280217 -0.558850 0.780490 0.000000
146.34399414 213.41799927 228.75000000 -0.740878 -0.565021 -0.363112 0.000000
202.09399414 202.96499634 196.25000000 -0.322666 0.211794 -0.922513 0.000000
223.00000000 213.41799927 181.25000000 0.193276 -0.438191 -0.877857 0.000000
248.26199341 194.25399780 163.75000000 -0.594390 -0.302803 0.744990 0.000000
96.25589752 224.74200439 92.50000000 0.853514 -0.427529 -0.297881 0.000000
156.79699707 255.23100281 113.75000000 -0.354885 -0.354885 0.864936 0.000000
141.98800659 314.89999390 180.00000000 0.236585 -0.885335 -0.400261 0.000000
140.24600220 260.45700073 228.75000000 -0.000978 -0.000978 -0.999999 0.000000
199.48100281 157.66799927 178.75000000 0.001244 0.944109 -0.329630 0.000000
111.06400299 275.26599121 115.00000000 0.703377 -0.706290 0.080095 0.000000
106.27300262 254.79499817 100.00000000 0.894121 -0.355565 0.272253 0.000000
139.37500000 173.34800720 131.25000000 0.500959 -0.311321 0.807539 0.000000
167.25000000 209.06300354 128.75000000 0.033831 -0.883677 0.466874 0.000000
189.89799500 151.57000732 103.75000000 -0.001244 0.944109 0.329630 0.000000
224.74200439 184.67199707 183.75000000 -0.000978 -0.000978 -0.999999 0.000000
112.37100220 227.35600281 228.75000000 0.591894 0.445171 -0.671925 0.000000
235.63099670 169.86300659 110.00000000 -0.356876 -0.891443 0.279229 0.000000
168.99200439 151.57000732 171.25000000 0.079961 0.995685 -0.047101 0.000000
156.36099243 202.96499634 120.00000000 -0.443192 0.469359 0.763730 0.000000
193.38299561 289.20300293 178.75000000 -0.000978 -0.000978 -0.999999 0.000000
167.25000000 271.78100586 211.25000000 -0.931324 -0.363537 -0.021838 0.000000
96.69139862 280.49200439 158.75000000 0.870022 -0.431254 0.238918 0.000000
135.02000427 257.84399414 231.25000000 0.000978 0.000978 -0.999999 0.000000
174.65400696 274.39498901 205.00000000 -0.580892 -0.460361 -0.671291 0.000000
168.99200439 314.02899170 170.00000000 -0.267509 -0.955388 -0.125189 0.000000
141.98800659 236.06599426 233.75000000 -0.000978 -0.000978 -0.999999 0.000000
165.50799561 237.80900574 113.75000000 0.000978 0.000978 0.999999 0.000000
92.77149963 236.06599426 150.00000000 0.944109 0.001244 0.329630 0.000000
191.20500183 295.30099487 175.00000000 -0.761160 -0.558398 -0.329890 0.000000
172.47700500 310.54501343 177.50000000 -0.276851 -0.770436 -0.574267 0.000000
175.08999634 257.40798950 212.50000000 -0.574822 -0.211128 -0.790573 0.000000
143.73100281 216.03100586 231.25000000 -0.160884 0.186626 -0.969168 0.000000
162.45899963 284.84799194 115.00000000 -0.690445 0.159333 0.705619 0.000000
206.44900513 168.12100220 183.75000000 0.399376 0.790667 -0.464052 0.000000
140.24600220 242.16400146 233.75000000 -0.000978 -0.000978 -0.999999 0.000000
108.88700104 231.71099854 226.25000000 0.598658 0.246691 -0.762071 0.000000
188.15600586 151.57000732 163.75000000 -0.300416 0.901248 0.312255 0.000000
243.90600586 204.70700073 168.75000000 -0.412902 -0.615208 0.671588 0.000000
170.73399353 298.78500366 126.25000000 -0.599099 -0.534970 0.595724 0.000000
118.46900177 210.80499268 228.75000000 0.454813 0.474516 -0.753644 0.000000
186.41400146 178.57400513 188.75000000 -0.122419 0.272481 -0.954342 0.000000
97.56250000 230.40400696 92.50000000 0.968865 -0.224169 0.105119 0.000000
160.28100586 216.03100586 223.75000000 -0.286807 -0.159035 -0.944696 0.000000
256.97299194 164.63699341 141.25000000 -0.527741 -0.848006 0.048736 0.000000
168.12100220 211.67599487 133.75000000 0.001244 0.944109 -0.329630 0.000000
121.51799774 174.21899414 125.00000000 -0.414780 0.553590 0.722146 0.000000
114.11299896 230.83999634 91.25000000 -0.819078 0.192279 0.540500 0.000000
114.54900360 230.83999634 92.50000000 -0.819078 0.192279 0.540500 0.000000
193.81799316 189.89799500 155.00000000 0.368685 -0.921022 -0.125657 0.000000
233.45300293 174.65400696 122.50000000 -0.510710 -0.747181 0.425318 0.000000
263.94100952 176.83200073 166.25000000 -0.891354 -0.385810 0.237990 0.000000
257.84399414 166.37899780 153.75000000 -0.532470 -0.799490 0.278015 0.000000
109.75800323 250.87500000 226.25000000 -0.100188 -0.956342 0.274542 0.000000
122.82399750 204.70700073 226.25000000 -0.172355 0.062999 -0.983018 0.000000
250.00399780 179.00999451 160.00000000 -0.211283 0.421088 0.882068 0.000000
155.05499268 158.10400391 177.50000000 0.819933 0.001360 0.572458 0.000000
143.73100281 233.45300293 233.75000000 -0.465189 -0.329575 -0.821571 0.000000
141.11700439 311.85198975 146.25000000 0.262084 -0.934813 0.239660 0.000000
203.83599854 210.80499268 141.25000000 -0.113381 -0.188138 0.975576 0.000000
184.67199707 251.74600220 206.25000000 -0.657713 -0.145991 -0.738986 0.000000
166.37899780 167.25000000 121.25000000 0.333350 -0.555583 -0.761712 0.000000
117.59799957 292.25201416 130.00000000 0.613922 -0.613922 0.496184 0.000000
217.77299500 220.82200623 157.50000000 0.005839 -0.977391 0.211359 0.000000
265.24798584 175.08999634 170.00000000 -0.857323 -0.497566 -0.132007 0.000000
202.96499634 222.56500244 177.50000000 -0.516071 -0.856545 -0.001340 0.000000
132.84199524 247.39100647 100.00000000 -0.771681 0.235402 0.590842 0.000000
128.05099487 271.78100586 223.75000000 0.131668 -0.572533 -0.809240 0.000000
209.06300354 157.66799927 178.75000000 -0.760240 0.539786 -0.361479 0.000000
114.11299896 218.64500427 228.75000000 0.569358 0.569358 -0.593011 0.000000
114.98400116 235.19500732 91.25000000 -0.717120 0.304575 0.626876 0.000000
200.35200500 270.91000366 166.25000000 -0.942969 -0.268436 0.196853 0.000000
149.82800293 167.68600464 182.50000000 0.553221 0.502775 -0.664201 0.000000
123.69499969 240.42199707 233.75000000 0.333333 -0.433489 -0.837244 0.000000
214.28900146 182.05900574 186.25000000 -0.331328 -0.024120 -0.943207 0.000000
199.48100281 193.81799316 155.00000000 0.601111 -0.361977 0.712488 0.000000
120.21099854 274.82998657 97.50000000 0.569358 -0.569358 0.593011 0.000000
100.17600250 238.67999268 108.75000000 0.933132 -0.290464 0.211884 0.000000
225.61300659 210.80499268 158.75000000 -0.686901 0.686901 -0.237350 0.000000
236.50199890 171.60600281 120.00000000 -0.528412 -0.791825 0.306257 0.000000
99.74030304 289.20300293 182.50000000 0.806626 -0.590788 0.017987 0.000000
155.05499268 253.48800659 226.25000000 -0.487083 -0.220022 -0.845187 0.000000
170.73399353 216.90199280 116.25000000 -0.594358 0.467115 0.654631 0.000000
146.34399414 180.75199890 202.50000000 -0.169888 0.810349 -0.560779 0.000000
152.44099426 263.07000732 111.25000000 -0.702740 0.110959 0.702740 0.000000
110.62899780 174.65400696 130.00000000 0.884477 0.398238 -0.243119 0.000000
243.90600586 199.48100281 181.25000000 -0.556497 0.040447 -0.829864 0.000000
90.15820313 263.94100952 192.50000000 0.969253 -0.115599 -0.217224 0.000000
184.67199707 261.32800293 133.75000000 -0.804279 -0.187006 0.564060 0.000000
174.21899414 255.23100281 213.75000000 -0.591282 -0.249373 -0.766941 0.000000
170.73399353 285.71899414 201.25000000 -0.626274 -0.481878 -0.612842 0.000000
111.50000000 213.41799927 223.75000000 0.258496 0.721569 -0.642276 0.000000
130.66400146 249.56799316 232.50000000 0.231321 -0.353528 -0.906371 0.000000
158.53900146 168.99200439 186.25000000 -0.000978 -0.000978 -0.999999 0.000000
117.59799957 238.67999268 91.25000000 -0.629596 0.481851 0.609449 0.000000
178.57400513 275.26599121 131.25000000 -0.670654 0.098323 0.735225 0.000000
230.83999634 196.86700439 146.25000000 -0.908247 -0.163456 0.385188 0.000000
174.21899414 241.29299927 116.25000000 -0.411580 -0.069276 0.908737 0.000000
101.91799927 243.90600586 218.75000000 0.756239 -0.116914 -0.643765 0.000000
138.50399780 236.93800354 233.75000000 -0.000978 -0.000978 -0.999999 0.000000
150.69900513 234.32400513 231.25000000 -0.290361 -0.078720 -0.953674 0.000000
196.43200684 229.96899414 167.50000000 -0.989717 -0.023699 0.141066 0.000000
137.63299561 162.89500427 121.25000000 0.764121 0.092045 0.638472 0.000000
204.27200317 255.23100281 162.50000000 -0.743583 -0.642394 0.185512 0.000000
131.10000610 165.50799561 172.50000000 0.298184 0.763798 -0.572450 0.000000
117.59799957 192.51199341 211.25000000 0.140368 0.869701 -0.473198 0.000000
128.92199707 300.52700806 128.75000000 -0.488259 0.780241 -0.390932 0.000000
129.79299927 286.58999634 213.75000000 -0.055958 -0.715971 -0.695884 0.000000
248.69700623 162.89500427 110.00000000 -0.705724 -0.708486 0.001381 0.000000
94.94920349 257.84399414 208.75000000 0.820884 -0.360427 -0.442992 0.000000
185.54299927 205.14300537 152.50000000 0.237604 0.719106 0.653017 0.000000
143.29499817 277.00799561 220.00000000 -0.223434 -0.673428 -0.704678 0.000000
149.82800293 312.28698730 185.00000000 0.048749 -0.842658 -0.536237 0.000000
173.34800720 290.94500732 126.25000000 -0.614272 -0.052490 0.787347 0.000000
189.89799500 206.44900513 198.75000000 -0.000978 -0.000978 -0.999999 0.000000
253.92399597 161.15199280 120.00000000 -0.569358 -0.569358 -0.593011 0.000000
112.37100220 289.63900757 202.50000000 0.302554 -0.760387 -0.574693 0.000000
158.53900146 149.39300537 132.50000000 -0.252013 -0.959740 0.124048 0.000000
111.50000000 296.60800171 147.50000000 0.686901 -0.686901 0.237350 0.000000
184.67199707 268.29699707 138.75000000 -0.224060 -0.449623 0.864660 0.000000
178.13900757 236.06599426 117.50000000 -0.477546 -0.071005 0.875733 0.000000
141.55299377 252.61700439 105.00000000 -0.448166 -0.155190 0.880377 0.000000
141.98800659 189.02699280 131.25000000 0.542248 -0.821634 -0.175742 0.000000
100.17600250 236.06599426 218.75000000 0.601111 -0.361977 -0.712488 0.000000
163.76600647 231.71099854 223.75000000 -0.426711 0.202282 -0.881476 0.000000
200.35200500 269.16799927 176.25000000 -0.893591 -0.426130 0.141093 0.000000
146.34399414 289.20300293 103.75000000 -0.883935 -0.441244 0.154797 0.000000
208.62699890 197.73800659 137.50000000 0.350143 -0.089884 0.932374 0.000000
199.48100281 243.90600586 188.75000000 -0.752629 0.254032 -0.607468 0.000000
97.12699890 222.12899780 140.00000000 0.944109 -0.001244 0.329630 0.000000
154.61900330 197.73800659 220.00000000 -0.255306 0.556034 -0.790978 0.000000
146.34399414 152.87699890 145.00000000 -0.203293 -0.978863 -0.022327 0.000000
188.15600586 158.97500610 180.00000000 0.057803 0.562526 -0.824756 0.000000
104.53099823 185.54299927 121.25000000 0.944368 0.270015 -0.187777 0.000000
166.37899780 312.28698730 177.50000000 -0.258115 -0.870951 -0.418117 0.000000
218.20899963 202.96499634 187.50000000 -0.492747 -0.728337 -0.476157 0.000000
165.50799561 204.70700073 138.75000000 0.964411 -0.210108 0.160518 0.000000
223.00000000 220.82200623 160.00000000 -0.409620 -0.872144 0.267538 0.000000
134.14799500 179.44500732 131.25000000 -0.544345 0.182454 0.818779 0.000000
121.95300293 245.21299744 92.50000000 -0.751784 0.250595 0.609938 0.000000
153.74800110 186.41400146 130.00000000 0.539440 -0.727502 0.423964 0.000000
131.53500366 308.36700439 188.75000000 0.117834 -0.833565 -0.539708 0.000000
107.14499664 277.87899780 211.25000000 0.435944 -0.636378 -0.636378 0.000000
173.34800720 151.13499451 170.00000000 -0.048102 0.968216 -0.245446 0.000000
179.44500732 251.74600220 211.25000000 -0.639068 -0.175400 -0.748884 0.000000
143.73100281 155.92599487 168.75000000 0.426363 0.802850 -0.416710 0.000000
220.38699341 210.80499268 181.25000000 0.062675 -0.502794 -0.862131 0.000000
161.15199280 243.03500366 113.75000000 -0.117030 -0.507131 0.853887 0.000000
165.07200623 296.17199707 197.50000000 -0.257761 -0.634123 -0.729004 0.000000
236.93800354 202.09399414 161.25000000 -0.641100 -0.714642 -0.279782 0.000000
173.34800720 254.35899353 213.75000000 -0.552607 -0.269219 -0.788763 0.000000
199.48100281 179.44500732 116.25000000 0.001381 -0.691755 0.722131 0.000000
176.83200073 167.68600464 185.00000000 0.001273 0.378186 -0.925729 0.000000
248.26199341 192.51199341 163.75000000 -0.594390 -0.302803 0.744990 0.000000
90.15820313 246.52000427 200.00000000 0.999999 0.000978 0.000978 0.000000
189.46299744 297.91400146 175.00000000 -0.783297 -0.523800 -0.334783 0.000000
233.45300293 153.31300354 156.25000000 -0.150949 0.985329 -0.079635 0.000000
156.79699707 163.76600647 181.25000000 0.158905 0.625027 -0.764258 0.000000
248.26199341 191.20500183 162.50000000 -0.479965 -0.185745 0.857399 0.000000
179.88099670 237.80900574 212.50000000 -0.944109 0.001244 -0.329630 0.000000
181.18800354 175.52499390 145.00000000 -0.972350 0.062693 -0.224956 0.000000
178.57400513 194.25399780 146.25000000 -0.617433 -0.766837 0.175321 0.000000
197.73800659 154.61900330 172.50000000 -0.001244 0.944109 -0.329630 0.000000
132.40600586 258.71499634 231.25000000 0.000978 0.000978 -0.999999 0.000000
198.17399597 168.99200439 185.00000000 -0.302264 0.435570 -0.847889 0.000000
234.32400513 171.60600281 116.25000000 -0.194353 -0.974273 0.114104 0.000000
195.12500000 193.38299561 196.25000000 -0.583894 0.764284 -0.273750 0.000000
141.11700439 267.42599487 98.75000000 -0.604823 0.303214 0.736376 0.000000
254.79499817 160.28100586 125.00000000 -0.982605 -0.137249 0.125103 0.000000
142.85899353 310.10900879 188.75000000 0.685235 -0.688385 -0.237863 0.000000
167.25000000 209.06300354 151.25000000 0.000978 0.000978 0.999999 0.000000
148.95700073 308.36700439 191.25000000 -0.026594 -0.625668 -0.779636 0.000000
112.37100220 290.07400513 133.75000000 0.653921 -0.653921 0.380493 0.000000
127.18000031 201.22300720 108.75000000 -0.150855 0.300351 0.941824 0.000000
243.03500366 163.33000183 102.50000000 -0.217158 -0.957891 0.187848 0.000000
136.76199341 219.51600647 108.75000000 -0.323979 0.231825 0.917221 0.000000
164.63699341 208.62699890 120.00000000 -0.250110 0.812469 0.526629 0.000000
168.99200439 269.16799927 213.75000000 -0.519173 -0.452825 -0.724851 0.000000
106.27300262 268.29699707 118.75000000 0.922642 -0.318005 0.218183 0.000000
126.30899811 181.62300110 200.00000000 0.135740 0.848007 -0.512307 0.000000
170.73399353 283.10598755 203.75000000 -0.337859 -0.557710 -0.758163 0.000000
160.28100586 230.83999634 226.25000000 -0.596463 0.070088 -0.799575 0.000000
239.55099487 207.32000732 181.25000000 0.024872 -0.396639 -0.917638 0.000000
108.88700104 289.63900757 200.00000000 0.520309 -0.658384 -0.543883 0.000000
190.77000427 152.00599670 165.00000000 -0.080741 0.982145 -0.169917 0.000000
161.58799744 231.71099854 112.50000000 -0.484163 -0.056555 0.873148 0.000000
247.39100647 179.88099670 177.50000000 -0.673148 -0.004147 -0.739496 0.000000
125.43800354 188.15600586 208.75000000 0.457359 0.386749 -0.800780 0.000000
106.27300262 252.61700439 91.25000000 0.815037 -0.487130 0.313718 0.000000
145.90800476 311.85198975 140.00000000 0.228497 -0.962299 0.147544 0.000000
168.99200439 171.60600281 121.25000000 0.547575 -0.797182 -0.254287 0.000000
112.37100220 177.26800537 145.00000000 0.884589 0.434305 -0.169946 0.000000
196.86700439 226.91999817 192.50000000 0.000000 0.000000 0.000000 0.000000
214.28900146 194.68899536 135.00000000 -0.073873 -0.876719 0.475296 0.000000
168.99200439 192.94700623 197.50000000 0.767362 0.639705 -0.043971 0.000000
219.51600647 152.87699890 115.00000000 -0.001244 0.944109 0.329630 0.000000
106.70899963 253.48800659 92.50000000 0.801178 -0.516736 0.301824 0.000000
135.89100647 280.49200439 218.75000000 0.158019 -0.447962 -0.879977 0.000000
224.74200439 156.79699707 178.75000000 -0.000978 -0.000978 -0.999999 0.000000
196.86700439 166.37899780 183.75000000 -0.088240 0.597428 -0.797053 0.000000
175.08999634 213.41799927 121.25000000 0.052099 0.975344 -0.214454 0.000000
113.67800140 179.44500732 175.00000000 -0.000978 -0.000978 0.999999 0.000000
260.45700073 158.53900146 136.25000000 -0.831935 -0.090521 0.547439 0.000000
119.33999634 283.97698975 211.25000000 0.772302 -0.576462 -0.266910 0.000000
130.66400146 295.73599243 117.50000000 0.438839 -0.754409 0.488147 0.000000
125.43800354 283.10598755 101.25000000 0.312377 -0.665217 0.678165 0.000000
165.50799561 154.61900330 175.00000000 0.185715 0.732116 -0.655374 0.000000
101.91799927 292.25201416 177.50000000 0.855209 -0.514800 -0.059990 0.000000
150.26400757 206.44900513 115.00000000 -0.221890 0.243941 0.944064 0.000000
193.38299561 164.63699341 181.25000000 -0.004143 0.661525 -0.749912 0.000000
177.70300293 246.52000427 213.75000000 -0.571384 -0.128451 -0.810568 0.000000
108.01599884 255.23100281 91.25000000 0.836973 -0.436478 0.330096 0.000000
148.08599854 232.58200073 231.25000000 -0.000978 -0.000978 -0.999999 0.000000
166.37899780 216.03100586 113.75000000 -0.044001 0.120720 0.991711 0.000000
259.58599854 168.12100220 158.75000000 -0.346137 -0.881213 0.321953 0.000000
115.85500336 225.17799377 97.50000000 -0.758649 0.323755 0.565363 0.000000
130.66400146 199.91600037 110.00000000 -0.260316 0.345617 0.901546 0.000000
117.59799957 247.39100647 228.75000000 0.340661 0.154340 -0.927432 0.000000
111.06400299 208.19099426 222.50000000 0.452296 0.485190 -0.748344 0.000000
183.36500549 287.46099854 137.50000000 -0.855209 0.141804 0.498507 0.000000
156.79699707 151.13499451 155.00000000 0.000978 -0.999999 0.000978 0.000000
161.15199280 287.46099854 113.75000000 -0.643838 -0.001379 0.765161 0.000000
178.57400513 236.93800354 118.75000000 -0.501804 -0.092400 0.860032 0.000000
168.12100220 243.03500366 221.25000000 -0.550251 -0.293362 -0.781769 0.000000
135.89100647 244.77699280 233.75000000 -0.000978 -0.000978 -0.999999 0.000000
175.96099854 304.88299561 136.25000000 -0.569358 -0.569358 0.593011 0.000000
105.83799744 281.36300659 137.50000000 0.697218 -0.628640 0.344527 0.000000
213.41799927 178.57400513 116.25000000 -0.110045 -0.796723 0.594241 0.000000
196.86700439 259.58599854 188.75000000 -0.845472 -0.243092 -0.475482 0.000000
157.66799927 308.80300903 130.00000000 -0.020215 -0.871937 0.489201 0.000000
102.78900146 274.39498901 208.75000000 0.728813 -0.324815 -0.602766 0.000000
129.79299927 199.48100281 221.25000000 0.073759 0.739036 -0.669616 0.000000
197.73800659 275.26599121 163.75000000 -0.867367 -0.410056 0.282009 0.000000
137.63299561 248.26199341 103.75000000 -0.483080 0.361106 0.797644 0.000000
200.35200500 215.16000366 196.25000000 -0.106240 0.164855 -0.980579 0.000000
196.86700439 171.60600281 103.75000000 0.217621 -0.794856 0.566432 0.000000
149.82800293 220.38699341 111.25000000 -0.000978 -0.000978 0.999999 0.000000
99.30470276 269.16799927 138.75000000 0.944109 0.001244 0.329630 0.000000
99.30470276 285.71899414 193.75000000 -0.000978 -0.000978 -0.999999 0.000000
98.86920166 217.77299500 215.00000000 0.845976 0.161491 -0.508178 0.000000
107.14499664 250.87500000 223.75000000 0.601260 0.094629 -0.793430 0.000000
203.83599854 150.26400757 135.00000000 -0.441244 0.883935 0.154797 0.000000
255.23100281 156.79699707 166.25000000 0.001244 0.944109 -0.329630 0.000000
206.01400757 244.77699280 175.00000000 -0.776308 0.627623 -0.058616 0.000000
108.88700104 258.27899170 92.50000000 0.909686 -0.351437 0.221275 0.000000
189.89799500 173.34800720 108.75000000 0.217473 -0.865392 0.451444 0.000000
213.41799927 199.48100281 188.75000000 -0.515989 0.020422 -0.856352 0.000000
134.14799500 167.25000000 128.75000000 0.280639 -0.518947 0.807425 0.000000
135.89100647 209.06300354 108.75000000 -0.681495 0.169230 0.711987 0.000000
