93.69139862 224.21899414 76.25000000 0.847114 -0.452103 -0.279285 0.000000
128.12500000 286.27899170 210.00000000 0.029449 0.640872 0.767083 0.000000
85.68360138 251.04499817 115.00000000 -0.910028 0.324698 -0.257720 0.000000
205.80099487 235.83000183 185.00000000 -0.270271 -0.959397 0.080697 0.000000
108.10500336 178.17399597 137.50000000 0.001289 -0.406019 0.913864 0.000000
197.79299927 224.21899414 166.25000000 -0.001345 0.528668 0.848828 0.000000
151.34800720 279.47299194 206.25000000 0.576927 0.603997 0.549857 0.000000
110.10700226 162.55900574 147.50000000 -0.689700 -0.689700 -0.220516 0.000000
161.75799561 252.24600220 163.75000000 0.541455 0.744296 -0.390960 0.000000
86.08399963 184.17999268 180.00000000 -0.952066 -0.001228 -0.305890 0.000000
151.34800720 146.94299316 205.00000000 -0.001228 -0.952066 0.305890 0.000000
187.38299561 125.72299957 166.25000000 -0.322023 -0.945541 0.047470 0.000000
128.12500000 205.80099487 243.75000000 0.000978 0.000978 0.999999 0.000000
129.72700500 174.57000732 158.75000000 -0.397638 -0.697930 0.595633 0.000000
94.89250183 168.16400146 182.50000000 -0.707106 -0.707106 0.001384 0.000000
126.52300262 187.78300476 242.50000000 -0.274244 -0.197070 0.941251 0.000000
150.94700623 288.28100586 172.50000000 0.689700 0.689700 -0.220516 0.000000
157.75399780 148.14399719 143.75000000 -0.682542 -0.340456 0.646704 0.000000
145.74200439 177.77299500 241.25000000 0.009075 -0.405761 0.913934 0.000000
205.80099487 234.62899780 176.25000000 -0.443255 -0.885075 0.142014 0.000000
238.63299561 156.95300293 211.25000000 0.119915 -0.110417 0.986625 0.000000
126.52300262 176.17199707 158.75000000 -0.482825 -0.728385 0.486143 0.000000
212.20700073 216.21099854 213.75000000 0.689700 0.689700 0.220516 0.000000
149.74600220 212.20700073 183.75000000 -0.038915 0.438805 -0.897739 0.000000
212.20700073 126.12300110 177.50000000 0.000978 -0.999999 0.000978 0.000000
162.55900574 251.44500732 223.75000000 0.262985 0.262985 0.928266 0.000000
115.31199646 221.01600647 108.75000000 -0.000978 -0.000978 0.999999 0.000000
127.32399750 244.63900757 132.50000000 0.255629 -0.512807 -0.819562 0.000000
231.42599487 174.57000732 186.25000000 0.579360 0.151203 -0.800924 0.000000
110.90799713 253.84800720 117.50000000 0.807880 0.297640 -0.508665 0.000000
223.41799927 212.20700073 193.75000000 0.219459 0.846051 -0.485836 0.000000
76.87500000 232.62699890 200.00000000 -0.942304 0.216606 0.255236 0.000000
95.29290009 228.22300720 76.25000000 0.346055 -0.240925 -0.906753 0.000000
140.93699646 214.60899353 183.75000000 0.829257 0.545525 0.121390 0.000000
154.55099487 152.54899597 217.50000000 0.192736 -0.963679 0.184869 0.000000
116.91400146 229.82400513 243.75000000 0.000978 0.000978 0.999999 0.000000
249.84399414 217.81199646 206.25000000 0.690097 0.294377 -0.661142 0.000000
86.08399963 229.02299500 77.50000000 -0.861931 0.009413 -0.506939 0.000000
138.53500366 166.56199646 236.25000000 -0.162986 -0.542789 0.823903 0.000000
142.13900757 212.20700073 182.50000000 0.754315 0.644218 0.126463 0.000000
201.79699707 139.73599243 145.00000000 0.410056 0.867367 -0.282009 0.000000
97.69529724 229.02299500 76.25000000 0.763819 -0.358395 -0.536781 0.000000
121.71900177 205.80099487 243.75000000 0.000978 0.000978 0.999999 0.000000
207.00199890 230.62500000 170.00000000 -0.521469 -0.784611 -0.335345 0.000000
164.96099854 188.18400574 241.25000000 0.327467 -0.013801 0.944762 0.000000
100.09799957 172.96899414 138.75000000 -0.702092 -0.707906 0.077041 0.000000
114.91200256 229.82400513 110.00000000 0.751041 0.478234 -0.455226 0.000000
188.18400574 154.95100403 205.00000000 -0.310393 -0.310393 0.898506 0.000000
144.94099426 189.78500366 243.75000000 0.000978 0.000978 0.999999 0.000000
172.96899414 168.96499634 221.25000000 0.692835 -0.535904 0.482480 0.000000
83.68160248 197.79299927 135.00000000 -0.804198 -0.535611 -0.257656 0.000000
124.12100220 294.28698730 155.00000000 0.526543 0.651029 -0.546730 0.000000
177.77299500 256.25000000 198.75000000 0.689700 0.689700 0.220516 0.000000
146.54299927 237.03100586 138.75000000 -0.000978 -0.000978 -0.999999 0.000000
174.57000732 246.64100647 171.25000000 0.602192 0.737082 -0.306716 0.000000
223.81799316 157.75399780 175.00000000 0.630757 0.240663 -0.737718 0.000000
168.96499634 162.55900574 158.75000000 0.000978 0.000978 0.999999 0.000000
114.51200104 162.55900574 223.75000000 -0.095649 -0.297430 0.949940 0.000000
111.70899963 151.34800720 192.50000000 -0.667451 -0.742091 -0.061721 0.000000
245.83999634 131.32800293 191.25000000 0.111556 -0.939486 0.323914 0.000000
229.82400513 189.78500366 213.75000000 0.000978 0.000978 0.999999 0.000000
227.42199707 132.92999268 198.75000000 -0.085680 -0.620093 0.779836 0.000000
114.11100006 265.85900879 225.00000000 -0.276805 0.426678 0.861002 0.000000
73.27149963 223.41799927 167.50000000 -0.971948 -0.040043 0.231763 0.000000
198.19299316 235.42999268 175.00000000 -0.979348 0.199650 0.031897 0.000000
221.01600647 180.17599487 213.75000000 0.000978 0.000978 0.999999 0.000000
182.57800293 186.58200073 226.25000000 0.331140 -0.408873 0.850393 0.000000
97.69529724 232.22599792 76.25000000 0.801946 -0.154393 -0.577101 0.000000
240.23399353 164.96099854 213.75000000 0.499672 -0.600616 0.624170 0.000000
161.75799561 221.01600647 178.75000000 -0.000978 -0.000978 -0.999999 0.000000
126.52300262 189.78500366 161.25000000 -0.584327 -0.006842 0.811489 0.000000
181.77699280 128.92599487 171.25000000 -0.366770 -0.901582 0.229414 0.000000
172.16799927 148.14399719 196.25000000 -0.310792 -0.929564 0.198288 0.000000
140.93699646 204.19900513 168.75000000 -0.527456 0.441476 0.725872 0.000000
188.98399353 207.40199280 188.75000000 0.052071 0.295917 0.953793 0.000000
80.47850037 231.42599487 122.50000000 -0.926582 0.231291 -0.296563 0.000000
107.30500031 217.81199646 241.25000000 -0.126329 0.007690 0.991959 0.000000
256.25000000 153.35000610 197.50000000 0.557468 0.483809 -0.674654 0.000000
76.87500000 250.64399719 158.75000000 -0.921840 0.369560 -0.116776 0.000000
140.13699341 144.54100037 140.00000000 -0.329014 -0.944183 -0.016388 0.000000
245.83999634 129.72700500 183.75000000 0.822804 -0.481145 -0.302478 0.000000
214.20899963 220.21499634 190.00000000 -0.662002 0.662002 -0.351433 0.000000
138.53500366 269.06201172 158.75000000 0.447089 0.414808 -0.792493 0.000000
184.17999268 174.57000732 173.75000000 -0.392232 0.657030 0.643790 0.000000
133.72999573 212.60699463 140.00000000 -0.999999 -0.000978 -0.000978 0.000000
156.95300293 217.01199341 238.75000000 -0.000978 -0.000978 0.999999 0.000000
139.33599854 181.77699280 243.75000000 0.161415 -0.169041 0.972302 0.000000
177.77299500 180.17599487 161.25000000 -0.811715 0.170174 0.558713 0.000000
103.30100250 178.97500610 127.50000000 -0.783836 0.064484 0.617611 0.000000
128.12500000 238.63299561 131.25000000 0.446106 0.257310 -0.857194 0.000000
144.94099426 294.28698730 185.00000000 0.418483 0.908224 -0.001296 0.000000
167.36300659 144.94099426 158.75000000 0.689700 0.689700 0.220516 0.000000
143.33999634 179.77499390 242.50000000 0.082399 -0.376872 0.922593 0.000000
156.95300293 225.82000732 178.75000000 -0.396478 -0.164603 -0.903167 0.000000
81.67970276 249.84399414 133.75000000 -0.982468 0.186429 0.001144 0.000000
174.57000732 202.59800720 186.25000000 -0.233238 -0.437886 0.868249 0.000000
180.97700500 205.80099487 186.25000000 -0.580128 -0.015158 0.814384 0.000000
126.52300262 278.67199707 148.75000000 0.804990 0.176705 -0.566363 0.000000
99.29679871 270.26400757 112.50000000 -0.892654 0.449683 -0.030874 0.000000
254.64799500 138.13499451 195.00000000 0.842331 -0.075031 -0.533712 0.000000
216.61099243 184.97999573 215.00000000 0.282127 0.846381 0.451712 0.000000
248.24200439 190.58599854 201.25000000 0.651028 -0.092168 -0.753437 0.000000
99.69719696 236.22999573 77.50000000 0.823588 -0.115157 -0.555375 0.000000
194.18899536 239.43400574 190.00000000 0.607311 0.791083 -0.073222 0.000000
145.74200439 205.80099487 243.75000000 0.089850 0.292988 0.951885 0.000000
168.16400146 195.39100647 238.75000000 0.427934 0.337018 0.838625 0.000000
174.16999817 172.96899414 162.50000000 -0.000978 -0.000978 -0.999999 0.000000
200.19500732 134.53100586 136.25000000 0.689567 0.230903 -0.686426 0.000000
200.59599304 131.32800293 135.00000000 0.610820 0.365182 -0.702525 0.000000
154.55099487 241.03500366 143.75000000 0.000978 0.000978 -0.999999 0.000000
143.33999634 270.66400146 163.75000000 0.615952 0.142373 -0.774811 0.000000
85.28320313 186.58200073 185.00000000 -0.943968 0.314656 -0.099575 0.000000
177.77299500 188.98399353 188.75000000 -0.511983 -0.708772 -0.485300 0.000000
168.16400146 167.36300659 153.75000000 0.000978 0.000978 0.999999 0.000000
101.69899750 161.75799561 186.25000000 -0.764761 -0.613963 -0.195422 0.000000
134.53100586 286.27899170 157.50000000 0.907150 0.303360 0.291636 0.000000
108.10500336 277.87100220 123.75000000 -0.001322 0.881656 -0.471891 0.000000
159.75599670 184.97999573 242.50000000 0.191948 -0.178890 0.964963 0.000000
79.27729797 229.02299500 128.75000000 -0.943077 -0.332034 -0.018937 0.000000
176.17199707 229.02299500 226.25000000 0.255994 0.431706 0.864926 0.000000
219.41400146 146.14300537 167.50000000 0.420471 0.633199 -0.649818 0.000000
197.39300537 201.79699707 187.50000000 -0.910089 0.338199 -0.239497 0.000000
199.39399719 234.22799683 175.00000000 -0.994107 0.102839 0.034280 0.000000
151.34800720 172.16799927 238.75000000 0.023512 -0.579506 0.814628 0.000000
107.30500031 286.67999268 146.25000000 -0.508635 0.828260 -0.235109 0.000000
104.50199890 262.65600586 225.00000000 -0.315473 0.499367 0.806913 0.000000
152.14799500 188.58399963 167.50000000 0.439633 -0.718343 0.539172 0.000000
178.57400513 148.14399719 198.75000000 -0.073759 -0.669616 0.739036 0.000000
205.80099487 137.73399353 146.25000000 0.526119 0.793152 -0.306770 0.000000
99.69719696 240.23399353 77.50000000 0.842882 -0.001349 -0.538096 0.000000
148.14399719 250.64399719 231.25000000 0.826013 -0.497468 0.265006 0.000000
144.94099426 225.41999817 180.00000000 -0.118828 -0.904490 -0.409607 0.000000
74.87300110 229.02299500 187.50000000 -0.973985 0.108776 0.198798 0.000000
136.13299561 207.40199280 161.25000000 -0.810258 -0.297357 0.505035 0.000000
118.11499786 284.27700806 140.00000000 0.560102 -0.153841 -0.814014 0.000000
90.88860321 277.07000732 185.00000000 -0.768542 0.635886 0.070654 0.000000
252.24600220 190.58599854 211.25000000 0.000978 0.000978 0.999999 0.000000
169.76600647 169.76600647 173.75000000 0.000978 0.000978 -0.999999 0.000000
121.71900177 296.68899536 192.50000000 -0.294440 0.955378 0.023605 0.000000
108.10500336 214.60899353 103.75000000 0.686910 -0.408836 -0.600839 0.000000
251.44500732 210.60499573 211.25000000 0.678806 -0.451981 0.578736 0.000000
169.76600647 209.00399780 236.25000000 0.579964 0.367583 0.726997 0.000000
196.19099426 187.38299561 223.75000000 -0.107167 -0.297687 0.948629 0.000000
82.08010101 262.65600586 157.50000000 -0.584042 0.584042 -0.563728 0.000000
74.07219696 226.62100220 175.00000000 -0.983368 -0.164094 0.077855 0.000000
103.30100250 162.15800476 175.00000000 -0.503560 -0.855620 -0.119758 0.000000
153.35000610 203.39799500 177.50000000 -0.261863 -0.684018 0.680843 0.000000
202.59800720 125.32199860 147.50000000 0.000978 -0.999999 0.000978 0.000000
151.34800720 166.56199646 148.75000000 0.000978 0.000978 0.999999 0.000000
225.82000732 129.72700500 193.75000000 0.952066 0.001228 0.305890 0.000000
136.93400574 273.06600952 158.75000000 0.540326 0.017783 -0.841268 0.000000
199.39399719 229.02299500 163.75000000 -0.062436 0.484224 0.872713 0.000000
185.78100586 142.53900146 141.25000000 0.101395 0.901442 -0.420858 0.000000
205.80099487 125.32199860 155.00000000 0.183347 -0.979875 -0.078924 0.000000
117.31400299 154.55099487 162.50000000 -0.689700 -0.689700 -0.220516 0.000000
80.07810211 237.83200073 216.25000000 0.262985 -0.262985 0.928266 0.000000
148.14399719 223.41799927 181.25000000 0.205975 -0.627218 -0.751113 0.000000
152.94900513 259.45300293 163.75000000 0.584042 0.584042 -0.563728 0.000000
90.88860321 257.85101318 107.50000000 -0.813160 0.523968 -0.253432 0.000000
107.30500031 209.80499268 241.25000000 -0.228138 0.092011 0.969271 0.000000
156.15199280 140.13699341 161.25000000 -0.414098 -0.900275 0.134264 0.000000
176.97300720 245.83999634 173.75000000 0.937787 0.149225 -0.313508 0.000000
205.39999390 216.21099854 195.00000000 0.820661 0.446046 -0.357154 0.000000
121.71900177 197.79299927 243.75000000 -0.468870 -0.468870 0.748547 0.000000
225.01899719 208.20300293 211.25000000 0.028504 0.487288 0.872776 0.000000
188.58399963 142.53900146 142.50000000 0.180590 0.897171 -0.403077 0.000000
175.37100220 188.18400574 161.25000000 -0.511858 -0.854987 0.083655 0.000000
177.77299500 241.43499756 182.50000000 -0.523918 0.848719 0.072021 0.000000
184.17999268 242.23599243 210.00000000 0.581255 0.791789 0.187649 0.000000
144.14100647 172.96899414 238.75000000 0.278164 -0.486399 0.828276 0.000000
140.93699646 220.21499634 243.75000000 0.000978 0.000978 0.999999 0.000000
147.34399414 209.40400696 182.50000000 0.114749 0.382958 -0.916611 0.000000
160.95700073 240.63499451 230.00000000 0.373055 0.603133 0.705025 0.000000
152.94900513 274.26699829 210.00000000 0.542364 0.475611 0.692557 0.000000
162.55900574 269.06201172 208.75000000 0.432592 0.558558 0.707727 0.000000
101.69899750 192.98800659 236.25000000 -0.447678 0.017269 0.894028 0.000000
251.44500732 128.52499390 182.50000000 0.528307 0.518244 0.672543 0.000000
160.95700073 269.06201172 208.75000000 0.484471 0.514438 0.707560 0.000000
201.39599609 179.37500000 160.00000000 0.200298 -0.200298 -0.959042 0.000000
138.53500366 202.59800720 168.75000000 -0.218324 0.420311 0.880723 0.000000
77.27539825 221.01600647 137.50000000 -0.955177 -0.136076 -0.262905 0.000000
132.12899780 284.27700806 211.25000000 0.267931 0.803792 0.531161 0.000000
97.69529724 165.36099243 190.00000000 -0.689700 -0.689700 -0.220516 0.000000
147.34399414 142.93899536 142.50000000 -0.001349 -0.842882 -0.538096 0.000000
136.13299561 144.54100037 195.00000000 0.001228 -0.952066 -0.305890 0.000000
147.34399414 147.74400330 210.00000000 0.238700 -0.958757 0.154298 0.000000
111.70899963 164.96099854 225.00000000 0.254972 -0.352244 0.900507 0.000000
121.71900177 244.23800659 128.75000000 0.807634 0.190121 -0.558195 0.000000
109.70700073 264.25799561 226.25000000 -0.219921 0.666002 0.712794 0.000000
250.64399719 184.17999268 211.25000000 0.000978 0.000978 0.999999 0.000000
134.93200684 193.78900146 167.50000000 -0.449384 -0.087651 0.889028 0.000000
94.89250183 170.56599426 215.00000000 -0.689700 -0.689700 0.220516 0.000000
98.09570313 189.78500366 112.50000000 -0.823638 0.352536 0.444227 0.000000
78.87689972 204.19900513 157.50000000 -0.907886 -0.413909 -0.066497 0.000000
105.70300293 194.58999634 126.25000000 -0.468870 0.468870 0.748547 0.000000
213.80900574 217.81199646 208.75000000 0.358688 0.879315 0.313285 0.000000
145.74200439 166.96299744 147.50000000 -0.255649 -0.466903 0.846549 0.000000
102.90000153 194.58999634 120.00000000 -0.885075 0.443255 0.142014 0.000000
198.19299316 231.42599487 192.50000000 -0.886099 0.424802 0.185395 0.000000
184.17999268 126.92400360 167.50000000 -0.350904 -0.932631 0.084057 0.000000
192.58799744 233.02699280 170.00000000 -0.087115 0.953068 -0.289951 0.000000
136.93400574 176.17199707 161.25000000 -0.089032 -0.737068 0.669929 0.000000
245.83999634 207.40199280 211.25000000 0.000978 0.000978 0.999999 0.000000
184.58000183 234.62899780 177.50000000 0.536675 0.843735 -0.009511 0.000000
123.31999969 170.16600037 147.50000000 -0.254143 -0.859824 0.442847 0.000000
189.38499451 230.62500000 175.00000000 0.595964 0.801664 0.046494 0.000000
83.68160248 259.45300293 202.50000000 -0.885873 0.359463 0.293285 0.000000
110.50800323 165.76199341 226.25000000 -0.384138 -0.605058 0.697383 0.000000
136.93400574 172.16799927 156.25000000 0.004009 -0.869958 0.493110 0.000000
220.21499634 132.92999268 153.75000000 0.474508 0.714259 -0.514467 0.000000
222.61700439 193.78900146 178.75000000 0.836374 0.133293 -0.531706 0.000000
170.56599426 168.16400146 226.25000000 0.331907 -0.777656 -0.533937 0.000000
217.01199341 203.39799500 213.75000000 0.557571 0.112096 0.822526 0.000000
141.73800659 145.34199524 157.50000000 -0.443255 -0.885075 0.142014 0.000000
172.56799316 168.96499634 162.50000000 -0.556964 0.258870 -0.789163 0.000000
186.58200073 194.99000549 227.50000000 0.209570 -0.270636 0.939594 0.000000
136.93400574 152.14799500 221.25000000 -0.001228 -0.952066 0.305890 0.000000
74.87300110 230.62500000 147.50000000 -0.999999 -0.000978 -0.000978 0.000000
90.48829651 277.07000732 178.75000000 -0.746385 0.664859 0.029518 0.000000
143.33999634 255.44900513 153.75000000 0.842882 0.001349 -0.538096 0.000000
113.71099854 177.37300110 235.00000000 0.047056 -0.428883 0.902134 0.000000
146.54299927 292.68499756 177.50000000 0.564060 0.804279 -0.187006 0.000000
186.98199463 244.23800659 192.50000000 0.861210 -0.505039 0.057043 0.000000
100.49800110 194.58999634 112.50000000 -0.907150 0.303360 0.291636 0.000000
257.85101318 168.56399536 205.00000000 0.274474 -0.937669 0.213170 0.000000
165.76199341 273.46701050 185.00000000 0.907150 0.303360 -0.291636 0.000000
170.56599426 162.55900574 213.75000000 0.899227 0.386216 0.205496 0.000000
173.76899719 261.85501099 201.25000000 0.693260 0.519527 0.499481 0.000000
132.12899780 253.84800720 143.75000000 0.596784 0.339858 -0.726874 0.000000
210.20500183 221.81599426 200.00000000 -0.913644 0.199367 -0.354270 0.000000
172.16799927 186.58200073 236.25000000 0.762715 -0.123402 0.634852 0.000000
86.48439789 236.22999573 228.75000000 -0.714642 0.279782 0.641100 0.000000
135.33200073 200.99600220 246.25000000 0.000978 0.000978 0.999999 0.000000
244.23800659 177.77299500 196.25000000 0.548372 -0.362869 -0.753401 0.000000
163.35899353 160.95700073 166.25000000 -0.496765 0.867647 -0.020304 0.000000
172.96899414 144.14100647 191.25000000 -0.965014 0.106369 -0.239652 0.000000
232.22599792 128.52499390 187.50000000 0.091495 -0.971350 0.219337 0.000000
201.79699707 169.76600647 158.75000000 0.366639 -0.021870 -0.930106 0.000000
161.75799561 268.26199341 176.25000000 0.703654 0.176297 -0.688324 0.000000
110.50800323 231.02499390 102.50000000 0.922827 0.111068 -0.368856 0.000000
82.48040009 212.20700073 113.75000000 -0.963215 -0.210990 -0.166433 0.000000
152.14799500 145.34199524 182.50000000 0.001228 -0.952066 0.305890 0.000000
120.91799927 254.64799500 131.25000000 0.721913 0.353623 -0.594804 0.000000
196.99200439 146.54299927 153.75000000 0.583859 0.699638 -0.411844 0.000000
180.17599487 217.01199341 181.25000000 -0.179657 0.698666 0.692524 0.000000
198.59399414 205.00000000 188.75000000 -0.001264 -0.362873 0.931838 0.000000
100.09799957 210.60499573 238.75000000 -0.280733 -0.114666 0.952912 0.000000
85.68360138 219.41400146 78.75000000 -0.651686 -0.261626 -0.711939 0.000000
122.51899719 207.00199890 137.50000000 -0.508178 0.845976 0.161491 0.000000
156.15199280 196.19099426 176.25000000 -0.359301 -0.316852 0.877786 0.000000
186.58200073 234.62899780 183.75000000 -0.189715 0.945844 -0.263417 0.000000
251.04499817 192.98800659 202.50000000 0.524143 -0.168741 -0.834746 0.000000
187.38299561 172.56799316 157.50000000 0.006826 0.563790 -0.825890 0.000000
198.59399414 202.59800720 183.75000000 -0.910089 0.338199 -0.239497 0.000000
90.48829651 219.41400146 78.75000000 0.619675 -0.376407 -0.688710 0.000000
75.67379761 229.02299500 190.00000000 -0.975983 0.084922 0.200612 0.000000
167.36300659 160.15600586 168.75000000 0.421879 0.564159 -0.709749 0.000000
168.96499634 246.64100647 221.25000000 0.621963 0.457671 0.635374 0.000000
213.80900574 126.12300110 180.00000000 0.645568 -0.642249 -0.413230 0.000000
166.56199646 247.44099426 161.25000000 0.427409 0.798367 -0.424183 0.000000
129.72700500 282.67599487 153.75000000 0.556347 0.173387 -0.812659 0.000000
108.90599823 154.55099487 208.75000000 -0.504097 -0.792152 0.344066 0.000000
192.98800659 170.56599426 158.75000000 0.128808 -0.046736 -0.990568 0.000000
127.32399750 276.26901245 218.75000000 0.023836 0.724899 0.688443 0.000000
248.24200439 133.33000183 182.50000000 0.506260 -0.725362 0.466423 0.000000
86.08399963 192.98800659 137.50000000 -0.904835 -0.412805 -0.104244 0.000000
82.88079834 191.38699341 200.00000000 -0.962966 -0.267559 0.033291 0.000000
217.01199341 198.99400330 172.50000000 0.776939 0.204619 -0.595397 0.000000
90.48829651 221.01600647 78.75000000 0.347657 0.305517 -0.886450 0.000000
165.76199341 227.82200623 232.50000000 0.584480 0.393495 0.709609 0.000000
166.96299744 180.17599487 177.50000000 -0.380188 -0.054313 -0.923313 0.000000
80.07810211 218.61300659 123.75000000 -0.987708 -0.071302 -0.139097 0.000000
199.39399719 234.62899780 171.25000000 -0.993320 -0.064267 0.095837 0.000000
148.94500732 281.87500000 168.75000000 0.646218 0.468298 -0.602577 0.000000
130.52699280 272.26599121 223.75000000 0.452320 0.220900 0.864066 0.000000
220.21499634 177.77299500 213.75000000 0.000978 0.000978 0.999999 0.000000
204.19900513 164.16000366 211.25000000 -0.161371 -0.221721 0.961665 0.000000
197.39300537 230.62500000 195.00000000 0.652256 0.530906 0.541018 0.000000
136.93400574 185.78100586 166.25000000 -0.335075 -0.587595 0.736517 0.000000
103.30100250 158.15400696 202.50000000 -0.708486 -0.705724 -0.001381 0.000000
92.08979797 221.81599426 78.75000000 0.832406 -0.522323 0.185146 0.000000
207.40199280 136.13299561 201.25000000 0.000978 0.000978 0.999999 0.000000
89.68750000 205.80099487 231.25000000 -0.751462 0.104411 0.651463 0.000000
76.47460175 225.01899719 197.50000000 -0.995509 -0.013991 0.093632 0.000000
111.30899811 263.45700073 123.75000000 0.897475 0.058561 -0.437161 0.000000
118.11499786 270.66400146 137.50000000 0.683780 0.399009 -0.610931 0.000000
158.55499268 237.83200073 141.25000000 0.310219 0.599543 -0.737775 0.000000
134.93200684 285.07800293 157.50000000 0.907150 0.303360 0.291636 0.000000
87.28510284 180.57600403 212.50000000 -0.811563 -0.579688 0.072998 0.000000
140.53700256 213.80900574 167.50000000 -0.938143 -0.103049 0.330558 0.000000
125.72299957 203.39799500 243.75000000 0.000978 0.000978 0.999999 0.000000
108.10500336 183.37899780 236.25000000 0.223382 -0.667022 0.710761 0.000000
213.80900574 144.94099426 163.75000000 0.391354 0.639046 -0.662164 0.000000
159.75599670 228.22300720 235.00000000 0.432842 -0.173428 0.884630 0.000000
188.18400574 139.33599854 196.25000000 -0.830309 0.165466 0.532173 0.000000
174.57000732 151.34800720 201.25000000 -0.107695 -0.644695 0.756816 0.000000
174.97099304 177.77299500 225.00000000 0.963679 0.192736 0.184869 0.000000
191.38699341 180.57600403 220.00000000 0.119997 -0.620723 0.774793 0.000000
184.97999573 178.57400513 183.75000000 -0.801779 0.230183 -0.551513 0.000000
213.00799561 193.78900146 216.25000000 0.000978 0.000978 0.999999 0.000000
159.35499573 159.35499573 226.25000000 0.526882 -0.755252 0.389860 0.000000
103.30100250 259.45300293 226.25000000 -0.496854 0.480237 0.722848 0.000000
235.42999268 192.18699646 213.75000000 0.000978 0.000978 0.999999 0.000000
213.00799561 172.96899414 166.25000000 0.952066 -0.001228 -0.305890 0.000000
82.08010101 209.00399780 120.00000000 -0.962341 -0.206122 -0.177239 0.000000
86.48439789 192.98800659 226.25000000 -0.631280 0.314833 0.708778 0.000000
156.15199280 283.47601318 176.25000000 0.821182 0.411385 -0.395502 0.000000
195.39100647 126.12300110 180.00000000 -0.192736 -0.963679 0.184869 0.000000
149.74600220 272.26599121 168.75000000 0.587212 -0.211150 -0.781408 0.000000
189.78500366 217.81199646 228.75000000 0.799606 0.285461 0.528339 0.000000
180.17599487 189.38499451 227.50000000 0.299157 -0.157092 0.941184 0.000000
210.20500183 232.22599792 192.50000000 -0.658867 -0.591806 -0.464392 0.000000
126.52300262 233.82800293 128.75000000 0.594986 0.751309 -0.285529 0.000000
108.90599823 291.08401489 172.50000000 -0.393217 0.915692 -0.082997 0.000000
106.50399780 210.20500183 105.00000000 0.682278 -0.388221 -0.619501 0.000000
177.77299500 239.83399963 167.50000000 0.669003 0.726650 -0.156252 0.000000
116.91400146 156.15199280 158.75000000 -0.673582 -0.719404 -0.169541 0.000000
101.69899750 161.35699463 187.50000000 -0.762623 -0.626170 -0.162228 0.000000
120.91799927 227.42199707 243.75000000 0.000978 0.000978 0.999999 0.000000
122.51899719 233.02699280 121.25000000 0.696722 0.430671 -0.573673 0.000000
103.30100250 263.45700073 223.75000000 -0.519226 0.062979 0.852314 0.000000
176.17199707 152.54899597 202.50000000 -0.055930 -0.681199 0.729959 0.000000
121.71900177 259.05300903 232.50000000 0.242608 0.366118 0.898387 0.000000
126.52300262 250.64399719 238.75000000 0.000978 0.000978 0.999999 0.000000
109.70700073 241.03500366 106.25000000 0.874212 0.349380 -0.337174 0.000000
206.60200500 173.76899719 216.25000000 -0.000978 -0.000978 0.999999 0.000000
93.69139862 248.64300537 227.50000000 -0.240681 0.348622 0.905834 0.000000
132.92999268 280.27301025 213.75000000 -0.468870 0.468870 0.748547 0.000000
98.89649963 172.96899414 127.50000000 -0.837310 -0.502994 -0.214266 0.000000
189.78500366 235.42999268 203.75000000 0.887010 0.441362 0.135694 0.000000
146.94299316 176.97300720 157.50000000 0.451737 -0.726420 0.517926 0.000000
156.95300293 245.83999634 228.75000000 0.943968 -0.314656 -0.099575 0.000000
195.39100647 226.62100220 218.75000000 0.567911 0.400007 0.719355 0.000000
217.41200256 160.15600586 170.00000000 0.952066 -0.001228 -0.305890 0.000000
120.91799927 287.88101196 207.50000000 -0.298008 0.681391 0.668504 0.000000
245.03900146 136.13299561 201.25000000 0.284546 -0.758260 0.586579 0.000000
243.43699646 210.60499573 211.25000000 0.000978 0.000978 0.999999 0.000000
191.38699341 229.82400513 163.75000000 0.679558 0.159628 0.716044 0.000000
201.79699707 218.21299744 215.00000000 0.576345 0.741943 0.342560 0.000000
143.33999634 171.36700439 151.25000000 0.120441 -0.715214 0.688449 0.000000
227.42199707 128.12500000 186.25000000 0.061010 -0.995025 0.078759 0.000000
165.76199341 232.22599792 143.75000000 0.458286 -0.691595 -0.558275 0.000000
257.85101318 160.15600586 203.75000000 0.981314 -0.162130 0.103617 0.000000
123.31999969 280.27301025 213.75000000 -0.001345 0.528668 0.848828 0.000000
129.32600403 227.42199707 125.00000000 0.639958 0.471990 -0.606365 0.000000
135.33200073 200.99600220 168.75000000 -0.623768 0.643835 0.443159 0.000000
240.23399353 175.37100220 193.75000000 0.702227 -0.117285 -0.702227 0.000000
74.07219696 220.21499634 170.00000000 -0.968256 -0.099990 0.229091 0.000000
91.28900146 172.16799927 188.75000000 -0.787410 -0.613065 0.064308 0.000000
101.29900360 251.44500732 230.00000000 -0.429415 0.789152 0.439138 0.000000
88.08589935 266.66000366 206.25000000 -0.840934 0.402458 0.361743 0.000000
189.78500366 183.37899780 223.75000000 0.522788 -0.526150 0.670715 0.000000
98.49610138 230.62500000 78.75000000 0.952066 0.001228 -0.305890 0.000000
184.97999573 202.59800720 231.25000000 0.346154 -0.520036 0.780859 0.000000
136.93400574 270.66400146 223.75000000 0.283791 0.469884 0.835866 0.000000
79.67769623 204.19900513 147.50000000 -0.926582 -0.231291 -0.296563 0.000000
88.88670349 270.66400146 148.75000000 -0.778834 0.616269 -0.116751 0.000000
80.87889862 229.82400513 223.75000000 -0.709693 0.176274 0.682102 0.000000
245.83999634 182.57800293 198.75000000 0.738463 0.032475 -0.673512 0.000000
191.38699341 128.52499390 185.00000000 -0.367278 -0.881164 0.297752 0.000000
164.16000366 256.25000000 218.75000000 0.583396 0.640559 0.499333 0.000000
76.47460175 214.60899353 150.00000000 -0.976966 -0.168442 -0.131011 0.000000
233.82800293 204.19900513 191.25000000 0.648407 -0.001377 -0.761293 0.000000
166.56199646 266.66000366 181.25000000 0.778447 0.574829 -0.252173 0.000000
176.97300720 187.38299561 163.75000000 -0.696037 -0.436892 0.569787 0.000000
172.56799316 255.44900513 180.00000000 0.821182 0.411385 -0.395502 0.000000
137.73399353 221.01600647 243.75000000 0.000978 0.000978 0.999999 0.000000
140.53700256 217.01199341 160.00000000 -0.985814 0.108738 -0.127857 0.000000
134.53100586 297.48999023 177.50000000 0.255165 0.931845 -0.257984 0.000000
87.28510284 233.82800293 78.75000000 -0.960853 0.222749 -0.164755 0.000000
102.50000000 233.82800293 238.75000000 -0.331035 0.355443 0.874115 0.000000
159.35499573 217.81199646 238.75000000 0.075406 0.553449 0.829462 0.000000
197.79299927 125.32199860 145.00000000 0.027793 -0.992774 -0.116732 0.000000
196.19099426 214.20899963 177.50000000 0.256396 0.963695 0.074519 0.000000
154.55099487 227.82200623 160.00000000 -0.156963 -0.940412 0.301642 0.000000
161.75799561 234.22799683 232.50000000 0.405534 0.358561 0.840818 0.000000
257.05099487 188.18400574 203.75000000 0.679189 0.136438 -0.721170 0.000000
113.71099854 231.42599487 243.75000000 -0.176149 0.088682 0.980361 0.000000
181.77699280 243.43699646 211.25000000 0.574173 0.648259 0.500086 0.000000
166.56199646 210.60499573 238.75000000 0.734648 0.275692 0.619909 0.000000
201.79699707 162.55900574 211.25000000 -0.161371 -0.221721 0.961665 0.000000
183.77900696 249.04299927 200.00000000 0.726270 0.687238 -0.015334 0.000000
157.75399780 248.64300537 227.50000000 0.506047 0.411061 0.758252 0.000000
96.89450073 176.17199707 138.75000000 -0.689700 -0.689700 0.220516 0.000000
152.14799500 242.63699341 143.75000000 0.352568 0.470623 -0.808833 0.000000
144.14100647 250.64399719 233.75000000 0.001223 0.297091 0.954848 0.000000
120.51799774 156.95300293 222.50000000 -0.289893 -0.616624 0.731941 0.000000
120.11699677 168.56399536 140.00000000 -0.141827 -0.783778 0.604629 0.000000
228.22300720 136.13299561 203.75000000 0.173601 -0.801582 0.572127 0.000000
200.99600220 125.32199860 175.00000000 0.051905 -0.995025 0.085035 0.000000
173.36900330 249.84399414 177.50000000 0.601516 0.773818 -0.198454 0.000000
124.92199707 194.58999634 243.75000000 0.000978 0.000978 0.999999 0.000000
153.75000000 210.60499573 241.25000000 0.000978 0.000978 0.999999 0.000000
182.57800293 172.96899414 218.75000000 0.270158 -0.570333 0.775716 0.000000
197.79299927 213.40800476 185.00000000 -0.109594 0.983938 -0.140907 0.000000
167.76400757 158.55499268 167.50000000 0.409307 0.618103 -0.671131 0.000000
91.68939972 182.57800293 142.50000000 -0.822981 -0.563392 0.072742 0.000000
167.36300659 260.25399780 178.75000000 0.952066 0.001228 -0.305890 0.000000
209.00399780 126.12300110 152.50000000 0.165164 -0.982545 -0.085596 0.000000
169.76600647 194.18899536 172.50000000 -0.253661 -0.760983 -0.597127 0.000000
124.52100372 194.58999634 160.00000000 -0.560978 -0.066749 0.825135 0.000000
88.08589935 238.23199463 80.00000000 -0.933686 0.355504 -0.042973 0.000000
112.91000366 217.81199646 108.75000000 -0.756227 0.470796 -0.454392 0.000000
213.00799561 160.15600586 213.75000000 0.000978 0.000978 0.999999 0.000000
101.29900360 238.63299561 80.00000000 0.925867 0.166181 -0.339345 0.000000
126.52300262 287.48001099 151.25000000 0.702355 0.398276 -0.589978 0.000000
185.78100586 162.55900574 208.75000000 0.874859 -0.438172 -0.206461 0.000000
74.47260284 236.22999573 158.75000000 -0.994321 0.001075 -0.106419 0.000000
131.32800293 225.41999817 125.00000000 0.695384 0.471927 -0.541966 0.000000
167.36300659 264.25799561 208.75000000 0.623866 0.373661 0.686417 0.000000
136.93400574 253.04699707 143.75000000 0.446058 0.462397 -0.766304 0.000000
186.58200073 245.03900146 196.25000000 0.540811 0.828255 -0.146686 0.000000
251.44500732 139.33599854 191.25000000 0.650899 0.038122 -0.758206 0.000000
158.95500183 198.59399414 177.50000000 -0.488822 0.122566 0.863730 0.000000
130.52699280 296.68899536 190.00000000 0.001349 0.842882 0.538096 0.000000
77.67579651 251.44500732 188.75000000 -0.952066 0.001228 0.305890 0.000000
174.97099304 237.03100586 222.50000000 0.723227 0.397034 0.565073 0.000000
81.27929688 246.64100647 207.50000000 -0.915642 0.390072 0.097176 0.000000
156.95300293 218.61300659 238.75000000 0.528363 0.205559 0.823759 0.000000
90.08789825 241.03500366 80.00000000 -0.762424 0.545514 0.348028 0.000000
202.59800720 130.52699280 136.25000000 0.584042 0.584042 -0.563728 0.000000
80.07810211 223.41799927 121.25000000 -0.984091 -0.036188 -0.173938 0.000000
147.34399414 269.86300659 218.75000000 0.458484 0.561852 0.688560 0.000000
134.53100586 214.60899353 243.75000000 0.000978 0.000978 0.999999 0.000000
83.68160248 197.79299927 225.00000000 -0.909612 -0.411010 0.060641 0.000000
155.35200500 225.01899719 238.75000000 0.589193 0.295395 0.752059 0.000000
223.41799927 210.60499573 191.25000000 0.488623 0.733763 -0.472059 0.000000
164.16000366 148.54499817 155.00000000 0.723014 0.582018 -0.372164 0.000000
143.33999634 234.62899780 238.75000000 0.536274 -0.486155 0.689973 0.000000
245.83999634 196.19099426 211.25000000 0.367014 0.226642 0.902183 0.000000
74.07219696 218.61300659 162.50000000 -0.000978 -0.000978 0.999999 0.000000
211.00599670 181.77699280 165.00000000 0.709693 0.176274 -0.682102 0.000000
153.75000000 176.97300720 241.25000000 0.010253 -0.169745 0.985435 0.000000
95.29290009 259.45300293 223.75000000 0.000978 0.000978 0.999999 0.000000
136.13299561 172.96899414 156.25000000 -0.051980 -0.830276 0.554923 0.000000
196.99200439 238.63299561 198.75000000 0.433546 0.576400 -0.692677 0.000000
128.92599487 297.48999023 172.50000000 -0.689700 0.689700 -0.220516 0.000000
92.08979797 276.26901245 196.25000000 -0.781208 0.524549 0.338470 0.000000
148.14399719 243.43699646 236.25000000 0.103122 0.562090 0.820622 0.000000
149.74600220 223.01800537 240.00000000 0.180298 0.359177 0.915688 0.000000
223.41799927 139.33599854 166.25000000 0.391021 0.681400 -0.618705 0.000000
183.37899780 236.22999573 166.25000000 0.602869 0.796799 0.040753 0.000000
138.53500366 225.82000732 243.75000000 0.617098 0.417497 0.666998 0.000000
192.58799744 217.01199341 225.00000000 0.722178 0.456549 0.519636 0.000000
223.41799927 172.96899414 213.75000000 0.000978 0.000978 0.999999 0.000000
172.16799927 244.23800659 161.25000000 0.613000 0.682397 -0.398202 0.000000
176.97300720 237.43200684 220.00000000 0.695473 0.379797 0.609977 0.000000
102.50000000 278.67199707 128.75000000 -0.606939 0.780778 -0.148363 0.000000
100.49800110 180.97700500 122.50000000 -0.952066 -0.001228 0.305890 0.000000
85.68360138 266.26000977 150.00000000 -0.803319 0.582222 -0.125288 0.000000
136.93400574 180.97700500 243.75000000 0.000978 0.000978 0.999999 0.000000
247.44099426 205.00000000 201.25000000 0.885355 0.047746 -0.462458 0.000000
199.79499817 218.61300659 217.50000000 0.576345 0.741943 0.342560 0.000000
138.13499451 260.25399780 152.50000000 0.496069 0.443330 -0.746575 0.000000
220.21499634 204.60000610 180.00000000 0.643253 0.449441 -0.619862 0.000000
239.43400574 168.16400146 191.25000000 0.676556 0.401964 -0.617006 0.000000
74.87300110 236.22999573 155.00000000 -0.957502 0.237715 -0.163346 0.000000
80.07810211 254.24800110 147.50000000 -0.920277 0.369495 -0.128700 0.000000
82.48040009 260.25399780 148.75000000 -0.822243 0.479511 -0.306572 0.000000
216.21099854 185.78100586 213.75000000 0.282127 0.846381 0.451712 0.000000
119.31600189 179.37500000 238.75000000 -0.842882 -0.001349 0.538096 0.000000
170.56599426 182.57800293 236.25000000 0.979675 -0.198758 0.027050 0.000000
212.20700073 187.38299561 166.25000000 0.643626 -0.643626 -0.414116 0.000000
98.49610138 193.78900146 106.25000000 -0.748514 0.475430 0.462269 0.000000
95.29290009 272.66598511 132.50000000 -0.689700 0.689700 -0.220516 0.000000
92.49019623 248.24200439 80.00000000 -0.828631 0.552899 -0.087602 0.000000
158.55499268 263.45700073 171.25000000 0.376911 0.376911 -0.846095 0.000000
111.30899811 243.43699646 238.75000000 0.000000 0.000000 0.000000 0.000000
174.16999817 182.57800293 230.00000000 0.805445 -0.322496 0.497247 0.000000
181.37699890 250.64399719 202.50000000 0.766036 0.624567 0.152003 0.000000
82.48040009 217.01199341 226.25000000 -0.749943 -0.107556 0.652701 0.000000
155.35200500 229.82400513 178.75000000 -0.464428 -0.204587 -0.861656 0.000000
106.50399780 243.43699646 238.75000000 -0.000978 -0.000978 0.999999 0.000000
100.89800262 282.67599487 151.25000000 -0.535611 0.804198 -0.257656 0.000000
108.10500336 162.55900574 221.25000000 -0.581367 -0.444771 0.681316 0.000000
162.55900574 229.82400513 146.25000000 0.283063 -0.821039 -0.495751 0.000000
111.30899811 196.19099426 241.25000000 0.000978 0.000978 0.999999 0.000000
149.74600220 145.34199524 182.50000000 -0.039827 -0.973943 0.223271 0.000000
78.87689972 217.01199341 217.50000000 -0.971404 -0.010727 0.237189 0.000000
117.71499634 234.62899780 116.25000000 0.745803 0.261269 -0.612794 0.000000
157.75399780 145.74200439 143.75000000 -0.662540 -0.085912 0.744083 0.000000
114.51200104 285.07800293 208.75000000 0.029325 0.599071 0.800158 0.000000
201.79699707 215.00999451 172.50000000 0.170106 0.853488 0.492567 0.000000
135.33200073 279.47299194 158.75000000 0.406019 0.001289 -0.913864 0.000000
135.33200073 175.37100220 241.25000000 -0.314998 -0.279835 0.906901 0.000000
221.81599426 208.20300293 211.25000000 0.247439 -0.374863 0.893449 0.000000
168.96499634 187.38299561 176.25000000 -0.998053 -0.009406 -0.061660 0.000000
131.32800293 294.68701172 161.25000000 0.390530 0.756549 -0.524519 0.000000
174.97099304 168.16400146 217.50000000 0.710481 -0.507486 0.487519 0.000000
257.85101318 205.00000000 211.25000000 0.354284 0.173613 0.918880 0.000000
225.01899719 214.60899353 198.75000000 0.258601 0.785206 -0.562652 0.000000
166.96299744 165.76199341 227.50000000 0.584042 -0.584042 0.563728 0.000000
86.08399963 247.44099426 222.50000000 -0.338075 0.561301 0.755411 0.000000
111.30899811 174.16999817 140.00000000 -0.817280 -0.357064 0.452281 0.000000
142.53900146 238.63299561 138.75000000 0.275245 0.606176 -0.746185 0.000000
76.47460175 233.82800293 197.50000000 -0.959126 0.231513 0.162721 0.000000
249.04299927 189.78500366 201.25000000 0.652286 -0.095278 -0.751961 0.000000
132.92999268 247.44099426 238.75000000 0.143254 0.713253 0.686111 0.000000
255.44900513 170.56599426 211.25000000 0.440342 -0.167127 0.882138 0.000000
207.40199280 227.42199707 203.75000000 -0.000978 -0.000978 0.999999 0.000000
182.57800293 159.35499573 156.25000000 -0.000978 -0.000978 -0.999999 0.000000
190.58599854 180.97700500 221.25000000 0.562499 -0.410740 0.717557 0.000000
83.28119659 239.03300476 107.50000000 -0.841675 0.323241 -0.432549 0.000000
96.09369659 177.37300110 145.00000000 -0.689700 -0.689700 0.220516 0.000000
148.14399719 254.64799500 156.25000000 0.470731 0.228554 -0.852159 0.000000
113.71099854 171.36700439 231.25000000 -0.522017 -0.606486 0.599728 0.000000
80.47850037 253.04699707 197.50000000 -0.944992 0.221461 0.240718 0.000000
90.08789825 216.21099854 82.50000000 -0.584042 -0.584042 -0.563728 0.000000
187.38299561 233.82800293 193.75000000 0.822370 0.350181 -0.448421 0.000000
168.56399536 267.46099854 202.50000000 0.689507 0.589819 0.420350 0.000000
126.52300262 254.64799500 138.75000000 -0.256507 -0.772667 -0.580681 0.000000
93.69139862 276.26901245 198.75000000 -0.512864 0.790865 0.333921 0.000000
224.21899414 158.55499268 176.25000000 0.691252 0.248345 -0.678598 0.000000
118.91600037 296.28900146 177.50000000 -0.310792 0.929564 -0.198288 0.000000
83.28119659 253.04699707 211.25000000 -0.781252 0.386582 0.490102 0.000000
144.54100037 273.06600952 165.00000000 0.586961 0.157624 -0.794123 0.000000
135.33200073 221.81599426 171.25000000 -0.842525 -0.181075 -0.507311 0.000000
253.04699707 217.01199341 211.25000000 0.165466 0.830309 -0.532173 0.000000
105.30300140 159.35499573 180.00000000 -0.595811 -0.743560 -0.303526 0.000000
120.91799927 213.80900574 118.75000000 -0.536376 0.696788 0.476222 0.000000
156.95300293 228.22300720 236.25000000 0.658795 0.055733 0.750255 0.000000
241.03500366 134.93200684 200.00000000 0.088188 -0.799478 0.594187 0.000000
88.88670349 238.63299561 228.75000000 -0.624180 0.446799 0.640914 0.000000
74.87300110 225.82000732 150.00000000 -0.998887 0.032289 -0.034373 0.000000
202.99800110 188.18400574 162.50000000 0.402315 0.124760 -0.906961 0.000000
125.72299957 275.46899414 221.25000000 -0.082647 0.622027 0.778622 0.000000
203.39799500 234.22799683 167.50000000 -0.603786 -0.376749 0.702497 0.000000
237.03100586 128.52499390 185.00000000 -0.001228 -0.952066 0.305890 0.000000
147.34399414 247.44099426 146.25000000 0.425784 0.704118 -0.568265 0.000000
168.16400146 209.00399780 236.25000000 0.501538 0.362849 0.785366 0.000000
157.75399780 154.55099487 151.25000000 -0.812503 0.394280 0.429398 0.000000
158.55499268 182.97799683 155.00000000 0.149692 -0.535039 0.831460 0.000000
248.64300537 136.13299561 187.50000000 0.640733 0.344007 -0.686383 0.000000
249.04299927 188.98399353 201.25000000 0.556810 0.196790 -0.806992 0.000000
79.67769623 233.02699280 215.00000000 -0.000978 -0.000978 0.999999 0.000000
81.27929688 203.39799500 137.50000000 -0.938818 -0.318358 -0.131407 0.000000
109.70700073 282.67599487 131.25000000 0.464580 0.598755 -0.652425 0.000000
119.31600189 153.35000610 160.00000000 -0.689700 -0.689700 -0.220516 0.000000
85.68360138 186.98199463 217.50000000 -0.906929 -0.370558 0.200418 0.000000
208.20300293 152.14799500 161.25000000 0.643453 0.155943 -0.749433 0.000000
185.38099670 239.43400574 192.50000000 0.963679 0.184869 -0.192736 0.000000
128.92599487 220.21499634 121.25000000 0.081719 0.893366 0.441835 0.000000
226.62100220 176.97300720 181.25000000 0.722131 0.001381 -0.691755 0.000000
121.71900177 261.45498657 137.50000000 0.639315 0.240332 -0.730422 0.000000
118.51599884 162.95899963 135.00000000 -0.123466 -0.661954 0.739306 0.000000
167.36300659 154.95100403 205.00000000 0.690097 -0.294377 0.661142 0.000000
205.80099487 223.41799927 203.75000000 -0.817920 0.327484 -0.473033 0.000000
91.68939972 171.36700439 185.00000000 -0.804816 -0.592802 0.029291 0.000000
196.19099426 236.22999573 196.25000000 0.948731 -0.149375 -0.278563 0.000000
127.32399750 149.34599304 162.50000000 -0.314746 -0.949175 -0.001234 0.000000
159.35499573 160.55700684 150.00000000 -0.593201 -0.278312 0.755417 0.000000
157.75399780 150.54699707 206.25000000 0.429175 -0.859877 0.276444 0.000000
156.95300293 241.03500366 231.25000000 0.560864 0.176876 0.808793 0.000000
159.35499573 220.21499634 178.75000000 -0.012443 -0.157228 -0.987484 0.000000
162.55900574 193.78900146 241.25000000 -0.000978 -0.000978 0.999999 0.000000
134.53100586 162.55900574 141.25000000 0.546897 -0.337173 0.766301 0.000000
170.56599426 238.63299561 223.75000000 0.430104 0.354481 0.830273 0.000000
249.04299927 159.35499573 208.75000000 0.275188 -0.912925 0.301396 0.000000
180.57600403 243.43699646 212.50000000 0.545668 0.630137 0.552426 0.000000
137.73399353 191.38699341 168.75000000 -0.402107 -0.200323 0.893409 0.000000
149.74600220 218.61300659 183.75000000 -0.000978 -0.000978 -0.999999 0.000000
134.53100586 223.41799927 173.75000000 -0.455342 0.572097 -0.682179 0.000000
112.51000214 256.25000000 122.50000000 0.828679 0.322351 -0.457582 0.000000
160.95700073 223.41799927 178.75000000 -0.000978 -0.000978 -0.999999 0.000000
85.28320313 225.82000732 82.50000000 -0.987489 0.001118 -0.157685 0.000000
112.91000366 229.02299500 243.75000000 -0.176149 0.088682 0.980361 0.000000
105.70300293 158.15400696 182.50000000 -0.600449 -0.775516 -0.195031 0.000000
243.43699646 156.15199280 211.25000000 -0.000978 -0.000978 0.999999 0.000000
132.92999268 268.66198730 152.50000000 0.777317 0.076434 -0.624449 0.000000
192.98800659 213.00799561 186.25000000 0.001228 0.952066 0.305890 0.000000
229.82400513 177.77299500 213.75000000 0.000978 0.000978 0.999999 0.000000
107.30500031 260.25399780 228.75000000 -0.451514 0.701430 0.551481 0.000000
99.69719696 226.62100220 82.50000000 0.818540 -0.491753 -0.296937 0.000000
210.60499573 135.33200073 201.25000000 -0.201512 -0.604536 0.770668 0.000000
162.95899963 195.39100647 172.50000000 -0.223639 -0.967399 0.118848 0.000000
183.37899780 228.22300720 223.75000000 0.111522 0.528644 0.841486 0.000000
159.35499573 221.01600647 236.25000000 0.492477 0.372991 0.786349 0.000000
239.43400574 185.78100586 193.75000000 0.602377 -0.012406 -0.798115 0.000000
102.50000000 279.47299194 131.25000000 -0.587752 0.786214 -0.190829 0.000000
233.82800293 163.35899353 213.75000000 0.081862 -0.145928 0.985902 0.000000
146.54299927 198.59399414 243.75000000 0.000978 0.000978 0.999999 0.000000
94.09179688 168.96499634 205.00000000 -0.814042 -0.580674 -0.012355 0.000000
161.75799561 276.26901245 178.75000000 0.693260 0.519527 -0.499481 0.000000
75.67379761 241.03500366 187.50000000 -0.945457 0.172767 0.276155 0.000000
149.74600220 228.62300110 160.00000000 0.411385 -0.821182 0.395502 0.000000
204.60000610 236.22999573 187.50000000 -0.235546 -0.966376 0.103131 0.000000
100.89800262 228.62300110 82.50000000 0.818540 -0.491753 -0.296937 0.000000
107.30500031 202.59800720 241.25000000 -0.304036 -0.499375 0.811287 0.000000
181.77699280 199.39399719 188.75000000 -0.457638 0.228064 0.859392 0.000000
159.75599670 152.94900513 155.00000000 0.682943 0.695446 -0.223480 0.000000
190.58599854 154.55099487 153.75000000 0.395082 0.339306 -0.853687 0.000000
108.10500336 267.05999756 117.50000000 0.887934 0.251358 -0.385218 0.000000
103.30100250 178.57400513 128.75000000 -0.890692 0.053196 0.451484 0.000000
124.12100220 284.67800903 147.50000000 0.821852 0.295867 -0.486849 0.000000
114.91200256 249.84399414 122.50000000 0.659557 0.495087 -0.565574 0.000000
108.10500336 256.25000000 231.25000000 -0.001371 0.615457 0.788169 0.000000
206.60200500 213.00799561 193.75000000 0.311614 0.689425 -0.653904 0.000000
194.58999634 225.01899719 206.25000000 0.282127 0.451712 0.846381 0.000000
160.15600586 242.23599243 147.50000000 -0.000978 -0.000978 -0.999999 0.000000
86.48439789 210.60499573 228.75000000 -0.803493 -0.254309 0.538262 0.000000
203.39799500 203.39799500 176.25000000 -0.689700 0.689700 -0.220516 0.000000
108.90599823 175.37100220 136.25000000 -0.798124 -0.306239 0.518860 0.000000
87.28510284 193.38900757 120.00000000 -0.887065 -0.460409 -0.033754 0.000000
132.12899780 270.66400146 151.25000000 0.684142 0.133235 -0.717076 0.000000
147.34399414 180.97700500 163.75000000 0.000978 0.000978 0.999999 0.000000
160.95700073 271.06399536 207.50000000 0.499333 0.583396 0.640559 0.000000
239.43400574 206.60200500 196.25000000 0.520893 0.438212 -0.732558 0.000000
197.79299927 206.60200500 226.25000000 0.685050 0.089100 0.723027 0.000000
98.49610138 172.56799316 130.00000000 -0.692971 -0.720857 0.012549 0.000000
149.74600220 156.15199280 226.25000000 0.277996 -0.805717 0.523009 0.000000
123.72100067 208.20300293 135.00000000 -0.508178 0.845976 0.161491 0.000000
157.75399780 261.45498657 170.00000000 0.243635 0.482673 -0.841230 0.000000
152.14799500 272.66598511 212.50000000 0.729807 0.378844 0.569086 0.000000
196.19099426 226.62100220 198.75000000 0.990185 -0.012252 0.139227 0.000000
156.15199280 235.42999268 176.25000000 0.231558 -0.350978 -0.907301 0.000000
225.82000732 180.17599487 213.75000000 0.000978 0.000978 0.999999 0.000000
99.69719696 190.58599854 115.00000000 -0.817742 0.363617 0.446185 0.000000
84.48239899 265.05899048 197.50000000 -0.912354 0.332161 0.239330 0.000000
102.90000153 162.55900574 175.00000000 -0.503560 -0.855620 -0.119758 0.000000
96.09369659 186.58200073 111.25000000 0.027841 0.029903 0.999165 0.000000
173.76899719 203.39799500 233.75000000 0.000978 0.000978 0.999999 0.000000
88.08589935 236.63099670 82.50000000 -0.924093 0.354352 -0.143130 0.000000
121.71900177 254.64799500 131.25000000 0.720909 0.358002 -0.593401 0.000000
237.83200073 143.33999634 208.75000000 -0.000978 -0.000978 0.999999 0.000000
83.28119659 266.26000977 160.00000000 -0.943486 0.330537 0.024062 0.000000
174.57000732 231.82600403 225.00000000 0.377462 0.380594 0.844198 0.000000
110.50800323 235.42999268 103.75000000 0.922827 0.111068 -0.368856 0.000000
237.83200073 216.21099854 208.75000000 -0.317930 0.423389 0.848329 0.000000
140.13699341 252.24600220 236.25000000 0.417575 0.271803 0.867038 0.000000
126.52300262 146.94299316 202.50000000 -0.220745 -0.971528 0.086053 0.000000
