75.45120239 135.62100220 340.00000000 -0.268889 -0.669836 0.692111 0.000000
112.06199646 171.91400146 261.50000000 0.462431 0.001317 -0.886654 0.000000
115.88300323 168.09399414 261.50000000 0.719702 0.640264 -0.268498 0.000000
79.90820313 126.06999969 311.00000000 -0.308877 -0.923783 -0.226320 0.000000
85.95700073 120.97699738 351.50000000 0.320237 -0.855514 0.406872 0.000000
164.91000366 139.12300110 344.00000000 0.348982 0.414709 0.840374 0.000000
77.04299927 142.94299316 284.00000000 -0.765701 -0.637842 -0.082818 0.000000
110.15200043 129.89100647 359.50000000 0.361823 -0.792794 0.490471 0.000000
137.85000610 145.17199707 341.00000000 0.871938 0.469950 0.137370 0.000000
77.04299927 208.84399414 334.50000000 -0.036100 0.429186 0.902494 0.000000
132.43800354 207.25199890 309.00000000 0.850614 0.497305 -0.170717 0.000000
134.98399353 145.17199707 346.50000000 0.725578 0.496448 0.476524 0.000000
95.50779724 111.74400330 320.00000000 -0.339046 -0.824750 -0.452587 0.000000
64.94529724 155.35899353 291.50000000 -0.793175 -0.247770 -0.556313 0.000000
78.31639862 171.91400146 256.50000000 -0.766887 0.222444 -0.601999 0.000000
158.54299927 142.30700684 339.00000000 -0.091338 0.993441 0.068785 0.000000
67.49220276 173.18800354 346.50000000 -0.284458 -0.132213 0.949528 0.000000
71.31250000 194.19900513 289.50000000 -0.648905 0.737880 -0.185621 0.000000
120.02100372 168.09399414 359.00000000 0.769332 0.499334 0.398491 0.000000
157.90600586 136.89500427 316.50000000 0.355520 0.689742 -0.630762 0.000000
123.52300262 201.52099609 348.00000000 0.473421 0.840438 0.263697 0.000000
135.30299377 147.08200073 345.00000000 0.761875 0.375252 0.527952 0.000000
65.90039825 179.55499268 288.00000000 -0.937035 0.190183 -0.292910 0.000000
137.85000610 170.00399780 320.00000000 0.981400 0.186312 -0.046281 0.000000
83.72850037 185.92199707 258.00000000 -0.268570 0.824340 -0.498330 0.000000
75.76950073 210.11700439 314.50000000 -0.750049 0.657912 -0.067663 0.000000
106.33200073 153.44900513 254.50000000 0.631984 -0.297499 -0.715605 0.000000
171.27699280 95.18949890 317.00000000 0.080303 -0.995541 -0.049502 0.000000
138.80499268 106.33200073 359.50000000 0.000978 0.000978 0.999999 0.000000
139.12300110 166.18400574 314.00000000 0.705724 0.708486 0.001381 0.000000
87.86720276 214.89300537 302.00000000 -0.354140 0.869253 -0.344942 0.000000
85.95700073 164.27299500 246.50000000 -0.736335 -0.104769 -0.668456 0.000000
116.51999664 187.19500732 268.50000000 0.539913 0.209541 -0.815222 0.000000
113.97299957 126.70700073 354.50000000 0.280074 -0.660974 0.696184 0.000000
136.57600403 184.01199341 342.00000000 0.911611 -0.106516 0.397014 0.000000
55.39450073 157.90600586 329.50000000 -0.838014 -0.363192 0.407215 0.000000
126.06999969 177.00799561 354.50000000 0.195462 0.346695 0.917386 0.000000
75.13279724 183.37500000 349.50000000 -0.000978 -0.000978 0.999999 0.000000
133.71099854 185.28500366 289.50000000 0.973886 0.134807 -0.182682 0.000000
125.75199890 168.09399414 269.00000000 0.537833 0.257224 -0.802852 0.000000
154.72300720 105.69499969 364.50000000 -0.198469 -0.761568 0.616947 0.000000
110.15200043 115.56400299 349.00000000 -0.124674 -0.550034 0.825784 0.000000
134.66600037 181.46499634 294.00000000 0.994833 0.095636 -0.034077 0.000000
136.89500427 170.32200623 290.00000000 0.958423 0.246527 -0.143698 0.000000
77.36129761 134.98399353 298.00000000 -0.591031 -0.638178 -0.493367 0.000000
166.18400574 135.30299377 324.00000000 0.796622 0.200302 -0.570326 0.000000
196.10899353 99.00980377 302.00000000 0.001261 -0.934187 -0.356781 0.000000
79.27149963 207.57000732 300.00000000 -0.518523 0.776977 -0.356989 0.000000
101.87500000 198.02000427 351.50000000 -0.569269 0.360483 0.738908 0.000000
194.19900513 116.20099640 340.00000000 0.903047 -0.334407 0.269588 0.000000
63.35350037 186.55900574 301.00000000 -0.612227 0.366023 -0.700860 0.000000
154.72300720 97.41799927 299.50000000 -0.163148 -0.964529 -0.207524 0.000000
75.45120239 210.11700439 319.00000000 -0.775715 0.596822 0.205109 0.000000
85.32029724 166.18400574 246.50000000 -0.788091 -0.552136 -0.272135 0.000000
82.77339935 173.82400513 351.50000000 -0.453451 -0.778506 0.433948 0.000000
133.39300537 197.38299561 292.00000000 0.868306 0.344566 -0.356817 0.000000
116.51999664 142.62500000 264.50000000 0.000978 0.000978 -0.999999 0.000000
155.99600220 123.84200287 276.00000000 0.179225 0.712304 -0.678603 0.000000
83.72850037 166.82000732 247.00000000 -0.618388 -0.402864 -0.674756 0.000000
74.81449890 208.84399414 318.00000000 -0.812503 0.575823 0.090920 0.000000
107.60500336 212.02699280 276.50000000 0.335378 0.805860 -0.487967 0.000000
155.99600220 127.98000336 361.50000000 -0.061896 0.729797 0.680856 0.000000
120.02100372 197.38299561 274.00000000 0.384812 0.921697 -0.048928 0.000000
152.17599487 127.02500153 280.00000000 -0.082734 0.989318 -0.120023 0.000000
147.08200073 105.69499969 361.50000000 -0.058407 -0.616830 0.784927 0.000000
118.43000031 188.46899414 269.50000000 0.355127 0.218874 -0.908834 0.000000
173.82400513 123.20500183 294.00000000 0.294532 0.949634 -0.106982 0.000000
139.75999451 145.80900574 317.00000000 0.927359 0.231485 -0.293972 0.000000
90.41410065 169.36700439 356.50000000 0.000978 0.000978 0.999999 0.000000
197.38299561 102.83000183 334.00000000 0.577729 -0.807057 -0.122014 0.000000
125.43399811 100.91999817 300.00000000 -0.331511 -0.913466 -0.235967 0.000000
74.17769623 153.44900513 272.00000000 -0.905714 -0.330285 -0.265696 0.000000
56.34960175 185.28500366 326.00000000 -0.908148 0.258844 -0.329039 0.000000
150.90199280 102.19300079 278.00000000 -0.512288 -0.739605 -0.436515 0.000000
74.49610138 158.54299927 351.50000000 -0.354104 -0.104467 0.929353 0.000000
175.73399353 129.25399780 334.50000000 0.305438 0.943225 -0.130518 0.000000
156.63299561 95.18949890 324.00000000 -0.071334 -0.993015 -0.093980 0.000000
112.06199646 129.89100647 356.50000000 0.355014 -0.649495 0.672399 0.000000
90.41410065 141.98800659 356.50000000 -0.540095 0.261437 0.799967 0.000000
97.41799927 120.02100372 289.00000000 -0.708486 -0.705724 -0.001381 0.000000
83.72850037 134.34800720 272.00000000 -0.776657 -0.607094 -0.168049 0.000000
166.82000732 124.16000366 361.50000000 0.450454 0.631305 0.631305 0.000000
76.40619659 185.92199707 269.50000000 -0.749665 0.523289 -0.405180 0.000000
78.95310211 126.70700073 309.50000000 -0.285929 -0.931031 -0.226772 0.000000
212.66400146 113.33599854 309.50000000 0.351171 -0.605974 -0.713775 0.000000
136.57600403 164.91000366 286.00000000 0.999999 -0.000978 -0.000978 0.000000
58.25979996 152.81199646 306.00000000 -0.927213 -0.345106 -0.145527 0.000000
75.13279724 188.46899414 274.50000000 -0.737304 0.405599 -0.540252 0.000000
127.34400177 130.52699280 274.50000000 -0.335127 0.259028 -0.905867 0.000000
116.83799744 201.20300293 350.00000000 0.170158 0.350160 0.921105 0.000000
109.51599884 218.71299744 297.00000000 0.206163 0.922759 -0.325596 0.000000
191.01600647 114.29100037 291.00000000 0.570580 0.670975 -0.473531 0.000000
135.93899536 152.81199646 338.00000000 0.937485 -0.255678 0.236118 0.000000
206.61500549 106.96900177 305.00000000 0.779836 -0.620093 0.085680 0.000000
63.67190170 147.71899414 339.50000000 -0.410532 0.320680 0.853597 0.000000
90.41410065 216.16600037 304.00000000 -0.354140 0.869253 -0.344942 0.000000
142.62500000 115.88300323 364.50000000 -0.461471 -0.036539 0.886403 0.000000
164.59199524 122.25000000 365.00000000 0.450661 0.133052 0.882724 0.000000
92.32420349 150.26600647 356.50000000 -0.440405 -0.001307 0.897798 0.000000
103.78500366 207.88900757 271.00000000 -0.001381 0.705724 -0.708486 0.000000
84.04689789 198.65600586 271.50000000 -0.638381 0.587850 -0.496893 0.000000
139.12300110 156.63299561 295.00000000 0.969086 -0.089241 -0.230017 0.000000
119.70300293 104.73999786 290.00000000 -0.300491 -0.892502 -0.336370 0.000000
77.36129761 127.98000336 341.00000000 -0.989301 0.145780 0.005564 0.000000
177.00799561 113.33599854 276.50000000 0.677430 -0.677430 -0.286667 0.000000
166.18400574 102.83000183 280.00000000 0.190771 -0.942875 -0.273118 0.000000
59.53319931 164.91000366 299.00000000 -0.984269 0.109631 -0.138545 0.000000
202.47700500 121.61299896 314.50000000 0.233494 0.884897 -0.403037 0.000000
99.32810211 128.61700439 356.50000000 -0.340691 -0.621069 0.705835 0.000000
84.68360138 152.17599487 254.50000000 -0.649273 -0.330332 -0.685073 0.000000
104.42199707 127.34400177 356.50000000 0.669402 -0.589274 0.452389 0.000000
59.21480179 184.33000183 309.00000000 -0.845730 0.322405 -0.425201 0.000000
75.13279724 196.10899353 284.50000000 -0.880246 0.467325 -0.082305 0.000000
115.24600220 210.11700439 279.50000000 0.560046 0.785947 -0.261982 0.000000
190.37899780 116.83799744 296.00000000 0.670697 0.708218 -0.220439 0.000000
138.80499268 110.78900146 361.50000000 -0.571948 -0.381845 0.725996 0.000000
111.42600250 164.27299500 261.50000000 0.352272 0.205612 -0.913032 0.000000
101.87500000 218.39500427 296.50000000 -0.235402 0.771681 -0.590842 0.000000
186.55900574 97.73629761 329.00000000 0.255524 -0.950442 0.177109 0.000000
58.57809830 174.14300537 342.00000000 -0.584938 -0.070078 0.808045 0.000000
85.32029724 171.91400146 246.50000000 -0.287122 0.431451 -0.855225 0.000000
135.30299377 190.37899780 307.00000000 0.995112 -0.096581 -0.020618 0.000000
140.39599609 118.43000031 278.00000000 0.990673 -0.005534 0.136148 0.000000
71.31250000 197.38299561 296.50000000 -0.774355 0.587388 -0.235267 0.000000
70.67579651 201.52099609 307.00000000 -0.751427 0.613378 -0.243155 0.000000
192.92599487 111.42600250 289.50000000 0.580640 0.736778 -0.346432 0.000000
171.91400146 129.57200623 345.00000000 0.380243 0.855158 0.352307 0.000000
133.07400513 159.81599426 354.50000000 0.256058 -0.180189 0.949719 0.000000
135.30299377 193.56199646 301.00000000 0.998208 -0.022042 -0.055631 0.000000
99.00980377 112.06199646 316.00000000 -0.522280 -0.787412 -0.327423 0.000000
83.09179688 117.79299927 322.00000000 -0.648032 -0.742569 -0.169251 0.000000
77.67970276 141.98800659 346.50000000 -0.318298 -0.712534 0.625285 0.000000
73.54100037 144.53500366 288.00000000 -0.647167 -0.573205 -0.502605 0.000000
100.60199738 111.10700226 315.00000000 -0.448637 -0.875209 -0.180926 0.000000
98.69139862 165.54699707 359.50000000 0.000978 0.000978 0.999999 0.000000
112.38099670 201.20300293 267.00000000 0.643731 0.707944 -0.290562 0.000000
132.43800354 170.00399780 354.50000000 0.000978 0.000978 0.999999 0.000000
147.08200073 132.43800354 306.50000000 0.380944 0.890846 0.247539 0.000000
120.02100372 114.60900116 352.00000000 -0.968238 -0.168894 0.184365 0.000000
87.23049927 173.18800354 246.50000000 -0.582808 0.357521 -0.729735 0.000000
71.94920349 145.49000549 349.00000000 -0.893364 0.107989 0.436164 0.000000
115.24600220 200.56599426 351.50000000 0.061191 0.599103 0.798330 0.000000
101.55699921 119.06600189 276.00000000 -0.098109 -0.907858 -0.407638 0.000000
54.12110138 181.14599609 328.00000000 -0.957402 0.268904 -0.105223 0.000000
126.70700073 107.28700256 279.00000000 -0.657235 -0.753685 0.001378 0.000000
193.56199646 99.32810211 296.50000000 0.246758 -0.925698 -0.286695 0.000000
177.00799561 127.02500153 320.00000000 0.331929 0.911718 -0.242062 0.000000
73.54100037 155.99600220 271.00000000 -0.933138 -0.274452 -0.232229 0.000000
138.16799927 147.71899414 309.50000000 0.614967 -0.598119 -0.513877 0.000000
121.29499817 173.82400513 267.00000000 0.269814 0.470248 -0.840278 0.000000
125.11499786 129.89100647 358.00000000 -0.915576 0.038314 0.400317 0.000000
68.12889862 154.08599854 286.50000000 -0.769152 -0.382137 -0.512226 0.000000
77.04299927 129.57200623 306.00000000 -0.831626 -0.165728 -0.530031 0.000000
127.98000336 110.78900146 274.50000000 -0.103578 -0.198420 -0.974629 0.000000
150.26600647 99.96479797 289.50000000 -0.131847 -0.983409 -0.124589 0.000000
66.21880341 147.71899414 344.50000000 -0.631389 0.149183 0.760982 0.000000
144.53500366 102.19300079 280.00000000 -0.125679 -0.962678 -0.239698 0.000000
141.98800659 133.71099854 306.50000000 0.391654 0.918315 0.057478 0.000000
187.83200073 96.46289825 311.00000000 0.229673 -0.972803 -0.030062 0.000000
185.92199707 112.38099670 351.00000000 0.836459 -0.385937 0.389087 0.000000
129.57200623 168.09399414 271.00000000 0.830634 0.224868 -0.509394 0.000000
159.81599426 95.18949890 325.00000000 -0.000978 -0.999999 -0.000978 0.000000
119.70300293 101.87500000 301.50000000 -0.195439 -0.966842 -0.164376 0.000000
154.08599854 141.66999817 330.00000000 -0.027948 0.991595 0.126325 0.000000
56.34960175 166.18400574 306.00000000 -0.920252 0.149419 -0.361677 0.000000
122.25000000 97.73629761 325.00000000 -0.231679 -0.966397 -0.111360 0.000000
167.45700073 138.48599243 331.00000000 0.707106 0.707106 -0.001384 0.000000
118.43000031 134.98399353 359.50000000 0.000978 0.000978 0.999999 0.000000
120.97699738 174.14300537 267.00000000 0.332920 0.394858 -0.856301 0.000000
192.92599487 97.73629761 311.00000000 0.785614 -0.448691 -0.426013 0.000000
172.55099487 128.93600464 326.00000000 0.307197 0.945530 -0.107719 0.000000
186.55900574 124.47899628 348.00000000 0.573681 0.600758 0.556759 0.000000
91.05079651 125.75199890 294.00000000 -0.669135 -0.729282 -0.142849 0.000000
211.70899963 126.06999969 332.00000000 0.871788 0.134010 0.471198 0.000000
137.53100586 182.10200500 336.50000000 0.996210 -0.040196 0.077133 0.000000
129.57200623 155.35899353 272.00000000 0.732505 -0.321785 -0.599910 0.000000
161.72700500 125.75199890 365.00000000 0.086717 0.521726 0.848694 0.000000
177.00799561 102.19300079 350.00000000 0.417104 -0.823106 0.385385 0.000000
86.27539825 166.82000732 355.00000000 -0.300492 0.213025 0.929691 0.000000
89.14060211 176.37100220 246.50000000 -0.303403 0.446547 -0.841749 0.000000
127.66200256 154.08599854 271.00000000 0.701577 -0.351606 -0.619808 0.000000
137.85000610 174.46099854 327.00000000 0.955408 0.229137 -0.186258 0.000000
207.25199890 117.79299927 330.00000000 0.588374 -0.375314 0.716210 0.000000
102.51200104 167.45700073 256.50000000 0.750339 0.250113 -0.611911 0.000000
139.12300110 164.91000366 320.00000000 0.988255 0.149666 -0.030847 0.000000
70.99410248 132.43800354 311.00000000 -0.614937 -0.784873 -0.076327 0.000000
109.83399963 182.10200500 260.00000000 0.526379 0.114556 -0.842497 0.000000
135.30299377 178.28100586 309.00000000 0.929945 0.309982 -0.197771 0.000000
124.79699707 98.37300110 316.00000000 -0.001061 -0.995927 -0.090153 0.000000
74.17769623 206.93400574 310.00000000 -0.701966 0.606617 -0.373176 0.000000
83.09179688 115.88300323 341.00000000 -0.261370 -0.941763 0.211585 0.000000
103.14800262 111.74400330 305.00000000 -0.760295 -0.649505 0.009694 0.000000
92.96089935 121.93199921 300.00000000 -0.506639 -0.814073 -0.283906 0.000000
93.27929688 215.84800720 337.00000000 -0.212601 0.160429 0.963879 0.000000
62.39839935 140.07800293 331.50000000 -0.940504 -0.339592 -0.011362 0.000000
119.70300293 219.03100586 339.50000000 0.413561 0.403981 0.815945 0.000000
183.69299316 121.61299896 352.00000000 0.554923 0.668926 0.494569 0.000000
102.51200104 121.93199921 268.00000000 -0.188947 -0.974766 -0.118874 0.000000
88.18550110 177.64500427 247.00000000 0.545779 0.742456 -0.388437 0.000000
153.76800537 105.05899811 362.00000000 -0.305184 -0.679801 0.666883 0.000000
129.57200623 127.34400177 270.00000000 0.163717 0.572259 -0.803565 0.000000
137.85000610 143.89799500 344.00000000 0.823638 0.444227 0.352536 0.000000
109.19699860 110.15200043 288.00000000 -0.589567 -0.738170 -0.327896 0.000000
133.07400513 174.46099854 279.50000000 0.856401 0.280360 -0.433562 0.000000
127.98000336 204.38699341 289.50000000 0.768629 0.468358 -0.435719 0.000000
136.89500427 134.34800720 359.50000000 0.043543 0.383970 0.922319 0.000000
98.69139862 205.97900391 349.00000000 -0.280026 0.502169 0.818176 0.000000
171.91400146 113.33599854 274.50000000 0.720546 -0.271994 -0.637834 0.000000
100.60199738 120.65799713 270.00000000 -0.068850 -0.855706 -0.512862 0.000000
155.04100037 131.80099487 361.00000000 0.203615 0.365353 0.908327 0.000000
119.38500214 192.92599487 270.00000000 0.367124 -0.321424 -0.872872 0.000000
72.58589935 153.76800537 277.00000000 -0.801647 -0.435363 -0.409659 0.000000
62.08010101 154.08599854 335.00000000 -0.551016 -0.447804 0.704168 0.000000
75.13279724 172.55099487 349.50000000 0.000978 0.000978 0.999999 0.000000
78.95310211 182.41999817 261.00000000 -0.817257 0.374377 -0.438101 0.000000
161.08999634 136.25799561 359.50000000 0.029839 0.372343 0.927615 0.000000
125.43399811 170.64100647 269.50000000 0.642840 -0.079811 -0.761831 0.000000
67.81050110 163.63699341 280.00000000 -0.035226 -0.649575 -0.759481 0.000000
99.96479797 198.65600586 349.50000000 -0.534822 0.159404 0.829793 0.000000
113.97299957 138.16799927 361.50000000 0.215497 -0.615485 0.758116 0.000000
141.98800659 97.73629761 302.00000000 0.000978 -0.999999 0.000978 0.000000
135.93899536 198.02000427 318.00000000 0.997145 0.074918 -0.009497 0.000000
118.43000031 173.82400513 356.50000000 0.045513 0.041279 0.998111 0.000000
96.14450073 212.34599304 282.00000000 0.001349 0.842882 -0.538096 0.000000
98.69139862 200.88499451 262.00000000 -0.189662 0.717017 -0.670757 0.000000
52.52930069 165.54699707 318.00000000 -0.978718 0.154665 -0.134868 0.000000
60.48830032 157.58799744 298.00000000 -0.814899 -0.409841 -0.409841 0.000000
134.66600037 165.54699707 354.00000000 0.190399 -0.847052 0.496237 0.000000
62.39839935 148.03700256 304.00000000 -0.805986 -0.531608 -0.260347 0.000000
155.35899353 104.73999786 362.00000000 -0.198469 -0.761568 0.616947 0.000000
168.72999573 131.48199463 344.00000000 0.402543 0.859066 0.316173 0.000000
83.41020203 205.34199524 340.00000000 0.811558 0.553680 0.186582 0.000000
134.34800720 204.38699341 309.50000000 0.850614 0.497305 -0.170717 0.000000
158.54299927 141.66999817 331.00000000 0.097164 0.977787 -0.185718 0.000000
89.14060211 202.15800476 270.00000000 -0.674752 0.658493 -0.333311 0.000000
63.99020004 155.35899353 292.00000000 -0.864458 -0.252828 -0.434500 0.000000
138.80499268 148.03700256 327.00000000 0.854543 0.504629 0.122904 0.000000
136.57600403 185.92199707 340.00000000 0.912122 -0.127110 0.389712 0.000000
105.69499969 110.47100067 296.00000000 -0.729936 -0.677275 -0.092156 0.000000
97.09960175 124.16000366 267.00000000 -0.493642 -0.614946 -0.614946 0.000000
109.83399963 223.48800659 315.00000000 0.565592 0.633125 -0.528449 0.000000
153.44900513 141.03300476 336.00000000 -0.238609 0.955770 0.171959 0.000000
149.62899780 139.12300110 348.00000000 -0.341373 0.937128 0.072492 0.000000
118.74800110 169.36700439 358.00000000 -0.051898 0.548438 0.834579 0.000000
62.71680069 152.17599487 297.00000000 -0.659557 -0.495087 -0.565574 0.000000
103.14800262 223.80700684 338.00000000 -0.452420 0.783221 0.426475 0.000000
72.90429688 164.27299500 267.00000000 -0.842882 -0.001349 -0.538096 0.000000
144.21699524 115.24600220 365.00000000 -0.461471 -0.036539 0.886403 0.000000
61.12500000 156.63299561 336.50000000 -0.588009 -0.393653 0.706599 0.000000
137.85000610 168.09399414 297.00000000 0.961996 0.257472 -0.090948 0.000000
114.29100037 175.73399353 264.00000000 0.736429 0.488195 -0.468336 0.000000
125.43399811 133.71099854 359.50000000 -0.284509 -0.371818 0.883632 0.000000
157.27000427 95.18949890 335.00000000 -0.000978 -0.999999 -0.000978 0.000000
126.06999969 203.75000000 284.50000000 0.517218 0.735342 -0.437900 0.000000
115.24600220 105.05899811 346.50000000 -0.407622 -0.711276 0.572652 0.000000
95.50779724 109.19699860 339.00000000 -0.432294 -0.834721 0.341119 0.000000
109.51599884 194.83599854 264.50000000 0.579199 -0.291993 -0.761097 0.000000
61.12500000 193.24400330 321.00000000 -0.822220 0.567290 -0.046224 0.000000
165.54699707 125.75199890 288.00000000 0.315534 0.946601 -0.066223 0.000000
183.37500000 119.38500214 287.00000000 0.269787 0.911444 -0.310620 0.000000
177.64500427 121.93199921 290.00000000 0.255901 0.941993 -0.217170 0.000000
140.07800293 144.21699524 330.00000000 0.822804 0.481145 0.302478 0.000000
104.42199707 177.64500427 356.50000000 -0.602104 0.246815 0.759311 0.000000
124.47899628 149.62899780 268.00000000 0.639025 0.129592 -0.758190 0.000000
80.86329651 199.92999268 344.50000000 -0.412118 0.334360 0.847563 0.000000
120.33999634 203.11300659 349.50000000 0.376562 0.456682 0.806004 0.000000
201.83999634 108.87899780 294.50000000 0.527859 0.585198 -0.615555 0.000000
104.42199707 186.55900574 354.50000000 0.000978 0.000978 0.999999 0.000000
86.59380341 114.92800140 329.00000000 -0.294636 -0.943650 -0.150712 0.000000
81.50000000 191.65199280 266.50000000 -0.634839 0.574218 -0.516965 0.000000
129.89100647 120.33999634 359.50000000 -0.666405 -0.538831 0.515331 0.000000
100.60199738 110.47100067 319.00000000 -0.535788 -0.810630 -0.236241 0.000000
132.43800354 179.55499268 349.50000000 0.710113 -0.089313 0.698400 0.000000
121.61299896 171.27699280 356.50000000 0.030660 0.144216 0.989071 0.000000
138.48599243 161.08999634 290.00000000 0.387920 0.777463 -0.495044 0.000000
174.46099854 102.51200104 354.50000000 0.387616 -0.671318 0.631732 0.000000
131.48199463 176.37100220 350.00000000 0.416980 -0.237634 0.877302 0.000000
184.64799500 123.20500183 350.00000000 0.519328 0.427003 0.740248 0.000000
113.33599854 160.13499451 260.00000000 0.277660 0.194776 -0.940727 0.000000
159.17999268 119.70300293 366.50000000 0.000978 0.000978 0.999999 0.000000
106.33200073 117.79299927 274.50000000 -0.398682 -0.693144 -0.600504 0.000000
65.26370239 164.91000366 287.00000000 -0.934187 0.001261 -0.356781 0.000000
133.71099854 156.63299561 354.50000000 0.485261 0.039641 0.873470 0.000000
51.89260101 168.09399414 331.00000000 -0.863422 -0.125405 0.488648 0.000000
134.98399353 136.89500427 356.50000000 0.475884 0.792064 0.382320 0.000000
163.63699341 96.78119659 299.50000000 0.033687 -0.956973 -0.288215 0.000000
119.70300293 99.64649963 315.00000000 -0.348481 -0.933289 -0.086787 0.000000
67.81050110 178.28100586 280.00000000 -0.821916 0.359489 -0.441839 0.000000
182.10200500 110.78900146 354.50000000 0.477476 -0.470867 0.741823 0.000000
74.17769623 158.54299927 266.00000000 -0.976445 -0.059436 -0.207419 0.000000
87.86720276 209.79899597 338.00000000 -0.655934 0.592186 0.468045 0.000000
155.35899353 95.82620239 320.00000000 -0.393217 -0.915692 -0.082997 0.000000
97.41799927 220.30499268 339.50000000 -0.309982 0.929945 0.197771 0.000000
157.27000427 135.30299377 360.00000000 0.074010 0.062964 0.995268 0.000000
184.01199341 100.60199738 344.50000000 0.737496 -0.450417 0.503213 0.000000
108.24199677 121.61299896 351.50000000 0.158224 -0.922738 0.351453 0.000000
87.86720276 212.34599304 335.00000000 -0.628574 0.574648 0.524093 0.000000
137.53100586 160.13499451 337.00000000 0.952643 -0.301565 -0.039115 0.000000
87.86720276 126.70700073 354.50000000 0.000978 0.000978 0.999999 0.000000
123.52300262 103.78500366 289.50000000 -0.261987 -0.930409 -0.256323 0.000000
85.63870239 196.74600220 269.00000000 -0.517846 0.639296 -0.568450 0.000000
63.03519821 160.45300293 339.50000000 -0.555297 -0.388216 0.735482 0.000000
104.73999786 109.51599884 312.00000000 -0.669743 -0.713253 -0.206673 0.000000
97.41799927 210.11700439 344.50000000 -0.151358 0.498157 0.853774 0.000000
119.70300293 137.53100586 266.50000000 0.343290 -0.343290 -0.874245 0.000000
86.91210175 155.99600220 248.00000000 -0.823073 -0.467405 -0.322619 0.000000
86.59380341 121.93199921 311.00000000 -0.561293 -0.817632 -0.128169 0.000000
124.79699707 213.30099487 299.50000000 0.624520 0.740930 -0.246977 0.000000
71.63089752 184.01199341 279.00000000 -0.806330 0.281351 -0.520263 0.000000
63.35350037 188.46899414 302.00000000 -0.815214 0.378093 -0.438716 0.000000
200.88499451 115.88300323 336.00000000 0.435219 -0.859748 0.267240 0.000000
148.99200439 101.87500000 359.50000000 0.084211 -0.543805 0.834976 0.000000
112.69899750 117.79299927 269.50000000 -0.164296 -0.879640 -0.446363 0.000000
151.53900146 141.03300476 322.00000000 0.151563 0.979615 -0.131848 0.000000
93.59770203 132.43800354 359.50000000 -0.334608 -0.380867 0.861962 0.000000
70.67579651 197.70100403 340.00000000 0.120441 0.747927 0.652763 0.000000
63.67190170 184.64799500 346.50000000 -0.945063 0.235234 0.226980 0.000000
199.92999268 111.74400330 296.00000000 0.488964 0.603223 -0.630108 0.000000
127.34400177 157.27000427 269.50000000 0.720022 -0.282581 -0.633811 0.000000
53.80270004 173.82400513 339.00000000 -0.552846 -0.512517 0.657030 0.000000
203.75000000 103.46700287 306.00000000 0.690873 -0.711764 0.126834 0.000000
96.78119659 158.54299927 247.50000000 0.747379 0.162210 -0.644292 0.000000
165.54699707 98.05470276 294.50000000 0.003746 -0.942776 -0.333406 0.000000
70.35739899 203.75000000 324.00000000 -0.652652 0.756964 -0.032421 0.000000
138.16799927 170.00399780 324.50000000 0.776482 -0.390673 -0.494420 0.000000
139.75999451 164.91000366 335.00000000 0.921509 -0.382285 -0.068409 0.000000
135.93899536 178.91799927 320.00000000 0.978804 0.074170 -0.190897 0.000000
113.97299957 100.91999817 335.00000000 0.001227 -0.953006 0.302950 0.000000
115.56400299 108.87899780 282.00000000 -0.348911 -0.828861 -0.437323 0.000000
134.02900696 180.82800293 349.00000000 0.732435 0.156192 0.662679 0.000000
126.70700073 107.60500336 354.50000000 -0.452885 -0.227195 0.862136 0.000000
108.24199677 108.24199677 294.50000000 -0.708896 -0.654976 -0.261673 0.000000
177.00799561 106.65000153 358.00000000 0.754732 -0.553470 0.352208 0.000000
104.42199707 131.16400146 359.50000000 0.296473 -0.132809 0.945762 0.000000
66.85549927 164.27299500 344.50000000 0.028165 -0.136316 0.990265 0.000000
96.78119659 161.08999634 247.50000000 0.858072 0.098514 -0.503992 0.000000
88.50389862 125.43399811 301.50000000 -0.709775 -0.652612 -0.265173 0.000000
206.29699707 124.16000366 321.50000000 -0.136183 0.911162 -0.388893 0.000000
168.09399414 95.82620239 306.00000000 0.032206 -0.976927 -0.211131 0.000000
195.47300720 129.25399780 334.50000000 -0.100820 0.951894 -0.289365 0.000000
113.65399933 140.07800293 260.00000000 0.386972 -0.537190 -0.749453 0.000000
170.32200623 116.51999664 272.00000000 0.657491 0.182381 -0.731056 0.000000
96.78119659 159.17999268 359.50000000 -0.256414 -0.941109 0.220377 0.000000
59.21480179 170.64100647 299.50000000 -0.897025 0.144037 -0.417851 0.000000
91.36910248 215.84800720 300.00000000 -0.452490 0.854703 -0.254430 0.000000
135.30299377 136.25799561 358.00000000 0.261156 0.609364 0.748647 0.000000
86.27539825 129.89100647 292.00000000 -0.630438 -0.723009 -0.282500 0.000000
127.34400177 98.05470276 319.50000000 0.000978 -0.999999 0.000978 0.000000
203.11300659 102.19300079 298.00000000 0.502994 -0.852010 -0.145179 0.000000
76.40619659 209.47999573 321.50000000 -0.811178 0.494929 0.311505 0.000000
209.47999573 117.47499847 331.00000000 0.601974 -0.321160 0.731084 0.000000
105.69499969 115.88300323 346.50000000 -0.138439 -0.133539 0.981327 0.000000
76.08789825 127.34400177 316.00000000 -0.562444 -0.814728 -0.140982 0.000000
122.25000000 131.80099487 274.50000000 0.202491 0.534394 -0.820622 0.000000
171.27699280 125.11499786 301.00000000 0.224784 0.973256 0.047387 0.000000
71.31250000 204.06799316 330.00000000 -0.778688 0.538846 0.321389 0.000000
101.23799896 216.16600037 288.00000000 -0.280111 0.920777 -0.271493 0.000000
141.98800659 126.06999969 274.50000000 0.608483 0.471029 -0.638655 0.000000
101.87500000 158.54299927 359.50000000 -0.230049 0.153804 0.960948 0.000000
113.65399933 159.81599426 361.00000000 0.127675 0.164862 0.978018 0.000000
79.90820313 155.99600220 255.00000000 -0.528938 0.512147 -0.676705 0.000000
89.14060211 217.12100220 304.50000000 0.223879 0.668505 -0.709210 0.000000
174.46099854 101.23799896 354.50000000 0.412472 -0.578123 0.704018 0.000000
59.85160065 159.17999268 336.50000000 -0.855127 -0.294287 0.426793 0.000000
141.98800659 143.58000183 330.00000000 0.502799 0.820356 0.272414 0.000000
123.52300262 130.52699280 271.50000000 0.508619 0.848675 -0.145110 0.000000
134.34800720 185.28500366 294.50000000 0.865776 0.116298 -0.486730 0.000000
74.81449890 128.61700439 314.00000000 -0.576847 -0.803412 -0.147566 0.000000
133.71099854 105.37699890 278.00000000 0.037174 -0.852249 -0.521813 0.000000
66.21880341 189.74200439 296.50000000 -0.670397 0.546063 -0.502378 0.000000
119.38500214 203.11300659 275.00000000 0.589756 0.339557 -0.732727 0.000000
121.61299896 99.00980377 341.00000000 -0.407467 -0.897003 0.171338 0.000000
199.92999268 119.38500214 309.00000000 0.307933 0.903172 -0.299093 0.000000
151.85699463 141.35200500 332.00000000 -0.052533 0.993652 0.099477 0.000000
138.48599243 168.72999573 326.00000000 0.776482 -0.390673 -0.494420 0.000000
190.06100464 98.69139862 325.00000000 0.475251 -0.794233 0.378590 0.000000
78.31639862 117.47499847 341.00000000 -0.165672 -0.986032 -0.017138 0.000000
113.97299957 173.18800354 359.50000000 0.000978 0.000978 0.999999 0.000000
107.60500336 154.72300720 361.50000000 0.000978 0.000978 0.999999 0.000000
104.42199707 222.53300476 310.00000000 -0.013748 0.948594 -0.316198 0.000000
210.11700439 128.61700439 334.50000000 0.750170 0.162158 0.641054 0.000000
63.35350037 143.26199341 317.00000000 -0.707106 -0.707106 0.001384 0.000000
94.55269623 169.36700439 248.00000000 0.778767 0.158164 -0.607047 0.000000
176.68899536 119.06600189 280.00000000 0.433116 0.810294 -0.394759 0.000000
130.84599304 145.17199707 355.00000000 0.740147 0.202420 0.641255 0.000000
160.00000000 141.03300476 344.00000000 0.519226 0.852314 0.062979 0.000000
77.04299927 154.40400696 261.00000000 -0.256567 -0.527128 -0.810129 0.000000
177.00799561 96.46289825 327.00000000 0.064644 -0.995952 -0.062452 0.000000
174.14300537 114.60900116 360.00000000 0.344693 0.201667 0.916797 0.000000
65.90039825 185.92199707 292.00000000 -0.823313 0.401345 -0.401345 0.000000
132.75599670 131.80099487 361.00000000 -0.153728 0.260668 0.953111 0.000000
79.90820313 208.84399414 300.00000000 -0.613758 0.771365 -0.168215 0.000000
100.60199738 223.16999817 314.00000000 0.036451 0.886981 -0.460366 0.000000
123.52300262 121.29499817 355.00000000 -0.223879 -0.668505 0.709210 0.000000
85.95700073 132.11900330 280.00000000 -0.754371 -0.654548 0.049911 0.000000
108.87899780 108.87899780 291.50000000 -0.747055 -0.600511 -0.285123 0.000000
64.30860138 150.90199280 296.50000000 -0.681427 -0.503954 -0.530743 0.000000
126.06999969 201.20300293 281.50000000 0.700075 0.486210 -0.522968 0.000000
139.75999451 117.79299927 276.00000000 0.994914 0.067810 -0.074480 0.000000
84.36519623 191.01600647 350.00000000 -0.433227 0.479002 0.763460 0.000000
171.91400146 127.02500153 352.00000000 0.634661 0.705718 0.314908 0.000000
55.39450073 163.95500183 336.00000000 -0.803122 -0.264576 0.533849 0.000000
92.96089935 220.30499268 309.50000000 -0.276617 0.916745 -0.288203 0.000000
204.38699341 104.73999786 309.00000000 0.680136 -0.721991 0.127058 0.000000
64.94529724 153.76800537 337.00000000 -0.471019 -0.448043 0.759867 0.000000
76.40619659 155.99600220 351.50000000 -0.584488 -0.285077 0.759675 0.000000
68.12889862 134.98399353 336.50000000 -0.448463 -0.757295 0.474747 0.000000
152.17599487 140.39599609 320.00000000 0.163268 0.948571 -0.271213 0.000000
115.88300323 218.71299744 302.00000000 0.387544 0.860007 -0.331960 0.000000
84.04689789 115.56400299 330.00000000 -0.294636 -0.943650 -0.150712 0.000000
95.82620239 223.48800659 334.00000000 -0.458669 0.445611 0.768801 0.000000
107.92400360 103.78500366 328.00000000 -0.502923 -0.824794 -0.258425 0.000000
93.59770203 174.14300537 248.00000000 0.799170 0.240527 -0.550884 0.000000
74.81449890 162.36300659 264.00000000 -0.922634 -0.048978 -0.382555 0.000000
109.83399963 147.08200073 257.00000000 0.649505 -0.009694 -0.760295 0.000000
80.54489899 122.25000000 351.00000000 -0.538319 -0.335847 0.772929 0.000000
156.63299561 108.87899780 366.50000000 -0.215809 -0.610164 0.762317 0.000000
77.36129761 192.92599487 276.00000000 -0.722662 0.403308 -0.561339 0.000000
180.19099426 102.83000183 350.00000000 0.468926 -0.689204 0.552364 0.000000
155.67799377 127.34400177 282.00000000 0.100985 0.965108 -0.241597 0.000000
113.33599854 220.62300110 308.00000000 0.309246 0.950458 -0.031556 0.000000
104.42199707 171.91400146 258.50000000 0.485639 -0.003992 -0.874150 0.000000
62.08010101 166.82000732 290.00000000 -0.879486 0.076659 -0.469710 0.000000
187.19500732 118.74800110 298.00000000 0.343903 0.930319 -0.127422 0.000000
145.49000549 133.71099854 287.00000000 0.600180 0.596799 -0.532555 0.000000
107.60500336 106.65000153 316.00000000 -0.690706 -0.678062 -0.251310 0.000000
147.71899414 97.73629761 300.00000000 0.315534 -0.946601 -0.066223 0.000000
76.72460175 211.39100647 317.00000000 -0.755552 0.652717 -0.055702 0.000000
116.51999664 219.03100586 341.50000000 0.413458 0.682454 0.602751 0.000000
119.06600189 139.44099426 265.50000000 0.343290 -0.343290 -0.874245 0.000000
72.58589935 199.61099243 299.00000000 -0.749810 0.610897 -0.254146 0.000000
188.46899414 127.98000336 329.50000000 0.115329 0.932128 -0.343273 0.000000
78.63480377 171.27699280 256.00000000 -0.763803 -0.001376 -0.645448 0.000000
80.22660065 135.30299377 292.00000000 -0.675065 -0.652181 -0.344888 0.000000
74.49610138 143.26199341 346.50000000 -0.258903 -0.681407 0.684583 0.000000
202.47700500 107.60500336 331.50000000 0.559132 -0.630079 0.538861 0.000000
53.80270004 168.09399414 315.00000000 -0.946860 0.195384 -0.255502 0.000000
203.43200684 103.78500366 307.00000000 0.690873 -0.711764 0.126834 0.000000
80.22660065 164.91000366 354.50000000 -0.107227 0.029847 0.993786 0.000000
111.42600250 215.84800720 289.50000000 0.289528 0.862456 -0.415143 0.000000
131.48199463 187.19500732 282.00000000 0.883620 0.161054 -0.439634 0.000000
178.91799927 101.87500000 284.50000000 -0.066935 -0.900203 -0.430295 0.000000
180.50999451 97.41799927 336.00000000 0.247001 -0.923755 0.292689 0.000000
73.85939789 201.20300293 299.50000000 -0.676577 0.679776 -0.283107 0.000000
134.98399353 97.09960175 337.00000000 -0.072263 -0.962242 0.262430 0.000000
199.29299927 120.33999634 339.50000000 0.639575 -0.445866 0.626216 0.000000
93.27929688 217.12100220 300.00000000 -0.549554 0.805089 -0.223208 0.000000
65.26370239 155.35899353 290.00000000 -0.815263 -0.276970 -0.508561 0.000000
128.93600464 148.35499573 357.00000000 0.929945 -0.309982 -0.197771 0.000000
137.53100586 96.46289825 336.00000000 -0.053124 -0.983393 0.173540 0.000000
127.66200256 206.29699707 340.00000000 0.645568 0.642249 0.413230 0.000000
80.22660065 139.12300110 284.00000000 -0.836099 -0.473117 -0.277666 0.000000
160.45300293 102.83000183 278.00000000 0.089733 -0.984673 -0.149555 0.000000
159.17999268 123.52300262 276.50000000 0.101586 0.927817 -0.358937 0.000000
76.08789825 173.18800354 260.00000000 -0.744497 0.663542 0.073727 0.000000
116.51999664 103.78500366 299.50000000 -0.387920 -0.777463 -0.495044 0.000000
126.06999969 211.07200623 297.00000000 0.697963 0.649606 -0.301430 0.000000
55.07619858 155.99600220 315.00000000 -0.943650 -0.294636 -0.150712 0.000000
82.77339935 156.63299561 254.50000000 -0.598535 -0.394077 -0.697466 0.000000
151.53900146 130.20899963 310.00000000 -0.922730 0.236047 -0.304715 0.000000
85.32029724 197.38299561 349.50000000 -0.769792 -0.155164 0.619148 0.000000
57.94139862 173.18800354 341.50000000 -0.537962 -0.069187 0.840125 0.000000
96.14450073 186.55900574 354.50000000 0.000978 0.000978 0.999999 0.000000
149.62899780 96.46289825 315.00000000 -0.143902 -0.989186 -0.028327 0.000000
79.58979797 120.65799713 329.00000000 -0.705724 -0.708486 -0.001381 0.000000
213.30099487 111.74400330 310.00000000 0.475228 -0.819413 -0.320502 0.000000
78.31639862 167.45700073 256.50000000 -0.858408 -0.042714 -0.511187 0.000000
69.40229797 194.19900513 344.50000000 0.123966 0.959106 0.254457 0.000000
174.46099854 99.96479797 289.50000000 -0.040783 -0.965205 -0.258294 0.000000
133.07400513 118.43000031 361.50000000 -0.368556 -0.147142 0.917887 0.000000
129.89100647 143.89799500 356.50000000 0.897208 0.052937 0.438424 0.000000
64.94529724 158.54299927 339.50000000 -0.457067 -0.090854 0.884780 0.000000
169.04899597 118.43000031 270.00000000 0.870891 0.470948 0.140560 0.000000
92.96089935 140.39599609 359.00000000 -0.275927 0.556584 0.783632 0.000000
71.31250000 153.13099670 280.00000000 -0.835035 -0.410441 -0.366409 0.000000
111.42600250 156.31399536 259.00000000 0.193273 0.071718 -0.978520 0.000000
71.63089752 204.38699341 310.00000000 -0.788598 0.612407 -0.055415 0.000000
56.34960175 182.10200500 318.00000000 -0.939840 0.242942 -0.240166 0.000000
73.22270203 178.28100586 269.50000000 -0.910169 0.006492 -0.414185 0.000000
87.86720276 150.26600647 354.50000000 -0.114249 0.007617 0.993423 0.000000
137.21299744 196.10899353 339.00000000 0.944424 0.277450 0.176311 0.000000
177.96299744 122.88700104 302.00000000 0.271134 0.942776 -0.194060 0.000000
168.72999573 102.51200104 284.50000000 0.008895 -0.934027 -0.357091 0.000000
157.27000427 101.23799896 359.50000000 0.240352 -0.969949 0.037822 0.000000
121.61299896 140.07800293 359.50000000 0.039497 -0.319801 0.946661 0.000000
90.41410065 180.19099426 354.50000000 0.000978 0.000978 0.999999 0.000000
197.06399536 108.24199677 338.00000000 0.721469 0.420994 0.549769 0.000000
184.01199341 127.02500153 346.00000000 0.312185 0.763652 0.565134 0.000000
204.38699341 114.29100037 334.00000000 0.446800 -0.096643 0.889398 0.000000
138.48599243 168.09399414 300.00000000 0.954712 0.269953 -0.125100 0.000000
138.80499268 166.50199890 310.00000000 0.705724 0.708486 0.001381 0.000000
89.14060211 116.20099640 318.00000000 -0.645070 -0.645070 -0.409595 0.000000
75.13279724 129.57200623 334.00000000 -0.756799 -0.650127 -0.067752 0.000000
120.33999634 112.69899750 351.50000000 -0.968238 -0.168894 0.184365 0.000000
103.46700287 175.73399353 258.00000000 0.547984 -0.046014 -0.835222 0.000000
137.53100586 151.85699463 294.00000000 0.878743 -0.278846 -0.387370 0.000000
136.25799561 193.56199646 319.50000000 0.998978 0.009259 -0.044239 0.000000
90.73239899 214.57400513 297.00000000 -0.444050 0.826470 -0.346074 0.000000
123.52300262 173.50599670 267.00000000 0.401345 0.401345 -0.823313 0.000000
147.08200073 97.73629761 300.00000000 0.445808 -0.890218 -0.093634 0.000000
98.69139862 127.02500153 262.00000000 -0.490703 -0.688324 -0.534247 0.000000
113.33599854 223.16999817 320.00000000 0.182912 0.979971 -0.078737 0.000000
138.48599243 141.98800659 345.00000000 0.838470 0.438753 0.323209 0.000000
169.36700439 131.48199463 336.00000000 0.788396 0.596177 0.151672 0.000000
80.22660065 154.40400696 350.00000000 -0.475127 -0.245966 0.844840 0.000000
75.13279724 173.82400513 264.50000000 -0.896068 0.113943 -0.429044 0.000000
136.89500427 142.62500000 346.50000000 0.755820 0.486938 0.437753 0.000000
69.72070313 155.35899353 349.00000000 -0.912190 0.301154 0.277876 0.000000
214.57400513 119.38500214 312.00000000 0.088546 0.981280 -0.171026 0.000000
135.93899536 191.01600647 316.00000000 0.979814 -0.158590 -0.121708 0.000000
89.77729797 127.66200256 291.00000000 -0.655917 -0.745157 -0.120475 0.000000
99.00980377 155.99600220 249.00000000 0.646683 0.155991 -0.746638 0.000000
129.89100647 208.20700073 339.50000000 0.555756 0.711699 0.429674 0.000000
113.33599854 103.78500366 344.50000000 -0.244125 -0.713476 0.656776 0.000000
201.83999634 117.79299927 306.50000000 -0.098200 0.766547 -0.634636 0.000000
180.82800293 95.82620239 310.00000000 -0.000978 -0.999999 -0.000978 0.000000
82.45510101 145.17199707 350.00000000 -0.599301 -0.303667 0.740692 0.000000
77.67970276 145.80900574 349.50000000 -0.459770 -0.286389 0.840590 0.000000
207.25199890 122.88700104 335.00000000 0.539172 0.439633 0.718343 0.000000
138.80499268 149.94700623 300.00000000 0.719790 -0.647020 -0.251531 0.000000
77.36129761 159.17999268 352.00000000 -0.636895 -0.198933 0.744843 0.000000
159.81599426 116.51999664 366.50000000 0.000978 0.000978 0.999999 0.000000
91.05079651 171.91400146 356.50000000 0.000978 0.000978 0.999999 0.000000
114.60900116 181.46499634 265.50000000 0.343290 0.343290 -0.874245 0.000000
98.05470276 210.75399780 344.50000000 -0.148266 0.500582 0.852898 0.000000
218.71299744 117.79299927 315.00000000 0.620426 0.562948 -0.546042 0.000000
122.25000000 166.82000732 265.50000000 0.303343 0.104647 -0.947118 0.000000
196.10899353 130.52699280 339.50000000 -0.309982 0.929945 -0.197771 0.000000
52.84769821 165.54699707 316.50000000 -0.943778 0.193701 -0.267885 0.000000
167.45700073 123.20500183 362.00000000 0.593660 0.449843 0.667240 0.000000
96.14450073 115.24600220 311.50000000 -0.294465 -0.901153 -0.318141 0.000000
105.69499969 120.02100372 270.00000000 -0.301238 -0.906652 -0.295360 0.000000
77.99800110 128.61700439 348.00000000 -0.998901 -0.019708 0.042528 0.000000
145.80900574 99.64649963 290.00000000 0.030933 -0.961390 -0.273446 0.000000
94.23439789 201.52099609 265.00000000 -0.422063 0.418853 -0.804006 0.000000
89.14060211 123.52300262 304.50000000 -0.487451 -0.793114 -0.365186 0.000000
102.51200104 115.56400299 286.00000000 -0.486830 -0.856761 -0.170168 0.000000
101.87500000 116.83799744 280.00000000 -0.601712 -0.784777 -0.148552 0.000000
74.49610138 184.64799500 271.50000000 0.003712 0.948924 0.315483 0.000000
161.08999634 104.73999786 270.00000000 0.121485 -0.929562 -0.348074 0.000000
99.96479797 202.47700500 349.50000000 -0.080471 0.051810 0.995410 0.000000
131.48199463 102.51200104 288.00000000 -0.137571 -0.960376 -0.242387 0.000000
81.50000000 203.11300659 344.50000000 -0.516790 0.178255 0.837349 0.000000
87.23049927 199.92999268 346.50000000 -0.243047 0.609970 0.754231 0.000000
85.95700073 114.29100037 336.00000000 -0.484725 -0.874641 -0.006677 0.000000
168.72999573 96.46289825 300.00000000 0.016882 -0.989261 -0.145182 0.000000
200.56599426 122.25000000 314.50000000 0.218003 0.896886 -0.384798 0.000000
105.69499969 132.75599670 255.00000000 0.684995 -0.038292 -0.727541 0.000000
185.28500366 102.19300079 282.00000000 -0.224342 -0.787519 -0.574007 0.000000
113.33599854 112.06199646 279.50000000 -0.055101 -0.949523 -0.308819 0.000000
137.53100586 139.12300110 287.00000000 0.174075 0.975573 -0.134000 0.000000
115.24600220 136.89500427 264.50000000 0.569163 -0.602942 -0.559030 0.000000
133.07400513 166.18400574 274.50000000 0.905318 0.001299 -0.424733 0.000000
97.09960175 162.36300659 249.00000000 0.956876 0.008576 -0.290371 0.000000
54.43949890 182.73800659 335.00000000 -0.909495 0.310951 0.275914 0.000000
57.62300110 155.99600220 330.00000000 0.136171 -0.955838 -0.260443 0.000000
143.26199341 103.14800262 359.50000000 -0.569720 -0.753709 0.327630 0.000000
184.01199341 123.20500183 310.00000000 0.248215 0.913023 -0.323695 0.000000
70.99410248 200.56599426 337.00000000 0.214731 0.786315 0.579309 0.000000
79.90820313 178.28100586 256.00000000 -0.868812 0.372348 -0.326379 0.000000
136.57600403 177.64500427 320.00000000 0.980627 0.043873 -0.190908 0.000000
64.94529724 136.89500427 336.50000000 -0.603197 -0.711085 0.361264 0.000000
103.46700287 195.47300720 261.00000000 0.481358 -0.001326 -0.876523 0.000000
175.09800720 96.14450073 331.50000000 0.096550 -0.989929 0.103530 0.000000
121.61299896 106.96900177 281.50000000 -0.719336 -0.670256 -0.182518 0.000000
105.05899811 182.10200500 356.50000000 0.193200 0.267192 0.944077 0.000000
111.42600250 177.00799561 356.50000000 -0.715874 0.652662 0.248106 0.000000
130.52699280 143.26199341 276.50000000 0.867168 -0.313526 -0.386937 0.000000
65.58200073 144.85400391 300.00000000 -0.735286 -0.470914 -0.487437 0.000000
104.10399628 201.83999634 350.00000000 -0.334272 0.358694 0.871551 0.000000
196.74600220 99.00980377 302.00000000 -0.107989 -0.850950 -0.514026 0.000000
68.44730377 149.62899780 291.00000000 -0.826120 -0.378969 -0.417024 0.000000
106.33200073 107.60500336 316.50000000 -0.690706 -0.678062 -0.251310 0.000000
115.24600220 198.65600586 269.50000000 0.777463 0.387920 -0.495044 0.000000
135.30299377 143.89799500 297.00000000 0.967482 0.084513 -0.238402 0.000000
84.68360138 195.79100037 268.00000000 -0.535236 0.717514 -0.445754 0.000000
215.21099854 124.47899628 325.00000000 0.636208 0.710298 -0.301192 0.000000
133.07400513 122.25000000 361.50000000 -0.346953 -0.167155 0.922867 0.000000
79.90820313 154.72300720 350.00000000 -0.437966 -0.396255 0.806949 0.000000
128.29899597 152.17599487 270.00000000 0.739701 -0.237144 -0.629766 0.000000
119.70300293 170.64100647 356.50000000 0.133610 0.303659 0.943366 0.000000
198.65600586 122.88700104 314.50000000 0.191264 0.922319 -0.335775 0.000000
70.03910065 145.49000549 292.00000000 -0.768795 -0.505487 -0.391712 0.000000
200.88499451 101.23799896 308.00000000 0.694468 -0.591706 0.409388 0.000000
68.76560211 188.14999390 288.00000000 -0.851343 0.468921 -0.235219 0.000000
144.85400391 142.62500000 326.00000000 0.465751 0.884794 -0.014680 0.000000
112.06199646 106.33200073 346.50000000 -0.255870 -0.516392 0.817233 0.000000
127.02500153 216.48399353 321.00000000 0.545010 0.815237 -0.195839 0.000000
84.04689789 141.35200500 349.50000000 -0.786598 -0.361931 0.500270 0.000000
108.24199677 114.29100037 278.00000000 -0.495708 -0.809287 -0.315163 0.000000
115.88300323 125.75199890 269.00000000 -0.073125 -0.354987 -0.932007 0.000000
185.28500366 98.69139862 336.50000000 0.085074 -0.996118 -0.022615 0.000000
94.55269623 122.88700104 290.00000000 -0.708486 -0.705724 0.001381 0.000000
133.07400513 204.38699341 341.50000000 0.633454 0.439574 0.636797 0.000000
118.74800110 149.62899780 361.00000000 0.334408 -0.055952 0.940766 0.000000
80.22660065 180.82800293 259.50000000 -0.810368 0.372418 -0.452336 0.000000
79.27149963 175.73399353 351.00000000 -0.467966 -0.204829 0.859682 0.000000
94.23439789 217.75799561 301.50000000 -0.540711 0.829483 -0.139966 0.000000
117.15599823 188.46899414 269.50000000 0.488905 0.300260 -0.819034 0.000000
184.01199341 95.82620239 317.00000000 0.148037 -0.988795 0.019211 0.000000
152.81199646 136.25799561 316.50000000 0.026088 0.044872 -0.998652 0.000000
77.36129761 185.92199707 269.00000000 -0.749665 0.523289 -0.405180 0.000000
181.46499634 97.73629761 335.00000000 0.309074 -0.924375 0.223616 0.000000
136.57600403 143.26199341 311.00000000 0.777440 0.058486 -0.626232 0.000000
170.00399780 128.29899597 350.00000000 0.325864 0.880591 0.344052 0.000000
143.89799500 122.88700104 276.50000000 0.354823 0.051063 -0.933538 0.000000
103.78500366 130.52699280 359.50000000 0.404078 -0.130938 0.905304 0.000000
133.71099854 151.53900146 284.50000000 0.961831 -0.064290 -0.265985 0.000000
85.95700073 125.43399811 354.50000000 -0.005752 -0.192129 0.981353 0.000000
126.70700073 191.65199280 351.50000000 0.556548 0.563315 0.610681 0.000000
134.66600037 186.55900574 310.00000000 0.985139 -0.171576 -0.007954 0.000000
69.08399963 199.29299927 308.00000000 -0.791789 0.581255 -0.187649 0.000000
96.46289825 108.24199677 330.00000000 -0.414354 -0.896093 -0.159146 0.000000
81.18160248 198.65600586 276.00000000 -0.613110 0.656546 -0.439368 0.000000
174.46099854 127.66200256 320.00000000 0.336500 0.917857 -0.210491 0.000000
81.50000000 116.83799744 340.00000000 -0.276385 -0.915977 0.290855 0.000000
89.14060211 128.29899597 279.00000000 -0.708486 -0.705724 -0.001381 0.000000
165.54699707 101.87500000 284.50000000 0.058267 -0.943918 -0.324998 0.000000
55.71289825 186.55900574 334.00000000 -0.911663 0.408585 0.043920 0.000000
200.56599426 111.74400330 295.00000000 0.488964 0.603223 -0.630108 0.000000
118.11100006 99.96479797 318.00000000 -0.471762 -0.873261 -0.121884 0.000000
107.92400360 188.46899414 264.00000000 0.918438 0.183120 -0.350625 0.000000
126.38899994 159.17999268 267.00000000 0.730897 0.070919 -0.678793 0.000000
79.58979797 211.70899963 325.00000000 -0.699161 0.699161 0.149497 0.000000
178.28100586 96.46289825 305.00000000 0.001100 -0.990809 -0.135260 0.000000
206.29699707 107.60500336 296.50000000 0.955801 -0.026169 -0.292847 0.000000
131.80099487 123.52300262 361.50000000 -0.380143 -0.380143 0.843198 0.000000
96.78119659 113.65399933 316.00000000 -0.376751 -0.854278 -0.358146 0.000000
186.55900574 96.46289825 317.00000000 0.276378 -0.954880 0.108717 0.000000
72.26760101 150.26600647 351.00000000 -0.507830 -0.598935 0.619181 0.000000
