203.35499573 140.54299927 428.75000000 -0.000978 -0.000978 -0.999999 0.000000
190.00799561 122.48400116 373.75000000 -0.478714 0.031191 0.877417 0.000000
76.16010284 197.85899353 433.75000000 0.913906 -0.405161 -0.024913 0.000000
193.14799500 145.25399780 371.25000000 -0.407978 0.351705 0.842530 0.000000
134.26199341 214.34800720 346.25000000 -0.472095 -0.366474 0.801762 0.000000
76.94529724 136.61700439 423.75000000 0.660286 0.519156 -0.542678 0.000000
236.33200073 166.45300293 411.25000000 -0.683981 0.341174 -0.644803 0.000000
206.49600220 168.02299500 428.75000000 0.222405 -0.331455 -0.916883 0.000000
200.21499634 105.99600220 378.75000000 -0.616897 -0.085640 0.782371 0.000000
167.23800659 175.87500000 368.75000000 -0.300157 0.621180 0.723907 0.000000
147.60899353 87.54489899 367.50000000 0.536915 0.804594 -0.253673 0.000000
184.90400696 189.22300720 407.50000000 -0.686002 -0.596307 0.416916 0.000000
58.88669968 171.94900513 331.25000000 0.924556 0.311026 0.220132 0.000000
185.29699707 188.43699646 406.25000000 -0.670397 -0.546063 0.502378 0.000000
54.17580032 199.42999268 406.25000000 0.857181 -0.316616 -0.406196 0.000000
99.71479797 237.50999451 405.00000000 0.397236 -0.720300 -0.568658 0.000000
174.30499268 195.50399780 398.75000000 -0.831264 -0.049063 0.553709 0.000000
158.20899963 144.46899414 362.50000000 -0.706035 0.234297 0.668296 0.000000
73.01950073 235.15400696 327.50000000 0.663282 -0.616736 0.423902 0.000000
71.44920349 126.41000366 376.25000000 0.579329 0.802721 -0.141481 0.000000
97.35929871 179.40800476 335.00000000 -0.098042 0.345160 0.933409 0.000000
227.69500732 161.74200439 401.25000000 -0.748056 0.088950 0.657648 0.000000
64.38279724 149.17999268 421.25000000 0.695384 0.471927 -0.541966 0.000000
123.66200256 160.17199707 355.00000000 -0.770573 0.570383 0.284397 0.000000
131.12100220 226.12500000 351.25000000 -0.650248 -0.352149 0.673178 0.000000
151.53500366 161.74200439 373.75000000 -0.123548 0.384525 0.914809 0.000000
81.26360321 193.14799500 315.00000000 -0.836341 0.287056 0.467047 0.000000
143.68400574 131.12100220 361.25000000 0.108410 0.069611 0.991666 0.000000
97.35929871 200.60699463 327.50000000 -0.491448 0.025723 0.870527 0.000000
222.19900513 147.60899353 396.25000000 -0.720546 0.271994 0.637834 0.000000
149.96499634 108.74400330 412.50000000 0.175155 0.772203 -0.610756 0.000000
100.10700226 126.41000366 350.00000000 -0.982879 0.003433 0.184218 0.000000
133.47700500 109.13700104 363.75000000 0.000978 0.000978 0.999999 0.000000
116.20300293 264.59799194 363.75000000 -0.348244 -0.855907 -0.382295 0.000000
58.49409866 229.26600647 382.50000000 0.860973 -0.431249 -0.269721 0.000000
156.24600220 225.33999634 398.75000000 -0.575027 -0.622244 -0.531184 0.000000
82.04879761 194.71899414 315.00000000 -0.779004 0.390312 0.490724 0.000000
102.85500336 209.63699341 433.75000000 -0.012478 -0.766682 -0.641906 0.000000
216.70300293 99.71479797 416.25000000 0.090177 0.897612 -0.431464 0.000000
231.62100220 170.37899780 408.75000000 -0.846861 -0.001346 0.531813 0.000000
76.16010284 231.62100220 403.75000000 0.432107 -0.659005 -0.615627 0.000000
130.33599854 169.59399414 343.75000000 -0.001225 0.953933 -0.300017 0.000000
94.21869659 259.49398804 352.50000000 0.446663 -0.891952 0.070092 0.000000
191.57800293 119.34400177 373.75000000 -0.512398 0.042815 0.857680 0.000000
83.22650146 134.26199341 426.25000000 0.545177 0.612691 -0.572182 0.000000
134.26199341 169.20100403 347.50000000 -0.344095 0.859467 0.378042 0.000000
104.42600250 168.41600037 342.50000000 -0.001294 0.415362 0.909655 0.000000
131.12100220 239.47300720 356.25000000 -0.339930 -0.453767 0.823737 0.000000
109.92199707 215.13299561 428.75000000 -0.165782 -0.664650 -0.728530 0.000000
76.16010284 120.12899780 361.25000000 0.669515 0.726945 -0.152643 0.000000
119.34400177 246.53900146 341.25000000 -0.075210 -0.534988 0.841506 0.000000
144.46899414 178.22999573 343.75000000 0.000978 0.000978 0.999999 0.000000
120.12899780 255.96099854 346.25000000 -0.787863 -0.362513 0.497852 0.000000
73.01950073 173.51899719 438.75000000 0.000978 0.000978 -0.999999 0.000000
49.07229996 175.08999634 362.50000000 0.970411 0.154703 0.185388 0.000000
221.02099609 117.77300262 402.50000000 -0.727510 -0.001380 0.686096 0.000000
127.58799744 247.32400513 352.50000000 0.001268 -0.368984 0.929435 0.000000
77.73040009 121.30699921 335.00000000 0.597590 0.758419 0.260165 0.000000
167.23800659 203.74800110 415.00000000 0.001294 -0.415362 -0.909655 0.000000
83.61910248 197.85899353 315.00000000 -0.802353 0.336574 0.492897 0.000000
97.35929871 194.71899414 328.75000000 -0.571957 0.241562 0.783909 0.000000
190.79299927 162.52699280 368.75000000 -0.491466 -0.189715 0.849982 0.000000
157.42399597 232.40600586 385.00000000 -0.944257 -0.313869 -0.099326 0.000000
239.86500549 143.68400574 422.50000000 -0.942258 0.156816 0.295904 0.000000
146.03900146 116.98799896 363.75000000 0.000978 0.000978 0.999999 0.000000
145.25399780 249.28700256 385.00000000 -0.561415 -0.691357 -0.454796 0.000000
113.06199646 125.62500000 368.75000000 -0.466327 -0.115512 0.877038 0.000000
109.92199707 214.34800720 333.75000000 -0.184406 -0.051158 0.981518 0.000000
205.71099854 133.47700500 428.75000000 -0.000978 -0.000978 -0.999999 0.000000
128.76600647 169.59399414 443.75000000 -0.595563 -0.088393 -0.798431 0.000000
116.20300293 186.08200073 446.25000000 -0.455084 -0.419455 -0.785466 0.000000
158.60200500 113.84799957 421.25000000 0.379624 0.760878 -0.526260 0.000000
193.14799500 108.35199738 373.75000000 -0.523985 -0.092804 0.846657 0.000000
161.74200439 166.45300293 376.25000000 0.000978 0.000978 0.999999 0.000000
85.58200073 157.03100586 443.75000000 0.266587 0.066963 -0.961482 0.000000
85.18939972 148.39399719 440.00000000 0.398849 0.266401 -0.877468 0.000000
134.26199341 121.69899750 363.75000000 0.496318 -0.077330 0.864690 0.000000
165.27499390 122.48400116 365.00000000 -0.389399 -0.043560 0.920038 0.000000
141.72099304 252.03500366 372.50000000 -0.645945 -0.645945 0.406829 0.000000
113.45500183 208.85200500 435.00000000 -0.070967 -0.705324 -0.705324 0.000000
213.16999817 176.66000366 427.50000000 0.502033 -0.241037 -0.830580 0.000000
155.46099854 124.05500031 363.75000000 0.186982 0.235408 0.953740 0.000000
152.32000732 211.60000610 360.00000000 -0.824259 -0.411336 0.389101 0.000000
76.94529724 201.00000000 431.25000000 0.633633 -0.596657 -0.492452 0.000000
142.50599670 197.07400513 430.00000000 -0.403576 -0.504878 -0.763036 0.000000
62.41989899 202.57000732 315.00000000 0.919052 -0.266915 0.289999 0.000000
156.24600220 90.29290009 383.75000000 0.102376 0.984012 -0.145735 0.000000
136.61700439 160.95700073 371.25000000 -0.320946 0.102543 0.941530 0.000000
85.18939972 202.57000732 315.00000000 -0.825866 0.291941 0.482406 0.000000
198.64399719 161.74200439 428.75000000 -0.000978 -0.000978 -0.999999 0.000000
235.93899536 173.51899719 415.00000000 -0.765967 -0.343476 0.543433 0.000000
145.25399780 215.91799927 413.75000000 -0.341349 -0.567837 -0.749027 0.000000
66.73829651 149.96499634 426.25000000 0.675735 0.012539 -0.737038 0.000000
124.05500031 215.91799927 341.25000000 -0.495237 0.251475 0.831565 0.000000
97.35929871 232.40600586 328.75000000 -0.657701 -0.323167 0.680436 0.000000
85.18939972 127.19499969 327.50000000 -0.771877 -0.191818 0.606146 0.000000
55.35350037 196.28900146 337.50000000 0.953933 -0.001225 0.300017 0.000000
122.87699890 232.40600586 345.00000000 -0.722656 0.506690 0.470142 0.000000
63.59759903 204.92599487 313.75000000 0.909199 -0.303066 0.285497 0.000000
80.87110138 252.82000732 366.25000000 0.446689 -0.894688 -0.001310 0.000000
182.15600586 131.12100220 368.75000000 -0.398842 -0.024846 0.916683 0.000000
53.39059830 190.00799561 411.25000000 0.863168 -0.321572 -0.389272 0.000000
84.79689789 118.55899811 333.75000000 0.439544 0.643439 0.626727 0.000000
85.58200073 204.92599487 313.75000000 -0.936097 0.143489 0.321143 0.000000
155.85299683 105.21099854 410.00000000 0.240302 0.749175 -0.617245 0.000000
222.19900513 168.02299500 396.25000000 -0.705822 -0.401674 0.583501 0.000000
164.09800720 167.23800659 376.25000000 0.000978 0.000978 0.999999 0.000000
193.14799500 159.38699341 368.75000000 -0.567524 -0.029139 0.822841 0.000000
48.67969894 203.74800110 385.00000000 0.954512 -0.216141 -0.205401 0.000000
58.88669968 144.46899414 361.25000000 0.926494 0.291753 0.237672 0.000000
111.49199677 124.83999634 366.25000000 -0.529016 -0.211911 0.821728 0.000000
98.92970276 130.33599854 343.75000000 -0.803048 0.091157 0.588902 0.000000
186.86700439 179.01600647 423.75000000 -0.953933 0.001225 -0.300017 0.000000
206.49600220 110.70700073 386.25000000 -0.674907 -0.146456 0.723223 0.000000
85.58200073 206.49600220 313.75000000 -0.936097 0.143489 0.321143 0.000000
137.79499817 192.36300659 435.00000000 -0.680103 -0.230889 -0.695809 0.000000
84.40429688 153.10499573 330.00000000 -0.846861 0.001346 0.531813 0.000000
132.69099426 245.75399780 358.75000000 -0.621510 -0.001372 0.783405 0.000000
167.23800659 204.14100647 378.75000000 -0.923009 -0.261877 0.281911 0.000000
138.97300720 99.32219696 397.50000000 0.123355 0.889009 -0.440960 0.000000
126.41000366 175.08999634 443.75000000 -0.258885 0.043354 -0.964935 0.000000
229.26600647 116.98799896 411.25000000 -0.727510 0.001380 0.686096 0.000000
149.96499634 135.83200073 361.25000000 0.000978 0.000978 0.999999 0.000000
177.44500732 169.59399414 371.25000000 0.000978 0.000978 0.999999 0.000000
74.58979797 127.58799744 395.00000000 0.593906 0.804334 -0.017997 0.000000
104.42600250 197.85899353 441.25000000 0.381148 -0.381148 -0.842290 0.000000
54.17580032 160.17199707 353.75000000 0.961234 0.172732 0.214926 0.000000
168.41600037 129.55099487 427.50000000 0.353296 -0.056475 -0.933805 0.000000
66.34570313 160.95700073 432.50000000 0.727510 0.001380 -0.686096 0.000000
138.97300720 224.16200256 410.00000000 -0.094025 -0.568492 -0.817298 0.000000
74.58979797 228.47999573 406.25000000 0.819740 -0.545992 -0.172973 0.000000
164.88299561 207.28100586 376.25000000 -0.824026 -0.343212 0.450763 0.000000
109.92199707 255.17599487 338.75000000 -0.537382 -0.434866 0.722573 0.000000
85.97460175 208.85200500 315.00000000 -0.900900 -0.113488 0.418926 0.000000
65.16790009 209.63699341 313.75000000 0.770212 -0.411974 0.486878 0.000000
74.98239899 124.05500031 375.00000000 0.555657 0.819409 -0.140766 0.000000
87.15229797 178.22999573 326.25000000 -0.737209 0.392412 0.550033 0.000000
63.59759903 206.49600220 413.75000000 0.911334 -0.151183 0.382902 0.000000
95.00389862 181.37100220 333.75000000 -0.602301 -0.122828 0.788763 0.000000
222.19900513 157.81599426 428.75000000 -0.000978 -0.000978 -0.999999 0.000000
55.35350037 149.96499634 367.50000000 0.971181 0.215398 0.102031 0.000000
79.30079651 172.73399353 443.75000000 -0.000978 -0.000978 -0.999999 0.000000
148.00199890 171.94900513 432.50000000 -0.317684 0.317684 -0.893394 0.000000
57.70899963 219.84399414 395.00000000 0.739204 -0.429693 -0.518595 0.000000
195.50399780 172.73399353 428.75000000 0.001346 -0.846861 -0.531813 0.000000
65.16790009 210.81399536 315.00000000 0.798728 -0.520359 0.302093 0.000000
112.27700043 117.77300262 418.75000000 -0.213222 0.733048 -0.645892 0.000000
65.95310211 211.20700073 313.75000000 0.770212 -0.411974 0.486878 0.000000
101.28500366 197.07400513 331.25000000 -0.732797 0.367214 0.572855 0.000000
120.91400146 237.11700439 343.75000000 -0.750615 -0.172048 0.637947 0.000000
203.35499573 174.30499268 388.75000000 -0.362262 -0.784095 0.503946 0.000000
136.61700439 193.14799500 436.25000000 -0.598765 -0.332647 -0.728578 0.000000
80.87110138 176.66000366 318.75000000 -0.831860 0.241408 0.499731 0.000000
66.73829651 211.99200439 313.75000000 0.801872 -0.342748 0.489413 0.000000
211.60000610 88.72260284 390.00000000 -0.313504 0.920472 -0.233339 0.000000
151.53500366 185.29699707 346.25000000 -0.806436 -0.109769 0.581044 0.000000
181.37100220 191.57800293 418.75000000 -0.287254 -0.688446 -0.665979 0.000000
61.24219894 239.86500549 365.00000000 0.774514 -0.620500 -0.122915 0.000000
133.47700500 202.57000732 431.25000000 -0.472526 -0.535975 -0.699606 0.000000
186.08200073 190.00799561 413.75000000 -0.762843 -0.646547 0.006922 0.000000
123.26899719 262.63500977 372.50000000 -0.000978 -0.000978 -0.999999 0.000000
94.21869659 148.39399719 341.25000000 -0.618204 -0.181645 0.764741 0.000000
120.12899780 171.16400146 341.25000000 0.009698 0.635920 0.771694 0.000000
47.10940170 179.01600647 388.75000000 0.994569 0.001073 -0.104070 0.000000
142.11300659 204.92599487 346.25000000 -0.717645 -0.385919 0.579700 0.000000
232.40600586 153.10499573 428.75000000 -0.000978 -0.000978 -0.999999 0.000000
95.78900146 211.60000610 432.50000000 0.156224 -0.729550 -0.665847 0.000000
188.83000183 190.79299927 385.00000000 0.254777 -0.669382 -0.697866 0.000000
110.70700073 222.98399353 418.75000000 -0.247721 -0.733695 -0.632713 0.000000
66.73829651 191.18499756 430.00000000 0.685820 -0.426770 -0.589507 0.000000
210.42199707 89.11519623 392.50000000 -0.068864 0.947208 -0.313137 0.000000
145.25399780 183.72700500 341.25000000 0.000978 0.000978 0.999999 0.000000
96.57420349 233.97599792 408.75000000 0.042560 -0.869057 -0.492878 0.000000
60.45700073 138.97300720 361.25000000 0.940069 0.267207 0.211827 0.000000
90.29290009 230.83599854 323.75000000 0.000978 0.000978 0.999999 0.000000
54.96089935 149.96499634 386.25000000 0.922831 0.372131 -0.099508 0.000000
181.37100220 177.44500732 368.75000000 0.000978 0.000978 0.999999 0.000000
219.05900574 156.24600220 428.75000000 -0.000978 -0.000978 -0.999999 0.000000
60.45700073 202.57000732 413.75000000 0.849594 -0.282170 -0.445613 0.000000
113.06199646 264.59799194 356.25000000 -0.151183 -0.911334 0.382902 0.000000
213.56199646 152.32000732 428.75000000 -0.000978 -0.000978 -0.999999 0.000000
54.17580032 166.45300293 413.75000000 0.800536 0.240938 -0.548717 0.000000
67.13079834 215.91799927 315.00000000 0.602822 -0.289419 0.743534 0.000000
166.06100464 182.94099426 365.00000000 -0.668875 0.061853 0.740797 0.000000
140.54299927 141.32800293 428.75000000 -0.361371 0.303914 -0.881503 0.000000
235.54699707 164.88299561 411.25000000 -0.315536 -0.433668 0.844020 0.000000
66.34570313 245.75399780 367.50000000 0.446663 -0.891952 0.070092 0.000000
106.78099823 142.89799500 441.25000000 -0.145472 0.509887 -0.847852 0.000000
102.06999969 229.65800476 412.50000000 0.087788 -0.816001 -0.571345 0.000000
118.55899811 243.39799500 401.25000000 0.391013 -0.704483 -0.592294 0.000000
136.61700439 100.50000000 361.25000000 0.000978 0.000978 0.999999 0.000000
92.64839935 249.28700256 327.50000000 -0.076484 -0.302048 0.950220 0.000000
93.43360138 240.25799561 323.75000000 -0.616226 -0.064339 0.784937 0.000000
103.64099884 153.10499573 446.25000000 -0.000978 -0.000978 -0.999999 0.000000
170.37899780 171.94900513 371.25000000 0.006403 0.377777 0.925874 0.000000
69.87889862 141.32800293 321.25000000 0.917911 0.234146 0.320335 0.000000
84.01170349 193.93400574 318.75000000 -0.731555 0.268184 0.626821 0.000000
222.98399353 151.53500366 396.25000000 -0.756572 0.110610 0.644487 0.000000
152.32000732 150.75000000 428.75000000 -0.242871 0.338857 -0.908950 0.000000
71.44920349 194.32600403 432.50000000 0.486764 -0.530255 -0.694183 0.000000
69.87889862 138.97300720 418.75000000 0.613922 0.613922 -0.496184 0.000000
84.40429688 217.48800659 315.00000000 -0.795537 -0.037883 0.604720 0.000000
87.93750000 248.89399719 328.75000000 0.355014 -0.672399 0.649495 0.000000
186.86700439 146.03900146 368.75000000 -0.162825 0.204508 0.965228 0.000000
226.12500000 141.32800293 428.75000000 -0.000978 -0.000978 -0.999999 0.000000
90.29290009 193.93400574 323.75000000 -0.517637 0.378086 0.767531 0.000000
52.99800110 193.14799500 345.00000000 0.953933 -0.001225 0.300017 0.000000
233.97599792 180.19299316 417.50000000 -0.705551 -0.600294 0.376623 0.000000
68.30860138 218.66600037 315.00000000 0.842083 -0.396735 0.365373 0.000000
68.70110321 219.05900574 315.00000000 0.726497 -0.271840 0.631114 0.000000
202.17799377 174.30499268 387.50000000 -0.411336 -0.824259 0.389101 0.000000
224.94700623 108.35199738 407.50000000 -0.953933 0.001225 0.300017 0.000000
94.21869659 234.76199341 406.25000000 0.009743 -0.702885 -0.711236 0.000000
230.44299316 129.55099487 410.00000000 -0.741875 0.394684 0.542076 0.000000
115.41799927 155.46099854 348.75000000 -0.434960 0.624942 0.648273 0.000000
92.25579834 257.53100586 372.50000000 0.457097 -0.834631 -0.307332 0.000000
123.26899719 104.42600250 361.25000000 -0.000978 -0.000978 0.999999 0.000000
196.28900146 162.52699280 371.25000000 -0.297687 0.107167 0.948629 0.000000
226.91000366 183.33399963 415.00000000 -0.389606 -0.803261 0.450532 0.000000
106.78099823 187.65199280 448.75000000 -0.040845 -0.795769 -0.604221 0.000000
219.84399414 144.46899414 428.75000000 -0.000978 -0.000978 -0.999999 0.000000
110.31400299 252.82000732 337.50000000 -0.537774 -0.412787 0.735123 0.000000
115.41799927 193.14799500 443.75000000 0.025535 -0.463655 -0.885648 0.000000
120.12899780 137.40199280 368.75000000 -0.083504 0.097231 0.991753 0.000000
69.87889862 220.62899780 313.75000000 0.707944 -0.290562 0.643731 0.000000
82.44139862 202.57000732 436.25000000 0.445881 -0.629577 -0.636257 0.000000
98.14450073 109.52899933 390.00000000 0.359102 0.901420 -0.241844 0.000000
111.88500214 150.75000000 350.00000000 -0.612056 0.500773 0.612056 0.000000
155.46099854 199.42999268 356.25000000 -0.725443 -0.243912 0.643614 0.000000
240.25799561 171.94900513 428.75000000 -0.985641 0.146241 -0.084416 0.000000
66.73829651 133.86900330 405.00000000 0.109056 0.988542 -0.104366 0.000000
56.13869858 171.94900513 340.00000000 0.921095 0.215636 0.324168 0.000000
119.34400177 95.78900146 368.75000000 -0.001225 0.953933 -0.300017 0.000000
180.58599854 189.61500549 402.50000000 -0.474598 -0.403327 0.782358 0.000000
131.12100220 140.54299927 433.75000000 -0.512306 0.249188 -0.821856 0.000000
186.86700439 152.32000732 368.75000000 0.000978 0.000978 0.999999 0.000000
164.88299561 185.29699707 426.25000000 -0.383641 -0.530568 -0.755855 0.000000
143.68400574 98.14450073 361.25000000 -0.000978 -0.000978 0.999999 0.000000
116.20300293 162.52699280 448.75000000 -0.789072 -0.157814 -0.593683 0.000000
155.46099854 149.17999268 363.75000000 -0.621510 -0.001372 0.783405 0.000000
52.99800110 180.58599854 412.50000000 0.868681 -0.375356 -0.323266 0.000000
215.91799927 179.01600647 403.75000000 -0.371322 -0.792474 0.483843 0.000000
131.90600586 239.47300720 401.25000000 -0.000978 -0.000978 -0.999999 0.000000
102.85500336 117.77300262 358.75000000 -0.751347 -0.291925 0.591825 0.000000
173.51899719 150.75000000 428.75000000 -0.000978 -0.000978 -0.999999 0.000000
136.61700439 165.66799927 371.25000000 -0.300227 0.535326 0.789487 0.000000
128.76600647 156.24600220 441.25000000 0.000978 0.000978 -0.999999 0.000000
84.01170349 136.22500610 430.00000000 0.475845 0.689557 -0.545969 0.000000
103.64099884 128.37300110 430.00000000 0.055566 0.785054 -0.616930 0.000000
89.50779724 175.87500000 331.25000000 -0.720126 0.304483 0.623465 0.000000
87.15229797 190.00799561 443.75000000 -0.000978 -0.000978 -0.999999 0.000000
100.50000000 160.95700073 448.75000000 0.233326 0.287062 -0.929061 0.000000
172.73399353 88.72260284 383.75000000 0.070943 0.924932 -0.373453 0.000000
202.57000732 104.81800079 417.50000000 0.131950 0.793183 -0.594517 0.000000
109.13700104 176.66000366 451.25000000 -0.000978 -0.000978 -0.999999 0.000000
214.34800720 125.62500000 396.25000000 -0.534678 0.069127 0.842224 0.000000
87.15229797 153.10499573 441.25000000 0.738908 0.569269 -0.360483 0.000000
131.90600586 255.96099854 386.25000000 -0.001380 -0.727510 -0.686096 0.000000
101.28500366 255.56799316 335.00000000 0.018162 -0.716702 0.697143 0.000000
142.11300659 225.33999634 408.75000000 -0.268417 -0.614658 -0.741719 0.000000
106.38899994 146.82400513 347.50000000 -0.833249 -0.314227 0.454926 0.000000
161.74200439 220.62899780 396.25000000 -0.690320 -0.690320 -0.216602 0.000000
55.74610138 227.30299377 360.00000000 0.889101 -0.390373 0.238974 0.000000
177.44500732 156.24600220 428.75000000 -0.000978 -0.000978 -0.999999 0.000000
219.84399414 173.51899719 398.75000000 -0.306549 -0.582603 0.752729 0.000000
180.58599854 112.27700043 426.25000000 -0.001346 0.846861 -0.531813 0.000000
148.39399719 204.14100647 421.25000000 -0.851663 -0.523574 0.023240 0.000000
208.85200500 88.72260284 391.25000000 -0.066005 0.948665 -0.309319 0.000000
185.29699707 108.35199738 421.25000000 0.383824 0.380691 -0.841281 0.000000
87.54489899 138.18699646 435.00000000 0.351403 0.707710 -0.612913 0.000000
142.89799500 241.04299927 366.25000000 -0.234922 0.055348 0.970437 0.000000
208.45899963 118.55899811 390.00000000 -0.727510 -0.001380 0.686096 0.000000
159.38699341 215.91799927 371.25000000 -0.879465 -0.253202 0.403026 0.000000
46.71680069 189.22300720 375.00000000 0.981737 -0.093211 0.165842 0.000000
135.04699707 195.50399780 338.75000000 -0.335714 -0.491638 0.803485 0.000000
230.83599854 156.24600220 406.25000000 -0.693273 -0.133264 0.708247 0.000000
184.51199341 182.15600586 391.25000000 -0.338075 -0.755411 -0.561301 0.000000
111.49199677 177.44500732 338.75000000 -0.168316 0.366336 0.915133 0.000000
131.12100220 241.82800293 401.25000000 -0.147394 -0.561289 -0.814389 0.000000
102.85500336 261.45700073 376.25000000 0.027745 -0.907649 -0.418813 0.000000
156.63900757 193.14799500 355.00000000 -0.771946 -0.291270 0.565032 0.000000
147.60899353 226.12500000 363.75000000 -0.594110 0.296254 0.747842 0.000000
73.80470276 226.12500000 313.75000000 0.358286 -0.600415 0.714936 0.000000
193.14799500 164.49000549 370.00000000 -0.415276 -0.060871 0.907656 0.000000
75.37500000 226.12500000 313.75000000 0.373922 -0.434386 0.819446 0.000000
134.26199341 220.62899780 413.75000000 -0.152727 -0.681980 -0.715247 0.000000
80.87110138 226.12500000 313.75000000 -0.345484 -0.357768 0.867550 0.000000
157.81599426 102.85500336 366.25000000 -0.206434 0.069626 0.975980 0.000000
70.27149963 129.55099487 385.00000000 0.560284 0.806262 -0.189798 0.000000
202.57000732 95.78900146 403.75000000 0.061330 0.797294 -0.600467 0.000000
63.59759903 152.71299744 325.00000000 0.867680 0.322893 0.377984 0.000000
72.62689972 226.91000366 315.00000000 0.623311 -0.318941 0.713975 0.000000
104.03299713 138.18699646 355.00000000 -0.834366 0.504891 0.221176 0.000000
81.26360321 177.44500732 320.00000000 -0.831860 0.241408 0.499731 0.000000
110.70700073 242.61300659 401.25000000 0.026659 -0.666476 -0.745050 0.000000
98.14450073 157.81599426 343.75000000 -0.603545 0.064207 0.794739 0.000000
107.95899963 142.11300659 357.50000000 -0.726601 0.413553 0.548658 0.000000
84.01170349 115.02500153 375.00000000 0.714967 0.648384 -0.261573 0.000000
81.65619659 226.91000366 313.75000000 -0.417496 -0.134448 0.898677 0.000000
123.26899719 178.22999573 338.75000000 -0.222935 0.397150 0.890265 0.000000
137.40199280 186.86700439 436.25000000 -0.590882 0.034922 -0.806002 0.000000
224.94700623 129.55099487 405.00000000 -0.518087 0.277043 0.809217 0.000000
124.83999634 185.29699707 443.75000000 -0.001380 -0.727510 -0.686096 0.000000
94.21869659 158.60200500 446.25000000 0.505514 0.190505 -0.841524 0.000000
73.80470276 122.87699890 365.00000000 0.638944 0.764113 -0.088783 0.000000
80.87110138 130.33599854 323.75000000 -0.681224 0.079888 0.727704 0.000000
149.17999268 111.09999847 415.00000000 0.182828 0.662176 -0.726703 0.000000
126.41000366 174.69700623 445.00000000 -0.789644 -0.463452 -0.402089 0.000000
154.67599487 205.71099854 358.75000000 -0.706422 -0.362226 0.608080 0.000000
222.98399353 103.24800110 422.50000000 -0.639507 0.768784 -0.001375 0.000000
97.35929871 115.02500153 402.50000000 0.384982 0.866594 -0.317495 0.000000
226.12500000 157.81599426 428.75000000 -0.000978 -0.000978 -0.999999 0.000000
113.06199646 261.06399536 347.50000000 -0.309846 -0.839231 0.446863 0.000000
184.51199341 127.98000336 371.25000000 -0.506118 -0.098372 0.856836 0.000000
151.92799377 231.62100220 397.50000000 -0.672649 -0.481422 -0.561939 0.000000
211.20700073 147.60899353 428.75000000 -0.000978 -0.000978 -0.999999 0.000000
58.88669968 140.14999390 382.50000000 0.987889 -0.001116 0.155160 0.000000
188.43699646 134.26199341 371.25000000 0.000978 0.000978 0.999999 0.000000
110.70700073 245.75399780 398.75000000 0.110492 -0.634960 -0.764603 0.000000
87.15229797 203.35499573 318.75000000 -0.822382 0.150200 0.548751 0.000000
215.91799927 133.47700500 428.75000000 -0.000978 -0.000978 -0.999999 0.000000
76.94529724 208.06599426 426.25000000 -0.300755 -0.619202 -0.725351 0.000000
146.82400513 147.60899353 428.75000000 -0.205759 0.541071 -0.815417 0.000000
85.58200073 253.21299744 345.00000000 0.593646 -0.780790 0.194814 0.000000
104.42600250 140.14999390 440.00000000 0.109989 0.407933 -0.906363 0.000000
116.20300293 241.82800293 401.25000000 0.152417 -0.629284 -0.762083 0.000000
143.29100037 189.22300720 432.50000000 -0.619517 -0.116806 -0.776244 0.000000
235.54699707 132.69099426 416.25000000 -0.716723 0.153042 0.680357 0.000000
225.33999634 157.03100586 398.75000000 -0.900387 -0.192836 0.390023 0.000000
50.25000000 207.28100586 388.75000000 0.930297 -0.270452 -0.247796 0.000000
146.03900146 205.31799316 350.00000000 -0.771134 -0.184767 0.609272 0.000000
200.21499634 154.67599487 428.75000000 -0.000978 -0.000978 -0.999999 0.000000
154.67599487 160.95700073 373.75000000 0.000978 0.000978 0.999999 0.000000
135.83200073 148.39399719 433.75000000 -0.560574 0.421671 -0.712706 0.000000
138.97300720 167.23800659 368.75000000 -0.124270 0.878461 0.461371 0.000000
186.08200073 175.87500000 368.75000000 0.000978 0.000978 0.999999 0.000000
128.76600647 157.81599426 368.75000000 -0.443434 0.885432 0.139201 0.000000
121.69899750 215.13299561 426.25000000 -0.283580 -0.700138 -0.655278 0.000000
98.14450073 244.96899414 328.75000000 -0.646232 -0.038180 0.762186 0.000000
190.79299927 153.89100647 368.75000000 0.000978 0.000978 0.999999 0.000000
236.33200073 174.30499268 416.25000000 -0.835431 -0.391756 0.385463 0.000000
102.85500336 257.53100586 381.25000000 0.261018 -0.835566 -0.483424 0.000000
69.87889862 225.33999634 403.75000000 -0.001349 -0.538096 -0.842882 0.000000
109.13700104 197.07400513 443.75000000 0.078606 -0.355725 -0.931279 0.000000
148.39399719 233.97599792 368.75000000 -0.697515 -0.199511 0.688236 0.000000
83.61910248 246.53900146 387.50000000 0.246121 -0.818855 -0.518557 0.000000
87.15229797 201.78500366 318.75000000 -0.829641 0.102800 0.548751 0.000000
80.08589935 230.05099487 313.75000000 -0.189674 -0.547778 0.814839 0.000000
217.09599304 136.61700439 395.00000000 -0.455258 0.251229 0.854180 0.000000
141.32800293 202.57000732 343.75000000 -0.668831 -0.406609 0.622361 0.000000
76.94529724 230.44299316 315.00000000 0.329440 -0.637783 0.696206 0.000000
181.37100220 84.79689789 371.25000000 -0.212675 0.641129 0.737376 0.000000
152.32000732 201.00000000 423.75000000 -0.234297 -0.706035 -0.668296 0.000000
179.01600647 84.01170349 371.25000000 -0.212675 0.641129 0.737376 0.000000
73.80470276 193.93400574 433.75000000 0.552663 -0.433168 -0.711989 0.000000
187.25999451 140.54299927 370.00000000 -0.428787 0.228587 0.874008 0.000000
102.85500336 228.47999573 413.75000000 0.029598 -0.737124 -0.675109 0.000000
196.68200684 112.27700043 377.50000000 -0.532871 -0.143181 0.833995 0.000000
91.07810211 231.22799683 410.00000000 -0.473016 0.473016 -0.743311 0.000000
80.87110138 224.16200256 412.50000000 0.227473 -0.456452 -0.860179 0.000000
213.56199646 149.17999268 428.75000000 -0.000978 -0.000978 -0.999999 0.000000
76.16010284 132.29899597 317.50000000 -0.244421 0.493454 0.834722 0.000000
171.94900513 178.22999573 428.75000000 -0.331511 -0.235967 -0.913466 0.000000
170.77099609 190.00799561 372.50000000 -0.552262 -0.633328 0.542128 0.000000
121.69899750 125.23200226 425.00000000 -0.098079 0.625069 -0.774383 0.000000
133.47700500 204.14100647 341.25000000 -0.250298 -0.444469 0.860115 0.000000
92.64839935 127.98000336 426.25000000 0.263455 0.809072 -0.525351 0.000000
119.34400177 211.99200439 336.25000000 -0.671659 -0.251280 0.696945 0.000000
122.48400116 219.05900574 421.25000000 0.037987 -0.609203 -0.792104 0.000000
158.60200500 123.26899719 363.75000000 0.000978 0.000978 0.999999 0.000000
222.19900513 104.42600250 403.75000000 -0.832305 -0.207697 0.513937 0.000000
78.51560211 120.52100372 375.00000000 0.690320 0.690320 -0.216602 0.000000
165.66799927 172.73399353 371.25000000 -0.205595 0.472718 0.856895 0.000000
67.13079834 173.51899719 435.00000000 0.858338 0.172850 -0.483092 0.000000
73.80470276 165.66799927 438.75000000 0.411285 0.110141 -0.904828 0.000000
93.43360138 122.48400116 336.25000000 -0.621510 -0.001372 0.783405 0.000000
160.95700073 110.70700073 418.75000000 0.490271 0.737882 -0.463859 0.000000
112.27700043 233.97599792 408.75000000 0.277694 -0.579191 -0.766436 0.000000
94.21869659 134.26199341 338.75000000 -0.638144 -0.110533 0.761941 0.000000
80.87110138 155.46099854 441.25000000 0.225963 0.067912 -0.971766 0.000000
128.76600647 231.62100220 408.75000000 -0.100299 -0.812566 -0.574175 0.000000
241.43499756 164.88299561 425.00000000 0.000978 -0.999999 0.000978 0.000000
90.29290009 246.53900146 391.25000000 0.265485 -0.866239 -0.423259 0.000000
57.70899963 214.34800720 335.00000000 0.953933 0.001225 0.300017 0.000000
179.80099487 129.55099487 428.75000000 -0.000978 -0.000978 -0.999999 0.000000
183.72700500 176.66000366 368.75000000 0.000978 0.000978 0.999999 0.000000
174.30499268 144.46899414 366.25000000 -0.000978 -0.000978 0.999999 0.000000
179.01600647 167.23800659 371.25000000 0.000978 0.000978 0.999999 0.000000
92.64839935 130.33599854 428.75000000 0.266886 0.762757 -0.589044 0.000000
157.81599426 226.91000366 376.25000000 -0.937099 -0.186866 0.294833 0.000000
53.78319931 180.58599854 415.00000000 0.860973 -0.431249 -0.269721 0.000000
191.57800293 106.78099823 373.75000000 -0.307443 -0.047201 0.950395 0.000000
104.42600250 115.41799927 358.75000000 -0.653338 -0.334001 0.679406 0.000000
188.83000183 179.80099487 392.50000000 -0.274204 -0.915463 -0.294515 0.000000
174.30499268 121.69899750 366.25000000 -0.859467 -0.344095 -0.378042 0.000000
146.82400513 194.71899414 431.25000000 -0.000978 -0.000978 -0.999999 0.000000
87.54489899 135.83200073 432.50000000 0.353258 0.772650 -0.527467 0.000000
173.91200256 201.00000000 415.00000000 -0.207945 -0.580705 -0.787109 0.000000
146.03900146 151.53500366 431.25000000 -0.155703 0.282974 -0.946405 0.000000
228.47999573 135.04699707 428.75000000 -0.000978 -0.000978 -0.999999 0.000000
62.02730179 203.35499573 416.25000000 0.710516 -0.605980 -0.357708 0.000000
135.83200073 168.41600037 355.00000000 -0.224784 0.973256 0.047387 0.000000
130.33599854 217.09599304 420.00000000 -0.417511 -0.721155 -0.552830 0.000000
58.88669968 182.94099426 423.75000000 0.802461 -0.115895 -0.585342 0.000000
63.99020004 133.47700500 377.50000000 0.690320 0.690320 -0.216602 0.000000
157.81599426 134.26199341 361.25000000 0.000978 0.000978 0.999999 0.000000
112.27700043 188.43699646 446.25000000 -0.007972 -0.171960 -0.985072 0.000000
191.97099304 168.80900574 370.00000000 -0.385314 -0.114627 0.915638 0.000000
107.56600189 237.11700439 333.75000000 -0.477621 -0.039462 0.877679 0.000000
135.83200073 110.70700073 363.75000000 0.000978 0.000978 0.999999 0.000000
140.54299927 116.20300293 363.75000000 -0.000978 -0.000978 0.999999 0.000000
78.51560211 137.40199280 316.25000000 0.001289 0.400751 0.916186 0.000000
156.24600220 168.02299500 371.25000000 -0.389590 0.563838 0.728222 0.000000
152.32000732 186.08200073 348.75000000 -0.828616 -0.081574 0.553842 0.000000
73.01950073 138.18699646 316.25000000 0.846861 0.001346 0.531813 0.000000
89.90039825 166.45300293 335.00000000 -0.708861 0.055850 0.703133 0.000000
51.82030106 162.52699280 398.75000000 0.942258 0.156816 -0.295904 0.000000
169.59399414 203.35499573 386.25000000 -0.939746 -0.212380 0.267904 0.000000
76.16010284 138.18699646 423.75000000 0.586414 0.528956 -0.613453 0.000000
116.20300293 190.79299927 333.75000000 -0.000978 -0.000978 0.999999 0.000000
74.19719696 156.24600220 437.50000000 0.115875 -0.299677 -0.946978 0.000000
87.93750000 203.35499573 318.75000000 -0.814983 0.131164 0.564446 0.000000
229.26600647 188.04499817 422.50000000 -0.001225 -0.954632 0.297786 0.000000
170.77099609 196.28900146 385.00000000 -0.671037 -0.671037 0.315307 0.000000
124.83999634 141.32800293 368.75000000 0.408531 -0.159112 0.898769 0.000000
162.52699280 144.46899414 426.25000000 -0.000978 -0.000978 -0.999999 0.000000
171.16400146 158.60200500 428.75000000 0.000978 0.000978 -0.999999 0.000000
215.13299561 167.23800659 428.75000000 -0.000978 -0.000978 -0.999999 0.000000
64.77539825 210.42199707 412.50000000 0.740397 -0.395644 -0.543395 0.000000
91.86329651 158.60200500 446.25000000 0.422230 0.517519 -0.744242 0.000000
56.53120041 230.44299316 362.50000000 0.892176 -0.387839 0.231523 0.000000
171.16400146 123.26899719 428.75000000 -0.000978 -0.000978 -0.999999 0.000000
97.35929871 107.95899963 382.50000000 0.309345 0.930833 -0.194565 0.000000
223.76899719 154.67599487 428.75000000 -0.000978 -0.000978 -0.999999 0.000000
48.28710175 175.87500000 397.50000000 0.953933 0.001225 -0.300017 0.000000
58.10150146 200.21499634 328.75000000 0.854753 -0.310679 0.415784 0.000000
48.28710175 202.57000732 372.50000000 0.995790 0.066972 0.062580 0.000000
78.90820313 135.83200073 425.00000000 0.515261 0.521975 -0.679742 0.000000
92.64839935 233.19099426 323.75000000 -0.522133 0.246348 0.816511 0.000000
73.01950073 141.32800293 316.25000000 0.847115 0.186754 0.497512 0.000000
167.23800659 207.67399597 410.00000000 -0.463082 -0.743238 -0.482858 0.000000
209.63699341 142.89799500 428.75000000 -0.000978 -0.000978 -0.999999 0.000000
58.49409866 141.32800293 385.00000000 0.969377 0.242649 0.037800 0.000000
101.28500366 131.12100220 433.75000000 0.047069 0.686072 -0.726010 0.000000
128.76600647 102.06999969 398.75000000 0.256618 0.880906 -0.397683 0.000000
228.47999573 182.94099426 428.75000000 -0.000978 -0.000978 -0.999999 0.000000
146.03900146 248.10899353 373.75000000 -0.696104 -0.549204 0.462400 0.000000
72.23439789 123.66200256 357.50000000 0.745009 0.644455 -0.172160 0.000000
191.57800293 107.17400360 420.00000000 0.248320 0.874386 -0.416876 0.000000
152.71299744 223.76899719 367.50000000 0.001346 -0.846861 0.531813 0.000000
82.44139862 251.64300537 347.50000000 0.629815 -0.733995 0.254136 0.000000
140.54299927 105.99600220 363.75000000 -0.061304 -0.256477 0.964604 0.000000
178.22999573 192.36300659 418.75000000 -0.279559 -0.631004 -0.723658 0.000000
118.55899811 158.60200500 446.25000000 -0.649273 0.330332 -0.685073 0.000000
153.10499573 201.78500366 356.25000000 -0.653730 -0.456441 0.603572 0.000000
181.37100220 191.97099304 417.50000000 -0.287254 -0.688446 -0.665979 0.000000
165.66799927 194.71899414 368.75000000 -0.946889 -0.273063 -0.169815 0.000000
173.51899719 105.60299683 415.00000000 -0.013940 0.939071 -0.343439 0.000000
140.54299927 171.16400146 436.25000000 -0.559997 0.015061 -0.828358 0.000000
72.23439789 143.68400574 316.25000000 0.810630 0.236241 0.535788 0.000000
93.43360138 253.60499573 331.25000000 -0.066684 -0.902280 0.425963 0.000000
211.99200439 102.85500336 418.75000000 0.590645 0.587260 -0.553412 0.000000
79.30079651 188.43699646 441.25000000 0.513737 -0.054297 -0.856228 0.000000
218.27299500 179.01600647 428.75000000 0.372742 -0.498603 -0.782597 0.000000
127.58799744 140.54299927 367.50000000 0.357621 -0.003791 0.933859 0.000000
162.52699280 221.02099609 385.00000000 -0.840058 -0.505241 0.197572 0.000000
188.43699646 139.75799561 428.75000000 -0.000978 -0.000978 -0.999999 0.000000
102.85500336 212.77699280 331.25000000 -0.390963 -0.262140 0.882287 0.000000
184.51199341 159.38699341 428.75000000 -0.000978 -0.000978 -0.999999 0.000000
132.69099426 259.10101318 381.25000000 -0.180071 -0.900353 -0.396155 0.000000
125.62500000 243.39799500 401.25000000 -0.344160 -0.614921 -0.709525 0.000000
73.01950073 248.10899353 373.75000000 0.204753 -0.970349 -0.128447 0.000000
74.58979797 131.90600586 318.75000000 0.259587 0.778761 0.571092 0.000000
230.05099487 109.92199707 426.25000000 -0.450045 0.600618 -0.660847 0.000000
134.65400696 204.14100647 430.00000000 -0.332736 -0.535271 -0.776384 0.000000
151.53500366 182.94099426 346.25000000 -0.826370 0.001357 0.563126 0.000000
137.79499817 250.46499634 365.00000000 -0.710166 -0.473998 0.520567 0.000000
135.83200073 98.53710175 395.00000000 0.135578 0.915502 -0.378780 0.000000
136.61700439 226.91000366 356.25000000 -0.628592 -0.297416 0.718621 0.000000
157.81599426 219.05900574 403.75000000 -0.589471 -0.589471 -0.552312 0.000000
52.21289825 199.42999268 347.50000000 0.937099 -0.186866 0.294833 0.000000
153.89100647 229.26600647 396.25000000 -0.814228 -0.380823 -0.438185 0.000000
219.05900574 143.29100037 395.00000000 -0.643994 -0.049757 0.763410 0.000000
157.81599426 98.14450073 401.25000000 -0.004137 0.762647 -0.646802 0.000000
123.26899719 138.97300720 436.25000000 -0.239752 0.536736 -0.808971 0.000000
127.98000336 218.27299500 343.75000000 -0.539527 -0.590266 0.600414 0.000000
131.12100220 153.10499573 368.75000000 0.000978 0.000978 0.999999 0.000000
102.06999969 234.76199341 331.25000000 -0.222243 -0.823067 -0.522655 0.000000
59.67190170 152.32000732 416.25000000 0.909199 0.303066 -0.285497 0.000000
180.58599854 97.35929871 403.75000000 -0.362039 0.686399 -0.630701 0.000000
100.50000000 209.63699341 328.75000000 -0.606770 0.103809 0.788070 0.000000
106.78099823 214.34800720 431.25000000 -0.079876 -0.678221 -0.730504 0.000000
58.49409866 154.67599487 415.00000000 0.911820 0.266129 -0.312666 0.000000
239.08000183 147.60899353 417.50000000 -0.872192 0.180910 0.454481 0.000000
115.41799927 135.04699707 436.25000000 -0.321389 0.538846 -0.778688 0.000000
110.70700073 142.89799500 361.25000000 -0.747248 0.380982 0.544494 0.000000
170.77099609 190.79299927 375.00000000 -0.555230 -0.714341 0.425953 0.000000
217.88099670 129.55099487 397.50000000 -0.601802 0.116240 0.790141 0.000000
140.54299927 220.23599243 412.50000000 -0.401459 -0.599710 -0.692227 0.000000
78.51560211 147.60899353 316.25000000 -0.379017 0.234489 0.895188 0.000000
94.21869659 226.51800537 415.00000000 0.035331 -0.713696 -0.699564 0.000000
126.41000366 113.84799957 411.25000000 0.673428 0.223434 -0.704678 0.000000
114.63300323 124.05500031 368.75000000 -0.330367 -0.652597 0.681891 0.000000
170.37899780 101.28500366 408.75000000 0.090522 0.826195 -0.556065 0.000000
121.69899750 261.85000610 377.50000000 0.001225 -0.953933 -0.300017 0.000000
142.11300659 177.44500732 436.25000000 0.091690 0.624368 -0.775730 0.000000
57.31639862 205.71099854 406.25000000 0.757222 -0.445135 -0.477986 0.000000
112.66999817 247.32400513 337.50000000 -0.538382 0.216273 0.814476 0.000000
167.23800659 137.40199280 426.25000000 -0.000978 -0.000978 -0.999999 0.000000
123.26899719 246.53900146 398.75000000 -0.199936 -0.686602 -0.699001 0.000000
206.49600220 148.39399719 428.75000000 -0.000978 -0.000978 -0.999999 0.000000
134.26199341 185.29699707 438.75000000 -0.598808 -0.088444 -0.795994 0.000000
188.43699646 187.25999451 415.00000000 -0.634154 -0.686591 -0.355585 0.000000
142.11300659 117.77300262 416.25000000 0.074620 0.513889 -0.854605 0.000000
97.75189972 260.67199707 347.50000000 0.391673 -0.900414 0.189333 0.000000
149.96499634 164.88299561 431.25000000 -0.068600 -0.051178 -0.996331 0.000000
54.17580032 157.03100586 403.75000000 0.922463 0.345043 -0.173226 0.000000
109.13700104 252.82000732 388.75000000 0.073917 -0.737719 -0.671049 0.000000
85.18939972 177.44500732 445.00000000 0.545329 -0.124271 -0.828959 0.000000
192.75599670 165.66799927 370.00000000 -0.425401 -0.052669 0.903471 0.000000
60.06439972 160.95700073 337.50000000 0.935878 0.213397 0.280345 0.000000
218.27299500 129.55099487 398.75000000 -0.828333 0.497000 0.258564 0.000000
175.87500000 197.85899353 416.25000000 -0.433393 -0.556270 -0.709037 0.000000
208.85200500 87.54489899 387.50000000 -0.133610 0.943366 -0.303659 0.000000
100.10700226 236.33200073 330.00000000 -0.754823 -0.256860 0.603543 0.000000
235.54699707 178.22999573 418.75000000 -0.824281 -0.435081 0.362304 0.000000
89.50779724 253.60499573 378.75000000 0.337839 -0.859254 -0.384119 0.000000
60.06439972 227.69500732 342.50000000 0.819740 -0.545992 0.172973 0.000000
125.62500000 124.05500031 423.75000000 -0.152761 0.691204 -0.706329 0.000000
114.63300323 182.94099426 336.25000000 -0.126376 0.759741 0.637826 0.000000
154.67599487 216.70300293 408.75000000 -0.311098 -0.852811 -0.419441 0.000000
155.06799316 201.78500366 357.50000000 -0.758694 -0.341331 0.554866 0.000000
78.12300110 194.71899414 437.50000000 0.502218 -0.366570 -0.783201 0.000000
159.38699341 170.37899780 431.25000000 -0.000978 -0.000978 -0.999999 0.000000
68.30860138 151.53500366 316.25000000 0.574296 0.444455 0.687491 0.000000
60.45700073 140.14999390 392.50000000 0.792424 0.604783 -0.079387 0.000000
106.78099823 264.20498657 367.50000000 0.195133 -0.973145 -0.122115 0.000000
69.87889862 151.53500366 316.25000000 0.574296 0.444455 0.687491 0.000000
98.14450073 104.81800079 375.00000000 0.368685 0.862323 -0.347089 0.000000
49.85739899 190.79299927 402.50000000 0.929828 -0.189332 -0.315553 0.000000
93.82610321 259.10101318 350.00000000 0.430783 -0.894051 0.122879 0.000000
92.64839935 159.38699341 338.75000000 -0.727510 -0.001380 0.686096 0.000000
50.64260101 168.80900574 360.00000000 0.962600 0.211431 0.169407 0.000000
60.06439972 228.47999573 345.00000000 0.886050 -0.442309 0.138848 0.000000
94.61129761 205.71099854 325.00000000 -0.621510 -0.001372 0.783405 0.000000
186.86700439 188.43699646 371.25000000 0.083736 -0.515191 0.852975 0.000000
69.09369659 152.32000732 316.25000000 0.572926 0.485559 0.660293 0.000000
56.13869858 191.57800293 335.00000000 0.953933 0.001225 0.300017 0.000000
109.92199707 161.35000610 345.00000000 -0.173881 0.439816 0.881094 0.000000
125.62500000 246.93200684 397.50000000 -0.385553 -0.572588 -0.723528 0.000000
234.76199341 183.72700500 428.75000000 -0.464860 -0.305211 -0.831114 0.000000
137.40199280 244.96899414 361.25000000 -0.546041 0.223031 0.807525 0.000000
191.97099304 182.94099426 370.00000000 -0.551293 -0.237600 0.799764 0.000000
146.82400513 139.75799561 361.25000000 0.000978 0.000978 0.999999 0.000000
210.42199707 149.17999268 383.75000000 -0.632013 0.661872 0.403095 0.000000
117.77300262 131.12100220 368.75000000 0.000978 0.000978 0.999999 0.000000
135.83200073 193.93400574 436.25000000 -0.598765 -0.332647 -0.728578 0.000000
113.06199646 211.99200439 333.75000000 -0.398293 -0.529418 0.749053 0.000000
240.64999390 172.73399353 425.00000000 -0.988109 -0.148389 0.040261 0.000000
153.10499573 156.63900757 430.00000000 -0.187421 0.502288 -0.844144 0.000000
156.24600220 122.48400116 423.75000000 0.351181 0.021709 -0.936056 0.000000
114.63300323 178.22999573 451.25000000 -0.062010 -0.469897 -0.880540 0.000000
213.56199646 106.38899994 392.50000000 -0.637730 -0.486290 0.597346 0.000000
53.39059830 165.27499390 352.50000000 0.939427 0.251906 0.232421 0.000000
52.60549927 216.70300293 358.75000000 0.959144 -0.238796 0.151722 0.000000
138.18699646 216.70300293 416.25000000 -0.347319 -0.699530 -0.624522 0.000000
202.57000732 178.22999573 423.75000000 -0.000978 -0.000978 -0.999999 0.000000
231.62100220 120.12899780 428.75000000 -0.280662 0.103127 -0.954250 0.000000
78.51560211 128.76600647 321.25000000 -0.266334 0.963467 0.028229 0.000000
98.14450073 237.90199280 403.75000000 0.079932 -0.658350 -0.748456 0.000000
224.94700623 105.99600220 407.50000000 -0.818777 -0.017889 0.573832 0.000000
135.04699707 122.87699890 420.00000000 0.174582 0.590543 -0.787896 0.000000
150.75000000 141.32800293 426.25000000 -0.000978 -0.000978 -0.999999 0.000000
124.05500031 155.46099854 443.75000000 -0.486399 0.278164 -0.828276 0.000000
157.81599426 183.72700500 431.25000000 -0.562749 -0.333779 -0.756244 0.000000
147.60899353 222.19900513 406.25000000 -0.733048 -0.213222 -0.645892 0.000000
213.56199646 163.31199646 386.25000000 -0.673231 -0.172506 0.719029 0.000000
135.04699707 156.24600220 438.75000000 -0.686567 0.165933 -0.707879 0.000000
95.00389862 129.55099487 428.75000000 0.241562 0.783909 -0.571957 0.000000
87.15229797 135.83200073 431.25000000 0.402133 0.736970 -0.543290 0.000000
164.88299561 116.20300293 366.25000000 -0.386950 0.377551 0.841264 0.000000
120.91400146 246.53900146 398.75000000 0.001372 -0.621510 -0.783405 0.000000
168.41600037 175.87500000 370.00000000 -0.190794 0.503276 0.842799 0.000000
184.51199341 95.78900146 401.25000000 0.107293 0.859777 -0.499271 0.000000
101.67800140 144.46899414 345.00000000 -0.001320 0.468736 0.883337 0.000000
211.99200439 145.64599609 387.50000000 -0.415463 0.278497 0.865927 0.000000
113.06199646 164.09800720 343.75000000 -0.150845 0.339055 0.928595 0.000000
74.58979797 177.44500732 441.25000000 0.683981 -0.341174 -0.644803 0.000000
81.65619659 123.26899719 403.75000000 0.490766 0.851754 -0.183478 0.000000
54.56829834 226.12500000 362.50000000 0.889101 -0.390373 0.238974 0.000000
80.87110138 190.00799561 441.25000000 0.459289 -0.039290 -0.887417 0.000000
201.78500366 85.58200073 381.25000000 -0.000978 0.999999 -0.000978 0.000000
222.98399353 168.02299500 396.25000000 -0.703216 -0.405383 0.584083 0.000000
221.41400146 107.56600189 403.75000000 -0.759524 -0.046849 0.648790 0.000000
138.97300720 157.81599426 436.25000000 -0.049844 0.747658 -0.662211 0.000000
139.75799561 207.28100586 423.75000000 -0.424113 -0.633675 -0.646981 0.000000
135.83200073 191.57800293 436.25000000 -0.536915 -0.253673 -0.804594 0.000000
65.16790009 157.42399597 317.50000000 0.839272 0.300518 0.453113 0.000000
184.11900330 182.94099426 422.50000000 0.000978 -0.999999 0.000978 0.000000
195.50399780 183.33399963 412.50000000 -0.690320 -0.690320 -0.216602 0.000000
80.87110138 159.38699341 441.25000000 -0.000978 -0.000978 -0.999999 0.000000
130.33599854 100.50000000 396.25000000 0.145734 0.878735 -0.454518 0.000000
204.92599487 182.15600586 408.75000000 -0.001225 -0.953933 0.300017 0.000000
102.06999969 208.85200500 436.25000000 -0.052874 -0.690223 -0.721662 0.000000
235.15400696 119.34400177 420.00000000 -0.902478 0.113334 0.415559 0.000000
58.88669968 235.93899536 370.00000000 0.884909 -0.465672 0.009287 0.000000
72.62689972 127.19499969 340.00000000 0.855002 0.515782 0.054220 0.000000
153.10499573 211.20700073 416.25000000 -0.088286 -0.803256 -0.589055 0.000000
116.20300293 154.67599487 446.25000000 -0.568790 0.491609 -0.659393 0.000000
153.10499573 177.44500732 431.25000000 -0.000978 -0.000978 -0.999999 0.000000
71.84179688 231.62100220 322.50000000 0.586840 -0.778840 0.221420 0.000000
164.88299561 131.90600586 426.25000000 0.332624 0.001246 -0.943059 0.000000
158.60200500 196.28900146 358.75000000 -0.363311 -0.468943 0.805045 0.000000
216.30999756 105.21099854 395.00000000 -0.749225 -0.289147 0.595866 0.000000
113.84799957 226.12500000 336.25000000 -0.000978 -0.000978 0.999999 0.000000
79.69329834 159.38699341 317.50000000 -0.818500 0.084871 0.568203 0.000000
138.18699646 253.60499573 386.25000000 -0.315188 -0.651389 -0.690181 0.000000
150.75000000 179.80099487 346.25000000 -0.847964 0.222989 0.480867 0.000000
142.11300659 223.76899719 358.75000000 -0.417176 -0.166004 0.893536 0.000000
201.00000000 135.04699707 376.25000000 -0.785474 0.266022 0.558804 0.000000
124.83999634 102.06999969 396.25000000 0.254481 0.834389 -0.488912 0.000000
157.81599426 202.57000732 418.75000000 -0.259086 -0.504209 -0.823801 0.000000
143.68400574 237.90199280 366.25000000 0.000978 0.000978 0.999999 0.000000
127.19499969 244.18400574 351.25000000 -0.647260 -0.233515 0.725621 0.000000
54.17580032 187.65199280 413.75000000 0.771227 -0.294179 -0.564506 0.000000
101.28500366 107.17400360 385.00000000 0.310153 0.930458 -0.195073 0.000000
73.80470276 127.98000336 401.25000000 -0.317046 0.943177 -0.099491 0.000000
96.57420349 160.17199707 448.75000000 0.278023 0.134356 -0.951132 0.000000
95.00389862 201.00000000 326.25000000 -0.577099 0.144647 0.803763 0.000000
