171.00799561 176.65400696 452.50000000 0.342460 -0.392047 0.853827 0.000000
55.25490189 227.47300720 331.00000000 -0.812271 -0.534835 -0.232738 0.000000
245.21899414 112.93000031 417.50000000 0.520711 -0.581376 0.625190 0.000000
51.62500000 183.10699463 382.50000000 -0.936019 -0.333617 -0.112106 0.000000
76.63089752 203.27299500 447.50000000 -0.590194 0.026385 0.806830 0.000000
163.74800110 212.14599609 367.50000000 0.796744 0.400786 -0.452293 0.000000
121.80300140 233.11900330 337.50000000 0.634661 0.705718 -0.314908 0.000000
94.37699890 216.17999268 452.50000000 -0.466924 -0.811140 0.352185 0.000000
100.83000183 262.96499634 337.50000000 0.001304 0.900850 -0.434129 0.000000
152.45500183 175.04100037 372.50000000 0.434849 0.773609 -0.460908 0.000000
76.22750092 258.93200684 301.00000000 -0.773996 0.543239 -0.325303 0.000000
108.89600372 295.23001099 392.50000000 -0.286351 0.862116 -0.418042 0.000000
150.03500366 141.16200256 352.50000000 -0.000978 -0.000978 -0.999999 0.000000
87.11720276 156.48800659 287.50000000 -0.023836 -0.688443 -0.724899 0.000000
66.95120239 237.95899963 297.50000000 -0.881890 0.352453 -0.313124 0.000000
241.99200439 146.00199890 432.50000000 0.357446 -0.915688 -0.183707 0.000000
126.64299774 156.48800659 442.50000000 0.000978 0.000978 0.999999 0.000000
171.81399536 165.36099243 442.50000000 0.069410 -0.542528 0.837165 0.000000
233.92599487 167.78100586 392.50000000 0.761264 -0.094975 -0.641449 0.000000
118.57599640 268.61099243 367.50000000 0.774894 -0.064455 -0.628796 0.000000
149.22900391 214.56599426 342.50000000 0.651457 0.499955 -0.570656 0.000000
110.51000214 241.58900452 331.00000000 0.267584 0.857799 -0.438838 0.000000
155.68200684 153.26199341 357.50000000 0.420767 0.060883 -0.905123 0.000000
120.18900299 158.10200500 442.50000000 -0.548784 -0.579178 0.602818 0.000000
114.54299927 213.75999451 452.50000000 0.000978 0.000978 0.999999 0.000000
208.11300659 102.84700012 411.00000000 -0.000978 -0.000978 0.999999 0.000000
120.99600220 195.20700073 457.50000000 0.000978 0.000978 0.999999 0.000000
69.37110138 273.45098877 367.50000000 -0.639507 0.768784 -0.001375 0.000000
123.41600037 115.75299835 361.00000000 -0.532982 -0.841625 -0.087163 0.000000
86.31050110 283.13101196 402.50000000 -0.643626 0.643626 0.414116 0.000000
230.69900513 149.22900391 392.50000000 0.944658 0.029242 -0.326752 0.000000
111.31600189 204.08000183 457.50000000 -0.008339 0.239443 0.970875 0.000000
129.86900330 221.02000427 447.50000000 0.000978 0.000978 0.999999 0.000000
132.28900146 212.95300293 447.50000000 0.197407 0.583039 0.788097 0.000000
219.40600586 123.41600037 427.50000000 0.431963 -0.608750 0.665456 0.000000
127.85299683 276.67800903 371.00000000 0.567309 -0.396294 -0.721880 0.000000
123.81900024 114.54299927 381.00000000 -0.707106 -0.707106 0.001384 0.000000
122.60900116 257.72198486 431.00000000 0.260784 0.538745 0.801090 0.000000
119.78600311 200.85400391 301.00000000 0.612566 -0.307087 -0.728327 0.000000
247.63900757 135.51600647 407.50000000 -0.000978 -0.000978 -0.999999 0.000000
238.76600647 143.58200073 432.50000000 0.451104 -0.560967 0.694134 0.000000
70.98439789 153.26199341 372.50000000 -0.813416 -0.581406 0.017953 0.000000
140.35499573 140.35499573 432.50000000 0.211835 -0.422188 0.881410 0.000000
91.95700073 160.52099609 447.50000000 -0.122541 -0.589081 0.798729 0.000000
99.21679688 272.64498901 332.50000000 0.790408 0.113336 -0.602005 0.000000
77.43750000 229.48899841 441.00000000 -0.567700 0.334798 0.752082 0.000000
168.18499756 244.41200256 411.00000000 0.613922 0.613922 0.496184 0.000000
136.72599792 111.31600189 351.00000000 -0.335551 -0.914485 -0.226101 0.000000
148.01899719 275.06399536 401.00000000 0.714917 0.691332 0.104658 0.000000
220.21299744 172.62100220 432.50000000 0.000978 0.000978 0.999999 0.000000
111.31600189 155.68200684 442.50000000 0.494408 -0.732518 0.467951 0.000000
224.24600220 119.38300323 392.50000000 0.227423 -0.238450 -0.944151 0.000000
180.68800354 186.33399963 447.50000000 0.622596 0.026583 0.782092 0.000000
182.30099487 153.26199341 367.50000000 -0.000978 -0.000978 -0.999999 0.000000
92.76370239 269.41799927 317.50000000 0.283676 0.665116 -0.690759 0.000000
72.59770203 232.31199646 267.50000000 -0.794398 0.401227 -0.456013 0.000000
81.47070313 279.50100708 401.00000000 -0.607227 0.683338 0.405370 0.000000
204.88699341 175.84800720 437.50000000 0.549800 0.607318 0.573484 0.000000
142.77499390 110.10600281 401.00000000 -0.354497 -0.874832 0.330154 0.000000
112.93000031 183.10699463 457.50000000 0.000978 0.000978 0.999999 0.000000
80.66410065 261.75500488 291.00000000 -0.130413 0.836698 -0.531911 0.000000
167.78100586 169.39500427 447.50000000 0.024235 -0.174261 0.984401 0.000000
232.31199646 179.88099670 397.50000000 -0.000978 -0.000978 -0.999999 0.000000
108.49299622 230.69900513 311.00000000 0.735945 0.579984 -0.349290 0.000000
128.25599670 239.57200623 442.50000000 -0.000978 -0.000978 0.999999 0.000000
200.85400391 170.20100403 437.50000000 0.316226 -0.003720 0.948677 0.000000
217.79299927 140.35499573 432.50000000 0.000978 0.000978 0.999999 0.000000
170.20100403 202.86999512 441.00000000 0.677188 0.593995 0.434265 0.000000
65.33789825 242.79899597 422.50000000 -0.507702 0.326266 0.797363 0.000000
215.37300110 141.16200256 382.50000000 0.466401 -0.195203 -0.862767 0.000000
258.93200684 145.19500732 427.50000000 0.000978 0.000978 0.999999 0.000000
229.89300537 110.51000214 397.50000000 0.859795 0.122828 -0.495647 0.000000
107.28299713 219.00300598 291.00000000 0.811779 0.307373 -0.496525 0.000000
227.47300720 162.13499451 432.50000000 0.000978 0.000978 0.999999 0.000000
211.33999634 149.22900391 432.50000000 -0.000978 -0.000978 0.999999 0.000000
79.85739899 254.09199524 427.50000000 -0.330241 0.642587 0.691391 0.000000
114.94599915 139.54899597 421.00000000 -0.380802 -0.779429 0.497474 0.000000
235.53900146 175.84800720 432.50000000 -0.439338 -0.711230 0.548758 0.000000
159.71499634 219.00300598 361.00000000 0.765075 0.527918 -0.368731 0.000000
161.32800293 241.58900452 421.00000000 0.378137 0.571297 0.728445 0.000000
258.12500000 194.39999390 427.50000000 0.000978 0.000978 -0.999999 0.000000
156.48800659 199.64399719 361.00000000 0.481664 -0.426150 -0.765765 0.000000
262.15798950 155.68200684 412.50000000 -0.000978 -0.000978 -0.999999 0.000000
67.75779724 226.66600037 277.50000000 -0.959709 0.145729 -0.240255 0.000000
169.79800415 214.56599426 411.00000000 0.813509 0.578652 -0.058007 0.000000
224.24600220 100.02300262 407.50000000 0.001304 -0.900850 0.434129 0.000000
239.57200623 160.52099609 432.50000000 0.000978 0.000978 0.999999 0.000000
194.39999390 187.14100647 377.50000000 -0.000978 -0.000978 -0.999999 0.000000
173.42799377 175.04100037 447.50000000 0.834583 0.120891 0.537454 0.000000
201.66000366 204.08000183 387.50000000 0.900850 -0.001304 0.434129 0.000000
135.51600647 182.30099487 367.50000000 0.982938 -0.063146 -0.172759 0.000000
80.66410065 149.63200378 311.00000000 -0.702468 -0.702468 -0.114355 0.000000
263.77099609 173.42799377 437.50000000 0.000978 0.000978 0.999999 0.000000
234.73199463 200.04699707 427.50000000 -0.290874 0.931640 -0.217804 0.000000
203.27299500 133.90199280 377.50000000 0.674783 -0.038195 -0.737027 0.000000
109.30000305 214.56599426 291.00000000 0.903980 0.410645 -0.119129 0.000000
192.78700256 122.60900116 367.50000000 0.680652 0.377408 -0.627914 0.000000
136.32200623 198.43400574 452.50000000 0.000978 0.000978 0.999999 0.000000
57.27149963 189.15699768 331.00000000 -0.946079 -0.242339 -0.214956 0.000000
155.68200684 191.17399597 452.50000000 0.000978 0.000978 0.999999 0.000000
98.41020203 283.13101196 407.50000000 0.000978 0.000978 0.999999 0.000000
62.91799927 174.23399353 437.50000000 -0.274876 -0.827733 0.489185 0.000000
263.77099609 158.90800476 432.50000000 0.000978 0.000978 0.999999 0.000000
126.23899841 166.16799927 451.00000000 0.182905 -0.545692 0.817782 0.000000
219.40600586 191.97999573 432.50000000 0.073850 0.658857 0.748635 0.000000
116.96299744 206.50000000 452.50000000 0.184394 0.126692 0.974653 0.000000
196.82000732 135.51600647 432.50000000 0.000978 0.000978 0.999999 0.000000
87.11720276 146.80900574 427.50000000 -0.380782 -0.740320 0.554014 0.000000
102.44300079 127.44899750 387.50000000 -0.452922 -0.868719 0.200474 0.000000
208.11300659 183.91400146 432.50000000 0.000978 0.000978 0.999999 0.000000
55.25490189 218.60000610 421.00000000 -0.863104 0.308142 0.400125 0.000000
120.99600220 253.28500366 432.50000000 -0.079549 0.617587 0.782470 0.000000
240.37899780 123.41600037 427.50000000 0.727094 -0.645433 0.233989 0.000000
73.80760193 275.87100220 361.00000000 -0.464244 0.776998 -0.425150 0.000000
179.07400513 131.48199463 367.50000000 -0.000978 -0.000978 -0.999999 0.000000
50.81840134 241.99200439 402.50000000 -0.809767 0.328027 0.486494 0.000000
107.28299713 278.29098511 347.50000000 0.867892 -0.226342 -0.442190 0.000000
241.18600464 141.96899414 427.50000000 0.325310 -0.322312 0.888982 0.000000
79.45410156 254.89799500 281.00000000 -0.608728 0.713174 -0.347611 0.000000
209.72700500 125.02899933 432.50000000 0.000978 0.000978 0.999999 0.000000
148.42199707 111.31600189 352.50000000 0.545777 -0.730451 -0.410570 0.000000
77.43750000 262.96499634 307.50000000 -0.784616 0.612205 -0.097894 0.000000
103.25000000 205.69299316 282.50000000 -0.000978 -0.000978 -0.999999 0.000000
72.19429779 150.84199524 401.00000000 0.667529 -0.670777 -0.323207 0.000000
177.46099854 208.11300659 382.50000000 0.298866 0.752758 -0.586544 0.000000
110.91300201 141.16200256 331.00000000 0.958543 -0.239305 -0.154689 0.000000
133.90199280 176.65400696 347.50000000 0.359971 -0.896224 0.259238 0.000000
110.51000214 134.70899963 337.50000000 0.987081 0.001120 0.160219 0.000000
100.02300262 137.93600464 417.50000000 -0.355443 -0.874115 0.331035 0.000000
223.43899536 107.68699646 421.00000000 0.094025 -0.568492 0.817298 0.000000
94.78029633 142.77499390 421.00000000 -0.202837 -0.815925 0.541408 0.000000
234.73199463 195.20700073 422.50000000 0.001304 0.900850 -0.434129 0.000000
166.97500610 153.26199341 437.50000000 0.082503 -0.255125 0.963382 0.000000
240.37899780 152.45500183 432.50000000 0.000978 0.000978 0.999999 0.000000
52.02830124 194.39999390 361.00000000 -0.951850 -0.254455 -0.170983 0.000000
64.12789917 231.50599670 301.00000000 -0.948853 0.246402 -0.197394 0.000000
118.17299652 117.76999664 381.00000000 -0.455811 -0.868566 0.194499 0.000000
89.53710175 163.74800110 447.50000000 -0.233955 -0.314333 0.920033 0.000000
102.44300079 287.16400146 342.50000000 0.332687 -0.498234 -0.800676 0.000000
152.45500183 217.79299927 447.50000000 0.266067 0.224276 0.937501 0.000000
114.54299927 223.43899536 447.50000000 0.000978 0.000978 0.999999 0.000000
59.69139862 182.70399475 341.00000000 -0.915377 -0.396168 -0.071662 0.000000
133.90199280 244.41200256 367.50000000 0.702468 0.702468 -0.114355 0.000000
154.06799316 109.70300293 412.50000000 -0.281782 -0.848425 0.448079 0.000000
130.67599487 220.21299744 327.50000000 0.616049 0.672506 -0.410146 0.000000
54.04489899 192.78700256 352.50000000 -0.941040 -0.291764 -0.171223 0.000000
58.07809830 250.05900574 342.50000000 -0.884977 0.419665 -0.201734 0.000000
65.74120331 189.56100464 291.00000000 -0.950837 -0.202104 -0.234657 0.000000
201.66000366 208.91999817 392.50000000 0.488623 0.733763 -0.472059 0.000000
259.73800659 174.23399353 417.50000000 0.702468 0.702468 -0.114355 0.000000
212.14599609 98.41020203 392.50000000 0.001120 -0.987081 0.160219 0.000000
95.99019623 228.27900696 447.50000000 0.069538 0.331946 0.940732 0.000000
74.21089935 170.20100403 442.50000000 -0.516302 -0.327684 0.791237 0.000000
102.44300079 161.32800293 447.50000000 0.000978 0.000978 0.999999 0.000000
111.31600189 285.55099487 352.50000000 0.878660 0.079624 -0.470761 0.000000
225.05299377 172.62100220 432.50000000 0.000978 0.000978 0.999999 0.000000
65.33789825 215.37300110 282.50000000 -0.493509 0.493509 -0.716169 0.000000
130.67599487 253.28500366 432.50000000 -0.173584 0.394508 0.902348 0.000000
137.12899780 258.93200684 382.50000000 0.706683 0.460591 -0.537079 0.000000
130.67599487 163.74800110 447.50000000 0.243256 -0.528346 0.813436 0.000000
150.03500366 152.45500183 442.50000000 0.000978 0.000978 0.999999 0.000000
115.34999847 283.13101196 357.50000000 0.697610 -0.457859 -0.551095 0.000000
230.69900513 196.41700745 421.00000000 -0.203490 0.806309 -0.555389 0.000000
227.47300720 141.96899414 392.50000000 0.614164 -0.222343 -0.757210 0.000000
171.81399536 151.64799500 437.50000000 0.000978 0.000978 0.999999 0.000000
115.34999847 219.40600586 452.50000000 0.459138 0.555975 0.692881 0.000000
110.51000214 226.66600037 307.50000000 0.734880 0.603019 -0.310354 0.000000
120.99600220 258.12500000 367.50000000 0.773996 0.325303 -0.543239 0.000000
233.92599487 175.04100037 397.50000000 -0.000978 -0.000978 -0.999999 0.000000
260.54501343 146.80900574 427.50000000 0.496094 -0.600358 0.627265 0.000000
208.91999817 191.17399597 432.50000000 0.000978 0.000978 0.999999 0.000000
229.89300537 186.33399963 432.50000000 0.000978 0.000978 0.999999 0.000000
140.35499573 245.21899414 432.50000000 0.000978 0.000978 0.999999 0.000000
165.36099243 146.80900574 437.50000000 0.370424 -0.358025 0.857090 0.000000
88.73049927 156.48800659 442.50000000 -0.199712 -0.726084 0.657965 0.000000
150.03500366 177.86399841 371.00000000 0.472795 0.792295 -0.385659 0.000000
128.25599670 116.15599823 352.50000000 -0.368685 -0.862323 -0.347089 0.000000
130.67599487 247.63900757 367.50000000 0.416201 0.805085 -0.422629 0.000000
150.84199524 152.45500183 442.50000000 0.000978 0.000978 0.999999 0.000000
240.37899780 155.68200684 432.50000000 0.000978 0.000978 0.999999 0.000000
113.73600006 295.63400269 391.00000000 0.001028 0.998513 0.054502 0.000000
83.89060211 145.19500732 322.50000000 -0.639796 -0.730970 -0.237369 0.000000
247.63900757 156.48800659 407.50000000 -0.000978 -0.000978 -0.999999 0.000000
63.72460175 199.24000549 297.50000000 -0.987081 0.001120 -0.160219 0.000000
143.58200073 168.99099731 451.00000000 0.398481 -0.808163 0.433688 0.000000
64.53119659 244.41200256 312.50000000 -0.910634 0.380965 -0.160034 0.000000
132.28900146 211.74299622 451.00000000 0.094464 0.591488 0.800761 0.000000
103.25000000 179.88099670 457.50000000 0.000978 0.000978 0.999999 0.000000
134.70899963 254.09199524 432.50000000 0.202942 0.735860 0.646007 0.000000
229.89300537 191.97999573 432.50000000 0.000978 0.000978 0.999999 0.000000
70.98439789 243.60499573 287.50000000 -0.881641 0.411829 -0.230446 0.000000
227.47300720 105.66999817 417.50000000 0.341919 -0.740554 0.578507 0.000000
183.91400146 187.14100647 442.50000000 0.577771 0.463892 0.671554 0.000000
216.98599243 194.39999390 412.50000000 0.198278 0.962500 -0.185147 0.000000
126.64299774 119.38300323 402.50000000 0.000978 0.000978 0.999999 0.000000
148.42199707 220.21299744 347.50000000 0.585674 0.649443 -0.484985 0.000000
162.13499451 218.19599915 441.00000000 0.921057 0.146310 0.360898 0.000000
134.70899963 114.13999939 351.00000000 -0.402382 -0.864433 -0.301404 0.000000
258.93200684 205.69299316 437.50000000 0.067197 0.959780 0.272593 0.000000
196.01400757 148.42199707 367.50000000 0.970784 -0.104779 -0.215870 0.000000
89.94039917 154.06799316 441.00000000 -0.233518 -0.808808 0.539721 0.000000
126.64299774 279.09799194 412.50000000 0.310605 0.729036 0.609944 0.000000
137.12899780 172.62100220 452.50000000 0.000978 0.000978 0.999999 0.000000
81.47070313 250.86500549 427.50000000 -0.001247 0.330406 0.943838 0.000000
122.60900116 164.55499268 352.50000000 0.812586 -0.397513 -0.426248 0.000000
50.41500092 212.95300293 421.00000000 -0.855090 0.160421 0.493038 0.000000
183.91400146 210.13000488 401.00000000 -0.476384 0.876380 -0.070833 0.000000
200.04699707 136.32200623 432.50000000 0.000978 0.000978 0.999999 0.000000
246.02499390 151.64799500 432.50000000 0.199454 -0.641653 0.740607 0.000000
76.63089752 239.57200623 267.50000000 -0.681175 0.493726 -0.540588 0.000000
65.74120331 269.41799927 391.00000000 -0.565720 0.808814 -0.160562 0.000000
64.53119659 200.85400391 292.50000000 -0.965445 -0.141253 -0.219007 0.000000
133.90199280 189.56100464 367.50000000 0.873432 0.373457 0.312484 0.000000
47.99509811 221.82600403 401.00000000 -0.925393 0.231704 0.299935 0.000000
125.83599854 171.81399536 452.50000000 0.000978 0.000978 0.999999 0.000000
145.19500732 183.10699463 452.50000000 0.000978 0.000978 0.999999 0.000000
112.93000031 260.54501343 357.50000000 0.981186 0.019787 -0.192047 0.000000
200.04699707 179.88099670 437.50000000 0.000978 0.000978 0.999999 0.000000
104.86299896 288.77700806 342.50000000 0.802042 0.247621 -0.543519 0.000000
208.11300659 176.65400696 432.50000000 0.823673 0.143440 0.548623 0.000000
50.41500092 201.66000366 351.00000000 -0.962303 -0.150564 -0.226501 0.000000
68.16110229 158.10200500 371.00000000 -0.853745 -0.513946 -0.083534 0.000000
270.22500610 184.72099304 432.50000000 -0.430304 0.859078 -0.277171 0.000000
130.67599487 258.12500000 427.50000000 0.240709 0.408158 0.880605 0.000000
79.05079651 240.37899780 267.50000000 -0.275584 0.826751 -0.490445 0.000000
143.58200073 213.75999451 337.50000000 0.746664 -0.195518 -0.635819 0.000000
112.12300110 232.31199646 442.50000000 -0.652526 0.240570 0.718565 0.000000
217.79299927 156.48800659 432.50000000 0.000978 0.000978 0.999999 0.000000
84.69730377 222.63299561 447.50000000 -0.272666 0.105674 0.956288 0.000000
204.48300171 165.36099243 371.00000000 0.646302 0.322341 -0.691657 0.000000
204.08000183 108.08999634 422.50000000 -0.023527 -0.812385 0.582647 0.000000
115.34999847 222.63299561 307.50000000 0.817632 0.128169 -0.561293 0.000000
94.37699890 283.13101196 407.50000000 -0.098398 0.653540 0.750469 0.000000
101.63700104 228.27900696 447.50000000 -0.038922 0.292539 0.955461 0.000000
52.43159866 178.67100525 401.00000000 -0.899854 -0.436174 -0.003929 0.000000
166.97500610 241.58900452 421.00000000 0.629859 0.606344 0.485411 0.000000
156.48800659 241.18600464 427.50000000 0.599550 0.518484 0.609683 0.000000
131.48199463 116.15599823 347.50000000 -0.367051 -0.893109 -0.260057 0.000000
75.01760101 150.03500366 407.50000000 -0.702468 -0.702468 0.114355 0.000000
117.76999664 254.09199524 432.50000000 -0.079549 0.617587 0.782470 0.000000
74.21089935 255.70500183 422.50000000 0.000978 0.000978 0.999999 0.000000
221.02000427 130.27200317 391.00000000 0.603085 -0.281652 -0.746298 0.000000
157.29499817 261.35198975 412.50000000 0.449988 0.718984 0.529691 0.000000
139.54899597 266.19100952 387.50000000 0.766068 0.107338 -0.633734 0.000000
217.79299927 158.10200500 377.50000000 0.604148 0.009633 -0.796814 0.000000
100.83000183 244.41200256 437.50000000 -0.139497 0.393127 0.908841 0.000000
217.38999939 153.26199341 381.00000000 0.699525 -0.196114 -0.687171 0.000000
75.01760101 171.81399536 442.50000000 -0.516302 -0.327684 0.791237 0.000000
98.00679779 246.83200073 301.00000000 0.167927 0.506752 -0.845578 0.000000
207.30700684 142.77499390 377.50000000 0.648918 0.082748 -0.756345 0.000000
138.74200439 195.20700073 382.50000000 0.083490 0.505188 -0.858961 0.000000
157.29499817 150.03500366 437.50000000 0.000978 0.000978 0.999999 0.000000
139.54899597 283.13101196 402.50000000 0.739819 0.637023 0.216494 0.000000
98.41020203 278.29098511 332.50000000 0.756952 0.178916 -0.628500 0.000000
229.89300537 125.83599854 392.50000000 0.000978 0.000978 -0.999999 0.000000
62.51459885 229.08599854 301.00000000 -0.973132 0.145527 -0.178429 0.000000
57.27149963 242.79899597 417.50000000 -0.657322 0.223271 0.719776 0.000000
66.14450073 196.01400757 287.50000000 -0.979902 -0.196924 -0.031838 0.000000
147.61500549 229.08599854 442.50000000 0.000978 0.000978 0.999999 0.000000
146.80900574 224.24600220 442.50000000 0.000978 0.000978 0.999999 0.000000
51.62500000 210.53300476 422.50000000 -0.830533 0.191429 0.523040 0.000000
226.66600037 129.86900330 432.50000000 0.585367 -0.288696 0.757628 0.000000
261.35198975 198.43400574 432.50000000 0.130567 0.972284 0.193950 0.000000
134.70899963 166.16799927 447.50000000 0.231023 -0.569029 0.789199 0.000000
93.57029724 264.57800293 422.50000000 -0.499333 0.640559 0.583396 0.000000
164.15100098 212.95300293 431.00000000 0.792079 0.132261 0.595917 0.000000
126.64299774 118.57599640 402.50000000 0.000978 0.000978 0.999999 0.000000
221.02000427 148.01899719 381.00000000 0.485018 -0.338718 -0.806243 0.000000
71.79100037 243.60499573 287.50000000 -0.881641 0.411829 -0.230446 0.000000
111.72000122 130.67599487 411.00000000 -0.191761 -0.904015 0.382080 0.000000
126.64299774 169.39500427 452.50000000 0.092040 -0.402502 0.910780 0.000000
105.66999817 128.25599670 397.50000000 -0.702468 -0.702468 -0.114355 0.000000
71.79100037 267.80499268 412.50000000 -0.531280 0.548146 0.645970 0.000000
130.67599487 285.55099487 402.50000000 0.348428 0.827714 0.439871 0.000000
175.84800720 198.43400574 372.50000000 -0.000978 -0.000978 -0.999999 0.000000
161.32800293 192.78700256 452.50000000 0.000978 0.000978 0.999999 0.000000
52.02830124 182.30099487 421.00000000 -0.872260 -0.152900 0.464526 0.000000
108.89600372 266.19100952 352.50000000 0.931068 0.150350 -0.332426 0.000000
261.35198975 180.68800354 422.50000000 -0.000978 -0.000978 -0.999999 0.000000
84.69730377 151.64799500 297.50000000 -0.001228 -0.952066 -0.305890 0.000000
106.47699738 290.39099121 402.50000000 -0.685744 0.462168 0.562277 0.000000
266.19100952 150.43800354 421.00000000 0.552716 -0.552716 0.623707 0.000000
169.39500427 223.03599548 421.00000000 0.798728 -0.302093 0.520359 0.000000
56.86819839 180.68800354 431.00000000 -0.903686 -0.226287 0.363518 0.000000
226.66600037 183.10699463 432.50000000 0.000978 0.000978 0.999999 0.000000
120.18900299 293.21398926 361.00000000 -0.187917 0.374400 -0.908027 0.000000
74.21089935 164.55499268 437.50000000 -0.747382 -0.428718 0.507563 0.000000
105.66999817 171.00799561 452.50000000 -0.000978 -0.000978 0.999999 0.000000
218.19599915 156.48800659 381.00000000 0.709311 -0.101751 -0.697513 0.000000
74.61430359 192.78700256 451.00000000 -0.641453 0.041064 0.766062 0.000000
77.03420258 267.80499268 411.00000000 -0.455226 0.478234 0.751041 0.000000
153.26199341 164.55499268 447.50000000 0.278795 -0.108638 0.954186 0.000000
222.63299561 173.42799377 432.50000000 0.000978 0.000978 0.999999 0.000000
62.11130142 184.72099304 437.50000000 -0.762334 -0.129791 0.634035 0.000000
103.25000000 253.28500366 337.50000000 0.788820 0.455151 -0.413037 0.000000
166.16799927 235.53900146 427.50000000 0.505088 0.666180 0.548717 0.000000
191.97999573 216.98599243 417.50000000 0.408191 0.911403 -0.052195 0.000000
163.74800110 167.78100586 447.50000000 0.000978 0.000978 0.999999 0.000000
153.26199341 239.97599792 381.00000000 0.582967 0.572829 -0.576208 0.000000
114.54299927 141.96899414 427.50000000 -0.169230 -0.681495 0.711987 0.000000
112.93000031 206.90299988 451.00000000 0.198188 0.606855 0.769707 0.000000
87.11720276 228.27900696 442.50000000 0.169261 0.241231 0.955593 0.000000
83.89060211 233.11900330 442.50000000 0.000978 0.000978 0.999999 0.000000
198.83700562 104.86299896 411.00000000 -0.125464 -0.922371 0.365364 0.000000
108.08999634 266.99798584 352.50000000 0.949320 0.151730 -0.275263 0.000000
125.02899933 171.81399536 452.50000000 0.000978 0.000978 0.999999 0.000000
105.66999817 153.26199341 302.50000000 -0.402311 0.533678 0.743864 0.000000
208.11300659 110.91300201 421.00000000 0.094975 -0.641449 0.761264 0.000000
241.99200439 123.41600037 422.50000000 0.414102 -0.407707 0.813815 0.000000
187.94700623 152.45500183 367.50000000 -0.000978 -0.000978 -0.999999 0.000000
150.03500366 112.12300110 412.50000000 -0.409244 -0.697537 0.588185 0.000000
208.11300659 179.07400513 432.50000000 0.000978 0.000978 0.999999 0.000000
154.06799316 110.91300201 381.00000000 0.702468 -0.702468 0.114355 0.000000
87.11720276 277.48400879 322.50000000 -0.534822 0.829793 -0.159404 0.000000
229.08599854 194.39999390 432.50000000 -0.123483 0.175870 0.976638 0.000000
75.01760101 241.18600464 432.50000000 -0.616506 0.485477 0.619865 0.000000
52.43159866 187.94700623 367.50000000 -0.941763 -0.211585 -0.261370 0.000000
214.56599426 121.80300140 387.50000000 0.548751 -0.150200 -0.822382 0.000000
233.92599487 112.12300110 422.50000000 0.129035 -0.594747 0.793490 0.000000
230.69900513 182.30099487 397.50000000 -0.000978 -0.000978 -0.999999 0.000000
208.11300659 108.89600372 372.50000000 0.450917 0.762460 -0.464035 0.000000
109.70300293 291.19699097 352.50000000 -0.000978 -0.000978 -0.999999 0.000000
63.72460175 221.02000427 297.50000000 -0.000978 -0.000978 -0.999999 0.000000
242.79899597 134.70899963 407.50000000 0.193909 0.001147 -0.981019 0.000000
241.18600464 151.64799500 402.50000000 -0.181433 -0.514311 -0.838192 0.000000
121.39900208 215.37300110 311.00000000 0.552716 0.552716 -0.623707 0.000000
242.79899597 193.59399414 437.50000000 0.000978 0.000978 0.999999 0.000000
167.78100586 187.94700623 452.50000000 0.000978 0.000978 0.999999 0.000000
54.04489899 193.59399414 427.50000000 1.000000 1.000000 1.000000 0.000000
83.89060211 157.29499817 287.50000000 -0.376355 -0.847971 -0.373232 0.000000
163.74800110 162.13499451 382.50000000 0.993295 -0.089272 0.073452 0.000000
57.67480087 246.02499390 341.00000000 -0.944470 0.235086 -0.229587 0.000000
173.42799377 179.88099670 387.50000000 -0.006918 -0.767863 0.640577 0.000000
177.46099854 187.14100647 447.50000000 0.000978 0.000978 0.999999 0.000000
122.60900116 250.46200562 361.00000000 0.749700 0.469592 -0.466297 0.000000
162.94099426 212.95300293 437.50000000 0.938109 0.006296 0.346282 0.000000
238.76600647 125.83599854 402.50000000 0.543933 0.081376 -0.835173 0.000000
154.06799316 144.38900757 437.50000000 0.000978 0.000978 0.999999 0.000000
62.91799927 196.82000732 437.50000000 -0.896224 0.359971 0.259238 0.000000
133.90199280 110.91300201 391.00000000 -0.194221 -0.968533 0.155634 0.000000
151.64799500 268.61099243 397.50000000 0.713620 0.551358 -0.432146 0.000000
124.22299957 250.86500549 367.50000000 0.775444 0.395037 -0.492577 0.000000
49.20510101 209.32299805 351.00000000 -0.994269 -0.063606 -0.085924 0.000000
225.05299377 175.84800720 387.50000000 0.751038 0.376334 -0.542507 0.000000
122.60900116 129.46600342 411.00000000 -0.350700 -0.706293 0.614948 0.000000
170.20100403 240.37899780 417.50000000 0.740015 0.522460 0.423572 0.000000
129.86900330 233.92599487 442.50000000 0.047933 0.162504 0.985543 0.000000
55.25490189 172.62100220 411.00000000 -0.886120 -0.458908 0.064771 0.000000
63.72460175 266.59500122 381.00000000 -0.625730 0.747443 -0.223141 0.000000
65.33789825 181.49400330 442.50000000 -0.745157 -0.120475 0.655917 0.000000
175.04100037 196.82000732 442.50000000 0.558502 0.747384 0.359851 0.000000
63.32130051 183.10699463 321.00000000 -0.942911 -0.292534 -0.159193 0.000000
193.99699402 101.63700104 401.00000000 -0.034215 -0.949137 0.313000 0.000000
65.33789825 225.85899353 432.50000000 -0.817536 0.324168 0.475973 0.000000
216.98599243 145.19500732 432.50000000 0.000978 0.000978 0.999999 0.000000
146.80900574 228.27900696 357.50000000 0.584480 0.709609 -0.393495 0.000000
157.29499817 140.35499573 432.50000000 0.000978 0.000978 0.999999 0.000000
155.68200684 229.08599854 372.50000000 0.545705 0.819310 -0.175889 0.000000
233.11900330 130.67599487 397.50000000 -0.000978 -0.000978 -0.999999 0.000000
162.13499451 244.41200256 397.50000000 0.532968 0.108327 -0.839172 0.000000
182.30099487 115.34999847 357.50000000 0.364563 0.816685 -0.447346 0.000000
68.56449890 163.74800110 432.50000000 -0.337672 -0.660662 0.670450 0.000000
118.57599640 133.90199280 422.50000000 -0.355082 -0.613621 0.705256 0.000000
89.53710175 133.49899292 371.00000000 -0.615061 -0.780257 0.113572 0.000000
105.66999817 207.30700684 457.50000000 -0.012469 0.635901 0.771670 0.000000
204.88699341 112.12300110 427.50000000 0.037979 -0.375860 0.925898 0.000000
89.53710175 160.92500305 281.00000000 0.503288 -0.614381 -0.607648 0.000000
253.28500366 150.84199524 427.50000000 0.000978 0.000978 0.999999 0.000000
50.81840134 222.63299561 347.50000000 -0.944591 0.118909 -0.305956 0.000000
158.10200500 244.81500244 421.00000000 0.536781 0.358395 0.763819 0.000000
216.17999268 126.64299774 432.50000000 0.232866 -0.255176 0.938434 0.000000
114.54299927 266.19100952 422.50000000 -0.836409 0.379613 0.395365 0.000000
146.80900574 130.27200317 421.00000000 0.069871 -0.580357 0.811359 0.000000
147.61500549 113.73600006 412.50000000 -0.596295 -0.559132 0.576024 0.000000
150.03500366 154.06799316 352.50000000 -0.000978 -0.000978 -0.999999 0.000000
221.82600403 128.25599670 392.50000000 0.491816 -0.369265 -0.788518 0.000000
157.29499817 124.22299957 422.50000000 -0.178389 -0.302846 0.936195 0.000000
268.61099243 179.07400513 437.50000000 0.000978 0.000978 0.999999 0.000000
49.20510101 239.57200623 382.50000000 -0.947241 0.316601 -0.049990 0.000000
137.12899780 252.47900391 377.50000000 0.583434 0.607110 -0.539465 0.000000
115.34999847 155.68200684 347.50000000 0.778447 -0.252173 -0.574829 0.000000
196.41700745 156.48800659 431.00000000 0.526238 -0.098938 0.844562 0.000000
114.54299927 219.00300598 301.00000000 0.796084 0.387589 -0.464785 0.000000
111.31600189 142.77499390 427.50000000 -0.052838 -0.649765 0.758297 0.000000
214.56599426 171.81399536 382.50000000 0.775516 0.600449 -0.195031 0.000000
166.16799927 192.78700256 377.50000000 -0.093816 -0.920487 -0.379344 0.000000
152.45500183 261.35198975 392.50000000 -0.000978 -0.000978 -0.999999 0.000000
74.21089935 181.49400330 272.50000000 -0.155780 -0.633707 -0.757726 0.000000
185.52699280 128.25599670 432.50000000 0.000978 0.000978 0.999999 0.000000
102.44300079 229.89300537 447.50000000 0.106226 0.571877 0.813433 0.000000
49.60839844 209.72700500 351.00000000 -0.994269 -0.063606 -0.085924 0.000000
246.83200073 141.96899414 427.50000000 0.000978 0.000978 0.999999 0.000000
246.83200073 203.27299500 432.50000000 -0.094382 0.939831 -0.328343 0.000000
212.95300293 100.42700195 401.00000000 -0.226287 -0.903686 0.363518 0.000000
79.85739899 181.49400330 272.50000000 -0.155780 -0.633707 -0.757726 0.000000
130.27200317 113.73600006 351.00000000 -0.400786 -0.796744 -0.452293 0.000000
105.66999817 143.58200073 427.50000000 0.092192 -0.686316 0.721437 0.000000
221.82600403 193.59399414 412.50000000 0.176080 0.959832 -0.218445 0.000000
83.89060211 160.52099609 442.50000000 -0.608850 -0.416407 0.675209 0.000000
57.27149963 233.92599487 417.50000000 -0.948187 0.001236 0.317711 0.000000
73.40429688 275.06399536 402.50000000 -0.608080 0.765902 0.208882 0.000000
135.51600647 221.02000427 447.50000000 0.088763 0.621342 0.778496 0.000000
234.73199463 126.64299774 427.50000000 0.000978 0.000978 0.999999 0.000000
59.69139862 230.69900513 422.50000000 -0.822433 -0.205228 0.530553 0.000000
131.48199463 246.83200073 367.50000000 0.702468 0.702468 -0.114355 0.000000
140.35499573 208.11300659 447.50000000 0.315555 0.549418 0.773670 0.000000
206.50000000 125.83599854 377.50000000 0.292638 0.129616 -0.947398 0.000000
62.91799927 182.30099487 322.50000000 -0.942911 -0.292534 -0.159193 0.000000
66.14450073 267.80499268 357.50000000 -0.777947 0.585402 -0.228260 0.000000
156.89199829 246.02499390 421.00000000 0.620036 0.267995 0.737383 0.000000
78.24410248 243.60499573 432.50000000 -0.142272 0.304869 0.941708 0.000000
108.89600372 230.29600525 311.00000000 0.735945 0.579984 -0.349290 0.000000
114.54299927 150.84199524 317.50000000 0.999999 0.000978 0.000978 0.000000
232.31199646 159.71499634 392.50000000 0.584522 -0.049297 -0.809879 0.000000
213.75999451 97.20020294 381.00000000 0.499367 -0.315473 -0.806913 0.000000
89.53710175 253.28500366 427.50000000 -0.330699 0.759801 0.559768 0.000000
148.42199707 135.51600647 427.50000000 -0.071819 -0.513995 0.854781 0.000000
229.08599854 110.51000214 422.50000000 0.445345 -0.774867 0.448607 0.000000
183.91400146 132.28900146 432.50000000 0.000978 0.000978 0.999999 0.000000
200.04699707 151.64799500 432.50000000 0.212995 -0.140706 0.966869 0.000000
74.21089935 259.73800659 417.50000000 -0.350353 0.604563 0.715372 0.000000
220.21299744 159.71499634 382.50000000 0.685354 -0.061782 -0.725584 0.000000
62.11130142 241.99200439 422.50000000 -0.514058 0.242364 0.822802 0.000000
133.09599304 285.14700317 401.00000000 0.114066 0.979989 0.163127 0.000000
202.46699524 98.00679779 371.00000000 0.000978 0.000978 -0.999999 0.000000
149.22900391 177.46099854 452.50000000 0.000978 0.000978 0.999999 0.000000
104.05699921 228.27900696 297.50000000 0.761503 0.420873 -0.492930 0.000000
245.21899414 149.22900391 427.50000000 0.528759 -0.779478 0.335899 0.000000
130.67599487 173.42799377 342.50000000 0.464940 -0.824283 0.323094 0.000000
175.04100037 180.68800354 452.50000000 0.601147 -0.201407 0.773342 0.000000
199.24000549 152.45500183 432.50000000 -0.018563 -0.290816 0.956599 0.000000
100.83000183 251.67199707 432.50000000 0.001373 0.778585 0.627537 0.000000
108.08999634 147.61500549 437.50000000 -0.272483 -0.454139 0.848240 0.000000
58.88479996 208.91999817 432.50000000 -0.883813 0.123819 0.451157 0.000000
102.84700012 246.83200073 321.00000000 0.858829 0.405515 -0.313002 0.000000
217.79299927 102.44300079 412.50000000 -0.049471 -0.910529 0.410474 0.000000
144.38900757 184.72099304 382.50000000 0.845678 0.256313 -0.468116 0.000000
148.82499695 238.76600647 431.00000000 0.123580 0.725105 0.677459 0.000000
105.66999817 194.39999390 457.50000000 0.000978 0.000978 0.999999 0.000000
125.83599854 207.30700684 312.50000000 0.854278 0.376751 -0.358146 0.000000
143.58200073 251.67199707 427.50000000 0.547362 0.537257 0.641677 0.000000
136.32200623 225.05299377 342.50000000 0.518699 0.727504 -0.449097 0.000000
109.70300293 131.48199463 342.50000000 0.416201 -0.805085 -0.422629 0.000000
116.15599823 264.57800293 427.50000000 0.598531 0.798517 0.064281 0.000000
80.26069641 152.45500183 301.00000000 -0.772102 -0.602578 -0.201887 0.000000
121.80300140 257.31799316 367.50000000 0.773996 0.325303 -0.543239 0.000000
58.07809830 212.14599609 322.50000000 1.000000 1.000000 1.000000 0.000000
74.21089935 150.43800354 401.00000000 0.667529 -0.670777 -0.323207 0.000000
208.91999817 115.34999847 427.50000000 0.025386 -0.447604 0.893872 0.000000
165.36099243 137.93600464 432.50000000 0.000978 0.000978 0.999999 0.000000
79.05079651 156.48800659 297.50000000 -0.704880 -0.667034 -0.241268 0.000000
202.46699524 149.22900391 432.50000000 0.000978 0.000978 0.999999 0.000000
60.09469986 264.57800293 391.00000000 -0.846281 0.510712 -0.151595 0.000000
175.84800720 200.04699707 372.50000000 -0.109589 0.345002 -0.932182 0.000000
251.67199707 155.68200684 407.50000000 0.167646 0.198836 -0.965588 0.000000
69.37110138 155.68200684 377.50000000 -0.840478 -0.541762 -0.009505 0.000000
73.40429688 274.66101074 401.00000000 -0.541856 0.582369 0.606001 0.000000
73.40429688 154.06799316 342.50000000 -0.769145 -0.575669 -0.277527 0.000000
75.82420349 183.91400146 272.50000000 -0.155780 -0.633707 -0.757726 0.000000
161.32800293 150.84199524 357.50000000 0.413723 -0.019701 -0.910190 0.000000
56.06150055 237.15199280 411.00000000 -0.817121 0.029133 0.575730 0.000000
215.37300110 195.61000061 421.00000000 0.057589 0.992560 -0.107273 0.000000
164.55499268 120.18900299 422.50000000 1.000000 1.000000 1.000000 0.000000
148.42199707 158.50500488 441.00000000 0.370522 -0.566393 0.736147 0.000000
88.32710266 215.37300110 451.00000000 -0.676246 0.576061 0.459179 0.000000
144.79200745 189.56100464 351.00000000 0.937401 -0.313379 -0.151900 0.000000
114.54299927 174.23399353 457.50000000 0.613922 -0.613922 0.496184 0.000000
135.51600647 266.99798584 422.50000000 -0.303360 0.907150 0.291636 0.000000
124.22299957 161.32800293 447.50000000 0.011231 -0.320697 0.947115 0.000000
162.94099426 140.35499573 432.50000000 0.000978 0.000978 0.999999 0.000000
112.93000031 119.38300323 377.50000000 -0.464778 -0.876642 0.124417 0.000000
114.54299927 127.44899750 347.50000000 -0.000978 -0.000978 -0.999999 0.000000
57.27149963 174.23399353 367.50000000 -0.908744 -0.362631 -0.206598 0.000000
135.51600647 268.61099243 417.50000000 0.141973 0.778613 0.611233 0.000000
127.44899750 262.96499634 427.50000000 0.395774 0.509784 0.763861 0.000000
164.55499268 169.39500427 382.50000000 0.701004 0.703968 0.114117 0.000000
135.51600647 187.14100647 367.50000000 0.905368 0.083805 -0.416277 0.000000
101.63700104 264.57800293 427.50000000 0.999999 -0.000978 -0.000978 0.000000
90.34380341 250.05900574 432.50000000 -0.590266 0.539527 0.600414 0.000000
103.65299988 245.21899414 321.00000000 0.858829 0.405515 -0.313002 0.000000
68.56449890 268.61099243 407.50000000 -0.411385 0.821182 0.395502 0.000000
87.92379761 185.52699280 457.50000000 -0.838005 0.015038 0.545455 0.000000
62.51459885 179.07400513 331.00000000 -0.885075 -0.443255 -0.142014 0.000000
206.50000000 116.96299744 427.50000000 -0.055149 -0.575528 0.815920 0.000000
265.38500977 168.58799744 432.50000000 0.000978 0.000978 0.999999 0.000000
142.77499390 136.72599792 431.00000000 0.136497 -0.703482 0.697482 0.000000
111.31600189 260.54501343 357.50000000 0.882719 0.230728 -0.409355 0.000000
161.32800293 203.27299500 362.50000000 0.689247 0.041213 -0.723354 0.000000
215.37300110 141.96899414 382.50000000 0.632566 -0.055689 -0.772502 0.000000
49.60839844 228.27900696 401.00000000 -0.933138 0.232229 0.274452 0.000000
257.31799316 187.94700623 422.50000000 -0.000978 -0.000978 -0.999999 0.000000
204.08000183 111.31600189 427.50000000 -0.162789 -0.661805 0.731789 0.000000
199.24000549 169.39500427 437.50000000 0.195796 -0.089894 0.976516 0.000000
188.75399780 179.07400513 382.50000000 -0.193050 0.807163 -0.557870 0.000000
62.51459885 234.73199463 311.00000000 -0.948319 0.183152 -0.259126 0.000000
206.50000000 188.75399780 382.50000000 0.187350 -0.038884 -0.981523 0.000000
207.30700684 98.41020203 387.50000000 -0.063467 -0.997190 0.039802 0.000000
121.80300140 116.55999756 391.00000000 -0.493876 -0.840349 0.223384 0.000000
257.31799316 179.88099670 437.50000000 0.000978 0.000978 0.999999 0.000000
169.39500427 194.39999390 452.50000000 0.732927 -0.445050 0.514538 0.000000
164.55499268 166.97500610 392.50000000 0.000978 0.000978 0.999999 0.000000
74.21089935 192.78700256 447.50000000 -0.977346 -0.140688 0.158118 0.000000
193.59399414 112.12300110 422.50000000 -0.751957 -0.373532 0.543171 0.000000
131.48199463 227.87600708 341.00000000 -0.612421 -0.001370 -0.790530 0.000000
121.80300140 188.75399780 457.50000000 0.000978 0.000978 0.999999 0.000000
214.97000122 194.39999390 401.00000000 0.564345 -0.029119 -0.825025 0.000000
108.08999634 239.97599792 321.00000000 0.732008 0.613477 -0.296327 0.000000
62.51459885 249.25199890 321.00000000 -0.863649 0.417303 -0.282788 0.000000
115.34999847 129.06199646 407.50000000 -0.389922 -0.761898 0.517177 0.000000
237.95899963 100.83000183 407.50000000 0.152417 -0.935098 0.319938 0.000000
105.66999817 244.41200256 437.50000000 -0.037393 0.535962 0.843413 0.000000
152.45500183 266.99798584 412.50000000 0.806928 -0.284706 0.517504 0.000000
108.08999634 264.57800293 352.50000000 0.931068 0.150350 -0.332426 0.000000
109.70300293 265.38500977 427.50000000 0.295399 0.349381 0.889197 0.000000
217.79299927 114.54299927 387.50000000 0.197946 0.278231 -0.939896 0.000000
171.81399536 234.73199463 422.50000000 0.695278 0.585759 0.416503 0.000000
90.74710083 158.90800476 441.00000000 -0.085221 -0.599434 0.795875 0.000000
145.19500732 147.61500549 352.50000000 -0.000978 -0.000978 -0.999999 0.000000
176.65400696 118.57599640 357.50000000 0.172850 0.858338 -0.483092 0.000000
126.64299774 120.18900299 402.50000000 0.000978 0.000978 0.999999 0.000000
69.77439880 183.91400146 281.00000000 -0.929862 -0.364316 -0.051294 0.000000
196.82000732 139.54899597 372.50000000 0.475495 -0.112805 -0.872456 0.000000
63.72460175 204.08000183 437.50000000 0.000978 0.000978 0.999999 0.000000
202.86999512 135.51600647 371.00000000 0.839430 -0.045939 -0.541523 0.000000
186.33399963 110.10600281 421.00000000 -0.947004 -0.158059 -0.279643 0.000000
233.92599487 139.54899597 432.50000000 0.000978 0.000978 0.999999 0.000000
58.07809830 209.72700500 432.50000000 -0.864677 0.097968 0.492682 0.000000
75.01760101 280.71099854 387.50000000 -0.735422 0.652514 0.182704 0.000000
56.46480179 237.95899963 417.50000000 -0.874124 0.025670 0.485024 0.000000
84.69730377 171.81399536 447.50000000 0.000978 0.000978 0.999999 0.000000
210.53300476 129.86900330 432.50000000 0.000978 0.000978 0.999999 0.000000
62.11130142 226.66600037 307.50000000 -0.613922 0.613922 0.496184 0.000000
79.05079651 157.29499817 297.50000000 -0.704880 -0.667034 -0.241268 0.000000
233.92599487 125.02899933 397.50000000 0.552531 0.081381 -0.829510 0.000000
55.65819931 186.33399963 427.50000000 0.000978 0.000978 0.999999 0.000000
66.95120239 169.39500427 332.50000000 -0.846372 -0.528103 0.069005 0.000000
59.28810120 166.97500610 411.00000000 -0.000978 -0.000978 0.999999 0.000000
198.43400574 120.18900299 372.50000000 0.702805 0.525852 -0.479109 0.000000
121.80300140 158.90800476 447.50000000 -0.144237 -0.813380 0.563567 0.000000
153.26199341 190.36700439 452.50000000 0.000978 0.000978 0.999999 0.000000
74.61430359 280.71099854 381.00000000 -0.735422 0.652514 0.182704 0.000000
165.36099243 223.84300232 391.00000000 0.833950 0.449050 -0.320750 0.000000
120.99600220 222.63299561 317.50000000 0.776384 0.332736 -0.535271 0.000000
143.58200073 166.97500610 447.50000000 0.315925 -0.685314 0.656152 0.000000
65.33789825 251.67199707 417.50000000 -0.000978 -0.000978 0.999999 0.000000
165.76499939 238.76600647 401.00000000 0.634793 0.772122 -0.029428 0.000000
124.22299957 133.09599304 352.50000000 0.000978 0.000978 -0.999999 0.000000
205.69299316 174.23399353 437.50000000 0.549800 0.607318 0.573484 0.000000
148.42199707 192.78700256 452.50000000 0.000978 0.000978 0.999999 0.000000
145.19500732 257.31799316 422.50000000 0.464121 0.431551 0.773535 0.000000
100.02300262 193.59399414 457.50000000 0.000978 0.000978 0.999999 0.000000
133.90199280 110.10600281 381.00000000 -0.485682 -0.866777 0.113182 0.000000
217.79299927 101.23300171 411.00000000 -0.069144 -0.943235 0.324849 0.000000
203.27299500 161.32800293 432.50000000 0.000978 0.000978 0.999999 0.000000
84.69730377 147.61500549 307.50000000 -0.640586 -0.758940 -0.116874 0.000000
210.53300476 138.74200439 377.50000000 0.696582 0.713960 0.070962 0.000000
70.17769623 189.56100464 272.50000000 -0.886971 -0.257892 -0.383112 0.000000
147.21200562 214.56599426 341.00000000 0.572833 0.401148 -0.714803 0.000000
95.18360138 161.32800293 447.50000000 -0.188156 -0.412776 0.891187 0.000000
216.98599243 167.78100586 432.50000000 0.000978 0.000978 0.999999 0.000000
88.32710266 138.74200439 331.00000000 -0.759563 -0.613553 -0.215909 0.000000
210.53300476 194.39999390 432.50000000 -0.000978 -0.000978 0.999999 0.000000
150.03500366 161.32800293 447.50000000 -0.029305 -0.191070 0.981139 0.000000
132.28900146 150.03500366 352.50000000 -0.000978 -0.000978 -0.999999 0.000000
181.89700317 175.84800720 441.00000000 0.001289 -0.406019 0.913864 0.000000
79.85739899 142.77499390 387.50000000 -0.629607 -0.766543 0.126517 0.000000
76.63089752 273.04800415 341.00000000 -0.781739 0.591296 -0.198123 0.000000
151.64799500 109.30000305 381.00000000 -0.837749 -0.413373 -0.356790 0.000000
74.21089935 243.60499573 427.50000000 -0.287165 0.697859 0.656148 0.000000
130.67599487 128.25599670 422.50000000 -0.302039 -0.804909 0.510777 0.000000
147.61500549 133.90199280 347.50000000 0.373204 0.662561 -0.649408 0.000000
150.03500366 189.56100464 382.50000000 -0.000978 -0.000978 -0.999999 0.000000
47.18849945 205.69299316 411.00000000 -0.987081 -0.001120 0.160219 0.000000
112.93000031 147.61500549 327.50000000 0.958543 -0.239305 0.154689 0.000000
206.50000000 119.38300323 432.50000000 0.989260 0.132748 -0.061179 0.000000
222.63299561 166.97500610 382.50000000 -0.000978 -0.000978 -0.999999 0.000000
64.12789917 160.52099609 401.00000000 -0.798517 -0.598531 0.064281 0.000000
83.48729706 265.38500977 421.00000000 0.052874 0.690223 0.721662 0.000000
266.19100952 178.26800537 437.50000000 0.000978 0.000978 0.999999 0.000000
187.14100647 114.54299927 357.50000000 0.235774 0.869512 -0.434005 0.000000
63.32130051 196.01400757 441.00000000 -0.896224 0.359971 0.259238 0.000000
197.22399902 151.64799500 371.00000000 0.564955 0.241234 -0.789070 0.000000
102.44300079 237.95899963 307.50000000 0.987081 0.001120 -0.160219 0.000000
235.53900146 175.04100037 397.50000000 -0.000978 -0.000978 -0.999999 0.000000
103.25000000 137.93600464 312.50000000 0.230719 0.956218 -0.180041 0.000000
90.34380341 139.54899597 322.50000000 -0.645247 -0.729614 -0.226540 0.000000
105.66999817 251.26899719 341.00000000 0.788820 0.455151 -0.413037 0.000000
157.29499817 213.75999451 447.50000000 0.435362 0.726707 0.531373 0.000000
132.28900146 286.35699463 402.50000000 0.103925 0.972891 0.206598 0.000000
255.70500183 159.31199646 411.00000000 0.700155 -0.350894 -0.621816 0.000000
135.91900635 181.49400330 361.00000000 0.926786 0.068009 0.369381 0.000000
72.59770203 221.82600403 442.50000000 -0.402493 0.604567 0.687385 0.000000
135.91900635 182.30099487 371.00000000 0.924038 -0.087939 -0.372050 0.000000
207.30700684 141.16200256 377.50000000 0.760030 0.621843 -0.188856 0.000000
135.51600647 256.51199341 427.50000000 0.226876 0.705664 0.671241 0.000000
76.22750092 277.48400879 401.00000000 -0.625355 0.772498 0.110357 0.000000
54.44820023 253.28500366 401.00000000 -0.868876 0.461729 0.178496 0.000000
219.40600586 168.58799744 432.50000000 0.000978 0.000978 0.999999 0.000000
135.51600647 207.30700684 452.50000000 0.180735 0.264988 0.947162 0.000000
102.44300079 128.25599670 347.50000000 -0.328361 -0.902624 -0.278297 0.000000
147.61500549 231.90899658 361.00000000 0.434587 0.779652 -0.450863 0.000000
251.67199707 117.76999664 417.50000000 0.001120 -0.987081 0.160219 0.000000
47.18849945 219.40600586 371.00000000 -0.990325 -0.084554 -0.110036 0.000000
104.86299896 239.57200623 317.50000000 0.859078 0.430304 -0.277171 0.000000
96.39360046 252.47900391 301.00000000 0.926295 0.332121 -0.177972 0.000000
207.30700684 186.33399963 432.50000000 0.000978 0.000978 0.999999 0.000000
69.37110138 261.35198975 327.50000000 -0.793195 0.530380 -0.299229 0.000000
146.00199890 244.41200256 377.50000000 0.807376 -0.202989 -0.554022 0.000000
163.34500122 230.69900513 391.00000000 0.854344 0.364375 -0.370577 0.000000
185.52699280 120.18900299 362.50000000 0.434596 0.725428 -0.533743 0.000000
217.38999939 123.41600037 431.00000000 0.365889 -0.644818 0.671070 0.000000
259.73800659 196.82000732 437.50000000 0.705688 0.637865 0.308436 0.000000
150.84199524 224.24600220 442.50000000 0.000978 0.000978 0.999999 0.000000
117.36599731 128.25599670 411.00000000 -0.500040 -0.687346 0.526798 0.000000
117.76999664 137.12899780 422.50000000 -0.428198 -0.671455 0.604809 0.000000
55.25490189 239.57200623 341.00000000 -0.974563 0.221764 -0.032366 0.000000
118.57599640 153.26199341 352.50000000 -0.000978 -0.000978 -0.999999 0.000000
125.83599854 224.24600220 327.50000000 0.549082 0.747860 -0.373115 0.000000
143.58200073 139.54899597 347.50000000 0.529391 0.489311 -0.693051 0.000000
98.41020203 129.06199646 352.50000000 -0.478355 -0.856867 -0.192236 0.000000
109.70300293 275.87100220 352.50000000 0.907150 0.303360 -0.291636 0.000000
91.95700073 157.29499817 442.50000000 -0.195583 -0.639110 0.743832 0.000000
228.27900696 146.00199890 432.50000000 0.000978 0.000978 0.999999 0.000000
165.36099243 221.02000427 407.50000000 0.960062 0.261601 0.099228 0.000000
202.46699524 124.22299957 377.50000000 0.621733 -0.158837 -0.766955 0.000000
75.01760101 275.06399536 407.50000000 -0.372043 0.827993 0.419538 0.000000
69.37110138 195.20700073 272.50000000 -0.962956 -0.128308 -0.237175 0.000000
71.79100037 232.31199646 432.50000000 -0.646218 0.485083 0.589149 0.000000
123.41600037 254.89799500 432.50000000 -0.079549 0.617587 0.782470 0.000000
257.31799316 136.32200623 422.50000000 0.188796 0.031661 0.981506 0.000000
227.47300720 136.32200623 432.50000000 0.000978 0.000978 0.999999 0.000000
