202.05999756 146.05099487 177.50000000 -0.199336 0.168068 -0.965411 0.000000
77.27929688 175.82800293 207.50000000 -0.000978 -0.000978 -0.999999 0.000000
160.93899536 135.41600037 177.50000000 -0.064242 0.197575 -0.978180 0.000000
95.35839844 228.29299927 105.00000000 -0.755099 -0.376734 0.536561 0.000000
156.68499756 232.54699707 157.50000000 -0.767876 -0.284575 0.573920 0.000000
185.04499817 163.06599426 182.50000000 -0.000978 -0.000978 -0.999999 0.000000
74.08879852 145.34199524 95.00000000 0.764941 0.626681 -0.148780 0.000000
180.08200073 96.06729889 125.00000000 0.120249 0.978108 -0.169836 0.000000
239.63699341 107.76599884 132.50000000 -0.579595 0.579595 -0.572835 0.000000
160.93899536 169.44700623 192.50000000 -0.000978 -0.000978 -0.999999 0.000000
168.02900696 147.46899414 182.50000000 -0.000978 -0.000978 -0.999999 0.000000
78.69719696 250.27099609 137.50000000 0.514977 -0.821180 0.245890 0.000000
173.70100403 175.82800293 127.50000000 0.090918 -0.944754 0.314918 0.000000
76.57029724 161.64799500 17.50000000 0.000978 0.000978 0.999999 0.000000
134.70700073 239.63699341 137.50000000 0.000978 0.000978 0.999999 0.000000
235.38299561 165.90199280 152.50000000 -0.785828 -0.471497 0.400205 0.000000
123.36299896 111.30999756 77.50000000 0.424026 0.903596 0.060962 0.000000
209.85899353 110.60199738 157.50000000 -0.191160 0.597950 -0.778405 0.000000
160.93899536 129.74400330 177.50000000 -0.000978 -0.000978 -0.999999 0.000000
220.49400330 159.52099609 132.50000000 -0.000978 -0.000978 -0.999999 0.000000
158.10299683 219.78500366 172.50000000 -0.967826 0.058393 -0.244752 0.000000
222.62100220 101.02999878 130.00000000 -0.264813 0.930387 -0.253484 0.000000
197.80700684 162.35699463 117.50000000 -0.777089 -0.623123 0.088603 0.000000
158.81199646 190.00799561 187.50000000 -0.000978 -0.000978 -0.999999 0.000000
146.05099487 183.62699890 107.50000000 -0.961183 -0.239315 -0.137312 0.000000
58.84569931 171.57400513 117.50000000 0.892054 0.355928 0.278488 0.000000
95.00389862 130.09899902 175.00000000 0.583544 0.794646 -0.167373 0.000000
132.58000183 253.81599426 137.50000000 -0.718553 -0.580433 0.383119 0.000000
246.72599792 134.35200500 140.00000000 -0.449468 -0.714836 0.535713 0.000000
169.44700623 185.04499817 142.50000000 0.240291 -0.837191 0.491295 0.000000
238.92799377 161.29400635 155.00000000 -0.953822 -0.293188 0.065295 0.000000
125.48999786 166.61099243 207.50000000 0.000978 0.000978 -0.999999 0.000000
190.00799561 140.02400208 95.00000000 0.097567 -0.604336 0.790733 0.000000
102.80300140 122.65399933 137.50000000 0.189303 0.854099 0.484437 0.000000
90.04100037 170.86500549 212.50000000 -0.000978 -0.000978 -0.999999 0.000000
124.07199860 198.51600647 82.50000000 -0.289081 -0.826616 0.482844 0.000000
70.18939972 209.85899353 197.50000000 -0.000978 -0.000978 -0.999999 0.000000
93.58589935 145.34199524 197.50000000 0.269372 0.658289 -0.702918 0.000000
142.50599670 121.23600006 72.50000000 0.000978 0.000978 0.999999 0.000000
99.25779724 172.28300476 42.50000000 -0.000978 -0.000978 -0.999999 0.000000
212.69500732 98.54879761 132.50000000 -0.307647 0.925777 -0.219748 0.000000
65.22650146 228.29299927 182.50000000 0.559893 -0.373806 -0.739451 0.000000
171.92900085 155.97599792 185.00000000 -0.675678 -0.209693 -0.706744 0.000000
147.82299805 237.50999451 180.00000000 -0.704605 -0.251758 -0.663437 0.000000
217.65800476 170.86500549 142.50000000 -0.166029 -0.423014 0.890783 0.000000
124.07199860 218.72200012 120.00000000 -0.660161 -0.001378 0.751123 0.000000
141.79699707 240.34599304 137.50000000 -0.724883 0.127041 0.677056 0.000000
79.76069641 244.59899902 85.00000000 0.702185 -0.705130 -0.098630 0.000000
121.23600006 203.47799683 207.50000000 -0.000978 -0.000978 -0.999999 0.000000
175.11900330 157.39399719 102.50000000 0.000978 0.000978 0.999999 0.000000
57.42770004 180.79100037 97.50000000 0.799623 0.597942 -0.055391 0.000000
141.08799744 180.79100037 202.50000000 -0.395332 -0.176821 -0.901358 0.000000
94.29489899 202.76899719 207.50000000 0.000978 0.000978 -0.999999 0.000000
99.25779724 158.81199646 212.50000000 -0.292738 0.947723 0.126987 0.000000
124.42700195 110.60199738 115.00000000 0.547508 0.822008 -0.156644 0.000000
80.11519623 248.14399719 122.50000000 0.717849 -0.631129 0.293885 0.000000
160.22999573 179.72700500 140.00000000 -0.041781 -0.997388 0.058922 0.000000
187.17199707 158.81199646 182.50000000 -0.000978 -0.000978 -0.999999 0.000000
116.98200226 168.02900696 212.50000000 -0.000978 -0.000978 -0.999999 0.000000
209.85899353 96.42179871 122.50000000 -0.208264 0.966292 -0.151347 0.000000
136.12500000 113.43699646 142.50000000 0.336814 0.873278 -0.352054 0.000000
241.05499268 123.36299896 152.50000000 -0.656555 0.498713 -0.565880 0.000000
180.79100037 173.70100403 117.50000000 0.000978 0.000978 0.999999 0.000000
126.90799713 248.85299683 182.50000000 -0.000978 -0.000978 -0.999999 0.000000
195.67999268 155.26800537 112.50000000 0.337498 -0.896525 0.286947 0.000000
235.38299561 131.16200256 117.50000000 -0.761293 -0.001377 0.648407 0.000000
233.96499634 165.90199280 172.50000000 -0.000978 -0.000978 -0.999999 0.000000
138.96099854 131.16200256 177.50000000 -0.000978 -0.000978 -0.999999 0.000000
127.61699677 226.16600037 197.50000000 -0.000978 -0.000978 -0.999999 0.000000
222.62100220 103.86599731 80.00000000 -0.001104 0.990125 0.140185 0.000000
166.61099243 145.34199524 182.50000000 -0.000978 -0.000978 -0.999999 0.000000
68.41699982 154.55900574 70.00000000 0.829419 0.546629 0.115157 0.000000
99.25779724 211.98599243 207.50000000 -0.000978 -0.000978 -0.999999 0.000000
126.90799713 152.43200684 87.50000000 -0.376734 -0.755099 0.536561 0.000000
64.51750183 197.09800720 192.50000000 0.419730 0.850303 -0.317508 0.000000
141.79699707 172.99200439 202.50000000 -0.000978 -0.000978 -0.999999 0.000000
132.58000183 165.19299316 207.50000000 -0.000978 -0.000978 -0.999999 0.000000
198.51600647 169.09300232 130.00000000 0.499232 0.579915 -0.643790 0.000000
209.85899353 104.93000031 152.50000000 -0.276803 0.779795 -0.561516 0.000000
161.64799500 177.24600220 177.50000000 -0.292827 0.028660 -0.955736 0.000000
135.41600037 177.95500183 207.50000000 -0.000978 -0.000978 -0.999999 0.000000
148.17799377 222.62100220 137.50000000 0.000978 0.000978 0.999999 0.000000
100.67600250 135.41600037 187.50000000 -0.050594 0.968682 -0.243096 0.000000
220.49400330 143.21499634 172.50000000 0.000978 0.000978 -0.999999 0.000000
151.01400757 189.65299988 125.00000000 -0.959009 0.046383 -0.279554 0.000000
177.95500183 114.85500336 62.50000000 0.000978 0.000978 0.999999 0.000000
147.11399841 211.27699280 190.00000000 -0.586544 -0.298866 -0.752758 0.000000
228.29299927 158.10299683 172.50000000 -0.000978 -0.000978 -0.999999 0.000000
131.51699829 169.44700623 100.00000000 0.136748 0.683739 0.716799 0.000000
164.48399353 112.01899719 157.50000000 0.459538 0.686800 -0.563143 0.000000
117.33699799 197.80700684 75.00000000 -0.433798 -0.828159 0.354925 0.000000
211.27699280 158.10299683 127.50000000 -0.430046 -0.852386 -0.297487 0.000000
155.97599792 236.09199524 157.50000000 0.000978 0.000978 0.999999 0.000000
138.25199890 239.63699341 187.50000000 -0.000978 -0.000978 -0.999999 0.000000
127.61699677 173.70100403 97.50000000 -0.000978 -0.000978 0.999999 0.000000
85.78710175 224.74800110 197.50000000 0.587850 -0.496893 -0.638381 0.000000
67.35350037 180.79100037 197.50000000 0.109135 0.554405 -0.825060 0.000000
149.94999695 112.01899719 150.00000000 0.291973 0.797007 -0.528708 0.000000
73.02539825 214.82200623 197.50000000 0.999999 0.000978 0.000978 0.000000
185.04499817 117.33699799 65.00000000 0.055913 -0.675252 0.735465 0.000000
151.72300720 236.09199524 177.50000000 -0.541863 -0.282780 -0.791467 0.000000
180.79100037 186.46299744 147.50000000 0.301778 -0.905333 0.298834 0.000000
82.95110321 250.27099609 177.50000000 -0.000978 -0.000978 -0.999999 0.000000
78.69719696 191.77999878 205.00000000 0.378327 -0.574861 -0.725537 0.000000
61.32709885 175.11900330 180.00000000 0.937477 0.155102 -0.311577 0.000000
155.26800537 189.29899597 182.50000000 -0.686778 -0.029615 0.726264 0.000000
88.62300110 146.05099487 197.50000000 0.131728 0.861300 -0.490724 0.000000
161.64799500 102.09400177 67.50000000 0.001362 0.815569 0.578659 0.000000
84.36910248 199.22500610 32.50000000 -0.949923 -0.157201 0.270063 0.000000
154.55900574 204.89599609 137.50000000 -0.500184 0.752735 0.428026 0.000000
95.00389862 260.19699097 117.50000000 0.474380 -0.879437 -0.039418 0.000000
204.54200745 137.54299927 95.00000000 -0.271969 -0.955175 0.116933 0.000000
74.44329834 146.40499878 75.00000000 0.749242 0.655403 0.095305 0.000000
143.21499634 167.32000732 202.50000000 -0.329812 -0.029288 -0.943592 0.000000
81.17870331 145.34199524 45.00000000 0.867276 0.432884 0.245854 0.000000
104.22100067 166.61099243 47.50000000 -0.473721 0.153048 0.867274 0.000000
124.78099823 234.67399597 132.50000000 0.000978 0.000978 0.999999 0.000000
58.13669968 185.04499817 107.50000000 0.929464 0.336602 -0.150986 0.000000
219.78500366 124.78099823 167.50000000 -0.000978 -0.000978 -0.999999 0.000000
177.95500183 151.72300720 107.50000000 0.703673 -0.703673 0.098426 0.000000
85.07810211 257.00698853 160.00000000 0.369381 -0.926786 -0.068009 0.000000
207.02299500 100.67600250 77.50000000 -0.162925 0.928812 0.332813 0.000000
69.12590027 219.78500366 35.00000000 0.990125 -0.001104 -0.140185 0.000000
158.10299683 187.17199707 187.50000000 -0.911447 0.124225 0.392215 0.000000
229.71099854 102.80300140 127.50000000 -0.352087 0.916566 -0.189585 0.000000
225.45700073 165.19299316 142.50000000 0.000978 0.000978 0.999999 0.000000
78.69719696 240.34599304 182.50000000 0.947640 0.066114 -0.312423 0.000000
120.52700043 250.97999573 182.50000000 0.000000 0.000000 0.000000 0.000000
255.23399353 126.19899750 142.50000000 -0.000978 -0.000978 -0.999999 0.000000
181.50000000 132.58000183 172.50000000 0.000978 0.000978 -0.999999 0.000000
102.80300140 258.07000732 177.50000000 -0.000978 -0.000978 -0.999999 0.000000
59.90909958 196.38900757 45.00000000 0.989493 -0.010063 0.144231 0.000000
75.86129761 247.43499756 172.50000000 0.586775 -0.711691 -0.386253 0.000000
187.88099670 93.94039917 120.00000000 -0.278141 0.930432 -0.238608 0.000000
104.93000031 206.31399536 207.50000000 -0.000978 -0.000978 -0.999999 0.000000
91.45890045 255.94299316 177.50000000 0.409309 -0.817025 -0.406124 0.000000
116.27300262 230.41999817 197.50000000 0.000978 0.000978 -0.999999 0.000000
157.39399719 214.11300659 182.50000000 -0.307133 -0.316035 -0.897659 0.000000
119.81800079 146.40499878 200.00000000 0.167265 0.580154 -0.797147 0.000000
67.70800018 216.24000549 195.00000000 0.912869 -0.366002 -0.180865 0.000000
182.91799927 165.19299316 117.50000000 0.000978 0.000978 0.999999 0.000000
118.04599762 209.85899353 100.00000000 -0.613595 -0.701953 0.361612 0.000000
87.91400146 256.65200806 172.50000000 0.489392 -0.843937 -0.219696 0.000000
65.58100128 234.67399597 140.00000000 0.854781 -0.513995 0.071819 0.000000
158.10299683 180.43600464 175.00000000 -0.655665 -0.755050 -0.001380 0.000000
204.89599609 174.41000366 147.50000000 0.394801 -0.294195 0.870391 0.000000
139.66999817 174.41000366 152.50000000 -0.641578 -0.359349 0.677677 0.000000
197.09800720 146.05099487 177.50000000 0.000000 0.000000 0.000000 0.000000
239.28199768 114.14600372 85.00000000 -0.962187 -0.090724 0.256839 0.000000
80.11519623 137.89700317 155.00000000 0.721939 0.673303 0.159586 0.000000
158.10299683 115.20999908 65.00000000 0.139877 -0.974096 0.177681 0.000000
145.34199524 231.12899780 137.50000000 -0.000978 -0.000978 0.999999 0.000000
102.80300140 197.45199585 60.00000000 -0.686910 -0.600839 0.408836 0.000000
106.34799957 146.05099487 202.50000000 -0.180527 0.948787 -0.259254 0.000000
143.92399597 210.56799316 192.50000000 -0.506047 -0.411061 -0.758252 0.000000
126.90799713 247.43499756 137.50000000 0.000978 0.000978 0.999999 0.000000
153.85000610 146.75999451 187.50000000 -0.210019 0.801752 -0.559540 0.000000
154.55900574 123.36299896 77.50000000 0.206947 -0.142677 0.967893 0.000000
71.25289917 151.72300720 125.00000000 0.693374 0.693374 -0.196122 0.000000
124.78099823 110.95600128 75.00000000 0.359583 0.931229 0.059272 0.000000
167.32000732 158.10299683 187.50000000 -0.000978 -0.000978 -0.999999 0.000000
189.29899597 117.69100189 67.50000000 -0.367853 -0.421531 0.828852 0.000000
165.19299316 124.42700195 170.00000000 -0.116018 0.580088 -0.806249 0.000000
90.75000000 157.39399719 207.50000000 -0.000978 -0.000978 -0.999999 0.000000
132.22599792 261.61499023 160.00000000 -0.508374 -0.855834 -0.095409 0.000000
103.51200104 233.25599670 197.50000000 -0.000978 -0.000978 -0.999999 0.000000
248.49899292 150.30499268 160.00000000 0.832674 0.553762 -0.001354 0.000000
180.79100037 99.96669769 72.50000000 0.096017 0.973883 0.205750 0.000000
147.46899414 190.71699524 197.50000000 0.000978 0.000978 -0.999999 0.000000
130.45300293 126.19899750 172.50000000 -0.001280 0.920595 -0.390517 0.000000
70.89839935 227.58399963 42.50000000 0.783764 -0.520906 0.338188 0.000000
114.85500336 222.62100220 117.50000000 0.000978 0.000978 0.999999 0.000000
71.60739899 153.14100647 192.50000000 0.000978 0.000978 -0.999999 0.000000
70.89839935 171.57400513 17.50000000 -0.000978 -0.000978 0.999999 0.000000
82.24210358 252.04400635 135.00000000 0.600362 -0.735565 0.313862 0.000000
213.40400696 111.30999756 157.50000000 -0.267995 0.620036 -0.737383 0.000000
121.23600006 199.93299866 207.50000000 -0.000978 -0.000978 -0.999999 0.000000
81.53320313 245.30799866 72.50000000 0.000978 0.000978 -0.999999 0.000000
102.09400177 151.72300720 57.50000000 -0.990125 0.001104 0.140185 0.000000
76.57029724 142.86000061 80.00000000 0.712692 0.678973 0.176257 0.000000
178.66400146 183.62699890 177.50000000 0.072404 -0.830521 -0.552261 0.000000
124.07199860 125.48999786 57.50000000 0.174785 -0.597309 0.782734 0.000000
77.63379669 141.79699707 185.00000000 0.605837 0.719532 -0.339463 0.000000
63.09960175 208.44099426 192.50000000 0.817320 -0.131066 -0.561079 0.000000
209.85899353 96.42179871 102.50000000 -0.261194 0.964314 0.043326 0.000000
179.37300110 127.61699677 172.50000000 -0.000978 -0.000978 -0.999999 0.000000
98.19429779 236.80099487 110.00000000 -0.968070 -0.241081 0.068702 0.000000
151.01400757 193.90699768 140.00000000 -0.977506 -0.003495 -0.210880 0.000000
151.72300720 228.29299927 177.50000000 -0.699901 -0.126848 -0.702886 0.000000
158.81199646 178.66400146 182.50000000 -0.961751 0.001207 -0.273924 0.000000
78.34269714 138.96099854 160.00000000 0.937861 0.187018 0.292302 0.000000
99.96669769 159.52099609 212.50000000 0.268988 0.200016 -0.942146 0.000000
64.87200165 226.87500000 75.00000000 0.820985 -0.555676 -0.131181 0.000000
75.15229797 177.95500183 202.50000000 0.169493 0.337586 -0.925909 0.000000
152.43200684 217.65800476 132.50000000 0.000978 0.000978 0.999999 0.000000
169.44700623 150.30499268 97.50000000 0.000978 0.000978 0.999999 0.000000
109.89299774 118.75499725 65.00000000 0.612805 0.756260 0.229217 0.000000
95.71279907 129.38999939 60.00000000 0.479199 0.828843 0.288768 0.000000
163.77499390 180.79100037 152.50000000 -0.000978 -0.000978 -0.999999 0.000000
181.50000000 142.50599670 177.50000000 -0.000978 -0.000978 -0.999999 0.000000
240.34599304 160.58500671 165.00000000 0.275695 0.712345 -0.645413 0.000000
212.69500732 132.22599792 95.00000000 -0.294334 -0.879983 0.372823 0.000000
58.49119949 202.76899719 65.00000000 0.969818 -0.221275 0.102419 0.000000
158.81199646 212.69500732 157.50000000 -0.905333 0.301778 0.298834 0.000000
250.97999573 137.54299927 162.50000000 -0.000978 -0.000978 -0.999999 0.000000
249.56199646 147.46899414 167.50000000 -0.366307 -0.622558 -0.691549 0.000000
70.18939972 173.70100403 17.50000000 -0.000978 -0.000978 0.999999 0.000000
57.78219986 202.76899719 95.00000000 0.949175 -0.314746 -0.001234 0.000000
112.01899719 220.49400330 112.50000000 -0.689358 -0.565841 0.452339 0.000000
112.72799683 175.11900330 52.50000000 -0.905333 0.301778 0.298834 0.000000
134.70700073 168.02900696 117.50000000 -0.000978 -0.000978 0.999999 0.000000
194.26199341 134.70700073 87.50000000 -0.000978 -0.999999 -0.000978 0.000000
126.55400085 185.04499817 80.00000000 -0.737918 0.585469 0.335712 0.000000
131.87100220 135.41600037 182.50000000 -0.000978 -0.000978 -0.999999 0.000000
104.93000031 171.57400513 47.50000000 -0.576932 0.174140 0.798013 0.000000
176.53700256 109.89299774 157.50000000 0.000978 0.000978 -0.999999 0.000000
123.00900269 114.14600372 125.00000000 0.545903 0.791324 -0.275311 0.000000
64.16310120 174.41000366 45.00000000 0.920595 -0.001280 0.390517 0.000000
68.41699982 232.54699707 70.00000000 0.990125 -0.001104 0.140185 0.000000
94.29489899 259.13400269 170.00000000 -0.000978 -0.000978 -0.999999 0.000000
172.28300476 179.37300110 172.50000000 -0.228238 -0.787188 -0.572924 0.000000
170.15600586 156.68499756 102.50000000 0.000978 0.000978 0.999999 0.000000
85.07810211 172.99200439 207.50000000 -0.000978 -0.000978 -0.999999 0.000000
117.33699799 158.10299683 85.00000000 -0.435706 -0.659401 0.612659 0.000000
145.34199524 116.98200226 152.50000000 0.000978 0.000978 -0.999999 0.000000
161.64799500 179.37300110 187.50000000 0.295390 0.224723 -0.928571 0.000000
69.48040009 227.58399963 187.50000000 -0.000978 -0.000978 -0.999999 0.000000
230.41999817 114.85500336 82.50000000 -0.055511 0.610626 -0.789971 0.000000
107.05699921 199.93299866 212.50000000 -0.000978 -0.000978 -0.999999 0.000000
91.45890045 177.24600220 212.50000000 -0.000978 -0.000978 -0.999999 0.000000
116.27300262 265.16000366 132.50000000 -0.197445 -0.005773 0.980297 0.000000
133.99800110 195.67999268 202.50000000 -0.003786 -0.354576 -0.935020 0.000000
85.78710175 249.56199646 92.50000000 -0.000978 -0.000978 -0.999999 0.000000
68.77140045 241.40899658 160.00000000 -0.000978 -0.000978 -0.999999 0.000000
252.39799500 121.94499969 142.50000000 -0.000978 -0.000978 -0.999999 0.000000
114.85500336 148.88699341 202.50000000 -0.000978 -0.000978 -0.999999 0.000000
129.03500366 230.41999817 132.50000000 -0.716210 -0.375314 0.588374 0.000000
116.27300262 153.85000610 77.50000000 -0.000978 -0.000978 0.999999 0.000000
123.00900269 146.05099487 80.00000000 -0.032271 -0.787124 0.615949 0.000000
233.96499634 124.78099823 107.50000000 -0.704871 -0.290619 -0.647068 0.000000
153.14100647 187.52600098 145.00000000 -0.702185 -0.705130 0.098630 0.000000
85.43260193 220.49400330 40.00000000 -0.971312 -0.149334 0.185073 0.000000
191.42599487 99.96669769 142.50000000 -0.001280 0.920595 -0.390517 0.000000
64.51750183 179.01800537 35.00000000 0.972214 0.186818 0.141066 0.000000
136.83399963 152.43200684 112.50000000 -0.387082 -0.893379 -0.228128 0.000000
168.02900696 160.22999573 187.50000000 -0.000978 -0.000978 -0.999999 0.000000
95.71279907 231.12899780 107.50000000 -0.804156 -0.353317 0.478017 0.000000
87.55950165 210.56799316 40.00000000 -0.898826 -0.128404 0.419076 0.000000
168.02900696 113.43699646 62.50000000 -0.076977 -0.733458 0.675362 0.000000
245.30799866 142.50599670 167.50000000 0.242703 0.332808 -0.911227 0.000000
152.43200684 166.61099243 117.50000000 -0.000978 -0.000978 0.999999 0.000000
155.26800537 209.14999390 132.50000000 0.000978 0.000978 0.999999 0.000000
243.18200684 117.69100189 107.50000000 -0.000978 -0.000978 0.999999 0.000000
126.90799713 219.78500366 197.50000000 -0.000978 -0.000978 -0.999999 0.000000
185.04499817 190.00799561 162.50000000 -0.755097 -0.633552 0.168643 0.000000
70.89839935 176.53700256 17.50000000 0.134411 -0.364434 0.921478 0.000000
83.30560303 185.04499817 210.00000000 0.635315 -0.226341 -0.738339 0.000000
219.78500366 158.81199646 172.50000000 -0.000978 -0.000978 -0.999999 0.000000
65.22650146 172.99200439 42.50000000 0.920595 -0.001280 0.390517 0.000000
141.08799744 209.85899353 112.50000000 -0.440878 -0.731494 0.520137 0.000000
204.89599609 157.74899292 110.00000000 -0.818325 0.103199 0.565415 0.000000
211.27699280 116.27300262 167.50000000 0.000978 0.000978 -0.999999 0.000000
108.47499847 133.28900146 62.50000000 0.000978 0.000978 0.999999 0.000000
112.72799683 208.44099426 92.50000000 -0.420610 -0.683284 0.596834 0.000000
203.47799683 135.41600037 172.50000000 -0.000978 -0.000978 -0.999999 0.000000
123.36299896 249.56199646 182.50000000 -0.000978 -0.000978 -0.999999 0.000000
151.72300720 190.71699524 177.50000000 -0.760878 0.379624 -0.526260 0.000000
148.17799377 180.79100037 197.50000000 -0.451719 0.039104 -0.891303 0.000000
212.69500732 106.34799957 152.50000000 -0.000978 -0.000978 -0.999999 0.000000
223.68400574 99.96669769 125.00000000 -0.263451 0.949775 -0.168879 0.000000
61.32709885 184.33599854 50.00000000 0.981048 0.116064 0.155159 0.000000
55.30080032 189.65299988 135.00000000 0.771039 0.490661 -0.405896 0.000000
67.35350037 177.60000610 20.00000000 0.465719 -0.351276 0.812226 0.000000
183.62699890 168.02900696 117.50000000 0.000978 0.000978 0.999999 0.000000
97.83979797 238.92799377 112.50000000 -0.912165 -0.347286 0.217594 0.000000
175.11900330 129.03500366 77.50000000 0.000978 0.000978 0.999999 0.000000
204.89599609 117.69100189 167.50000000 0.001381 0.708486 -0.705724 0.000000
180.79100037 131.16200256 82.50000000 0.000978 0.000978 0.999999 0.000000
111.30999756 169.44700623 72.50000000 -0.755099 0.376734 0.536561 0.000000
125.48999786 241.05499268 187.50000000 -0.000978 -0.000978 -0.999999 0.000000
99.96669769 264.09698486 145.00000000 0.000978 0.000978 -0.999999 0.000000
227.58399963 111.30999756 77.50000000 0.094422 0.877981 -0.469290 0.000000
151.01400757 101.38500214 122.50000000 0.179744 0.904472 -0.386809 0.000000
123.71800232 175.11900330 90.00000000 -0.857753 0.312610 0.408087 0.000000
141.79699707 197.80700684 197.50000000 -0.130268 -0.223132 -0.966045 0.000000
91.45890045 226.16600037 202.50000000 -0.008985 -0.378668 -0.925489 0.000000
61.68159866 194.26199341 37.50000000 0.000000 0.000000 0.000000 0.000000
90.04100037 210.21400452 50.00000000 -0.879852 -0.400205 0.256311 0.000000
217.30400085 114.85500336 75.00000000 0.421137 0.879477 -0.221729 0.000000
152.07699585 123.36299896 165.00000000 0.148381 0.885962 -0.439380 0.000000
72.67089844 178.66400146 20.00000000 -0.751579 -0.126503 0.647400 0.000000
243.18200684 107.41100311 105.00000000 -0.547518 0.824966 0.140200 0.000000
93.23139954 227.58399963 200.00000000 0.426632 -0.786754 -0.446098 0.000000
144.63299561 141.08799744 77.50000000 -0.122625 -0.367875 0.921754 0.000000
115.56400299 266.57800293 162.50000000 0.455404 -0.184225 -0.871016 0.000000
125.13600159 112.72799683 125.00000000 0.545903 0.791324 -0.275311 0.000000
99.96669769 198.51600647 57.50000000 -0.664623 -0.530015 0.526650 0.000000
96.42179871 260.19699097 112.50000000 0.000978 0.000978 0.999999 0.000000
108.47499847 125.48999786 57.50000000 -0.043806 0.276606 0.959985 0.000000
95.71279907 201.35099792 52.50000000 -0.784626 -0.474011 0.399593 0.000000
181.50000000 120.88200378 70.00000000 0.143207 -0.722065 0.676841 0.000000
148.88699341 150.30499268 192.50000000 0.028633 0.287573 -0.957331 0.000000
212.69500732 111.30999756 157.50000000 -0.285254 0.603973 -0.744209 0.000000
243.89100647 131.16200256 162.50000000 -0.263983 0.750850 -0.605423 0.000000
194.97099304 94.64939880 100.00000000 0.001022 0.998844 0.048051 0.000000
124.78099823 199.57899475 85.00000000 -0.398079 -0.797770 0.452875 0.000000
131.87100220 163.06599426 97.50000000 -0.000978 -0.000978 0.999999 0.000000
100.67600250 204.89599609 67.50000000 -0.703673 -0.703673 0.098426 0.000000
119.81800079 209.85899353 107.50000000 0.214583 -0.862835 0.457678 0.000000
72.31639862 237.50999451 117.50000000 0.356391 -0.520879 0.775674 0.000000
171.57400513 136.83399963 177.50000000 -0.375270 0.445533 -0.812818 0.000000
114.85500336 216.94900513 202.50000000 -0.000978 -0.000978 -0.999999 0.000000
73.73429871 146.05099487 182.50000000 0.770411 0.624938 -0.126175 0.000000
118.40000153 260.90600586 132.50000000 -0.868681 -0.375356 0.323266 0.000000
141.08799744 186.46299744 177.50000000 0.000978 0.000978 0.999999 0.000000
158.10299683 178.30900574 185.00000000 0.649558 0.675737 -0.348503 0.000000
86.49600220 209.85899353 37.50000000 -0.903047 -0.128202 0.409964 0.000000
148.88699341 243.89100647 147.50000000 -0.590104 -0.663658 0.459713 0.000000
109.89299774 257.36099243 177.50000000 -0.001381 -0.708486 -0.705724 0.000000
145.34199524 191.42599487 177.50000000 0.000978 0.000978 0.999999 0.000000
80.82420349 247.08099365 120.00000000 0.717849 -0.631129 0.293885 0.000000
249.20799255 132.58000183 160.00000000 -0.563106 0.785839 -0.255672 0.000000
129.74400330 241.76400757 187.50000000 -0.000978 -0.000978 -0.999999 0.000000
95.35839844 147.46899414 35.00000000 -0.907026 0.191180 0.375172 0.000000
198.51600647 107.76599884 157.50000000 0.218926 0.874214 -0.433384 0.000000
121.94499969 252.39799500 132.50000000 0.000978 0.000978 0.999999 0.000000
165.90199280 182.56300354 160.00000000 -0.477568 -0.717184 -0.507520 0.000000
128.32600403 215.53100586 117.50000000 -0.254097 -0.833129 0.491254 0.000000
151.01400757 178.66400146 117.50000000 -0.063791 -0.324163 0.943848 0.000000
180.79100037 153.14100647 97.50000000 0.000978 0.000978 0.999999 0.000000
136.83399963 109.89299774 57.50000000 0.267363 0.940617 0.209180 0.000000
142.50599670 192.13499451 97.50000000 0.000978 0.000978 0.999999 0.000000
71.96189880 181.50000000 20.00000000 -0.808301 0.006862 0.588729 0.000000
119.81800079 205.60499573 207.50000000 -0.000978 -0.000978 -0.999999 0.000000
58.84569931 217.65800476 172.50000000 0.701979 -0.704922 0.101544 0.000000
215.53100586 104.93000031 147.50000000 -0.239858 0.867410 -0.435968 0.000000
170.15600586 177.60000610 140.00000000 -0.678901 -0.675691 -0.287289 0.000000
139.31500244 246.72599792 140.00000000 -0.677430 -0.677430 0.286667 0.000000
123.71800232 112.01899719 120.00000000 0.561331 0.804726 -0.193195 0.000000
233.96499634 129.38999939 165.00000000 -0.398276 0.702355 -0.589978 0.000000
156.68499756 100.32099915 80.00000000 0.327885 0.941518 0.077692 0.000000
168.02900696 99.61229706 135.00000000 0.001104 0.990125 -0.140185 0.000000
165.90199280 119.10900116 67.50000000 -0.262834 -0.391998 0.881621 0.000000
182.20899963 156.33099365 115.00000000 -0.213237 -0.906621 0.364099 0.000000
90.75000000 231.83799744 102.50000000 0.000978 0.000978 0.999999 0.000000
180.79100037 133.99800110 82.50000000 0.000978 0.000978 0.999999 0.000000
59.20019913 192.13499451 55.00000000 0.982662 0.100321 0.155921 0.000000
143.92399597 146.75999451 192.50000000 -0.000978 -0.000978 -0.999999 0.000000
129.03500366 139.31500244 75.00000000 0.541155 -0.344077 0.767309 0.000000
114.85500336 253.81599426 127.50000000 0.000978 0.000978 0.999999 0.000000
133.28900146 260.90600586 147.50000000 -0.740692 -0.599301 0.303667 0.000000
56.36420059 194.97099304 110.00000000 0.991968 0.025664 -0.123857 0.000000
199.93299866 143.92399597 172.50000000 -0.483708 0.864283 -0.137995 0.000000
90.39550018 249.56199646 95.00000000 0.977419 -0.148169 -0.150659 0.000000
118.75499725 174.41000366 80.00000000 -0.863111 0.346167 0.367707 0.000000
69.48040009 202.76899719 197.50000000 0.482906 0.079784 -0.872030 0.000000
100.67600250 207.73199463 207.50000000 -0.000978 -0.000978 -0.999999 0.000000
236.09199524 142.50599670 132.50000000 0.000978 0.000978 0.999999 0.000000
131.16200256 156.68499756 117.50000000 -0.618575 -0.638691 0.457645 0.000000
177.95500183 150.30499268 102.50000000 -0.604883 -0.664872 -0.438249 0.000000
92.52239990 229.00199890 95.00000000 -0.786144 -0.073297 0.613681 0.000000
86.49600220 138.60600281 55.00000000 0.452864 0.890946 0.033595 0.000000
121.94499969 196.38900757 207.50000000 -0.000978 -0.000978 -0.999999 0.000000
85.07810211 134.70700073 82.50000000 0.623123 0.777089 0.088603 0.000000
157.39399719 217.65800476 172.50000000 -0.850867 0.284648 -0.441589 0.000000
69.48040009 221.20300293 37.50000000 0.854977 -0.386369 0.346025 0.000000
216.94900513 149.59599304 122.50000000 -0.838625 -0.337018 0.427934 0.000000
201.35099792 174.05599976 160.00000000 -0.457281 -0.851858 -0.255405 0.000000
70.89839935 228.29299927 97.50000000 0.826242 0.136971 -0.546410 0.000000
129.03500366 159.87600708 205.00000000 -0.370351 0.803228 -0.466546 0.000000
70.89839935 184.33599854 17.50000000 0.811095 0.553364 0.189508 0.000000
90.75000000 255.23399353 132.50000000 0.184914 -0.980164 -0.071307 0.000000
104.22100067 236.80099487 197.50000000 -0.000978 -0.000978 -0.999999 0.000000
107.05699921 168.73800659 212.50000000 -0.000978 -0.000978 -0.999999 0.000000
63.09960175 164.83900452 140.00000000 0.836126 0.530477 0.139599 0.000000
108.47499847 117.33699799 105.00000000 -0.000978 -0.000978 -0.999999 0.000000
212.69500732 143.92399597 112.50000000 -0.533520 -0.817860 0.215548 0.000000
201.70599365 170.86500549 175.00000000 -0.683787 0.408948 -0.604315 0.000000
103.51200104 124.42700195 125.00000000 0.371477 0.928044 -0.027181 0.000000
89.33200073 219.78500366 202.50000000 0.000978 0.000978 -0.999999 0.000000
151.72300720 190.00799561 137.50000000 -0.894263 -0.340742 -0.290152 0.000000
104.93000031 144.63299561 197.50000000 -0.000978 -0.000978 -0.999999 0.000000
152.43200684 114.85500336 67.50000000 -0.000978 -0.000978 0.999999 0.000000
56.71870041 182.20899963 142.50000000 0.677430 0.677430 0.286667 0.000000
66.29000092 185.75399780 20.00000000 0.888683 0.014612 0.458289 0.000000
148.17799377 247.43499756 152.50000000 -0.693064 -0.720842 0.006945 0.000000
170.15600586 178.30900574 175.00000000 0.258249 -0.701868 -0.663844 0.000000
68.77140045 185.75399780 17.50000000 0.549131 0.348269 0.759713 0.000000
77.27929688 219.07600403 197.50000000 -0.000978 -0.000978 -0.999999 0.000000
68.06250000 192.13499451 197.50000000 0.932199 -0.053755 -0.357933 0.000000
159.52099609 168.02900696 192.50000000 -0.000978 -0.000978 -0.999999 0.000000
97.13079834 246.01699829 112.50000000 -0.990125 0.001104 0.140185 0.000000
114.85500336 236.80099487 127.50000000 -0.639822 0.123214 0.758582 0.000000
109.89299774 131.16200256 62.50000000 0.000978 0.000978 0.999999 0.000000
202.76899719 145.34199524 177.50000000 0.703673 0.703673 0.098426 0.000000
95.71279907 242.47300720 107.50000000 0.000978 0.000978 0.999999 0.000000
89.68650055 248.85299683 100.00000000 -0.275027 -0.936768 -0.216392 0.000000
150.30499268 109.89299774 147.50000000 0.188856 0.760030 -0.621843 0.000000
124.78099823 254.52499390 177.50000000 0.000000 0.000000 0.000000 0.000000
115.56400299 216.94900513 107.50000000 -0.874947 -0.202822 0.439694 0.000000
150.30499268 216.94900513 132.50000000 0.000978 0.000978 0.999999 0.000000
137.54299927 209.85899353 197.50000000 -0.037012 -0.322895 -0.945711 0.000000
153.85000610 185.04499817 177.50000000 -0.705342 0.468561 0.531925 0.000000
127.97200012 139.66999817 75.00000000 0.552306 -0.592842 0.586086 0.000000
129.74400330 119.81800079 147.50000000 -0.000978 -0.000978 -0.999999 0.000000
120.88200378 261.61499023 170.00000000 0.045978 -0.926130 -0.374393 0.000000
77.98819733 186.46299744 207.50000000 -0.000978 -0.000978 -0.999999 0.000000
227.58399963 134.70700073 112.50000000 -0.165036 -0.767644 0.619263 0.000000
58.84569931 219.07600403 147.50000000 0.961293 -0.256087 0.101663 0.000000
214.11300659 172.28300476 172.50000000 -0.000978 -0.000978 -0.999999 0.000000
135.41600037 182.20899963 112.50000000 -0.304368 0.952535 -0.006161 0.000000
141.08799744 187.17199707 177.50000000 0.000978 0.000978 0.999999 0.000000
68.77140045 164.83900452 40.00000000 0.899114 0.429531 0.084249 0.000000
92.87689972 238.92799377 107.50000000 -0.774104 0.618985 -0.132746 0.000000
87.20500183 134.70700073 107.50000000 0.600467 0.797294 -0.061330 0.000000
234.67399597 149.59599304 142.50000000 0.582508 0.649655 -0.488501 0.000000
84.36910248 248.85299683 92.50000000 -0.000978 -0.000978 -0.999999 0.000000
176.53700256 124.07199860 172.50000000 -0.000978 -0.000978 -0.999999 0.000000
133.99800110 145.34199524 197.50000000 0.105868 0.882231 -0.458760 0.000000
235.38299561 122.65399933 102.50000000 -0.390425 -0.749813 0.534180 0.000000
233.25599670 150.30499268 172.50000000 -0.000978 -0.000978 -0.999999 0.000000
204.89599609 125.13600159 80.00000000 -0.527667 -0.847888 -0.051514 0.000000
199.57899475 155.97599792 110.00000000 0.474850 -0.531499 0.701446 0.000000
160.93899536 104.57499695 145.00000000 0.309337 0.801104 -0.512389 0.000000
253.10699463 129.74400330 142.50000000 -0.346055 0.166723 -0.923282 0.000000
211.98599243 172.28300476 147.50000000 0.001104 -0.990125 0.140185 0.000000
144.63299561 221.91200256 187.50000000 -0.000978 -0.000978 -0.999999 0.000000
60.97259903 173.70100403 142.50000000 0.993988 0.106538 0.025262 0.000000
220.49400330 172.99200439 152.50000000 -0.138531 -0.503087 0.853061 0.000000
68.06250000 188.58999634 17.50000000 0.349193 0.148859 0.925152 0.000000
185.04499817 143.92399597 97.50000000 0.000978 0.000978 0.999999 0.000000
85.78710175 135.06100464 140.00000000 0.671016 0.741060 -0.023815 0.000000
136.12500000 201.35099792 202.50000000 -0.000978 -0.000978 -0.999999 0.000000
93.58589935 131.87100220 177.50000000 0.463409 0.838476 -0.286725 0.000000
85.78710175 232.19200134 75.00000000 -0.955676 -0.221159 0.194352 0.000000
86.85050201 133.28900146 145.00000000 0.703673 0.703673 0.098426 0.000000
80.82420349 245.30799866 72.50000000 0.000978 0.000978 -0.999999 0.000000
181.50000000 140.37899780 87.50000000 -0.086814 -0.283766 0.954956 0.000000
123.36299896 185.75399780 212.50000000 -0.559546 -0.183483 -0.808234 0.000000
75.15229797 148.17799377 62.50000000 0.446689 0.894688 -0.001310 0.000000
216.94900513 171.22000122 145.00000000 -0.289159 -0.861357 0.417674 0.000000
87.91400146 155.97599792 207.50000000 -0.000978 -0.000978 -0.999999 0.000000
163.06599426 172.28300476 117.50000000 0.000978 0.000978 0.999999 0.000000
84.36910248 151.01400757 202.50000000 0.431364 0.036058 -0.901457 0.000000
91.45890045 238.21899414 192.50000000 -0.000978 -0.000978 -0.999999 0.000000
199.22500610 126.90799713 172.50000000 -0.000978 -0.000978 -0.999999 0.000000
102.09400177 264.80599976 145.00000000 0.000978 0.000978 -0.999999 0.000000
137.54299927 213.75900269 115.00000000 -0.001349 -0.538096 0.842882 0.000000
121.94499969 247.43499756 187.50000000 -0.000978 -0.000978 -0.999999 0.000000
168.02900696 153.14100647 187.50000000 -0.000978 -0.000978 -0.999999 0.000000
131.16200256 136.12500000 72.50000000 -0.122718 -0.427396 0.895697 0.000000
100.67600250 145.34199524 202.50000000 0.000978 0.000978 -0.999999 0.000000
95.00389862 155.97599792 32.50000000 -0.656013 -0.656013 -0.373221 0.000000
61.68159866 226.87500000 172.50000000 0.877116 -0.397042 -0.270230 0.000000
60.26359940 172.28300476 127.50000000 0.836822 0.525791 -0.152553 0.000000
107.05699921 125.48999786 57.50000000 0.167076 0.313439 0.934795 0.000000
129.74400330 129.38999939 65.00000000 0.082721 -0.759006 0.645808 0.000000
179.37300110 100.32099915 140.00000000 0.084829 0.925037 -0.370284 0.000000
121.94499969 207.73199463 102.50000000 -0.510298 -0.377458 0.772736 0.000000
175.82800293 133.28900146 172.50000000 -0.286906 0.272489 -0.918387 0.000000
114.14600372 151.72300720 202.50000000 -0.000978 -0.000978 -0.999999 0.000000
153.14100647 204.18699646 122.50000000 -0.961751 -0.001207 0.273924 0.000000
162.35699463 101.02999878 135.00000000 0.010576 0.976545 -0.215052 0.000000
70.89839935 149.24099731 95.00000000 0.777568 0.625777 -0.061575 0.000000
131.16200256 135.41600037 182.50000000 -0.000978 -0.000978 -0.999999 0.000000
126.19899750 179.37300110 92.50000000 0.000978 0.000978 0.999999 0.000000
131.87100220 177.95500183 207.50000000 -0.000978 -0.000978 -0.999999 0.000000
90.04100037 226.16600037 202.50000000 0.373394 -0.613551 -0.695796 0.000000
103.51200104 156.68499756 207.50000000 0.216910 0.450274 -0.866143 0.000000
126.19899750 178.66400146 92.50000000 -0.690905 0.658695 -0.297943 0.000000
140.37899780 146.75999451 82.50000000 -0.379898 -0.430763 0.818609 0.000000
73.02539825 190.71699524 17.50000000 -0.000978 -0.000978 0.999999 0.000000
129.03500366 112.37400055 130.00000000 0.312114 0.933568 -0.176171 0.000000
138.25199890 191.42599487 202.50000000 -0.000978 -0.000978 -0.999999 0.000000
73.02539825 209.85899353 197.50000000 -0.000978 -0.000978 -0.999999 0.000000
213.40400696 96.77629852 115.00000000 -0.179267 0.983040 -0.038665 0.000000
81.17870331 135.41600037 170.00000000 0.787394 0.610484 -0.085555 0.000000
124.78099823 160.93899536 97.50000000 0.000978 0.000978 0.999999 0.000000
160.93899536 129.03500366 82.50000000 0.000978 0.000978 0.999999 0.000000
128.32600403 157.74899292 115.00000000 -0.726707 -0.511509 0.458537 0.000000
98.54879761 263.38800049 145.00000000 0.000978 0.000978 -0.999999 0.000000
171.57400513 112.72799683 62.50000000 0.132920 -0.766157 0.628757 0.000000
215.53100586 119.10900116 167.50000000 -0.346869 0.281366 -0.894715 0.000000
146.40499878 248.85299683 170.00000000 -0.710526 -0.585236 -0.390707 0.000000
150.30499268 247.78999329 160.00000000 -0.805496 -0.586471 0.085017 0.000000
241.05499268 136.12500000 167.50000000 -0.193097 0.105892 -0.975449 0.000000
241.05499268 109.18399811 132.50000000 -0.579595 0.579595 -0.572835 0.000000
149.94999695 103.51200104 130.00000000 0.284968 0.933515 -0.217586 0.000000
244.59899902 134.70700073 137.50000000 -0.406185 -0.605132 0.684711 0.000000
188.58999634 165.19299316 117.50000000 0.000978 0.000978 0.999999 0.000000
131.16200256 165.19299316 117.50000000 0.000978 0.000978 0.999999 0.000000
96.42179871 151.72300720 202.50000000 -0.000978 -0.000978 -0.999999 0.000000
106.34799957 158.81199646 212.50000000 -0.099701 0.381050 -0.919163 0.000000
186.46299744 148.17799377 182.50000000 -0.149466 0.134643 -0.979557 0.000000
185.75399780 175.11900330 177.50000000 -0.000978 -0.000978 -0.999999 0.000000
86.49600220 250.27099609 182.50000000 0.341072 -0.638083 -0.690304 0.000000
70.18939972 192.13499451 17.50000000 0.000978 0.000978 0.999999 0.000000
86.49600220 163.77499390 207.50000000 -0.000978 -0.000978 -0.999999 0.000000
107.76599884 244.59899902 192.50000000 -0.702185 0.705130 -0.098630 0.000000
56.00970078 187.88099670 172.50000000 0.980484 -0.139015 0.139015 0.000000
150.30499268 101.02999878 115.00000000 0.194710 0.971003 -0.138715 0.000000
197.09800720 153.14100647 177.50000000 -0.326394 -0.072095 -0.942480 0.000000
120.52700043 143.92399597 77.50000000 -0.503343 -0.207081 0.838906 0.000000
65.93550110 192.84399414 17.50000000 0.000978 0.000978 0.999999 0.000000
139.66999817 134.70700073 77.50000000 0.000978 0.000978 0.999999 0.000000
156.68499756 202.76899719 172.50000000 -0.792064 0.475884 0.382320 0.000000
155.97599792 187.88099670 187.50000000 -0.000978 -0.000978 -0.999999 0.000000
113.43699646 116.62799835 70.00000000 0.430295 0.900203 0.066935 0.000000
162.35699463 160.93899536 117.50000000 0.000978 0.000978 0.999999 0.000000
224.74800110 141.44200134 120.00000000 0.149294 0.462378 -0.874024 0.000000
91.45890045 222.62100220 82.50000000 -0.721553 -0.240518 0.649240 0.000000
180.08200073 121.94499969 172.50000000 0.000978 0.000978 -0.999999 0.000000
118.40000153 122.65399933 57.50000000 -0.000978 -0.000978 0.999999 0.000000
99.25779724 125.13600159 165.00000000 0.111053 0.992750 0.045992 0.000000
242.11799622 107.76599884 95.00000000 -0.839391 -0.075275 0.538290 0.000000
243.89100647 132.58000183 137.50000000 -0.569287 -0.367019 0.735669 0.000000
109.18399811 131.87100220 62.50000000 0.000978 0.000978 0.999999 0.000000
91.45890045 130.09899902 125.00000000 0.549806 0.826897 0.118128 0.000000
186.46299744 185.75399780 172.50000000 0.939149 0.318471 0.128743 0.000000
63.80860138 219.78500366 57.50000000 0.947732 -0.315911 0.044765 0.000000
97.83979797 162.71200562 150.00000000 0.800717 0.592964 0.085121 0.000000
109.89299774 151.72300720 202.50000000 -0.000978 -0.000978 -0.999999 0.000000
136.12500000 181.50000000 207.50000000 -0.968727 0.110458 0.222185 0.000000
131.16200256 215.53100586 197.50000000 -0.000978 -0.000978 -0.999999 0.000000
70.18939972 163.06599426 192.50000000 0.746315 0.383772 -0.543814 0.000000
200.64199829 134.70700073 92.50000000 -0.322351 -0.457582 0.828679 0.000000
95.71279907 172.99200439 42.50000000 -0.000978 -0.000978 -0.999999 0.000000
231.83799744 109.89299774 142.50000000 -0.282624 0.819765 -0.498105 0.000000
93.58589935 251.68899536 107.50000000 0.000978 0.000978 0.999999 0.000000
119.81800079 176.53700256 212.50000000 -0.000978 -0.000978 -0.999999 0.000000
138.60600281 255.94299316 165.00000000 -0.476420 -0.847815 -0.232883 0.000000
198.51600647 155.26800537 177.50000000 0.032007 -0.571954 -0.819661 0.000000
221.20300293 106.34799957 147.50000000 -0.182228 0.922439 -0.340441 0.000000
120.52700043 125.48999786 172.50000000 -0.000978 -0.000978 -0.999999 0.000000
114.85500336 262.32400513 167.50000000 -0.154691 -0.923966 -0.349797 0.000000
238.21899414 120.52700043 112.50000000 -0.705318 0.032510 0.708145 0.000000
121.23600006 154.55900574 87.50000000 -0.553359 -0.650911 0.519720 0.000000
136.83399963 202.76899719 97.50000000 0.081686 -0.291736 0.953004 0.000000
133.99800110 229.71099854 192.50000000 -0.000978 -0.000978 -0.999999 0.000000
101.38500214 203.47799683 62.50000000 -0.928044 -0.371477 -0.027181 0.000000
102.80300140 250.27099609 117.50000000 0.000978 0.000978 0.999999 0.000000
86.49600220 219.43099976 50.00000000 -0.845994 -0.469657 -0.252421 0.000000
104.93000031 262.32400513 122.50000000 -0.329467 -0.919940 0.212513 0.000000
158.10299683 130.45300293 177.50000000 -0.000978 -0.000978 -0.999999 0.000000
225.10200500 99.96669769 120.00000000 -0.397934 0.917205 -0.019571 0.000000
87.20500183 130.45300293 167.50000000 0.370010 0.908469 -0.194363 0.000000
214.11300659 158.81199646 132.50000000 0.445735 -0.892841 0.064460 0.000000
97.13079834 163.77499390 212.50000000 -0.000978 -0.000978 -0.999999 0.000000
136.12500000 213.75900269 115.00000000 0.001349 -0.538096 0.842882 0.000000
73.02539825 149.24099731 65.00000000 0.767772 0.603360 0.215597 0.000000
177.24600220 167.32000732 182.50000000 -0.000978 -0.000978 -0.999999 0.000000
109.89299774 235.38299561 197.50000000 -0.392807 -0.103370 -0.913793 0.000000
58.13669968 213.40400696 132.50000000 0.970853 -0.239437 -0.010721 0.000000
180.08200073 137.54299927 87.50000000 0.000978 0.000978 0.999999 0.000000
63.80860138 181.50000000 187.50000000 0.887025 -0.176240 -0.426762 0.000000
86.14160156 226.87500000 70.00000000 -0.883270 -0.464371 0.064764 0.000000
108.47499847 135.41600037 62.50000000 -0.395266 -0.266016 0.879204 0.000000
206.31399536 134.70700073 172.50000000 -0.000978 -0.000978 -0.999999 0.000000
172.28300476 177.60000610 135.00000000 0.194710 -0.971003 0.138715 0.000000
219.78500366 118.40000153 162.50000000 -0.745981 0.370542 -0.553364 0.000000
124.78099823 207.37800598 205.00000000 -0.614082 -0.788330 -0.037941 0.000000
246.01699829 118.40000153 142.50000000 -0.000978 -0.000978 -0.999999 0.000000
97.13079834 258.07000732 112.50000000 0.048360 0.359435 0.931916 0.000000
155.26800537 211.98599243 182.50000000 -0.232489 -0.168720 -0.957853 0.000000
249.56199646 138.25199890 147.50000000 0.312566 0.940403 -0.133957 0.000000
156.33099365 211.27699280 150.00000000 -0.951277 0.190797 0.242217 0.000000
106.34799957 168.02900696 212.50000000 -0.000978 -0.000978 -0.999999 0.000000
211.27699280 146.75999451 177.50000000 -0.000978 -0.000978 -0.999999 0.000000
219.07600403 170.15600586 152.50000000 -0.138531 -0.503087 0.853061 0.000000
69.83489990 230.41999817 85.00000000 0.811391 -0.578744 0.081857 0.000000
87.20500183 224.39300537 75.00000000 -0.875140 -0.369842 0.312006 0.000000
134.70700073 245.30799866 182.50000000 -0.809401 -0.451796 -0.375166 0.000000
247.78999329 131.87100220 160.00000000 -0.410177 0.875945 -0.253919 0.000000
129.74400330 255.94299316 177.50000000 0.245672 -0.911458 -0.329985 0.000000
221.91200256 161.64799500 132.50000000 -0.000978 -0.000978 -0.999999 0.000000
187.88099670 103.51200104 152.50000000 -0.336592 0.697574 -0.632532 0.000000
172.28300476 99.96669769 72.50000000 0.301778 0.905333 0.298834 0.000000
201.35099792 102.80300140 67.50000000 -0.651693 0.244582 0.717967 0.000000
200.64199829 158.81199646 117.50000000 -0.410173 -0.462052 0.786299 0.000000
66.64450073 230.41999817 182.50000000 0.847091 -0.435160 -0.305077 0.000000
206.31399536 109.18399811 157.50000000 -0.216088 0.534857 -0.816844 0.000000
144.63299561 202.05999756 197.50000000 -0.374344 -0.147214 -0.915530 0.000000
81.53320313 239.99099731 65.00000000 -0.717088 -0.589096 0.372492 0.000000
131.16200256 124.07199860 57.50000000 0.000978 0.000978 0.999999 0.000000
82.24210358 202.76899719 202.50000000 0.253271 -0.371760 -0.893112 0.000000
238.21899414 142.15100098 140.00000000 0.570383 0.284397 -0.770573 0.000000
97.13079834 165.19299316 212.50000000 -0.000978 -0.000978 -0.999999 0.000000
169.44700623 141.44200134 85.00000000 -0.778054 -0.417453 0.469431 0.000000
97.13079834 256.65200806 177.50000000 -0.000978 -0.000978 -0.999999 0.000000
140.37899780 152.43200684 117.50000000 -0.228387 -0.384575 0.894394 0.000000
94.29489899 136.83399963 187.50000000 0.140096 0.939870 -0.311476 0.000000
62.03609848 168.73800659 125.00000000 0.831636 0.531117 -0.162162 0.000000
226.16600037 128.32600403 167.50000000 0.000978 0.000978 -0.999999 0.000000
87.20500183 219.78500366 57.50000000 -0.773241 -0.541751 0.329552 0.000000
218.36700439 98.90329742 100.00000000 -0.252695 0.963798 0.085078 0.000000
65.93550110 197.09800720 17.50000000 0.000978 0.000978 0.999999 0.000000
190.71699524 131.16200256 172.50000000 -0.000978 -0.000978 -0.999999 0.000000
94.29489899 239.63699341 192.50000000 -0.000978 -0.000978 -0.999999 0.000000
161.64799500 130.45300293 82.50000000 0.000978 0.000978 0.999999 0.000000
102.80300140 235.38299561 197.50000000 -0.000978 -0.000978 -0.999999 0.000000
68.77140045 197.09800720 17.50000000 0.000978 0.000978 0.999999 0.000000
75.15229797 211.98599243 202.50000000 0.000978 0.000978 -0.999999 0.000000
98.54879761 185.75399780 212.50000000 -0.000978 -0.000978 -0.999999 0.000000
141.08799744 225.45700073 137.50000000 -0.000978 -0.000978 0.999999 0.000000
71.60739899 197.09800720 17.50000000 0.000978 0.000978 0.999999 0.000000
240.34599304 112.72799683 142.50000000 -0.432884 0.867276 -0.245854 0.000000
159.52099609 146.75999451 187.50000000 -0.560297 0.084546 -0.823966 0.000000
153.85000610 180.43600464 120.00000000 -0.434027 -0.526444 0.731080 0.000000
231.12899780 174.41000366 162.50000000 -0.244582 -0.651693 -0.717967 0.000000
109.89299774 195.67999268 212.50000000 -0.000978 -0.000978 -0.999999 0.000000
226.87500000 101.38500214 92.50000000 -0.677430 0.677430 0.286667 0.000000
146.05099487 176.18299866 200.00000000 -0.867758 0.430106 -0.249009 0.000000
146.05099487 192.13499451 102.50000000 -0.833854 -0.165577 0.526566 0.000000
86.49600220 255.94299316 132.50000000 0.308752 -0.683780 0.661149 0.000000
125.48999786 141.08799744 192.50000000 -0.869469 -0.001331 -0.493986 0.000000
114.14600372 170.15600586 212.50000000 -0.000978 -0.000978 -0.999999 0.000000
61.32709885 167.32000732 115.00000000 0.892054 0.355928 0.278488 0.000000
84.72360229 254.52499390 135.00000000 0.506719 -0.135807 0.851347 0.000000
218.36700439 119.46399689 165.00000000 -0.442581 0.751894 -0.488649 0.000000
203.47799683 144.98699951 175.00000000 0.110591 0.900123 -0.421364 0.000000
250.97999573 114.14600372 132.50000000 -0.339875 0.873310 -0.349019 0.000000
85.43260193 197.09800720 35.00000000 -0.798118 0.407927 0.443399 0.000000
170.15600586 183.62699890 142.50000000 0.175680 -0.753134 0.633977 0.000000
230.41999817 147.82299805 130.00000000 0.572459 0.774318 -0.269671 0.000000
158.81199646 187.88099670 192.50000000 -0.639942 0.768209 -0.018125 0.000000
139.66999817 233.96499634 137.50000000 0.000978 0.000978 0.999999 0.000000
97.83979797 207.73199463 67.50000000 -0.730157 -0.587052 0.349630 0.000000
109.89299774 229.00199890 197.50000000 -0.000978 -0.000978 -0.999999 0.000000
119.10900116 144.63299561 77.50000000 -0.540383 -0.159286 0.826205 0.000000
154.55900574 204.89599609 157.50000000 0.001104 0.990125 0.140185 0.000000
193.19799805 134.70700073 85.00000000 0.581311 -0.775604 -0.246000 0.000000
