93.49800110 159.29299927 304.00000000 -0.816926 -0.418814 -0.396519 0.000000
176.99200439 120.81600189 430.00000000 -0.258621 -0.454499 0.852377 0.000000
183.14799500 144.67199707 430.00000000 0.000978 0.000978 0.999999 0.000000
136.20700073 197.76899719 306.00000000 -0.000978 -0.000978 -0.999999 0.000000
144.67199707 227.78100586 394.00000000 0.163573 0.345322 0.924120 0.000000
111.58200073 122.35500336 354.00000000 0.933603 -0.234454 0.270955 0.000000
157.75399780 113.89099884 418.00000000 -0.000978 -0.000978 0.999999 0.000000
88.49610138 203.92599487 314.00000000 -0.826701 0.168928 -0.536683 0.000000
76.56829834 188.53500366 328.00000000 -0.606344 -0.485411 -0.629859 0.000000
191.61300659 119.27700043 426.00000000 0.000978 0.000978 0.999999 0.000000
209.31199646 162.37100220 426.00000000 -0.296990 0.779798 0.551100 0.000000
238.55499268 141.97799683 424.00000000 0.473828 -0.577635 0.664699 0.000000
99.26950073 145.44099426 310.00000000 0.422217 -0.845993 -0.325621 0.000000
144.67199707 214.69900513 406.00000000 -0.060246 0.522598 0.850448 0.000000
131.58999634 119.27700043 418.00000000 0.000978 0.000978 0.999999 0.000000
84.64839935 217.77699280 326.00000000 -0.800185 0.532933 -0.275113 0.000000
182.37899780 141.59399414 374.00000000 0.684371 -0.015332 -0.728973 0.000000
162.37100220 110.04299927 418.00000000 -0.325291 -0.616596 0.716935 0.000000
109.27300262 126.97299957 418.00000000 -0.360628 -0.212901 0.908086 0.000000
156.98399353 186.22700500 426.00000000 -0.435907 0.538668 0.720987 0.000000
122.35500336 115.43000031 414.00000000 -0.328248 -0.786194 0.523596 0.000000
157.75399780 180.07000732 322.00000000 0.794533 -0.272187 -0.542800 0.000000
105.42600250 160.44700623 304.00000000 -0.224060 -0.449623 -0.864660 0.000000
88.49610138 164.67999268 314.00000000 -0.932453 -0.246867 -0.263795 0.000000
86.18750000 142.36300659 326.00000000 -0.881057 0.441257 -0.170386 0.000000
152.36700439 186.99600220 422.00000000 -0.049498 0.606705 0.793384 0.000000
161.60200500 186.22700500 418.00000000 0.574218 0.516965 0.634839 0.000000
205.46499634 110.81199646 426.00000000 0.182346 -0.427419 0.885473 0.000000
90.03510284 237.01600647 330.00000000 0.076189 0.362231 -0.928969 0.000000
103.50199890 108.50399780 384.00000000 -0.700772 -0.700772 -0.133552 0.000000
168.52699280 163.14100647 434.00000000 0.000978 0.000978 0.999999 0.000000
127.74199677 254.71499634 330.00000000 0.236363 0.334969 -0.912101 0.000000
230.08999634 158.52299500 410.00000000 0.444469 0.019902 -0.895573 0.000000
105.42600250 258.56201172 350.00000000 0.000000 0.000000 0.000000 0.000000
101.57800293 237.01600647 394.00000000 -0.051022 0.495047 0.867367 0.000000
130.82000732 140.82400513 366.00000000 0.000978 0.000978 -0.999999 0.000000
160.83200073 94.26750183 396.00000000 0.001143 -0.982047 0.188635 0.000000
159.29299927 178.53100586 430.00000000 0.000978 0.000978 0.999999 0.000000
155.44500732 97.73040009 402.00000000 0.446159 -0.890929 -0.084784 0.000000
114.66000366 143.13299561 426.00000000 -0.251271 -0.048274 0.966712 0.000000
103.11699677 257.79299927 366.00000000 0.001143 0.982047 0.188635 0.000000
100.80899811 140.05499268 418.00000000 -0.403966 -0.193962 0.893975 0.000000
131.58999634 115.43000031 414.00000000 -0.128881 -0.789579 0.599962 0.000000
147.75000000 220.08599854 322.00000000 0.460892 0.255711 -0.849818 0.000000
220.08599854 136.97700500 406.00000000 -0.000978 -0.000978 -0.999999 0.000000
233.16799927 125.43399811 422.00000000 0.868862 -0.395493 -0.297765 0.000000
116.19899750 197.00000000 418.00000000 0.000978 0.000978 0.999999 0.000000
139.28500366 170.06599426 318.00000000 -0.020842 -0.787832 -0.615537 0.000000
105.42600250 191.61300659 418.00000000 -0.000978 -0.000978 0.999999 0.000000
122.35500336 213.16000366 410.00000000 0.078281 0.174626 0.981518 0.000000
85.41790009 194.69099426 410.00000000 0.000978 0.000978 0.999999 0.000000
75.02929688 160.06199646 340.00000000 -0.709693 0.176274 -0.682102 0.000000
229.32000732 150.82800293 426.00000000 -0.000978 -0.000978 0.999999 0.000000
117.73799896 175.45300293 422.00000000 0.854839 -0.283923 -0.434326 0.000000
71.56639862 198.53900146 338.00000000 -0.411385 0.821182 -0.395502 0.000000
106.19499969 163.91000366 302.00000000 0.186609 -0.324110 -0.927432 0.000000
179.30099487 97.34570313 412.00000000 -0.033097 -0.909505 0.414374 0.000000
201.61700439 141.59399414 426.00000000 0.000978 0.000978 0.999999 0.000000
157.75399780 118.50800323 422.00000000 0.000978 0.000978 0.999999 0.000000
86.18750000 163.14100647 318.00000000 -0.845993 0.422217 -0.325621 0.000000
155.44500732 173.91400146 326.00000000 0.189138 -0.948410 -0.254451 0.000000
123.12500000 251.25199890 324.00000000 -0.184012 0.573325 -0.798397 0.000000
150.05900574 120.04699707 422.00000000 -0.050743 -0.251240 0.966594 0.000000
104.65599823 164.67999268 302.00000000 -0.000978 -0.000978 -0.999999 0.000000
186.99600220 99.26950073 414.00000000 0.101495 -0.681045 0.725173 0.000000
230.85899353 158.52299500 426.00000000 0.245848 0.577820 0.778256 0.000000
154.67599487 230.85899353 326.00000000 0.246698 -0.114953 -0.962250 0.000000
124.66400146 224.70300293 306.00000000 -0.000978 -0.000978 -0.999999 0.000000
145.44099426 137.74600220 430.00000000 0.000978 0.000978 0.999999 0.000000
87.72650146 221.62500000 402.00000000 -0.000978 -0.000978 0.999999 0.000000
111.96700287 163.91000366 308.00000000 0.986801 -0.076633 -0.142656 0.000000
190.07400513 140.05499268 430.00000000 0.243199 0.109375 0.963790 0.000000
220.85499573 151.59800720 426.00000000 0.000978 0.000978 0.999999 0.000000
116.19899750 108.50399780 354.00000000 -0.992976 0.041421 -0.110828 0.000000
74.64450073 138.13099670 380.00000000 0.000978 0.000978 0.999999 0.000000
233.93699646 166.98800659 422.00000000 0.297281 0.692583 0.657231 0.000000
153.13699341 240.86300659 382.00000000 0.174708 0.913313 0.367882 0.000000
185.45700073 147.75000000 374.00000000 0.572396 -0.207168 -0.793375 0.000000
71.56639862 180.07000732 398.00000000 -0.310395 -0.389905 0.866965 0.000000
166.21899414 136.97700500 370.00000000 -0.000978 -0.000978 -0.999999 0.000000
92.34369659 166.21899414 302.00000000 -0.933557 -0.310258 -0.179477 0.000000
91.95899963 166.21899414 304.00000000 -0.922103 -0.200334 -0.331048 0.000000
111.58200073 227.78100586 302.00000000 -0.001381 0.719425 -0.694569 0.000000
166.21899414 194.69099426 378.00000000 0.993570 -0.012023 0.112583 0.000000
111.58200073 159.29299927 426.00000000 0.000978 0.000978 0.999999 0.000000
117.73799896 143.13299561 330.00000000 -0.000978 -0.000978 -0.999999 0.000000
220.08599854 141.59399414 406.00000000 -0.000978 -0.000978 -0.999999 0.000000
100.80899811 230.08999634 318.00000000 -0.580815 0.813695 0.023565 0.000000
98.50000000 255.48399353 370.00000000 -0.307473 0.880009 0.362000 0.000000
155.44500732 180.83999634 318.00000000 -0.000978 -0.000978 -0.999999 0.000000
70.02729797 174.29899597 340.00000000 -0.862835 -0.214583 -0.457678 0.000000
192.76800537 160.06199646 384.00000000 0.632735 0.162356 -0.757157 0.000000
65.02539825 212.39100647 380.00000000 -0.907150 0.303360 0.291636 0.000000
96.19139862 207.77299500 410.00000000 -0.273438 0.317305 0.908047 0.000000
123.12500000 245.47999573 318.00000000 -0.000978 -0.000978 -0.999999 0.000000
106.19499969 166.98800659 302.00000000 0.725953 -0.318514 -0.609542 0.000000
146.97999573 111.58200073 414.00000000 -0.000978 -0.000978 0.999999 0.000000
191.99800110 132.35899353 384.00000000 0.619912 -0.138920 -0.772276 0.000000
75.02929688 220.85499573 392.00000000 -0.531052 0.507599 0.678474 0.000000
77.72260284 195.46099854 326.00000000 -0.827735 0.127457 -0.546452 0.000000
111.58200073 243.94099426 318.00000000 -0.329892 0.625657 -0.706912 0.000000
70.02729797 214.31399536 348.00000000 -0.947649 0.205892 -0.244071 0.000000
136.20700073 193.92199707 306.00000000 -0.000978 -0.000978 -0.999999 0.000000
204.30999756 146.97999573 392.00000000 0.472577 0.260148 -0.842018 0.000000
109.27300262 105.81099701 384.00000000 -0.441257 -0.881057 0.170386 0.000000
72.33589935 200.07800293 398.00000000 -0.886715 0.314641 0.338728 0.000000
208.54299927 155.44500732 398.00000000 0.509962 0.298399 -0.806782 0.000000
96.19139862 247.01899719 382.00000000 0.620587 0.620587 0.479315 0.000000
96.19139862 150.05900574 418.00000000 -0.733897 -0.237299 0.636463 0.000000
64.64060211 178.53100586 386.00000000 -0.988966 -0.131320 0.068565 0.000000
99.26950073 173.14399719 418.00000000 -0.000978 -0.000978 0.999999 0.000000
174.68400574 108.50399780 422.00000000 0.000978 0.000978 0.999999 0.000000
91.95899963 144.67199707 312.00000000 -0.522301 -0.208616 -0.826850 0.000000
230.08999634 160.83200073 410.00000000 0.444469 0.019902 -0.895573 0.000000
179.30099487 112.73600006 424.00000000 -0.223434 -0.673428 0.704678 0.000000
212.39100647 119.27700043 426.00000000 0.000978 0.000978 0.999999 0.000000
106.96499634 168.52699280 302.00000000 0.753498 -0.531208 -0.387373 0.000000
69.25779724 155.44500732 358.00000000 -0.933557 -0.310258 -0.179477 0.000000
173.14399719 180.07000732 374.00000000 0.116866 0.941644 -0.315672 0.000000
84.26360321 123.12500000 380.00000000 -0.746024 -0.560737 0.359197 0.000000
165.44900513 219.31599426 334.00000000 0.933019 -0.001263 -0.359825 0.000000
90.80470276 197.00000000 310.00000000 -0.922649 -0.154938 -0.353147 0.000000
106.96499634 122.35500336 338.00000000 0.557517 -0.713026 -0.425169 0.000000
210.08200073 114.66000366 410.00000000 0.748255 -0.448953 -0.488421 0.000000
134.66799927 242.40199280 386.00000000 -0.058565 0.781337 0.621356 0.000000
80.03119659 192.38299561 406.00000000 0.000978 0.000978 0.999999 0.000000
171.60499573 208.54299927 346.00000000 0.960442 -0.202129 0.191560 0.000000
137.74600220 257.79299927 362.00000000 0.006001 0.966118 0.258031 0.000000
113.12100220 151.59800720 426.00000000 -0.000978 -0.000978 0.999999 0.000000
120.81600189 252.40600586 326.00000000 -0.144398 0.579083 -0.802379 0.000000
165.06399536 197.00000000 404.00000000 0.576024 0.559132 0.596295 0.000000
64.64060211 210.85200500 362.00000000 -0.982047 0.001143 -0.188635 0.000000
153.90600586 149.28900146 366.00000000 -0.000978 -0.000978 -0.999999 0.000000
148.51899719 227.01199341 394.00000000 0.181075 0.507311 0.842525 0.000000
90.03510284 241.63299561 386.00000000 -0.349242 0.808520 0.473630 0.000000
204.69500732 136.97700500 394.00000000 0.929543 0.221454 -0.294802 0.000000
70.79689789 155.83000183 352.00000000 -0.922337 -0.230227 -0.310306 0.000000
83.87889862 193.92199707 410.00000000 0.000978 0.000978 0.999999 0.000000
124.66400146 116.19899750 414.00000000 0.286051 -0.263052 0.921400 0.000000
169.29699707 208.54299927 390.00000000 0.654738 0.654738 0.377670 0.000000
230.08999634 134.28300476 412.00000000 0.500262 -0.447429 -0.741313 0.000000
240.09399414 156.21499634 422.00000000 0.883974 0.408560 0.227308 0.000000
221.62500000 170.06599426 406.00000000 -0.000978 -0.000978 -0.999999 0.000000
83.10939789 178.53100586 322.00000000 -0.000978 -0.000978 -0.999999 0.000000
207.00399780 148.51899719 394.00000000 0.630108 0.488964 -0.603223 0.000000
169.29699707 183.91799927 346.00000000 0.609510 0.602756 0.514960 0.000000
120.81600189 137.74600220 426.00000000 0.000978 0.000978 0.999999 0.000000
192.76800537 177.76199341 372.00000000 0.700772 -0.700772 0.133552 0.000000
106.96499634 120.81600189 410.00000000 -0.395397 -0.496280 0.772895 0.000000
199.30900574 112.35199738 426.00000000 0.000978 0.000978 0.999999 0.000000
110.42800140 256.25399780 336.00000000 -0.469603 0.802972 -0.367027 0.000000
123.89399719 108.11900330 360.00000000 0.580892 0.270661 -0.767664 0.000000
99.26950073 124.66400146 410.00000000 -0.232478 -0.392399 0.889931 0.000000
167.75799561 93.88279724 390.00000000 -0.584042 -0.584042 -0.563728 0.000000
70.79689789 204.69500732 398.00000000 -0.851663 0.023240 0.523574 0.000000
115.43000031 131.58999634 354.00000000 0.933019 -0.001263 0.359825 0.000000
100.03900146 209.31199646 302.00000000 -0.881057 0.441257 -0.170386 0.000000
155.83000183 245.47999573 372.00000000 0.609218 0.662629 0.435633 0.000000
186.22700500 156.98399353 374.00000000 -0.000978 -0.000978 -0.999999 0.000000
113.89099884 258.56201172 334.00000000 -0.513877 0.598119 -0.614967 0.000000
98.50000000 232.39799500 398.00000000 0.263233 0.370311 0.890830 0.000000
153.90600586 208.54299927 402.00000000 0.239315 0.961183 -0.137312 0.000000
142.36300659 254.71499634 334.00000000 0.379228 0.723980 -0.576229 0.000000
198.53900146 150.05900574 426.00000000 0.000978 0.000978 0.999999 0.000000
187.76600647 129.28100586 382.00000000 0.304371 0.003697 -0.952546 0.000000
74.64450073 183.14799500 402.00000000 0.132977 0.978067 -0.160318 0.000000
230.08999634 142.36300659 426.00000000 0.000978 0.000978 0.999999 0.000000
166.21899414 94.26750183 400.00000000 -0.129446 -0.967641 0.216598 0.000000
78.49220276 196.22999573 406.00000000 0.000978 0.000978 0.999999 0.000000
183.14799500 142.74800110 376.00000000 0.655403 0.095305 -0.749242 0.000000
158.52299500 209.31199646 326.00000000 0.517524 0.184509 -0.835539 0.000000
171.60499573 181.60899353 378.00000000 0.071230 0.968481 -0.238684 0.000000
100.03900146 130.82000732 414.00000000 -0.509863 -0.513206 0.690405 0.000000
191.61300659 183.14799500 398.00000000 -0.792878 0.001369 0.609379 0.000000
126.20300293 260.87100220 334.00000000 -0.000978 -0.000978 -0.999999 0.000000
127.74199677 162.37100220 430.00000000 -0.700772 -0.700772 0.133552 0.000000
116.19899750 100.42400360 376.00000000 -0.544695 -0.838310 -0.023324 0.000000
170.83599854 201.61700439 350.00000000 0.749242 -0.303226 -0.588804 0.000000
179.68499756 110.81199646 376.00000000 0.543779 0.447329 -0.710072 0.000000
237.01600647 163.91000366 418.00000000 0.888895 0.394900 0.232207 0.000000
141.59399414 207.77299500 410.00000000 0.170514 0.150305 0.973824 0.000000
158.52299500 200.07800293 406.00000000 -0.079441 0.464102 0.882212 0.000000
93.88279724 116.96900177 394.00000000 -0.704018 -0.578123 0.412472 0.000000
154.67599487 161.60200500 350.00000000 0.649039 -0.652342 0.391405 0.000000
151.59800720 218.54699707 322.00000000 -0.000978 -0.000978 -0.999999 0.000000
146.97999573 127.74199677 366.00000000 -0.000978 -0.000978 -0.999999 0.000000
115.43000031 173.14399719 302.00000000 -0.000978 -0.000978 -0.999999 0.000000
107.73400116 180.07000732 422.00000000 0.000978 0.000978 0.999999 0.000000
137.74600220 122.35500336 362.00000000 -0.000978 -0.000978 -0.999999 0.000000
73.87500000 200.07800293 402.00000000 -0.917522 -0.182937 0.353111 0.000000
154.67599487 148.51899719 434.00000000 0.000978 0.000978 0.999999 0.000000
85.41790009 135.43699646 402.00000000 -0.827733 -0.274876 0.489185 0.000000
76.18360138 151.59800720 398.00000000 -0.769414 -0.201991 0.605972 0.000000
173.14399719 100.03900146 414.00000000 -0.000978 -0.000978 0.999999 0.000000
106.96499634 130.05099487 418.00000000 -0.380992 -0.362331 0.850624 0.000000
236.24600220 163.14100647 422.00000000 0.653921 0.380493 0.653921 0.000000
105.42600250 247.01899719 386.00000000 -0.197499 0.794590 0.574126 0.000000
106.96499634 143.90199280 422.00000000 -0.441257 -0.881057 0.170386 0.000000
147.75000000 117.73799896 370.00000000 0.332121 0.177972 -0.926295 0.000000
195.46099854 144.67199707 426.00000000 0.000978 0.000978 0.999999 0.000000
221.62500000 160.06199646 406.00000000 0.395502 -0.411385 -0.821182 0.000000
230.85899353 151.59800720 410.00000000 0.595236 -0.795118 -0.116108 0.000000
161.98599243 197.76899719 340.00000000 -0.000978 -0.000978 -0.999999 0.000000
222.39399719 166.98800659 422.00000000 0.000978 0.000978 0.999999 0.000000
239.32400513 155.44500732 426.00000000 0.522104 0.532177 0.666480 0.000000
168.14300537 181.60899353 348.00000000 0.802265 -0.559898 -0.207086 0.000000
123.89399719 190.07400513 422.00000000 0.133221 0.681074 0.719993 0.000000
104.65599823 118.89299774 408.00000000 -0.133264 -0.708247 0.693273 0.000000
160.83200073 146.21099854 370.00000000 -0.000978 -0.000978 -0.999999 0.000000
65.41010284 207.00399780 386.00000000 -0.795159 0.223880 0.563560 0.000000
187.38099670 173.14399719 384.00000000 0.777220 -0.454601 -0.435048 0.000000
154.67599487 157.75399780 434.00000000 0.000978 0.000978 0.999999 0.000000
86.18750000 188.53500366 414.00000000 -0.824833 0.166164 0.540408 0.000000
144.67199707 255.10000610 364.00000000 0.393232 0.867558 0.304487 0.000000
136.97700500 131.20500183 428.00000000 0.261854 -0.547227 0.794969 0.000000
106.96499634 150.82800293 426.00000000 -0.000978 -0.000978 0.999999 0.000000
128.51199341 195.46099854 418.00000000 0.000978 0.000978 0.999999 0.000000
170.83599854 210.08200073 382.00000000 0.953708 0.181084 0.240104 0.000000
223.16400146 161.60200500 406.00000000 0.723844 0.307916 -0.617444 0.000000
160.06199646 151.59800720 434.00000000 0.000978 0.000978 0.999999 0.000000
152.36700439 168.52699280 430.00000000 -0.127003 0.184846 0.974527 0.000000
210.08200073 165.44900513 422.00000000 -0.235614 0.154005 0.959567 0.000000
136.59199524 150.05900574 356.00000000 0.435961 -0.884958 -0.163667 0.000000
216.23800659 168.52699280 406.00000000 0.006156 0.299181 -0.954177 0.000000
90.03510284 203.92599487 314.00000000 -0.709495 0.311919 -0.631920 0.000000
139.28500366 115.43000031 414.00000000 -0.000978 -0.000978 0.999999 0.000000
177.37699890 180.83999634 372.00000000 -0.732889 0.535256 -0.419970 0.000000
116.19899750 133.51400757 344.00000000 0.799478 -0.594187 0.088188 0.000000
116.19899750 175.45300293 302.00000000 0.264454 -0.347189 -0.899736 0.000000
174.68400574 157.75399780 374.00000000 0.000978 0.000978 -0.999999 0.000000
88.49610138 156.98399353 314.00000000 -0.830152 -0.554839 0.054782 0.000000
119.27700043 175.45300293 302.00000000 -0.000978 -0.000978 -0.999999 0.000000
140.05499268 97.73040009 394.00000000 -0.236640 -0.882563 0.406306 0.000000
146.97999573 220.85499573 322.00000000 0.466962 0.097342 -0.878904 0.000000
156.21499634 230.08999634 386.00000000 0.000978 0.000978 0.999999 0.000000
170.83599854 106.96499634 370.00000000 -0.933557 0.310258 -0.179477 0.000000
139.28500366 123.89399719 362.00000000 -0.000978 -0.000978 -0.999999 0.000000
223.16400146 145.44099426 426.00000000 0.000978 0.000978 0.999999 0.000000
116.19899750 134.28300476 348.00000000 0.834710 -0.550553 -0.012295 0.000000
176.22300720 162.75599670 376.00000000 -0.329408 0.906239 -0.264991 0.000000
161.60200500 220.85499573 330.00000000 0.713341 0.301117 -0.632829 0.000000
80.03119659 203.15600586 326.00000000 -0.895562 0.237538 -0.376224 0.000000
150.05900574 221.62500000 398.00000000 0.592010 0.067047 0.803137 0.000000
75.02929688 176.99200439 404.00000000 -0.654738 -0.654738 0.377670 0.000000
165.44900513 183.91799927 410.00000000 0.767517 0.632504 -0.104194 0.000000
216.23800659 121.20099640 412.00000000 0.431909 -0.716539 -0.547747 0.000000
183.91799927 99.26950073 414.00000000 0.091906 -0.760045 0.643339 0.000000
145.44099426 181.99400330 424.00000000 0.085819 0.650185 0.754913 0.000000
198.15400696 151.59800720 388.00000000 0.929851 0.201163 -0.308075 0.000000
92.34369659 221.62500000 322.00000000 0.551924 0.827162 0.105749 0.000000
64.25579834 168.52699280 368.00000000 -0.935944 -0.117840 -0.331847 0.000000
171.22099304 201.61700439 376.00000000 0.880528 -0.473301 0.025620 0.000000
109.27300262 216.23800659 410.00000000 0.000978 0.000978 0.999999 0.000000
129.28100586 120.04699707 362.00000000 -0.000978 -0.000978 -0.999999 0.000000
239.32400513 143.13299561 426.00000000 0.331179 0.006249 0.943547 0.000000
185.45700073 160.06199646 378.00000000 0.690301 0.387161 -0.611221 0.000000
197.76899719 173.91400146 398.00000000 0.215846 0.746921 -0.628904 0.000000
96.19139862 208.54299927 410.00000000 -0.234551 0.348184 0.907609 0.000000
149.28900146 224.70300293 322.00000000 0.000978 0.000978 -0.999999 0.000000
130.05099487 243.17199707 318.00000000 -0.000978 -0.000978 -0.999999 0.000000
118.50800323 176.99200439 302.00000000 0.130240 -0.450831 -0.883057 0.000000
65.41010284 173.52900696 388.00000000 -0.873098 -0.088575 0.479431 0.000000
76.18360138 153.90600586 342.00000000 -0.303360 -0.907150 -0.291636 0.000000
207.00399780 113.89099884 426.00000000 0.000978 0.000978 0.999999 0.000000
147.75000000 176.22300720 318.00000000 0.663946 -0.559732 -0.495859 0.000000
183.14799500 115.43000031 378.00000000 -0.000978 -0.000978 -0.999999 0.000000
77.72260284 150.82800293 338.00000000 0.000978 0.000978 -0.999999 0.000000
169.29699707 143.13299561 370.00000000 -0.000978 -0.000978 -0.999999 0.000000
97.73040009 144.67199707 310.00000000 0.422217 -0.845993 -0.325621 0.000000
197.00000000 151.59800720 386.00000000 0.694787 0.322291 -0.642962 0.000000
150.05900574 256.25399780 350.00000000 0.503848 0.857827 -0.101341 0.000000
181.60899353 142.36300659 430.00000000 0.000978 0.000978 0.999999 0.000000
146.21099854 163.52499390 324.00000000 0.445127 -0.568495 -0.691864 0.000000
123.89399719 116.96900177 414.00000000 0.275294 -0.352674 0.894334 0.000000
211.62100220 111.58200073 426.00000000 0.319968 -0.441712 0.838160 0.000000
176.99200439 163.14100647 430.00000000 0.341642 0.001251 0.939829 0.000000
126.20300293 217.00799561 406.00000000 0.437283 0.249660 0.863975 0.000000
183.14799500 153.90600586 430.00000000 0.000978 0.000978 0.999999 0.000000
161.60200500 148.51899719 370.00000000 -0.000978 -0.000978 -0.999999 0.000000
121.58599854 180.07000732 422.00000000 -0.000978 -0.000978 -0.999999 0.000000
227.39599609 128.51199341 424.00000000 -0.020765 -0.593874 0.804290 0.000000
122.73999786 177.76199341 304.00000000 0.590706 -0.556854 -0.583935 0.000000
148.51899719 250.09800720 334.00000000 0.560626 0.654905 -0.506752 0.000000
88.88079834 183.91799927 308.00000000 -0.865851 0.001334 -0.500299 0.000000
199.30900574 110.81199646 426.00000000 0.000978 0.000978 0.999999 0.000000
96.19139862 115.43000031 350.00000000 -0.810732 -0.539975 -0.226143 0.000000
228.55099487 165.44900513 410.00000000 0.330793 0.091666 -0.939241 0.000000
166.60299683 193.15199280 344.00000000 0.683033 0.143241 0.716204 0.000000
121.58599854 141.59399414 426.00000000 0.000978 0.000978 0.999999 0.000000
82.33979797 214.69900513 326.00000000 -0.720596 0.385740 -0.576148 0.000000
116.96900177 255.10000610 328.00000000 0.392854 0.392854 -0.831463 0.000000
172.37500000 177.76199341 362.00000000 -0.247137 0.862705 0.441207 0.000000
143.13299561 237.78500366 386.00000000 0.272386 0.727955 0.629196 0.000000
166.21899414 234.70700073 370.00000000 0.742828 0.577755 0.338238 0.000000
109.27300262 233.16799927 398.00000000 -0.228536 0.270597 0.935173 0.000000
170.45100403 182.37899780 356.00000000 0.764999 0.457034 0.453758 0.000000
88.49610138 143.90199280 322.00000000 -0.815088 -0.239732 -0.527410 0.000000
180.83999634 181.99400330 380.00000000 -0.531911 0.836698 -0.130413 0.000000
205.46499634 151.59800720 426.00000000 0.000978 0.000978 0.999999 0.000000
132.35899353 253.17599487 326.00000000 0.914265 0.365422 -0.174890 0.000000
192.38299561 151.59800720 426.00000000 0.209693 0.706744 0.675678 0.000000
93.11329651 238.55499268 390.00000000 -0.206743 0.490449 0.846591 0.000000
179.30099487 181.60899353 386.00000000 -0.278240 0.526613 -0.803281 0.000000
176.22300720 118.50800323 426.00000000 0.087564 -0.299287 0.950137 0.000000
95.42179871 219.31599426 406.00000000 -0.457609 0.641993 0.615174 0.000000
110.04299927 122.35500336 342.00000000 0.584042 -0.584042 0.563728 0.000000
123.12500000 179.30099487 302.00000000 0.893563 -0.093399 -0.439114 0.000000
123.89399719 178.91600037 304.00000000 0.668598 -0.344925 -0.658790 0.000000
190.07400513 150.05900574 382.00000000 -0.000978 -0.000978 -0.999999 0.000000
90.03510284 163.14100647 310.00000000 -0.903966 -0.296406 -0.308204 0.000000
66.17970276 157.36900330 376.00000000 -0.000978 -0.000978 -0.999999 0.000000
90.41989899 180.07000732 304.00000000 -0.982047 0.001143 -0.188635 0.000000
230.85899353 165.44900513 422.00000000 0.000978 0.000978 0.999999 0.000000
121.58599854 96.19139862 374.00000000 -0.700772 -0.700772 0.133552 0.000000
143.90199280 183.91799927 310.00000000 0.140706 -0.212995 -0.966869 0.000000
155.44500732 137.74600220 430.00000000 0.000978 0.000978 0.999999 0.000000
139.28500366 152.36700439 330.00000000 0.310258 -0.933557 -0.179477 0.000000
101.57800293 145.82600403 312.00000000 0.503699 -0.574453 -0.645206 0.000000
130.82000732 257.40798950 364.00000000 0.322061 0.945653 -0.044909 0.000000
156.21499634 243.17199707 374.00000000 0.584042 0.584042 0.563728 0.000000
117.73799896 139.28500366 426.00000000 0.000978 0.000978 0.999999 0.000000
129.28100586 157.75399780 326.00000000 0.447994 -0.396611 -0.801250 0.000000
136.97700500 106.96499634 406.00000000 -0.110725 -0.852727 0.510486 0.000000
85.80269623 133.89799500 400.00000000 -0.838295 -0.263994 0.477041 0.000000
123.12500000 106.58000183 400.00000000 -0.176713 -0.880643 0.439591 0.000000
103.11699677 249.71299744 336.00000000 -0.015236 0.978622 -0.205100 0.000000
120.04699707 115.43000031 410.00000000 0.343511 -0.460654 0.818412 0.000000
143.90199280 119.27700043 366.00000000 0.194463 -0.583388 -0.788570 0.000000
232.39799500 130.82000732 418.00000000 0.943685 -0.312787 -0.107812 0.000000
158.52299500 149.28900146 434.00000000 0.000978 0.000978 0.999999 0.000000
153.13699341 247.40400696 372.00000000 0.536791 0.777145 0.328484 0.000000
231.24400330 135.43699646 412.00000000 0.503429 -0.483491 -0.716098 0.000000
169.29699707 120.04699707 426.00000000 -0.272400 -0.546374 0.792006 0.000000
176.99200439 141.59399414 374.00000000 0.415328 0.483735 -0.770392 0.000000
125.43399811 140.05499268 430.00000000 -0.184296 -0.143624 0.972321 0.000000
116.19899750 228.55099487 402.00000000 -0.000978 -0.000978 0.999999 0.000000
148.51899719 127.74199677 366.00000000 -0.000978 -0.000978 -0.999999 0.000000
139.28500366 239.32400513 386.00000000 0.000978 0.000978 0.999999 0.000000
135.43699646 133.12899780 430.00000000 0.155671 -0.363233 0.918601 0.000000
191.61300659 170.83599854 390.00000000 0.000978 0.000978 -0.999999 0.000000
78.87689972 206.23399353 328.00000000 -0.950358 0.041872 -0.308327 0.000000
156.98399353 195.46099854 318.00000000 0.804026 0.015170 -0.594400 0.000000
122.35500336 182.37899780 302.00000000 0.998311 0.049442 -0.030507 0.000000
145.44099426 195.46099854 414.00000000 0.000978 0.000978 0.999999 0.000000
162.37100220 173.91400146 362.00000000 -0.217201 -0.867308 -0.447884 0.000000
147.75000000 190.84399414 418.00000000 0.216094 0.810737 0.544067 0.000000
178.53100586 133.12899780 374.00000000 0.000978 0.000978 -0.999999 0.000000
170.83599854 159.29299927 374.00000000 -0.000978 -0.000978 -0.999999 0.000000
110.04299927 232.01400757 308.00000000 -0.587834 0.085214 -0.804481 0.000000
156.98399353 183.91799927 318.00000000 0.619922 0.023682 -0.784306 0.000000
80.03119659 246.25000000 354.00000000 -0.719425 -0.001381 -0.694569 0.000000
122.35500336 245.86500549 384.00000000 0.545600 0.726917 0.417029 0.000000
200.46299744 117.73799896 392.00000000 0.584429 -0.088025 -0.806656 0.000000
123.12500000 183.14799500 302.00000000 0.879492 0.091175 0.467099 0.000000
238.55499268 143.13299561 426.00000000 0.255337 0.030543 0.966370 0.000000
82.33979797 207.77299500 322.00000000 -0.271456 0.957241 0.100010 0.000000
157.36900330 166.98800659 352.00000000 0.734398 -0.035376 0.677797 0.000000
90.03510284 155.44500732 414.00000000 -0.695664 -0.020996 0.718060 0.000000
171.60499573 223.16400146 370.00000000 0.719425 0.001381 0.694569 0.000000
185.45700073 139.28500366 378.00000000 0.344221 -0.145154 -0.927600 0.000000
157.75399780 129.28100586 426.00000000 -0.170419 -0.065546 0.983189 0.000000
155.44500732 164.67999268 354.00000000 0.717698 -0.044057 0.694959 0.000000
165.44900513 198.53900146 330.00000000 0.697116 0.405685 0.591141 0.000000
165.83399963 186.99600220 388.00000000 0.947964 -0.317662 -0.021345 0.000000
88.49610138 231.62899780 330.00000000 -0.000978 -0.000978 -0.999999 0.000000
110.04299927 178.53100586 422.00000000 0.000978 0.000978 0.999999 0.000000
113.89099884 254.71499634 374.00000000 0.000978 0.000978 0.999999 0.000000
104.65599823 208.92799377 412.00000000 -0.126352 0.774465 0.619870 0.000000
180.45500183 126.97299957 376.00000000 0.520152 -0.470298 -0.712925 0.000000
85.03320313 127.74199677 392.00000000 -0.654738 -0.654738 0.377670 0.000000
128.51199341 183.53300476 304.00000000 0.506429 -0.700310 -0.503086 0.000000
129.28100586 93.49800110 372.00000000 -0.313151 -0.942140 0.119616 0.000000
70.79689789 191.61300659 338.00000000 -0.828097 0.114973 -0.548669 0.000000
91.57420349 183.91799927 414.00000000 0.000978 0.000978 0.999999 0.000000
70.02729797 187.76600647 338.00000000 -0.834192 -0.020614 -0.551089 0.000000
150.82800293 138.51600647 430.00000000 0.000978 0.000978 0.999999 0.000000
101.57800293 229.32000732 398.00000000 0.536782 0.772128 0.340123 0.000000
159.29299927 229.32000732 330.00000000 0.754116 0.305809 -0.581197 0.000000
150.05900574 168.52699280 326.00000000 -0.001334 -0.865851 -0.500299 0.000000
212.00599670 155.44500732 400.00000000 0.602389 -0.058388 -0.796064 0.000000
85.41790009 161.60200500 318.00000000 -0.621697 0.311656 0.718585 0.000000
102.34799957 217.00799561 406.00000000 -0.000978 -0.000978 0.999999 0.000000
207.00399780 161.60200500 398.00000000 0.407378 -0.066317 -0.910849 0.000000
120.04699707 168.14300537 308.00000000 0.448591 -0.585336 -0.675388 0.000000
91.57420349 237.78500366 390.00000000 -0.307000 0.539238 0.784202 0.000000
132.35899353 181.60899353 422.00000000 -0.000978 -0.000978 0.999999 0.000000
204.69500732 170.06599426 422.00000000 0.023213 0.265113 0.963938 0.000000
90.80470276 232.39799500 326.00000000 -0.000978 -0.000978 -0.999999 0.000000
146.97999573 141.59399414 430.00000000 -0.242201 -0.020485 0.970010 0.000000
169.29699707 177.76199341 422.00000000 0.176918 0.848910 0.498047 0.000000
190.84399414 106.96499634 390.00000000 0.938398 -0.100399 -0.330648 0.000000
128.51199341 185.45700073 302.00000000 0.549008 -0.663175 -0.508714 0.000000
211.62100220 137.74600220 426.00000000 0.000978 0.000978 0.999999 0.000000
159.29299927 227.01199341 330.00000000 0.779321 0.132619 -0.612430 0.000000
119.27700043 124.66400146 362.00000000 -0.000978 -0.000978 -0.999999 0.000000
130.43600464 185.45700073 304.00000000 0.549008 -0.663175 -0.508714 0.000000
90.80470276 186.22700500 302.00000000 -0.681854 0.336859 -0.649308 0.000000
141.59399414 186.99600220 422.00000000 -0.654738 0.654738 0.377670 0.000000
87.34179688 250.86700439 348.00000000 -0.714084 0.650751 -0.258084 0.000000
80.80079651 129.66600037 384.00000000 -0.718619 -0.632193 0.289688 0.000000
160.83200073 171.60499573 350.00000000 0.757650 -0.499100 0.420553 0.000000
214.69900513 156.21499634 402.00000000 0.448438 0.167982 -0.877887 0.000000
116.19899750 110.81199646 402.00000000 -0.116059 -0.927109 0.356370 0.000000
210.85200500 111.58200073 414.00000000 0.982047 0.001143 -0.188635 0.000000
153.13699341 235.47599792 326.00000000 -0.000978 -0.000978 -0.999999 0.000000
130.05099487 186.22700500 302.00000000 0.549008 -0.663175 -0.508714 0.000000
144.67199707 128.51199341 362.00000000 -0.000978 -0.000978 -0.999999 0.000000
203.15600586 172.75999451 420.00000000 0.182491 0.639484 0.746831 0.000000
174.68400574 128.51199341 374.00000000 0.762623 0.162228 -0.626170 0.000000
84.26360321 179.30099487 412.00000000 -0.785217 -0.015233 0.619033 0.000000
139.28500366 158.52299500 326.00000000 0.702497 -0.603786 -0.376749 0.000000
186.99600220 103.11699677 418.00000000 -0.001366 -0.597153 0.802126 0.000000
155.44500732 120.81600189 422.00000000 0.000978 0.000978 0.999999 0.000000
172.37500000 167.75799561 374.00000000 -0.000978 -0.000978 -0.999999 0.000000
146.21099854 209.31199646 406.00000000 0.566387 0.363989 0.739404 0.000000
91.57420349 146.21099854 414.00000000 -0.769352 -0.259597 0.583701 0.000000
201.61700439 140.05499268 390.00000000 -0.000978 -0.000978 -0.999999 0.000000
130.05099487 212.39100647 306.00000000 0.210108 0.160518 -0.964411 0.000000
97.73040009 162.37100220 418.00000000 0.000978 0.000978 0.999999 0.000000
180.83999634 107.73400116 422.00000000 0.000978 0.000978 0.999999 0.000000
213.16000366 119.27700043 426.00000000 0.000978 0.000978 0.999999 0.000000
90.80470276 187.76600647 302.00000000 -0.681854 0.336859 -0.649308 0.000000
80.03119659 170.06599426 326.00000000 -0.766533 0.382453 -0.515904 0.000000
91.57420349 187.76600647 302.00000000 -0.681854 0.336859 -0.649308 0.000000
166.21899414 138.51600647 370.00000000 -0.000978 -0.000978 -0.999999 0.000000
193.15199280 181.99400330 380.00000000 0.731652 0.406108 0.547506 0.000000
62.33200073 205.46499634 378.00000000 -0.982047 0.001143 0.188635 0.000000
91.95899963 167.75799561 416.00000000 -0.346050 -0.089519 0.933935 0.000000
109.27300262 195.46099854 418.00000000 0.000978 0.000978 0.999999 0.000000
214.69900513 139.28500366 426.00000000 0.000978 0.000978 0.999999 0.000000
207.77299500 115.81400299 404.00000000 0.743182 -0.486117 -0.459751 0.000000
186.99600220 178.53100586 398.00000000 -0.001384 0.720806 0.693136 0.000000
64.25579834 171.60499573 364.00000000 -0.999999 -0.000978 -0.000978 0.000000
89.65039825 247.78900146 340.00000000 -0.886643 0.311605 -0.341711 0.000000
112.35199738 236.24600220 310.00000000 -0.365307 0.786940 -0.497269 0.000000
141.59399414 155.83000183 432.00000000 -0.743397 -0.341736 0.574959 0.000000
241.24800110 152.36700439 424.00000000 0.812487 0.331013 0.479890 0.000000
188.91999817 192.38299561 376.00000000 -0.700772 0.700772 0.133552 0.000000
85.80269623 139.28500366 404.00000000 -0.798179 -0.230929 0.556401 0.000000
220.08599854 125.81800079 408.00000000 0.463477 -0.803468 -0.373669 0.000000
124.66400146 116.96900177 362.00000000 -0.000978 -0.000978 -0.999999 0.000000
113.89099884 250.86700439 326.00000000 -0.297164 0.891491 -0.341962 0.000000
175.45300293 106.19499969 370.00000000 0.000978 0.000978 -0.999999 0.000000
97.73040009 234.70700073 326.00000000 -0.000978 -0.000978 -0.999999 0.000000
86.18750000 122.35500336 386.00000000 -0.598191 -0.761477 0.249639 0.000000
157.75399780 239.32400513 378.00000000 -0.000978 -0.000978 0.999999 0.000000
210.08200073 129.28100586 426.00000000 0.000978 0.000978 0.999999 0.000000
173.14399719 126.58799744 372.00000000 0.682732 -0.055821 -0.728534 0.000000
74.64450073 167.75799561 334.00000000 -0.784605 -0.218204 -0.580329 0.000000
140.82400513 237.78500366 386.00000000 -0.143264 0.689177 0.710289 0.000000
176.22300720 128.51199341 430.00000000 0.000978 0.000978 0.999999 0.000000
138.51600647 204.69500732 410.00000000 0.000978 0.000978 0.999999 0.000000
144.28700256 152.36700439 340.00000000 0.549100 -0.835348 -0.026148 0.000000
142.36300659 138.51600647 362.00000000 -0.161573 0.249703 -0.954747 0.000000
146.21099854 130.05099487 362.00000000 0.566943 -0.134705 -0.812668 0.000000
81.18550110 242.40199280 376.00000000 -0.382453 0.766533 0.515904 0.000000
72.33589935 227.01199341 346.00000000 -0.850097 0.212902 -0.481671 0.000000
127.74199677 153.13699341 430.00000000 0.000978 0.000978 0.999999 0.000000
236.24600220 155.44500732 426.00000000 0.000978 0.000978 0.999999 0.000000
111.58200073 251.63699341 378.00000000 -0.072087 0.846664 0.527222 0.000000
75.41400146 185.45700073 406.00000000 0.000978 0.000978 0.999999 0.000000
76.18360138 139.66999817 360.00000000 -0.733763 -0.488623 -0.472059 0.000000
130.05099487 155.44500732 326.00000000 -0.000978 -0.000978 -0.999999 0.000000
189.30499268 110.81199646 386.00000000 0.000978 0.000978 -0.999999 0.000000
64.64060211 203.92599487 386.00000000 -0.794590 0.197499 0.574126 0.000000
179.30099487 177.76199341 358.00000000 -0.278044 -0.062211 -0.958552 0.000000
175.45300293 115.43000031 426.00000000 -0.000978 -0.000978 0.999999 0.000000
92.34369659 200.07800293 414.00000000 -0.555121 -0.461767 0.691818 0.000000
99.26950073 238.93899536 328.00000000 -0.477568 0.717184 -0.507520 0.000000
192.38299561 102.34799957 418.00000000 0.000978 0.000978 0.999999 0.000000
204.69500732 102.73200226 416.00000000 0.539999 -0.790203 0.289794 0.000000
151.59800720 139.28500366 430.00000000 0.051643 -0.198163 0.978808 0.000000
197.76899719 118.50800323 390.00000000 0.556422 -0.096832 -0.825238 0.000000
165.83399963 187.76600647 380.00000000 0.982047 0.001143 -0.188635 0.000000
86.18750000 125.43399811 390.00000000 -0.894688 -0.446689 -0.001310 0.000000
159.29299927 174.68400574 326.00000000 0.538861 -0.630079 -0.559132 0.000000
96.96089935 205.85000610 412.00000000 -0.640902 0.355692 0.680241 0.000000
144.67199707 217.00799561 318.00000000 0.265219 0.655900 -0.706721 0.000000
185.45700073 144.67199707 430.00000000 0.000978 0.000978 0.999999 0.000000
167.75799561 108.50399780 418.00000000 0.001381 -0.719425 0.694569 0.000000
110.42800140 200.84800720 416.00000000 0.100977 0.624887 0.774158 0.000000
132.35899353 190.84399414 302.00000000 -0.000978 -0.000978 -0.999999 0.000000
90.80470276 154.67599487 310.00000000 -0.251185 -0.966000 -0.061234 0.000000
146.59599304 257.79299927 348.00000000 0.419076 0.898826 -0.128404 0.000000
124.66400146 147.75000000 330.00000000 0.421281 -0.657732 -0.624429 0.000000
84.64839935 246.25000000 374.00000000 -0.459172 0.721082 0.518847 0.000000
88.49610138 121.20099640 388.00000000 -0.634692 -0.717825 0.286171 0.000000
157.75399780 166.60299683 340.00000000 0.718562 -0.618448 -0.318105 0.000000
138.51600647 129.28100586 362.00000000 -0.122277 0.058281 -0.990783 0.000000
113.12100220 245.86500549 320.00000000 -0.437752 0.526955 -0.728486 0.000000
184.68699646 180.83999634 414.00000000 -0.340686 0.850937 0.399800 0.000000
125.43399811 129.28100586 426.00000000 0.000978 0.000978 0.999999 0.000000
98.50000000 139.28500366 318.00000000 0.000978 0.000978 -0.999999 0.000000
203.92599487 143.13299561 390.00000000 0.273063 0.169815 -0.946889 0.000000
136.20700073 230.85899353 394.00000000 0.000978 0.000978 0.999999 0.000000
90.03510284 247.78900146 378.00000000 -0.700772 0.700772 0.133552 0.000000
113.12100220 202.38699341 414.00000000 -0.001369 0.792878 0.609379 0.000000
92.34369659 192.38299561 302.00000000 -0.905523 0.182253 -0.383161 0.000000
77.72260284 140.82400513 354.00000000 -0.873667 -0.290210 -0.390491 0.000000
136.97700500 206.23399353 310.00000000 0.000978 0.000978 -0.999999 0.000000
110.04299927 195.46099854 418.00000000 0.000978 0.000978 0.999999 0.000000
147.75000000 198.53900146 414.00000000 0.000978 0.000978 0.999999 0.000000
232.39799500 168.52699280 418.00000000 0.782590 0.619491 -0.061520 0.000000
133.89799500 141.59399414 366.00000000 -0.000978 -0.000978 -0.999999 0.000000
98.88469696 220.08599854 312.00000000 -0.829845 0.436180 -0.348000 0.000000
193.15199280 184.68699646 366.00000000 0.947208 0.313137 -0.068864 0.000000
119.27700043 117.73799896 414.00000000 -0.385553 -0.572588 0.723528 0.000000
91.57420349 192.76800537 304.00000000 -0.905523 0.182253 -0.383161 0.000000
175.45300293 151.59800720 434.00000000 0.000978 0.000978 0.999999 0.000000
93.88279724 137.36099243 412.00000000 -0.665205 -0.251229 0.703126 0.000000
101.57800293 242.40199280 390.00000000 -0.089123 0.693991 0.714446 0.000000
170.06599426 181.99400330 356.00000000 0.764999 0.457034 0.453758 0.000000
159.29299927 170.83599854 366.00000000 0.654738 -0.654738 -0.377670 0.000000
108.50399780 153.90600586 426.00000000 -0.000978 -0.000978 0.999999 0.000000
95.42179871 215.46899414 314.00000000 -0.675298 0.501027 -0.541244 0.000000
217.77699280 138.51600647 402.00000000 -0.000978 -0.000978 -0.999999 0.000000
86.18750000 240.47799683 384.00000000 -0.467703 0.714038 0.520965 0.000000
106.19499969 153.90600586 422.00000000 -0.470508 -0.255944 0.844462 0.000000
125.43399811 126.20300293 426.00000000 -0.005825 -0.210878 0.977495 0.000000
156.21499634 130.82000732 366.00000000 -0.000978 -0.000978 -0.999999 0.000000
167.37300110 197.00000000 368.00000000 0.874237 -0.446701 -0.190180 0.000000
70.79689789 228.55099487 358.00000000 -0.905850 0.354463 -0.231932 0.000000
230.85899353 140.82400513 426.00000000 0.000978 0.000978 0.999999 0.000000
154.67599487 145.44099426 434.00000000 0.000978 0.000978 0.999999 0.000000
106.19499969 193.92199707 418.00000000 0.000978 0.000978 0.999999 0.000000
212.77499390 140.82400513 400.00000000 0.750317 -0.049831 -0.659197 0.000000
125.43399811 109.27300262 362.00000000 0.725226 0.182456 -0.663896 0.000000
170.06599426 103.50199890 368.00000000 -0.933557 0.310258 -0.179477 0.000000
110.04299927 179.30099487 422.00000000 0.000978 0.000978 0.999999 0.000000
97.73040009 221.62500000 402.00000000 -0.445539 0.754621 0.481708 0.000000
207.77299500 109.65799713 424.00000000 0.299261 -0.580917 0.756953 0.000000
89.26560211 123.89399719 342.00000000 -0.700772 -0.700772 -0.133552 0.000000
117.73799896 240.09399414 390.00000000 0.049265 0.812174 0.581331 0.000000
112.35199738 102.34799957 374.00000000 -0.446689 -0.894688 -0.001310 0.000000
126.20300293 227.01199341 310.00000000 0.699365 0.237313 -0.674219 0.000000
129.28100586 194.69099426 302.00000000 -0.000978 -0.000978 -0.999999 0.000000
123.12500000 217.77699280 306.00000000 0.982047 -0.001143 -0.188635 0.000000
183.91799927 148.51899719 374.00000000 -0.000978 -0.000978 -0.999999 0.000000
153.90600586 220.85499573 322.00000000 -0.700772 0.700772 -0.133552 0.000000
125.04900360 139.28500366 428.00000000 -0.609549 -0.398107 0.685537 0.000000
138.51600647 254.71499634 366.00000000 -0.000978 -0.000978 0.999999 0.000000
163.91000366 136.97700500 430.00000000 0.000978 0.000978 0.999999 0.000000
77.33789825 165.44900513 332.00000000 -0.794901 -0.358107 -0.489787 0.000000
75.41400146 183.91799927 406.00000000 -0.485976 0.830662 -0.271712 0.000000
77.72260284 193.15199280 406.00000000 0.000978 0.000978 0.999999 0.000000
200.84800720 108.50399780 402.00000000 -0.478536 0.579281 -0.659876 0.000000
175.45300293 162.37100220 374.00000000 -0.001143 0.982047 -0.188635 0.000000
87.72650146 196.22999573 410.00000000 0.000978 0.000978 0.999999 0.000000
73.87500000 197.76899719 334.00000000 -0.858773 0.169981 -0.483337 0.000000
161.60200500 93.49800110 380.00000000 -0.128404 -0.898826 -0.419076 0.000000
209.31199646 175.45300293 406.00000000 0.149419 0.920252 -0.361677 0.000000
70.02729797 227.78100586 358.00000000 -0.905850 0.354463 -0.231932 0.000000
88.49610138 233.93699646 394.00000000 -0.865851 0.001334 0.500299 0.000000
93.11329651 196.22999573 302.00000000 -0.933463 0.243573 -0.263284 0.000000
169.29699707 209.69700623 388.00000000 0.915181 0.253012 0.313735 0.000000
114.66000366 227.78100586 402.00000000 -0.000978 -0.000978 0.999999 0.000000
140.05499268 126.20300293 426.00000000 0.700216 -0.492992 0.516388 0.000000
115.43000031 158.52299500 426.00000000 0.000978 0.000978 0.999999 0.000000
162.37100220 186.99600220 418.00000000 0.574218 0.516965 0.634839 0.000000
195.46099854 116.96900177 426.00000000 0.000978 0.000978 0.999999 0.000000
165.44900513 166.98800659 434.00000000 0.000978 0.000978 0.999999 0.000000
130.82000732 196.22999573 302.00000000 -0.000978 -0.000978 -0.999999 0.000000
119.27700043 261.64099121 338.00000000 0.441257 0.881057 -0.170386 0.000000
144.28700256 208.54299927 408.00000000 0.596206 0.354456 0.720347 0.000000
67.71869659 203.15600586 346.00000000 -0.839134 -0.168423 -0.517193 0.000000
133.12899780 203.15600586 306.00000000 0.509140 0.294765 -0.808634 0.000000
174.68400574 203.92599487 366.00000000 0.624101 0.395650 0.673764 0.000000
124.66400146 99.65429688 384.00000000 -0.488243 -0.776972 0.397407 0.000000
96.19139862 240.09399414 390.00000000 -0.240751 0.452734 0.858528 0.000000
111.58200073 248.55900574 322.00000000 -0.485748 0.324359 -0.811690 0.000000
143.13299561 225.47300720 318.00000000 0.599409 0.109916 -0.792861 0.000000
91.95899963 141.59399414 412.00000000 0.088174 0.582524 0.808017 0.000000
68.87300110 152.36700439 364.00000000 -0.770877 -0.360389 -0.525231 0.000000
138.51600647 158.52299500 430.00000000 -0.224618 0.073218 0.971692 0.000000
215.46899414 114.66000366 414.00000000 0.656297 -0.449221 -0.606198 0.000000
132.35899353 210.85200500 310.00000000 0.673635 0.573342 -0.466363 0.000000
133.89799500 145.44099426 362.00000000 0.574062 -0.748706 -0.331500 0.000000
63.87110138 183.91799927 386.00000000 -0.930052 -0.014072 0.367159 0.000000
164.67999268 192.38299561 406.00000000 0.745250 0.247366 0.619203 0.000000
150.82800293 193.15199280 414.00000000 0.000978 0.000978 0.999999 0.000000
180.07000732 163.14100647 430.00000000 0.000978 0.000978 0.999999 0.000000
152.36700439 130.82000732 366.00000000 -0.000978 -0.000978 -0.999999 0.000000
171.60499573 182.37899780 406.00000000 -0.535611 0.804198 -0.257656 0.000000
78.49220276 203.92599487 330.00000000 -0.950358 0.041872 -0.308327 0.000000
204.69500732 169.29699707 422.00000000 0.020293 0.230389 0.972887 0.000000
161.60200500 227.78100586 334.00000000 0.792882 0.258038 -0.552046 0.000000
128.51199341 264.33401489 344.00000000 -0.689700 0.689700 0.220516 0.000000
174.68400574 170.83599854 366.00000000 -0.133631 -0.953942 -0.268586 0.000000
130.05099487 120.04699707 418.00000000 -0.000978 -0.000978 0.999999 0.000000
132.35899353 197.76899719 302.00000000 -0.000978 -0.000978 -0.999999 0.000000
89.26560211 216.23800659 318.00000000 -0.612676 0.333153 -0.716685 0.000000
219.31599426 165.44900513 422.00000000 0.000978 0.000978 0.999999 0.000000
186.22700500 111.58200073 382.00000000 0.820647 -0.012330 -0.571302 0.000000
143.51800537 227.78100586 320.00000000 0.895295 0.218329 -0.388303 0.000000
105.42600250 242.40199280 390.00000000 0.000978 0.999999 0.000978 0.000000
200.84800720 160.83200073 394.00000000 0.502474 0.569695 -0.650360 0.000000
100.03900146 137.74600220 418.00000000 -0.322534 -0.149601 0.934661 0.000000
73.49019623 207.77299500 336.00000000 -0.936992 0.175255 -0.302211 0.000000
159.29299927 204.69500732 322.00000000 -0.000978 -0.000978 -0.999999 0.000000
133.12899780 115.43000031 414.00000000 -0.128881 -0.789579 0.599962 0.000000
206.23399353 121.97100067 396.00000000 -0.312180 -0.697149 -0.645389 0.000000
166.21899414 139.28500366 370.00000000 -0.000978 -0.000978 -0.999999 0.000000
135.43699646 103.88700104 402.00000000 -0.621150 -0.614416 0.486483 0.000000
90.03510284 144.67199707 410.00000000 -0.908247 -0.163456 0.385188 0.000000
150.05900574 170.83599854 430.00000000 0.000978 0.000978 0.999999 0.000000
217.00799561 166.21899414 402.00000000 0.244994 0.250594 -0.936579 0.000000
136.20700073 133.89799500 366.00000000 -0.007942 0.166785 -0.985961 0.000000
115.43000031 109.27300262 354.00000000 -0.992976 0.041421 -0.110828 0.000000
126.97299957 199.30900574 302.00000000 0.933019 0.001263 -0.359825 0.000000
177.76199341 143.13299561 430.00000000 0.245755 -0.259798 0.933868 0.000000
185.45700073 152.36700439 374.00000000 -0.000978 -0.000978 -0.999999 0.000000
205.46499634 123.12500000 394.00000000 0.287404 -0.293240 -0.911816 0.000000
214.69900513 143.90199280 426.00000000 0.000978 0.000978 0.999999 0.000000
95.42179871 207.00399780 410.00000000 -0.198511 0.287355 0.937027 0.000000
163.52499390 190.84399414 408.00000000 0.743796 0.246884 0.621141 0.000000
86.18750000 192.38299561 314.00000000 -0.719425 -0.001381 -0.694569 0.000000
76.18360138 166.21899414 406.00000000 -0.574772 -0.061025 0.816035 0.000000
145.44099426 200.84800720 310.00000000 0.917522 0.182937 -0.353111 0.000000
88.49610138 227.78100586 326.00000000 -0.308472 0.116178 -0.944112 0.000000
95.03710175 200.07800293 304.00000000 -0.790936 0.592826 -0.151583 0.000000
106.96499634 155.44500732 426.00000000 -0.845972 0.199848 0.494360 0.000000
121.58599854 255.48399353 366.00000000 0.246806 0.861549 0.443645 0.000000
82.72460175 239.32400513 340.00000000 -0.619054 0.534714 -0.575198 0.000000
201.61700439 125.43399811 426.00000000 0.000978 0.000978 0.999999 0.000000
200.84800720 122.35500336 426.00000000 0.000978 0.000978 0.999999 0.000000
139.28500366 125.43399811 422.00000000 -0.393873 -0.903760 0.167575 0.000000
132.35899353 200.07800293 302.00000000 -0.463908 0.225154 -0.856794 0.000000
81.57029724 175.45300293 410.00000000 -0.465829 0.149472 0.872159 0.000000
180.45500183 182.37899780 384.00000000 -0.401604 0.899651 -0.171294 0.000000
108.50399780 125.43399811 418.00000000 0.000978 0.000978 0.999999 0.000000
