204.60899353 167.69500732 157.50000000 -0.155639 0.747974 -0.645222 0.000000
59.41410065 167.34399414 147.50000000 -0.872797 -0.399210 0.280813 0.000000
59.06250000 196.87500000 58.75000000 -0.618332 0.631737 -0.467519 0.000000
142.03100586 188.43800354 146.25000000 0.694169 0.714629 -0.086223 0.000000
108.98400116 220.07800293 171.25000000 -0.153634 0.297751 0.942200 0.000000
147.65600586 137.81199646 93.75000000 0.150327 0.293883 -0.943946 0.000000
68.90619659 212.34399414 86.25000000 0.583227 0.771872 -0.253099 0.000000
173.67199707 147.65600586 151.25000000 0.895430 -0.134811 0.424300 0.000000
101.25000000 132.53900146 185.00000000 -0.355709 -0.563613 0.745528 0.000000
135.00000000 137.10899353 183.75000000 0.499661 -0.563591 0.657803 0.000000
104.06199646 189.14100647 91.25000000 0.698755 0.001384 -0.715359 0.000000
127.26599884 189.49200439 117.50000000 0.776078 -0.517923 -0.359803 0.000000
90.00000000 214.45300293 111.25000000 0.324515 0.815246 -0.479650 0.000000
69.25779724 153.28100586 97.50000000 -0.779518 -0.568497 -0.262989 0.000000
156.09399414 156.44500732 127.50000000 0.932835 -0.354926 0.062013 0.000000
61.17190170 247.85200500 132.50000000 -0.552001 -0.040322 -0.832868 0.000000
70.66410065 197.57800293 60.00000000 0.476303 0.761102 -0.440294 0.000000
71.01560211 197.22700500 60.00000000 0.518415 0.757180 -0.397397 0.000000
138.51600647 102.30500031 102.50000000 -0.240197 -0.969410 -0.050503 0.000000
109.68800354 117.06999969 150.00000000 0.001205 -0.962562 0.271059 0.000000
193.35899353 106.87500000 83.75000000 0.218960 0.600976 -0.768690 0.000000
80.85939789 234.84399414 161.25000000 -0.339786 0.398744 0.851792 0.000000
190.19500732 160.31199646 135.00000000 0.610724 0.714954 -0.340377 0.000000
131.83599854 127.26599884 177.50000000 0.304054 -0.731982 0.609717 0.000000
185.62500000 139.92199707 176.25000000 0.000978 0.000978 0.999999 0.000000
153.63299561 138.51600647 122.50000000 -0.652973 -0.132985 -0.745615 0.000000
233.43800354 134.29699707 138.75000000 0.301663 -0.087495 -0.949391 0.000000
232.03100586 118.82800293 123.75000000 -0.001330 0.871255 -0.490829 0.000000
201.09399414 111.09400177 163.75000000 0.449602 -0.673568 0.586656 0.000000
94.21880341 229.57000732 167.50000000 -0.269366 0.509149 0.817441 0.000000
191.25000000 135.70300293 106.25000000 0.482673 0.640762 -0.597035 0.000000
210.58599854 101.25000000 147.50000000 0.274820 -0.884529 0.376938 0.000000
152.57800293 142.73399353 146.25000000 -0.391253 -0.400757 0.828442 0.000000
62.22660065 186.32800293 165.00000000 -0.669420 -0.139901 0.729592 0.000000
159.60899353 130.78100586 126.25000000 -0.040867 -0.984311 0.171641 0.000000
58.00780106 238.35899353 112.50000000 0.120231 0.847414 -0.517140 0.000000
275.62500000 161.01600647 156.25000000 0.889997 -0.129583 0.437166 0.000000
132.18800354 174.72700500 185.00000000 0.061535 0.339097 0.938737 0.000000
131.83599854 104.06199646 97.50000000 -0.457678 -0.862835 -0.214583 0.000000
111.79699707 170.15600586 133.75000000 -0.775451 0.168444 0.608524 0.000000
66.79689789 185.62500000 168.75000000 -0.648359 0.052724 0.759507 0.000000
49.21879959 227.81199646 103.75000000 -0.922545 0.312268 -0.226715 0.000000
225.70300293 170.85899353 168.75000000 0.000978 0.000978 0.999999 0.000000
211.64100647 161.01600647 168.75000000 0.000978 0.000978 0.999999 0.000000
148.35899353 155.39100647 183.75000000 0.274322 -0.251580 0.928146 0.000000
236.60200500 99.84380341 117.50000000 0.172339 -0.984958 0.012555 0.000000
156.44500732 118.12500000 87.50000000 0.663414 0.522334 -0.535770 0.000000
259.10198975 120.23400116 140.00000000 0.546125 -0.751533 0.370061 0.000000
91.05470276 174.37500000 70.00000000 0.801600 0.200018 -0.563410 0.000000
181.05499268 157.50000000 175.00000000 0.308962 0.157914 0.937873 0.000000
72.42189789 208.82800293 168.75000000 -0.556177 0.330482 0.762527 0.000000
73.47660065 145.54699707 160.00000000 -0.854192 -0.502038 0.135332 0.000000
125.85900116 158.90600586 131.25000000 0.701707 0.633643 -0.325735 0.000000
78.39839935 163.82800293 177.50000000 -0.737328 -0.082895 0.670430 0.000000
184.92199707 96.32810211 143.75000000 0.001205 -0.962562 0.271059 0.000000
75.93750000 140.62500000 158.75000000 -0.836568 -0.505585 0.211040 0.000000
53.78910065 177.89100647 77.50000000 -0.903008 -0.417520 -0.101259 0.000000
177.89100647 127.61699677 95.00000000 0.262366 0.666250 -0.698051 0.000000
256.64099121 182.81199646 158.75000000 -0.353580 0.416439 -0.837592 0.000000
169.80499268 146.95300293 140.00000000 0.683825 0.546726 -0.483192 0.000000
73.12500000 209.17999268 87.50000000 0.629392 0.722279 -0.286669 0.000000
141.67999268 208.82800293 155.00000000 0.672500 0.729163 -0.126746 0.000000
60.46879959 232.73399353 151.25000000 -0.585674 0.484985 0.649443 0.000000
118.82800293 190.54699707 131.25000000 -0.964704 0.152322 0.214813 0.000000
226.40600586 111.79699707 156.25000000 0.174694 -0.962786 0.206217 0.000000
217.96899414 141.32800293 166.25000000 0.102726 -0.189363 0.976519 0.000000
272.10900879 151.87500000 126.25000000 -0.381723 0.445610 -0.809765 0.000000
112.50000000 158.20300293 191.25000000 -0.092089 0.278860 0.955906 0.000000
187.38299561 149.76600647 122.50000000 0.499232 0.579915 -0.643790 0.000000
229.57000732 173.67199707 160.00000000 0.195511 0.617321 -0.762030 0.000000
56.25000000 206.01600647 158.75000000 -0.660829 -0.020957 0.750244 0.000000
210.23399353 106.87500000 91.25000000 0.417729 0.634082 -0.650725 0.000000
145.54699707 144.84399414 183.75000000 0.478312 -0.478312 0.736502 0.000000
149.06199646 191.25000000 131.25000000 0.323017 0.644410 -0.693106 0.000000
182.10899353 110.39099884 168.75000000 -0.043364 -0.560939 0.826721 0.000000
162.42199707 191.95300293 161.25000000 -0.568658 -0.720300 -0.397236 0.000000
266.13299561 163.82800293 142.50000000 -0.479784 0.349079 -0.804954 0.000000
171.56199646 118.12500000 88.75000000 -0.116311 0.593333 -0.796510 0.000000
99.14060211 241.17199707 136.25000000 0.470026 0.573733 -0.670750 0.000000
48.51559830 224.64799500 102.50000000 -0.953464 0.229961 -0.194996 0.000000
182.81199646 104.76599884 163.75000000 0.110892 -0.752587 0.649088 0.000000
62.57809830 201.44500732 60.00000000 -0.034465 0.533520 -0.845085 0.000000
66.79689789 246.09399414 123.75000000 0.170602 0.795638 -0.581253 0.000000
165.23399353 130.78100586 126.25000000 -0.051439 -0.998331 0.026244 0.000000
221.13299561 130.78100586 165.00000000 0.095156 -0.288076 0.952868 0.000000
217.26600647 144.84399414 138.75000000 0.298656 0.434831 -0.849545 0.000000
143.78900146 180.70300293 170.00000000 0.440706 0.792625 0.421335 0.000000
109.68800354 231.67999268 167.50000000 0.017924 0.583230 0.812109 0.000000
54.84379959 188.43800354 63.75000000 -0.946708 -0.079654 -0.312087 0.000000
217.96899414 124.45300293 118.75000000 0.551335 0.749750 -0.365930 0.000000
77.34380341 143.43800354 91.25000000 -0.693374 -0.693374 -0.196122 0.000000
60.46879959 167.34399414 63.75000000 -0.859237 -0.491618 -0.141504 0.000000
47.10940170 198.63299561 125.00000000 -0.982628 -0.167179 0.080583 0.000000
124.80500031 187.73399353 115.00000000 0.714974 -0.563063 -0.414454 0.000000
145.89799500 143.43800354 130.00000000 -0.903361 -0.275577 -0.328629 0.000000
87.18750000 126.21099854 145.00000000 -0.422781 -0.876933 0.228570 0.000000
148.00799561 142.03100586 125.00000000 -0.702349 -0.440006 -0.559554 0.000000
168.04699707 187.73399353 163.75000000 -0.614274 -0.660886 -0.431157 0.000000
58.00780106 184.92199707 155.00000000 -0.297829 -0.401687 -0.865994 0.000000
109.33599854 113.90599823 107.50000000 -0.557870 -0.807163 -0.193050 0.000000
268.59399414 123.04699707 123.75000000 0.500389 -0.217494 -0.838038 0.000000
170.15600586 194.06199646 138.75000000 -0.633979 -0.748126 0.195901 0.000000
234.84399414 153.98399353 146.25000000 -0.147585 0.492436 -0.857745 0.000000
217.96899414 136.40600586 133.75000000 0.548407 0.369402 -0.750195 0.000000
59.06250000 165.93800354 143.75000000 -0.859323 -0.445631 0.250953 0.000000
51.32809830 205.31199646 151.25000000 -0.787294 -0.082341 0.611055 0.000000
81.91410065 170.85899353 180.00000000 -0.286072 0.158628 0.944987 0.000000
201.09399414 151.87500000 171.25000000 0.120196 0.110676 0.986562 0.000000
59.06250000 170.85899353 63.75000000 -0.898682 -0.369180 -0.236805 0.000000
108.98400116 208.12500000 176.25000000 0.204341 0.378249 0.902869 0.000000
95.62500000 191.25000000 181.25000000 -0.334385 0.560539 0.757616 0.000000
210.93800354 124.45300293 111.25000000 0.735908 0.590344 0.331563 0.000000
152.57800293 188.43800354 128.75000000 0.574445 0.214069 0.790055 0.000000
53.43750000 239.06199646 113.75000000 -0.119129 0.903980 -0.410645 0.000000
127.96900177 176.48399353 141.25000000 0.270163 0.582983 0.766252 0.000000
200.39100647 160.31199646 151.25000000 0.154514 0.790572 -0.592554 0.000000
146.95300293 188.78900146 137.50000000 0.136256 0.839513 0.525978 0.000000
201.79699707 113.90599823 166.25000000 0.449602 -0.673568 0.586656 0.000000
236.25000000 116.01599884 153.75000000 0.282012 -0.613416 0.737692 0.000000
166.64100647 120.23400116 171.25000000 -0.054824 -0.549642 0.833600 0.000000
120.23400116 235.54699707 143.75000000 0.483185 0.794606 -0.367606 0.000000
273.86700439 184.92199707 165.00000000 0.761944 0.020971 0.647303 0.000000
239.41400146 176.48399353 160.00000000 -0.018158 0.688599 -0.724915 0.000000
171.91400146 135.00000000 130.00000000 0.690943 0.577728 0.434545 0.000000
112.50000000 201.79699707 106.25000000 0.333290 0.655200 -0.677961 0.000000
127.96900177 106.52300262 125.00000000 -0.185655 -0.931068 0.314078 0.000000
51.32809830 217.61700439 85.00000000 -0.736983 0.529243 -0.420426 0.000000
253.82800293 174.37500000 153.75000000 -0.322496 0.497247 -0.805445 0.000000
278.43798828 151.17199707 133.75000000 0.995830 -0.090919 0.007487 0.000000
188.43800354 94.21880341 116.25000000 0.233579 -0.935714 -0.264350 0.000000
239.06199646 158.20300293 148.75000000 -0.178572 0.630345 -0.755498 0.000000
65.39060211 243.98399353 146.25000000 -0.505584 0.539178 0.673552 0.000000
259.10198975 116.01599884 135.00000000 0.656816 -0.656816 0.370385 0.000000
121.28900146 130.07800293 82.50000000 -0.089240 0.674419 -0.732936 0.000000
73.12500000 150.11700439 77.50000000 -0.803256 -0.589055 -0.088286 0.000000
236.95300293 102.65599823 136.25000000 0.343857 -0.851085 0.396758 0.000000
117.06999969 223.59399414 132.50000000 0.292709 0.530040 -0.795851 0.000000
257.69500732 144.84399414 160.00000000 0.342460 -0.392047 0.853827 0.000000
197.57800293 102.65599823 158.75000000 0.309618 -0.798655 0.516030 0.000000
275.27301025 137.10899353 132.50000000 0.894256 -0.392063 0.215855 0.000000
75.23439789 231.32800293 161.25000000 -0.312733 0.434092 0.844845 0.000000
120.23400116 234.84399414 143.75000000 0.483185 0.794606 -0.367606 0.000000
159.60899353 177.18800354 168.75000000 -0.079140 0.033607 0.996297 0.000000
170.85899353 125.85900116 173.75000000 -0.234932 -0.351668 0.906166 0.000000
278.43798828 158.20300293 151.25000000 0.840282 -0.105215 0.531842 0.000000
199.68800354 124.45300293 168.75000000 0.000978 0.000978 0.999999 0.000000
82.26560211 217.26600647 168.75000000 -0.261971 0.422485 0.867685 0.000000
133.94500732 152.57800293 137.50000000 -0.862245 -0.436445 0.257001 0.000000
107.57800293 142.73399353 191.25000000 -0.400624 -0.158253 0.902472 0.000000
131.48399353 144.84399414 188.75000000 0.447932 -0.292938 0.844716 0.000000
175.07800293 115.66400146 170.00000000 -0.167552 -0.447290 0.878554 0.000000
83.67189789 145.54699707 178.75000000 -0.664034 -0.146057 0.733298 0.000000
104.06199646 121.28900146 175.00000000 -0.319843 -0.897048 0.304967 0.000000
169.45300293 96.67970276 112.50000000 -0.147720 -0.987517 -0.054668 0.000000
156.44500732 166.64100647 175.00000000 0.494072 0.824493 0.275870 0.000000
61.17190170 187.03100586 163.75000000 -0.763803 -0.001376 0.645448 0.000000
203.20300293 138.16400146 122.50000000 0.377462 0.844198 -0.380594 0.000000
181.40600586 94.57029724 112.50000000 -0.088284 -0.991757 -0.092870 0.000000
156.79699707 138.51600647 96.25000000 0.835104 0.105654 -0.539851 0.000000
49.21879959 198.28100586 78.75000000 -0.919328 -0.032786 -0.392124 0.000000
260.85900879 190.89799500 162.50000000 -0.297499 0.715605 -0.631984 0.000000
210.23399353 156.44500732 145.00000000 0.094464 0.792042 -0.603114 0.000000
135.00000000 150.46899414 98.75000000 0.182518 0.719336 -0.670256 0.000000
143.78900146 197.57800293 150.00000000 -0.702876 0.446983 0.553328 0.000000
140.62500000 174.37500000 143.75000000 0.102695 0.454390 0.884864 0.000000
274.21899414 168.39799500 137.50000000 -0.729889 0.475007 -0.491558 0.000000
156.79699707 156.09399414 181.25000000 0.275163 -0.089137 0.957256 0.000000
131.48399353 127.96900177 78.75000000 0.100747 0.597181 -0.795754 0.000000
157.14799500 187.03100586 147.50000000 -0.871158 0.483977 -0.082767 0.000000
222.18800354 138.51600647 166.25000000 0.000978 0.000978 0.999999 0.000000
151.87500000 166.64100647 146.25000000 0.025620 0.880528 0.473301 0.000000
237.65600586 130.07800293 133.75000000 -0.016686 0.365800 -0.930544 0.000000
180.35200500 167.34399414 165.00000000 -0.223719 0.841609 -0.491573 0.000000
174.37500000 143.43800354 176.25000000 0.000978 0.000978 0.999999 0.000000
113.20300293 139.92199707 193.75000000 -0.109295 -0.285747 0.952052 0.000000
74.53119659 145.19500732 100.00000000 -0.782239 -0.622140 -0.032301 0.000000
151.87500000 143.43800354 121.25000000 -0.667434 -0.421099 -0.614172 0.000000
157.14799500 180.70300293 157.50000000 0.987866 -0.153466 0.023872 0.000000
102.30500031 209.53100586 112.50000000 0.322961 0.857623 -0.400224 0.000000
94.21880341 218.67199707 171.25000000 -0.213232 0.123853 0.969119 0.000000
147.65600586 159.60899353 151.25000000 -0.082520 0.380132 0.921244 0.000000
255.93800354 149.76600647 138.75000000 -0.407152 0.341633 -0.847062 0.000000
63.28120041 220.07800293 93.75000000 0.449321 0.579607 -0.679828 0.000000
184.57000732 130.07800293 175.00000000 0.271023 -0.215428 0.938156 0.000000
95.62500000 246.79699707 153.75000000 0.001205 0.962562 0.271059 0.000000
136.75799561 205.31199646 132.50000000 0.955293 0.111385 -0.273877 0.000000
131.48399353 205.31199646 123.75000000 0.643202 0.589462 -0.488699 0.000000
131.48399353 175.07800293 141.25000000 0.057043 0.505039 0.861210 0.000000
158.90600586 194.76600647 146.25000000 -0.887054 0.047691 -0.459197 0.000000
133.59399414 133.24200439 85.00000000 0.268677 0.650230 -0.710643 0.000000
267.89099121 170.15600586 143.75000000 -0.424468 0.358194 -0.831579 0.000000
211.64100647 165.93800354 168.75000000 0.000978 0.000978 0.999999 0.000000
117.42199707 130.07800293 188.75000000 0.175767 -0.725995 0.664859 0.000000
254.53100586 153.63299561 140.00000000 -0.480317 0.346275 -0.805847 0.000000
279.14099121 177.18800354 141.25000000 -0.107490 0.755377 -0.646414 0.000000
228.51600647 126.91400146 130.00000000 0.405370 0.683338 -0.607227 0.000000
213.75000000 165.23399353 168.75000000 0.000978 0.000978 0.999999 0.000000
193.35899353 96.67970276 102.50000000 0.021887 -0.984917 -0.171640 0.000000
196.17199707 106.87500000 83.75000000 0.006768 0.537389 -0.843308 0.000000
246.79699707 187.73399353 168.75000000 -0.310895 0.255946 0.915334 0.000000
99.14060211 203.90600586 176.25000000 -0.092671 0.419096 0.903200 0.000000
255.93800354 127.96900177 126.25000000 -0.390941 0.311220 -0.866203 0.000000
79.45310211 164.53100586 178.75000000 -0.804239 0.230003 0.547994 0.000000
63.28120041 218.67199707 158.75000000 -0.445998 0.400915 0.800220 0.000000
151.17199707 151.52299500 182.50000000 0.272124 -0.328020 0.904628 0.000000
71.71880341 164.53100586 171.25000000 -0.800282 -0.138082 0.583508 0.000000
79.45310211 241.87500000 158.75000000 0.000978 0.000978 0.999999 0.000000
157.50000000 179.64799500 162.50000000 0.966758 -0.198011 0.161773 0.000000
273.16400146 146.95300293 150.00000000 0.801766 -0.503287 0.322294 0.000000
50.62500000 233.43800354 136.25000000 -0.871761 0.412462 0.264399 0.000000
263.67199707 158.20300293 138.75000000 -0.464162 0.665244 -0.584811 0.000000
247.50000000 185.62500000 168.75000000 -0.280427 0.059638 0.958021 0.000000
239.76600647 171.56199646 168.75000000 0.000978 0.000978 0.999999 0.000000
239.06199646 150.46899414 143.75000000 -0.084693 0.300985 -0.949861 0.000000
194.76600647 149.06199646 128.75000000 0.579999 0.610436 -0.539416 0.000000
126.21099854 188.43800354 117.50000000 0.694324 -0.681786 -0.230396 0.000000
123.75000000 106.52300262 102.50000000 -0.445287 -0.889169 -0.105352 0.000000
54.84379959 203.20300293 68.75000000 -0.748548 0.299740 -0.591465 0.000000
162.42199707 166.28900146 147.50000000 -0.051247 0.862895 0.502778 0.000000
243.63299561 135.00000000 160.00000000 0.258570 -0.460530 0.849149 0.000000
123.75000000 224.64799500 167.50000000 0.427986 0.266540 0.863588 0.000000
98.43750000 206.01600647 176.25000000 0.167556 0.441474 0.881491 0.000000
77.34380341 138.16400146 157.50000000 -0.817059 -0.536052 0.212283 0.000000
160.31199646 178.24200439 135.00000000 0.366458 0.629387 0.685260 0.000000
160.31199646 121.64099884 171.25000000 -0.211328 -0.518439 0.828590 0.000000
161.01600647 148.00799561 130.00000000 0.592921 0.639951 -0.488782 0.000000
153.63299561 191.25000000 135.00000000 -0.454073 0.628329 0.631680 0.000000
115.31199646 239.76600647 146.25000000 0.347441 0.792550 -0.501148 0.000000
250.31199646 111.79699707 118.75000000 0.225360 0.473407 -0.851527 0.000000
52.73440170 223.59399414 91.25000000 0.162461 0.663510 -0.730316 0.000000
150.46899414 162.42199707 183.75000000 0.427300 0.492787 0.758008 0.000000
170.15600586 100.89800262 92.50000000 -0.137425 -0.937483 -0.319751 0.000000
202.85200500 137.81199646 120.00000000 0.357574 0.844749 -0.398172 0.000000
106.87500000 119.88300323 172.50000000 -0.204742 -0.914895 0.347918 0.000000
131.48399353 164.53100586 141.25000000 -0.107648 -0.363823 0.925227 0.000000
243.28100586 153.98399353 146.25000000 0.026127 0.545914 -0.837434 0.000000
77.69529724 139.92199707 162.50000000 -0.825583 -0.520377 0.218222 0.000000
53.43750000 229.92199707 143.75000000 -0.723905 0.120403 0.679312 0.000000
183.51600647 98.08589935 150.00000000 0.001205 -0.962562 0.271059 0.000000
73.82810211 245.03900146 125.00000000 0.676439 0.427137 -0.599987 0.000000
260.85900879 151.87500000 136.25000000 -0.637730 0.486290 -0.597346 0.000000
180.70300293 151.17199707 176.25000000 0.185849 0.155088 0.970262 0.000000
87.18750000 222.89100647 168.75000000 -0.604908 0.198558 0.771143 0.000000
134.29699707 124.10199738 172.50000000 0.223405 -0.808881 0.543876 0.000000
103.35900116 201.09399414 178.75000000 -0.043437 0.383037 0.922711 0.000000
230.62500000 169.10200500 157.50000000 0.216088 0.534857 -0.816844 0.000000
137.46099854 131.48399353 85.00000000 0.301587 0.666071 -0.682199 0.000000
77.69529724 136.40600586 125.00000000 -0.884708 -0.464709 -0.036581 0.000000
61.87500000 159.96099854 140.00000000 -0.852590 -0.499185 0.154615 0.000000
206.71899414 129.02299500 112.50000000 0.596028 0.729201 -0.336179 0.000000
163.82800293 156.79699707 178.75000000 0.220251 -0.099428 0.970363 0.000000
52.03120041 214.45300293 81.25000000 -0.384046 0.667547 -0.637879 0.000000
124.45300293 206.71899414 118.75000000 0.308002 0.780379 -0.544191 0.000000
197.57800293 125.15599823 168.75000000 0.299676 -0.133040 0.944719 0.000000
172.26600647 140.62500000 176.25000000 0.000978 0.000978 0.999999 0.000000
107.93000031 165.93800354 120.00000000 -0.314210 -0.088084 0.945258 0.000000
141.32800293 135.00000000 91.25000000 0.221396 0.508448 -0.832144 0.000000
102.65599823 191.95300293 91.25000000 0.598973 0.369230 -0.710563 0.000000
170.15600586 125.85900116 173.75000000 -0.026739 -0.337426 0.940972 0.000000
191.25000000 153.28100586 173.75000000 0.104825 -0.306513 0.946077 0.000000
139.21899414 151.17199707 143.75000000 -0.600180 -0.596799 0.532555 0.000000
160.31199646 156.79699707 136.25000000 0.783279 -0.429749 -0.449210 0.000000
265.07800293 146.95300293 156.25000000 0.469564 -0.546432 0.693485 0.000000
137.10899353 215.50799561 150.00000000 0.898355 -0.408343 0.161905 0.000000
49.57030106 203.20300293 147.50000000 -0.836367 -0.187695 0.515034 0.000000
249.60899353 111.09400177 118.75000000 0.314295 0.448769 -0.836556 0.000000
144.14100647 155.03900146 112.50000000 -0.196558 -0.980491 0.001149 0.000000
189.14100647 116.36699677 90.00000000 0.413561 -0.410368 -0.812752 0.000000
202.85200500 106.87500000 85.00000000 0.397930 0.794250 -0.459150 0.000000
275.62500000 156.09399414 126.25000000 -0.459235 0.300449 -0.835963 0.000000
158.90600586 169.45300293 141.25000000 -0.064482 0.772347 0.631920 0.000000
64.68750000 208.82800293 163.75000000 -0.500563 0.231147 0.834271 0.000000
216.56199646 97.38279724 102.50000000 0.180684 -0.965816 -0.185884 0.000000
48.16410065 210.93800354 87.50000000 -0.935714 0.233579 -0.264350 0.000000
158.90600586 147.65600586 153.75000000 -0.138482 -0.429722 0.892279 0.000000
71.01560211 227.10899353 113.75000000 0.571369 0.628674 -0.527547 0.000000
230.62500000 132.89100647 163.75000000 0.017771 -0.055403 0.998306 0.000000
139.92199707 153.28100586 106.25000000 0.277351 0.838250 -0.469482 0.000000
136.05499268 161.01600647 187.50000000 0.200923 0.225195 0.953371 0.000000
168.75000000 138.16400146 100.00000000 0.287254 0.665979 -0.688446 0.000000
93.51560211 218.67199707 118.75000000 0.392249 0.650438 -0.650438 0.000000
100.54699707 156.09399414 188.75000000 -0.226133 0.116260 0.967134 0.000000
218.67199707 149.06199646 168.75000000 0.000978 0.000978 0.999999 0.000000
70.31250000 217.96899414 163.75000000 -0.383152 0.370641 0.846062 0.000000
149.06199646 139.57000732 135.00000000 -0.845443 -0.511987 0.151973 0.000000
279.14099121 170.15600586 151.25000000 0.922065 -0.220897 0.317806 0.000000
100.19499969 142.03100586 92.50000000 0.653163 -0.178970 -0.735764 0.000000
77.34380341 177.18800354 176.25000000 -0.559927 0.106168 0.821711 0.000000
107.57800293 132.89100647 188.75000000 -0.443934 -0.313091 0.839581 0.000000
247.50000000 155.39100647 166.25000000 0.278235 -0.089294 0.956353 0.000000
145.54699707 185.62500000 158.75000000 0.046225 0.273602 0.960732 0.000000
101.25000000 124.10199738 92.50000000 -0.598305 -0.353766 -0.718944 0.000000
105.11699677 220.07800293 125.00000000 0.442368 0.589268 -0.676072 0.000000
106.87500000 158.55499268 132.50000000 -0.883893 -0.028252 0.466835 0.000000
214.45300293 126.56199646 166.25000000 0.000978 0.000978 0.999999 0.000000
155.74200439 183.51600647 162.50000000 0.886561 0.391875 0.245853 0.000000
84.37500000 129.37500000 158.75000000 -0.704478 -0.692358 0.156046 0.000000
167.34399414 174.37500000 136.25000000 -0.221454 0.294802 0.929543 0.000000
222.53900146 113.90599823 105.00000000 0.436212 0.748968 -0.498764 0.000000
98.43750000 135.70300293 186.25000000 -0.342928 -0.364457 0.865778 0.000000
247.50000000 162.42199707 148.75000000 -0.040783 0.258294 -0.965205 0.000000
260.15600586 170.85899353 148.75000000 -0.304401 0.652287 -0.694162 0.000000
229.92199707 148.35899353 166.25000000 0.237313 -0.674219 0.699365 0.000000
161.71899414 127.26599884 173.75000000 -0.232866 -0.255176 0.938434 0.000000
129.37500000 167.34399414 143.75000000 0.060949 -0.320304 0.945352 0.000000
54.49219894 176.48399353 77.50000000 -0.894175 -0.436625 -0.099043 0.000000
180.00000000 137.81199646 176.25000000 0.000978 0.000978 0.999999 0.000000
172.96899414 161.36700439 150.00000000 -0.521351 0.745022 0.416094 0.000000
84.37500000 175.07800293 61.25000000 0.856258 -0.034360 -0.515404 0.000000
137.10899353 202.50000000 168.75000000 0.486386 0.453411 0.746891 0.000000
55.54690170 201.09399414 66.25000000 -0.681400 0.391021 -0.618705 0.000000
227.10899353 134.29699707 163.75000000 0.274807 -0.200236 0.940418 0.000000
277.73400879 180.00000000 156.25000000 0.716388 -0.156000 0.680038 0.000000
233.43800354 128.67199707 133.75000000 0.107050 -0.079424 -0.991076 0.000000
236.25000000 99.49220276 117.50000000 0.172339 -0.984958 0.012555 0.000000
126.21099854 223.59399414 165.00000000 0.731678 0.516964 0.444292 0.000000
104.06199646 137.10899353 188.75000000 -0.396823 -0.328884 0.856952 0.000000
123.04699707 236.60200500 152.50000000 0.640839 0.764686 0.067684 0.000000
267.53900146 180.00000000 152.50000000 -0.427871 0.594357 -0.680930 0.000000
143.43800354 130.78100586 176.25000000 0.180978 -0.513021 0.839081 0.000000
242.57800293 168.04699707 153.75000000 -0.225942 0.474629 -0.850693 0.000000
139.21899414 107.22699738 142.50000000 -0.248274 -0.935585 0.251079 0.000000
213.04699707 119.53099823 166.25000000 0.114782 -0.286296 0.951241 0.000000
148.35899353 189.84399414 171.25000000 0.593482 0.187656 0.782664 0.000000
271.40600586 150.11700439 155.00000000 0.573733 -0.470026 0.670750 0.000000
164.53100586 104.76599884 158.75000000 -0.305428 -0.916284 0.259107 0.000000
279.14099121 165.23399353 133.75000000 0.718999 0.676436 -0.159609 0.000000
93.51560211 236.25000000 131.25000000 0.430300 0.566534 -0.702767 0.000000
208.12500000 171.56199646 161.25000000 -0.440522 0.808959 -0.389262 0.000000
191.25000000 167.69500732 162.50000000 0.203606 0.962859 0.177334 0.000000
155.39100647 136.40600586 176.25000000 0.427871 -0.680930 0.594357 0.000000
152.92999268 187.73399353 127.50000000 0.705621 0.196092 0.680916 0.000000
117.06999969 161.01600647 127.50000000 0.003092 0.998613 0.052559 0.000000
170.85899353 141.32800293 176.25000000 0.000978 0.000978 0.999999 0.000000
136.40600586 191.60200500 175.00000000 0.350429 0.528066 0.773528 0.000000
211.64100647 103.35900116 151.25000000 0.248702 -0.826433 0.505129 0.000000
137.10899353 208.12500000 136.25000000 0.890213 0.263933 -0.371295 0.000000
207.42199707 97.03119659 108.75000000 0.299891 -0.902627 -0.308755 0.000000
161.01600647 97.73439789 108.75000000 -0.433203 -0.867916 -0.243016 0.000000
253.82800293 153.28100586 141.25000000 -0.485736 0.342404 -0.804251 0.000000
61.17190170 164.88299561 72.50000000 -0.789603 -0.612259 -0.040817 0.000000
72.42189789 216.56199646 166.25000000 -0.503496 0.301466 0.809697 0.000000
106.17199707 140.62500000 96.25000000 0.545177 0.612691 -0.572182 0.000000
264.37500000 168.04699707 168.75000000 0.240213 -0.369898 0.897482 0.000000
132.53900146 130.78100586 180.00000000 0.426318 -0.578930 0.695048 0.000000
233.43800354 113.55500031 112.50000000 0.489818 0.718953 -0.493138 0.000000
148.00799561 167.34399414 145.00000000 0.015337 0.751537 0.659512 0.000000
275.62500000 148.35899353 123.75000000 0.533888 0.487026 -0.691209 0.000000
116.01599884 222.89100647 131.25000000 0.279911 0.564566 -0.776476 0.000000
180.00000000 96.67970276 140.00000000 -0.184403 -0.963865 0.192250 0.000000
120.93800354 202.50000000 111.25000000 0.431349 0.627870 -0.647856 0.000000
137.81199646 163.82800293 186.25000000 0.080136 0.047204 0.995666 0.000000
66.44529724 164.53100586 162.50000000 -0.914753 -0.183520 0.359926 0.000000
112.85199738 160.31199646 190.00000000 -0.024570 0.373730 0.927212 0.000000
123.04699707 155.74200439 112.50000000 -0.265826 0.928258 -0.260140 0.000000
273.51599121 136.05499268 137.50000000 0.903047 -0.334407 0.269588 0.000000
122.34400177 191.95300293 178.75000000 0.184972 0.518824 0.834630 0.000000
104.76599884 232.73399353 133.75000000 0.380594 0.377462 -0.844198 0.000000
197.57800293 156.09399414 171.25000000 0.177681 0.139877 0.974096 0.000000
175.78100586 158.90600586 176.25000000 0.325928 0.264542 0.907628 0.000000
111.09400177 210.93800354 173.75000000 0.021191 0.300407 0.953576 0.000000
234.14100647 170.85899353 168.75000000 0.000978 0.000978 0.999999 0.000000
195.46899414 157.50000000 138.75000000 0.608076 0.608076 -0.510380 0.000000
132.53900146 199.68800354 172.50000000 0.219868 0.399893 0.889800 0.000000
239.06199646 121.28900146 157.50000000 0.328198 -0.596576 0.732382 0.000000
229.92199707 147.65600586 143.75000000 0.051813 0.541941 -0.838818 0.000000
278.43798828 151.17199707 138.75000000 0.998535 -0.051127 0.017738 0.000000
99.14060211 242.92999268 160.00000000 0.023432 0.563738 0.825621 0.000000
220.78100586 144.14100647 138.75000000 0.233539 0.441464 -0.866354 0.000000
230.62500000 120.93800354 158.75000000 0.301404 -0.402382 0.864433 0.000000
98.43750000 209.53100586 108.75000000 0.223939 0.882410 -0.413769 0.000000
94.92189789 162.42199707 186.25000000 -0.483786 -0.012061 0.875103 0.000000
142.73399353 118.47699738 165.00000000 -0.098369 -0.650412 0.753185 0.000000
86.48439789 217.26600647 113.75000000 0.415126 0.806211 -0.421538 0.000000
130.07800293 139.92199707 91.25000000 -0.064673 0.748771 -0.659666 0.000000
233.43800354 178.94500732 165.00000000 -0.175069 0.982531 0.063120 0.000000
125.15599823 161.71899414 188.75000000 0.012676 0.183230 0.982988 0.000000
166.28900146 161.71899414 137.50000000 -0.485237 0.865363 0.125269 0.000000
58.71089935 168.04699707 75.00000000 -0.872559 -0.484138 -0.065199 0.000000
176.13299561 95.62500000 120.00000000 -0.129925 -0.990823 0.037283 0.000000
242.57800293 176.48399353 168.75000000 0.000978 0.000978 0.999999 0.000000
55.54690170 223.59399414 151.25000000 -0.843732 0.087086 0.529653 0.000000
194.06199646 97.73439789 148.75000000 0.255921 -0.894983 0.365390 0.000000
155.39100647 137.81199646 178.75000000 0.001333 -0.497143 0.867668 0.000000
255.23399353 135.00000000 128.75000000 -0.254242 0.104536 -0.961474 0.000000
142.03100586 187.03100586 133.75000000 0.474313 -0.112525 0.873135 0.000000
59.06250000 227.81199646 101.25000000 0.376464 0.780395 -0.499259 0.000000
49.21879959 190.54699707 83.75000000 -0.921061 -0.352956 -0.164525 0.000000
260.85900879 165.23399353 146.25000000 -0.352356 0.238316 -0.905014 0.000000
272.81201172 176.48399353 146.25000000 -0.308554 0.375432 -0.873982 0.000000
207.42199707 155.39100647 171.25000000 0.450885 -0.258304 0.854390 0.000000
177.89100647 182.81199646 156.25000000 -0.738446 -0.444389 -0.507165 0.000000
240.46899414 106.87500000 141.25000000 0.500206 -0.833677 0.234042 0.000000
194.06199646 95.62500000 106.25000000 -0.001205 -0.962562 -0.271059 0.000000
176.48399353 151.52299500 115.00000000 0.314751 0.711821 -0.627887 0.000000
158.90600586 166.64100647 146.25000000 -0.082970 0.870479 0.485162 0.000000
213.75000000 167.34399414 156.25000000 0.048603 0.517966 -0.854019 0.000000
253.12500000 131.48399353 128.75000000 -0.434430 0.263706 -0.861237 0.000000
210.23399353 99.49220276 142.50000000 0.304603 -0.910894 0.278369 0.000000
201.79699707 113.55500031 92.50000000 0.199566 0.552997 -0.808930 0.000000
81.56250000 187.03100586 61.25000000 0.779354 0.463708 -0.421405 0.000000
94.92189789 209.53100586 173.75000000 0.091069 0.463753 0.881271 0.000000
141.32800293 163.82800293 186.25000000 0.178802 0.148368 0.972634 0.000000
215.15600586 114.25800323 162.50000000 0.275565 -0.540108 0.795203 0.000000
104.76599884 115.66400146 117.50000000 -0.585824 -0.780583 -0.217945 0.000000
163.12500000 176.48399353 136.25000000 0.229244 0.533877 0.813893 0.000000
156.79699707 147.65600586 181.25000000 0.189715 -0.263417 0.945844 0.000000
99.84380341 138.51600647 93.75000000 0.840334 -0.099116 -0.532930 0.000000
54.14059830 235.19500732 107.50000000 0.226519 0.812078 -0.537790 0.000000
58.00780106 170.85899353 70.00000000 -0.894419 -0.436744 -0.096279 0.000000
151.17199707 189.14100647 166.25000000 0.696526 0.684060 0.216593 0.000000
99.49220276 164.53100586 92.50000000 0.849441 -0.318346 -0.420838 0.000000
242.57800293 168.75000000 168.75000000 0.000978 0.000978 0.999999 0.000000
139.92199707 144.84399414 186.25000000 0.501575 -0.501575 0.704872 0.000000
66.44529724 151.87500000 132.50000000 -0.795016 -0.606321 0.018037 0.000000
171.56199646 183.51600647 128.75000000 -0.655492 0.344910 0.671839 0.000000
206.01600647 170.15600586 158.75000000 0.610776 0.346921 -0.711758 0.000000
199.68800354 159.60899353 148.75000000 0.154514 0.790572 -0.592554 0.000000
241.17199707 144.84399414 143.75000000 0.299476 0.524479 -0.797017 0.000000
55.54690170 189.84399414 61.25000000 -0.850454 0.123149 -0.511431 0.000000
121.64099884 184.21899414 183.75000000 0.011785 0.425578 0.904845 0.000000
78.75000000 189.84399414 61.25000000 0.731890 0.637452 -0.240815 0.000000
127.96900177 131.83599854 82.50000000 -0.090379 0.549447 -0.830626 0.000000
152.92999268 185.62500000 167.50000000 0.890692 0.451484 0.053196 0.000000
137.10899353 150.46899414 131.25000000 -0.001205 -0.962562 -0.271059 0.000000
275.62500000 189.84399414 161.25000000 0.605730 0.789638 0.097793 0.000000
103.35900116 118.47699738 137.50000000 -0.314992 -0.944977 0.088303 0.000000
248.20300293 172.26600647 168.75000000 0.000978 0.000978 0.999999 0.000000
210.93800354 153.28100586 168.75000000 0.295622 -0.101169 0.949933 0.000000
161.01600647 155.39100647 181.25000000 0.280111 0.097713 0.954982 0.000000
58.35940170 177.89100647 153.75000000 -0.917221 -0.231825 0.323979 0.000000
200.39100647 96.67970276 102.50000000 0.001104 -0.990125 0.140185 0.000000
193.35899353 141.32800293 173.75000000 0.000978 0.000978 0.999999 0.000000
54.14059830 177.18800354 78.75000000 -0.894175 -0.436625 -0.099043 0.000000
189.84399414 124.80500031 172.50000000 0.313836 -0.272964 0.909394 0.000000
121.64099884 235.89799500 157.50000000 0.491338 0.776735 0.394043 0.000000
280.89801025 161.01600647 135.00000000 0.816677 -0.428238 -0.386847 0.000000
61.87500000 231.32800293 106.25000000 0.391021 0.681400 -0.618705 0.000000
233.43800354 132.89100647 163.75000000 0.127431 -0.014405 0.991743 0.000000
60.11719894 164.53100586 92.50000000 -0.814241 -0.566876 -0.125155 0.000000
111.79699707 213.04699707 121.25000000 0.106443 0.806343 -0.581792 0.000000
157.50000000 180.00000000 168.75000000 -0.474997 -0.481617 0.736494 0.000000
103.71099854 173.67199707 95.00000000 0.783358 -0.262166 -0.563578 0.000000
212.34399414 97.38279724 112.50000000 0.154874 -0.981682 0.110973 0.000000
276.32800293 142.73399353 136.25000000 0.852162 -0.212663 -0.478116 0.000000
86.48439789 182.81199646 178.75000000 -0.437564 0.277892 0.855169 0.000000
170.15600586 130.07800293 96.25000000 0.124760 0.402315 -0.906961 0.000000
90.35160065 157.50000000 75.00000000 0.957711 -0.091764 -0.272708 0.000000
76.64060211 226.40600586 116.25000000 0.486351 0.600786 -0.634444 0.000000
72.77339935 145.54699707 157.50000000 -0.842123 -0.481431 0.243008 0.000000
195.46899414 104.06199646 161.25000000 0.265005 -0.718846 0.642677 0.000000
145.54699707 152.57800293 183.75000000 0.569435 -0.228084 0.789761 0.000000
55.19530106 172.96899414 90.00000000 -0.918338 -0.393950 0.038209 0.000000
153.28100586 149.76600647 116.25000000 -0.822802 -0.242364 -0.514058 0.000000
104.76599884 236.95300293 163.75000000 0.077566 0.506294 0.858866 0.000000
149.06199646 155.39100647 183.75000000 0.319912 -0.284530 0.903714 0.000000
53.78910065 177.89100647 75.00000000 -0.899956 -0.433112 -0.049923 0.000000
253.82800293 158.20300293 143.75000000 -0.634263 0.446829 -0.630916 0.000000
86.48439789 134.29699707 103.75000000 -0.464634 -0.771129 -0.435288 0.000000
130.78100586 150.46899414 98.75000000 0.029416 0.774620 -0.631743 0.000000
151.87500000 175.78100586 166.25000000 0.206655 0.843212 0.496273 0.000000
79.80470276 139.92199707 100.00000000 -0.656395 -0.743117 -0.130083 0.000000
140.62500000 195.46899414 148.75000000 -0.691990 0.426478 0.582466 0.000000
272.10900879 148.35899353 123.75000000 -0.336140 0.420566 -0.842695 0.000000
269.29699707 139.21899414 121.25000000 -0.194226 0.097731 -0.976076 0.000000
137.10899353 175.78100586 143.75000000 -0.109559 0.403565 0.908368 0.000000
125.85900116 206.01600647 118.75000000 0.400339 0.799069 -0.448572 0.000000
78.04689789 153.28100586 176.25000000 -0.690320 -0.216602 0.690320 0.000000
123.75000000 173.67199707 186.25000000 -0.000978 -0.000978 0.999999 0.000000
65.39060211 198.98399353 166.25000000 -0.590187 0.138255 0.795340 0.000000
253.82800293 143.43800354 161.25000000 0.362198 -0.399828 0.841992 0.000000
64.68750000 241.17199707 148.75000000 -0.794976 0.433770 0.424095 0.000000
85.78119659 225.00000000 121.25000000 0.379857 0.333720 -0.862751 0.000000
61.87500000 222.18800354 93.75000000 0.386278 0.724887 -0.570376 0.000000
135.00000000 156.09399414 188.75000000 0.215098 0.239759 0.946704 0.000000
133.24200439 192.65600586 122.50000000 0.713531 -0.357582 -0.602501 0.000000
65.39060211 165.93800354 161.25000000 -0.911905 -0.187535 0.365048 0.000000
194.06199646 94.57029724 120.00000000 0.091119 -0.990771 -0.100346 0.000000
207.42199707 108.63300323 160.00000000 0.315627 -0.704091 0.636110 0.000000
185.62500000 151.87500000 173.75000000 0.273596 0.140135 0.951581 0.000000
56.60160065 172.96899414 70.00000000 -0.907108 -0.405482 -0.112866 0.000000
188.43800354 128.67199707 98.75000000 0.279525 0.557471 -0.781723 0.000000
138.51600647 176.83599854 142.50000000 0.102695 0.454390 0.884864 0.000000
203.90600586 158.20300293 148.75000000 0.020857 0.793948 -0.607628 0.000000
113.90599823 169.45300293 136.25000000 -0.618883 0.067488 0.782578 0.000000
115.31199646 228.16400146 135.00000000 0.410816 0.549404 -0.727589 0.000000
212.34399414 116.01599884 163.75000000 0.200474 -0.452922 0.868719 0.000000
48.51559830 191.95300293 126.25000000 -0.938494 -0.312831 0.146170 0.000000
116.71900177 109.33599854 112.50000000 -0.398462 -0.916595 0.032876 0.000000
113.90599823 173.67199707 111.25000000 0.657477 -0.212942 -0.722758 0.000000
147.65600586 154.33599854 112.50000000 -0.258856 -0.964828 0.045826 0.000000
281.95300293 188.08599854 150.00000000 0.761729 0.613401 -0.208587 0.000000
161.36700439 140.62500000 122.50000000 0.682792 0.616662 -0.391820 0.000000
56.95309830 197.57800293 61.25000000 -0.685321 0.490951 -0.537868 0.000000
87.89060211 202.85200500 175.00000000 -0.337860 0.217093 0.915817 0.000000
185.62500000 107.57800293 81.25000000 0.239542 0.438407 -0.866268 0.000000
138.51600647 210.23399353 141.25000000 0.854434 0.319834 -0.409449 0.000000
58.71089935 163.12500000 122.50000000 -0.854987 -0.511858 -0.083655 0.000000
258.75000000 180.70300293 156.25000000 -0.353766 0.598305 -0.718944 0.000000
76.64060211 147.65600586 173.75000000 -0.685427 -0.026741 0.727650 0.000000
82.26560211 244.33599854 130.00000000 0.433626 0.482715 -0.760890 0.000000
68.90619659 210.58599854 165.00000000 -0.484996 0.320698 0.813592 0.000000
101.95300293 187.03100586 88.75000000 0.822259 -0.017905 -0.568832 0.000000
264.72698975 192.65600586 162.50000000 -0.089356 0.995832 0.018302 0.000000
92.81250000 147.65600586 83.75000000 0.785941 0.125810 -0.605367 0.000000
125.85900116 217.96899414 131.25000000 0.178473 0.529420 -0.829374 0.000000
175.07800293 130.78100586 121.25000000 0.452044 0.521590 -0.723602 0.000000
93.86720276 122.34400177 122.50000000 -0.508833 -0.849033 -0.142239 0.000000
236.25000000 165.93800354 153.75000000 -0.139689 0.524935 -0.839602 0.000000
239.76600647 175.07800293 168.75000000 0.000978 0.000978 0.999999 0.000000
249.96099854 104.76599884 122.50000000 0.512683 -0.842584 0.164950 0.000000
139.21899414 122.34400177 78.75000000 0.452044 0.521590 -0.723602 0.000000
210.93800354 139.92199707 131.25000000 0.621963 0.635374 -0.457671 0.000000
82.96880341 132.89100647 113.75000000 -0.657596 -0.741481 -0.133317 0.000000
68.90619659 201.09399414 63.75000000 0.506160 0.743578 -0.436914 0.000000
123.04699707 162.42199707 138.75000000 -0.164106 -0.144062 0.975866 0.000000
187.03100586 111.09400177 83.75000000 0.239542 0.438407 -0.866268 0.000000
125.85900116 146.25000000 191.25000000 0.508635 0.235109 0.828260 0.000000
188.43800354 99.49220276 87.50000000 -0.148842 -0.980389 -0.129160 0.000000
94.92189789 134.29699707 183.75000000 -0.449502 -0.633313 0.629971 0.000000
167.34399414 170.85899353 168.75000000 0.157981 -0.186238 0.969720 0.000000
180.70300293 163.82800293 153.75000000 -0.271756 0.961693 -0.035986 0.000000
156.09399414 175.78100586 163.75000000 -0.380188 0.778172 0.499906 0.000000
177.18800354 160.31199646 176.25000000 0.311219 0.217427 0.925131 0.000000
101.25000000 233.43800354 166.25000000 0.103199 0.565415 0.818325 0.000000
280.54699707 162.77299500 137.50000000 0.940007 -0.262424 -0.217993 0.000000
217.26600647 150.46899414 143.75000000 0.372818 0.622458 -0.688152 0.000000
55.89839935 169.45300293 115.00000000 -0.990125 -0.001104 0.140185 0.000000
72.42189789 221.48399353 106.25000000 0.484298 0.682039 -0.547977 0.000000
66.09380341 200.39100647 61.25000000 0.386441 0.787433 -0.480221 0.000000
93.51560211 155.39100647 86.25000000 0.912327 -0.074559 -0.402617 0.000000
272.10900879 130.07800293 131.25000000 0.799529 -0.499506 0.333536 0.000000
110.39099884 168.04699707 131.25000000 -0.825166 0.102964 0.555428 0.000000
238.35899353 143.43800354 141.25000000 -0.284575 0.767876 -0.573920 0.000000
164.53100586 145.89799500 152.50000000 0.069891 -0.571964 0.817296 0.000000
145.54699707 196.87500000 153.75000000 -0.822243 0.306572 0.479511 0.000000
137.10899353 212.34399414 161.25000000 0.792667 0.437500 0.424585 0.000000
98.43750000 225.00000000 171.25000000 0.077692 0.327885 0.941518 0.000000
157.50000000 153.28100586 181.25000000 0.155010 -0.016972 0.987767 0.000000
47.46089935 192.65600586 112.50000000 -0.969816 -0.242756 0.022947 0.000000
55.19530106 240.46899414 117.50000000 -0.145561 0.883455 -0.445331 0.000000
214.45300293 105.46900177 91.25000000 -0.231620 -0.273733 -0.933500 0.000000
214.45300293 98.78910065 95.00000000 0.114581 -0.952204 -0.283159 0.000000
109.68800354 122.34400177 178.75000000 -0.001365 -0.591008 0.806665 0.000000
93.86720276 122.34400177 142.50000000 -0.435551 -0.878485 0.196367 0.000000
141.32800293 191.25000000 133.75000000 0.883366 0.100030 0.457885 0.000000
146.25000000 180.00000000 168.75000000 0.440706 0.792625 0.421335 0.000000
248.20300293 117.77300262 147.50000000 0.579522 -0.528835 0.620071 0.000000
91.40619659 211.64100647 173.75000000 -0.134606 0.415155 0.899738 0.000000
78.04689789 182.10899353 176.25000000 -0.564473 0.078598 0.821701 0.000000
104.06199646 165.93800354 98.75000000 0.785715 -0.293651 -0.544445 0.000000
127.96900177 166.64100647 188.75000000 0.187477 0.214069 0.958659 0.000000
72.42189789 143.43800354 151.25000000 -0.871158 -0.483977 0.082767 0.000000
113.90599823 205.31199646 111.25000000 0.125940 0.780828 -0.611920 0.000000
63.28120041 201.79699707 61.25000000 0.267559 0.962966 0.033291 0.000000
232.73399353 151.87500000 168.75000000 0.200609 -0.405611 0.891760 0.000000
82.96880341 201.79699707 173.75000000 -0.243414 0.243414 0.938882 0.000000
150.46899414 130.78100586 173.75000000 0.322758 -0.705527 0.630919 0.000000
151.17199707 175.78100586 166.25000000 0.147103 0.863684 0.482090 0.000000
66.09380341 225.35200500 105.00000000 0.484777 0.704676 -0.518095 0.000000
111.79699707 164.53100586 113.75000000 -0.806019 0.301271 -0.509480 0.000000
217.26600647 144.14100647 138.75000000 0.298656 0.434831 -0.849545 0.000000
59.76559830 202.14799500 62.50000000 -0.547928 0.527697 -0.649084 0.000000
60.82030106 197.57800293 162.50000000 -0.634636 0.098200 0.766547 0.000000
261.56201172 175.78100586 153.75000000 -0.234422 0.452207 -0.860555 0.000000
184.21899414 124.45300293 173.75000000 0.169021 -0.300939 0.938545 0.000000
218.67199707 170.15600586 168.75000000 0.000978 0.000978 0.999999 0.000000
197.57800293 129.37500000 103.75000000 0.168643 0.633552 -0.755097 0.000000
227.81199646 165.93800354 153.75000000 0.295091 0.408234 -0.863867 0.000000
69.25779724 207.42199707 77.50000000 0.544707 0.704621 -0.454756 0.000000
54.84379959 174.37500000 136.25000000 -0.909208 -0.410566 0.069105 0.000000
148.35899353 150.46899414 103.75000000 0.079055 0.809240 -0.582135 0.000000
153.28100586 139.21899414 123.75000000 -0.557886 -0.147282 -0.816745 0.000000
122.34400177 184.21899414 136.25000000 -0.009724 0.704290 0.709846 0.000000
120.58599854 184.21899414 120.00000000 -0.490989 0.717343 -0.494317 0.000000
63.98440170 200.39100647 163.75000000 -0.584586 0.119273 0.802517 0.000000
249.25799561 114.60900116 120.00000000 0.226930 0.680790 -0.696440 0.000000
53.43750000 210.23399353 153.75000000 -0.803612 0.122385 0.582434 0.000000
78.04689789 134.64799500 147.50000000 -0.761941 -0.638144 0.110533 0.000000
99.14060211 204.60899353 176.25000000 -0.032302 0.355326 0.934184 0.000000
158.90600586 151.17199707 181.25000000 0.000978 0.000978 0.999999 0.000000
62.22660065 229.92199707 155.00000000 -0.627508 0.395711 0.670556 0.000000
182.10899353 120.23400116 91.25000000 0.132501 0.772675 -0.620820 0.000000
229.21899414 130.78100586 163.75000000 0.000978 0.000978 0.999999 0.000000
127.61699677 108.98400116 82.50000000 -0.271773 -0.849100 -0.452956 0.000000
101.95300293 243.98399353 158.75000000 0.168868 0.646567 0.743932 0.000000
262.26599121 168.75000000 168.75000000 -0.014645 -0.464654 0.885371 0.000000
184.21899414 121.64099884 93.75000000 0.344408 0.557844 -0.755111 0.000000
262.26599121 136.05499268 127.50000000 -0.483555 0.247150 -0.839697 0.000000
53.08589935 176.48399353 97.50000000 -0.944977 -0.314992 0.088303 0.000000
135.00000000 211.64100647 133.75000000 0.636142 0.348324 -0.688472 0.000000
215.15600586 101.60199738 145.00000000 0.223885 -0.911428 0.345216 0.000000
147.65600586 131.48399353 176.25000000 0.214448 -0.572376 0.791453 0.000000
123.04699707 171.21099854 142.50000000 -0.220810 -0.410499 0.884722 0.000000
158.20300293 130.78100586 173.75000000 -0.014106 -0.368035 0.929705 0.000000
182.10899353 130.07800293 98.75000000 0.263455 0.525351 -0.809072 0.000000
127.61699677 229.92199707 155.00000000 0.727953 0.681642 0.073808 0.000000
247.50000000 106.87500000 113.75000000 0.946044 -0.058079 -0.318790 0.000000
142.03100586 107.22699738 145.00000000 -0.257780 -0.937763 0.232699 0.000000
151.17199707 129.37500000 91.25000000 0.816721 0.236216 -0.526468 0.000000
245.39100647 170.85899353 168.75000000 0.000978 0.000978 0.999999 0.000000
201.79699707 111.79699707 163.75000000 0.449602 -0.673568 0.586656 0.000000
77.34380341 232.38299561 120.00000000 0.460308 0.405394 -0.789792 0.000000
122.34400177 217.96899414 131.25000000 0.178473 0.529420 -0.829374 0.000000
63.28120041 170.85899353 158.75000000 -0.868225 -0.252163 0.427317 0.000000
173.67199707 162.42199707 176.25000000 0.415126 0.421538 0.806211 0.000000
156.09399414 147.65600586 181.25000000 0.093675 -0.211081 0.972970 0.000000
116.01599884 189.84399414 181.25000000 0.155472 0.400803 0.902876 0.000000
272.81201172 166.28900146 165.00000000 0.688330 -0.104650 0.717809 0.000000
211.64100647 160.31199646 151.25000000 0.030910 0.891024 -0.452903 0.000000
172.61700439 132.89100647 120.00000000 0.358655 0.610859 -0.705845 0.000000
195.46899414 144.49200439 125.00000000 0.602942 0.559030 -0.569163 0.000000
173.67199707 117.06999969 87.50000000 0.049757 0.643994 -0.763410 0.000000
151.17199707 152.57800293 106.25000000 -0.216442 0.948803 -0.230054 0.000000
222.18800354 157.50000000 168.75000000 0.000978 0.000978 0.999999 0.000000
136.40600586 155.39100647 143.75000000 -0.711203 -0.133257 0.690241 0.000000
67.14839935 233.43800354 115.00000000 0.594763 0.497040 -0.631830 0.000000
108.28099823 143.43800354 191.25000000 -0.387450 -0.088366 0.917646 0.000000
175.07800293 124.45300293 173.75000000 -0.182573 -0.425030 0.886576 0.000000
251.71899414 127.96900177 153.75000000 0.485775 -0.382487 0.785955 0.000000
161.01600647 100.54699707 143.75000000 0.001205 -0.962562 0.271059 0.000000
72.42189789 187.03100586 173.75000000 -0.490855 0.282047 0.824325 0.000000
151.87500000 150.82000732 152.50000000 -0.606238 -0.324944 0.725870 0.000000
76.28910065 146.25000000 67.50000000 -0.849884 -0.515125 -0.111105 0.000000
68.20310211 210.93800354 163.75000000 -0.553855 0.234263 0.798978 0.000000
161.01600647 177.18800354 168.75000000 -0.096790 0.020663 0.995090 0.000000
142.73399353 126.56199646 83.75000000 0.205810 0.620524 -0.756699 0.000000
118.82800293 110.74199677 92.50000000 -0.472221 -0.866956 -0.159356 0.000000
163.12500000 156.79699707 141.25000000 0.794526 0.171012 -0.582652 0.000000
267.18798828 165.23399353 143.75000000 -0.413511 0.317490 -0.853351 0.000000
163.12500000 181.40600586 131.25000000 0.322385 0.688511 0.649631 0.000000
213.04699707 146.25000000 138.75000000 0.164296 0.446363 -0.879640 0.000000
