123.88099670 162.29699707 125.00000000 0.579083 0.802379 -0.144398 0.000000
150.21099854 145.46299744 102.50000000 0.654738 0.654738 -0.377670 0.000000
123.44899750 304.73800659 146.25000000 -0.055649 -0.763393 -0.643533 0.000000
210.64100647 183.44700623 197.50000000 -0.048788 -0.378439 -0.924340 0.000000
171.79299927 171.79299927 73.75000000 -0.535430 -0.736423 0.413517 0.000000
197.25999451 236.53900146 142.50000000 0.997142 -0.071453 -0.024529 0.000000
123.44899750 208.05099487 193.75000000 -0.000978 -0.000978 -0.999999 0.000000
85.89649963 243.44500732 75.00000000 0.935987 -0.312915 0.161282 0.000000
141.57800293 186.89999390 55.00000000 -0.788769 0.611902 -0.058480 0.000000
170.06599426 133.37699890 70.00000000 0.440313 0.884956 0.151583 0.000000
248.62500000 197.25999451 180.00000000 -0.360030 -0.360030 -0.860672 0.000000
85.03320313 235.67599487 65.00000000 0.978780 -0.196238 0.058992 0.000000
259.84799194 159.27499390 137.50000000 -0.748907 -0.659786 0.061810 0.000000
96.68750000 293.51599121 108.75000000 0.771093 -0.504863 0.387981 0.000000
238.26600647 161.86500549 187.50000000 0.071679 0.858740 -0.507373 0.000000
176.10899353 197.69099426 116.25000000 0.001381 -0.694569 0.719425 0.000000
94.09760284 281.42999268 98.75000000 0.801374 -0.444851 0.399884 0.000000
101.86699677 180.85699463 30.00000000 0.685235 0.688385 -0.237863 0.000000
194.23800659 209.77699280 118.75000000 0.000978 0.000978 0.999999 0.000000
124.31199646 231.35899353 36.25000000 -0.561269 -0.534301 0.632060 0.000000
207.18699646 182.15199280 98.75000000 -0.525580 -0.739766 0.420134 0.000000
146.75799561 149.34800720 23.75000000 -0.346145 -0.067123 0.935777 0.000000
105.31999969 180.85699463 5.00000000 0.828754 0.526840 0.188696 0.000000
177.83599854 160.57000732 66.25000000 -0.761102 -0.440294 0.476303 0.000000
237.40199280 201.14399719 183.75000000 -0.511708 -0.538552 -0.669415 0.000000
113.08999634 302.14801025 148.75000000 0.232476 -0.931312 -0.280380 0.000000
108.34200287 227.90600586 17.50000000 -0.669278 -0.348548 0.656187 0.000000
256.39401245 151.07400513 106.25000000 -0.446690 -0.502732 0.740087 0.000000
122.58599854 298.69500732 153.75000000 0.086056 -0.657815 -0.748247 0.000000
242.58200073 198.98599243 182.50000000 -0.379254 -0.532258 -0.756880 0.000000
146.75799561 268.91198730 115.00000000 -0.447955 -0.447955 0.773740 0.000000
150.21099854 150.21099854 136.25000000 0.348121 0.915429 -0.201996 0.000000
123.44899750 242.58200073 41.25000000 -0.828404 -0.215110 0.517180 0.000000
147.62100220 259.84799194 111.25000000 -0.422079 -0.349902 0.836312 0.000000
152.80099487 190.78500366 188.75000000 0.936639 0.346178 -0.053560 0.000000
208.48199463 234.81199646 150.00000000 -0.873781 -0.485132 -0.033973 0.000000
199.41799927 231.79100037 170.00000000 0.548546 -0.538419 -0.639689 0.000000
174.38299561 259.84799194 163.75000000 -0.679206 -0.442235 -0.585753 0.000000
96.25579834 208.05099487 162.50000000 0.696231 0.597006 -0.398555 0.000000
204.59800720 140.28300476 97.50000000 0.000978 0.999999 0.000978 0.000000
143.30499268 264.59600830 110.00000000 -0.431361 -0.383609 0.816561 0.000000
95.82420349 294.80999756 112.50000000 0.877818 -0.374475 0.298670 0.000000
156.68600464 202.00799561 72.50000000 -0.633647 0.475656 0.610117 0.000000
177.83599854 157.11700439 63.75000000 -0.681480 -0.507343 0.527435 0.000000
92.80269623 284.01901245 105.00000000 0.860197 -0.306224 0.407785 0.000000
166.61300659 152.36900330 155.00000000 0.001242 0.945148 -0.326641 0.000000
258.12100220 145.03100586 148.75000000 -0.136573 0.953360 -0.269169 0.000000
185.60499573 200.28100586 188.75000000 -0.000978 -0.000978 -0.999999 0.000000
88.48629761 214.09399414 110.00000000 0.987886 0.102439 -0.116568 0.000000
113.08999634 183.87899780 3.75000000 -0.546843 -0.004071 0.837225 0.000000
182.15199280 191.21699524 97.50000000 -0.361546 -0.721457 0.590580 0.000000
174.81399536 225.31599426 105.00000000 -0.572776 -0.569397 -0.589673 0.000000
117.40599823 177.83599854 143.75000000 0.635449 0.635449 -0.438644 0.000000
177.83599854 189.92199707 93.75000000 -0.326766 -0.655158 0.681169 0.000000
151.07400513 282.29299927 161.25000000 -0.308204 -0.627704 -0.714841 0.000000
148.91600037 251.21499634 185.00000000 -0.447955 -0.447955 -0.773740 0.000000
85.03320313 214.95700073 37.50000000 0.946521 0.189851 0.260874 0.000000
182.15199280 233.94900513 156.25000000 -0.686901 -0.686901 -0.237350 0.000000
238.26600647 192.51199341 143.75000000 -0.748209 -0.169147 0.641540 0.000000
170.92999268 263.30099487 126.25000000 0.000978 0.000978 0.999999 0.000000
235.67599487 169.20300293 193.75000000 -0.121013 0.095166 -0.988079 0.000000
266.75399780 168.33999634 171.25000000 -0.739156 -0.481196 0.471274 0.000000
102.73000336 185.60499573 3.75000000 0.753149 0.250002 -0.608494 0.000000
196.82800293 149.34800720 146.25000000 0.001242 0.945148 -0.326641 0.000000
114.81600189 296.10501099 93.75000000 -0.132544 -0.511241 0.849155 0.000000
245.17199707 188.19500732 156.25000000 -0.811647 -0.408225 0.417830 0.000000
158.84399414 147.18899536 135.00000000 0.210240 0.944021 -0.254212 0.000000
248.62500000 146.75799561 153.75000000 -0.001242 0.945148 -0.326641 0.000000
154.52699280 173.51899719 71.25000000 0.168163 -0.837839 0.519371 0.000000
176.10899353 262.43701172 131.25000000 -0.995888 -0.003195 0.090535 0.000000
199.41799927 169.63499451 192.50000000 0.404273 0.707891 -0.579183 0.000000
87.19139862 202.00799561 83.75000000 0.946851 0.317330 -0.052674 0.000000
250.78300476 183.01600647 162.50000000 -0.747122 -0.292769 0.596737 0.000000
174.38299561 186.46899414 91.25000000 -0.686901 -0.686901 0.237350 0.000000
113.08999634 186.46899414 3.75000000 -0.491969 -0.001333 0.870612 0.000000
113.95300293 186.46899414 3.75000000 -0.616226 -0.064339 0.784937 0.000000
206.32400513 181.28900146 198.75000000 0.058032 -0.313373 -0.947855 0.000000
104.02500153 206.32400513 177.50000000 0.945148 -0.001242 -0.326641 0.000000
115.68000031 303.01199341 148.75000000 0.300416 -0.901248 -0.312255 0.000000
115.24800110 159.70700073 55.00000000 0.499971 0.865804 -0.020324 0.000000
101.00399780 249.48800659 18.75000000 0.398276 -0.589978 0.702355 0.000000
104.88899994 266.75399780 40.00000000 0.475400 -0.809293 0.345023 0.000000
240.85499573 189.05900574 146.25000000 -0.864903 -0.361016 0.348726 0.000000
115.24800110 187.33200073 5.00000000 -0.616226 -0.064339 0.784937 0.000000
111.36299896 277.54501343 60.00000000 0.236524 -0.909821 0.341001 0.000000
146.75799561 225.74800110 65.00000000 -0.646981 -0.633675 0.424113 0.000000
239.12899780 142.87300110 140.00000000 -0.001242 0.945148 -0.326641 0.000000
109.20500183 171.79299927 110.00000000 0.677244 0.716814 -0.165887 0.000000
113.08999634 188.19500732 3.75000000 -0.587006 -0.091312 0.804416 0.000000
116.54299927 227.47500610 25.00000000 0.686901 -0.686901 0.237350 0.000000
229.63299561 175.67799377 105.00000000 -0.517082 -0.655195 0.550768 0.000000
179.99400330 236.53900146 167.50000000 -0.354264 -0.706895 -0.612207 0.000000
208.05099487 235.24400330 155.00000000 -0.873781 -0.485132 -0.033973 0.000000
163.16000366 282.29299927 153.75000000 0.000978 0.000978 -0.999999 0.000000
221.00000000 206.32400513 186.25000000 -0.267484 -0.533405 -0.802453 0.000000
120.42800140 275.38699341 90.00000000 -0.872490 0.056691 0.485331 0.000000
99.27729797 297.39999390 110.00000000 0.681906 -0.575202 0.451825 0.000000
168.33999634 282.29299927 136.25000000 -0.883929 -0.353873 0.305686 0.000000
135.53500366 196.82800293 186.25000000 -0.000978 -0.000978 -0.999999 0.000000
78.12689972 260.71099854 130.00000000 0.966968 -0.116548 0.226693 0.000000
249.48800659 151.07400513 166.25000000 0.001242 0.945148 -0.326641 0.000000
260.27899170 141.57800293 130.00000000 -0.325890 0.913941 -0.241883 0.000000
147.62100220 189.92199707 78.75000000 -0.766312 0.491812 0.413384 0.000000
232.22300720 195.10200500 138.75000000 -0.652163 -0.635568 0.413202 0.000000
91.50779724 205.46099854 118.75000000 0.888302 0.332174 -0.317143 0.000000
160.57000732 185.60499573 188.75000000 -0.000978 -0.000978 -0.999999 0.000000
155.39100647 246.89799500 103.75000000 -0.721653 -0.479443 0.499351 0.000000
101.00399780 290.06201172 98.75000000 0.617643 -0.690113 0.377174 0.000000
230.92799377 189.05900574 192.50000000 -0.345934 -0.100954 -0.932812 0.000000
131.21899414 277.97601318 173.75000000 -0.278718 -0.746964 -0.603623 0.000000
90.21289825 239.12899780 25.00000000 0.852050 -0.487952 0.189510 0.000000
197.69099426 167.47700500 188.75000000 0.190829 0.786214 -0.587752 0.000000
176.97300720 233.08599854 116.25000000 -0.934310 -0.234631 0.268351 0.000000
144.16799927 238.26600647 78.75000000 -0.613818 -0.573235 0.542798 0.000000
152.80099487 140.28300476 82.50000000 0.686901 0.686901 0.237350 0.000000
179.56199646 141.57800293 113.75000000 0.001242 0.945148 -0.326641 0.000000
145.03100586 252.50999451 100.00000000 -0.537199 -0.737622 0.409060 0.000000
212.36700439 173.51899719 198.75000000 0.146915 0.365189 -0.919268 0.000000
112.22699738 192.51199341 3.75000000 -0.794254 -0.110109 0.597526 0.000000
190.78500366 208.91400146 188.75000000 -0.000978 -0.000978 -0.999999 0.000000
222.72700500 139.41999817 107.50000000 0.076340 0.996719 -0.026880 0.000000
145.89399719 179.56199646 81.25000000 -0.822094 0.001359 0.569351 0.000000
208.05099487 167.04499817 190.00000000 0.130529 0.834506 -0.535316 0.000000
110.50000000 308.62298584 117.50000000 0.412110 -0.882242 0.227627 0.000000
116.54299927 239.12899780 28.75000000 -0.694569 -0.001381 0.719425 0.000000
119.99600220 155.82200623 67.50000000 0.560018 0.828389 0.012323 0.000000
141.57800293 248.62500000 186.25000000 0.447955 -0.447955 -0.773740 0.000000
106.18399811 194.66999817 162.50000000 0.705724 0.708486 0.001381 0.000000
84.16989899 250.35099792 112.50000000 0.945148 0.001242 0.326641 0.000000
116.54299927 164.88699341 111.25000000 0.624946 0.778691 -0.055519 0.000000
198.55499268 224.45300293 128.75000000 -0.358305 -0.692069 0.626625 0.000000
182.15199280 146.75799561 61.25000000 -0.817082 -0.222283 0.531946 0.000000
119.13300323 311.64401245 136.25000000 0.250490 -0.965457 0.071748 0.000000
172.22500610 170.92999268 190.00000000 0.318346 0.427050 -0.846336 0.000000
84.60150146 234.81199646 68.75000000 0.983784 -0.150518 0.097536 0.000000
94.96089935 245.17199707 181.25000000 0.551903 0.227254 -0.802346 0.000000
208.05099487 234.38099670 140.00000000 -0.840790 -0.273064 0.467448 0.000000
120.85900116 312.50799561 128.75000000 0.108618 -0.975066 -0.193515 0.000000
231.35899353 154.09599304 82.50000000 -0.546585 -0.706075 0.450226 0.000000
107.04699707 197.69099426 178.75000000 0.756227 0.454392 -0.470796 0.000000
112.22699738 195.10200500 3.75000000 -0.661245 -0.286593 0.693267 0.000000
163.16000366 202.87100220 188.75000000 -0.000978 -0.000978 -0.999999 0.000000
142.87300110 154.52699280 142.50000000 0.386809 0.904472 -0.179744 0.000000
268.48001099 148.91600037 125.00000000 -0.945619 0.322863 0.039560 0.000000
105.75199890 171.79299927 37.50000000 0.686901 0.686901 0.237350 0.000000
154.52699280 240.85499573 96.25000000 -0.446018 -0.714624 0.538870 0.000000
216.68400574 155.39100647 73.75000000 -0.376847 -0.659894 0.650020 0.000000
143.30499268 300.42199707 121.25000000 -0.570499 -0.570499 0.590814 0.000000
95.82420349 246.03500366 181.25000000 0.363906 -0.265874 -0.892683 0.000000
229.63299561 216.68400574 173.75000000 -0.335400 -0.932276 -0.135529 0.000000
181.28900146 178.69900513 123.75000000 0.500299 -0.001334 -0.865851 0.000000
142.44099426 306.46499634 138.75000000 -0.341659 -0.844008 -0.413424 0.000000
152.36900330 205.46099854 57.50000000 -0.945148 -0.001242 0.326641 0.000000
144.16799927 187.33200073 76.25000000 -0.841992 0.399828 0.362198 0.000000
166.18200684 206.32400513 87.50000000 -0.881503 0.361371 0.303914 0.000000
106.18399811 292.65200806 156.25000000 0.361546 -0.721457 -0.590580 0.000000
169.20300293 211.50399780 91.25000000 -0.705724 0.708486 -0.001381 0.000000
160.57000732 258.12100220 176.25000000 -0.570499 -0.570499 -0.590814 0.000000
112.65799713 196.82800293 5.00000000 -0.601285 -0.274465 0.750417 0.000000
142.87300110 174.38299561 182.50000000 0.341642 -0.001251 -0.939829 0.000000
159.70700073 247.76199341 108.75000000 -0.467999 -0.524625 0.711158 0.000000
183.87899780 150.21099854 66.25000000 -0.890875 -0.297957 0.342875 0.000000
227.90600586 168.33999634 96.25000000 -0.506827 -0.604488 0.614590 0.000000
154.52699280 139.41999817 80.00000000 0.446689 0.894688 -0.001310 0.000000
154.52699280 180.42599487 186.25000000 0.463605 0.185146 -0.866482 0.000000
191.64799500 225.74800110 172.50000000 -0.414775 -0.907065 0.072076 0.000000
110.50000000 242.58200073 186.25000000 -0.000978 -0.000978 -0.999999 0.000000
120.85900116 226.61099243 190.00000000 0.570499 -0.570499 -0.590814 0.000000
136.39799500 153.23199463 115.00000000 0.390491 0.912998 -0.118120 0.000000
136.39799500 258.12100220 183.75000000 0.082997 -0.393217 -0.915692 0.000000
142.44099426 144.60000610 75.00000000 0.483329 0.867697 -0.116171 0.000000
95.82420349 199.41799927 3.75000000 0.876504 0.372172 0.305333 0.000000
165.75000000 260.71099854 171.25000000 -0.587928 -0.001364 -0.808912 0.000000
202.00799561 237.40199280 163.75000000 -0.163939 -0.905228 -0.392028 0.000000
168.33999634 163.59199524 60.00000000 -0.570499 -0.570499 0.590814 0.000000
136.83000183 153.66400146 122.50000000 0.484294 0.808214 -0.335036 0.000000
202.87100220 211.50399780 121.25000000 0.060002 -0.294901 0.953642 0.000000
169.20300293 193.37500000 98.75000000 -0.001242 -0.945148 0.326641 0.000000
241.71899414 180.42599487 191.25000000 -0.368685 -0.921022 -0.125657 0.000000
160.57000732 249.91999817 110.00000000 -0.645607 -0.461148 0.608715 0.000000
132.94500732 150.64300537 82.50000000 0.479252 0.867287 -0.134654 0.000000
171.79299927 235.67599487 108.75000000 0.001359 -0.822094 -0.569351 0.000000
165.75000000 204.59800720 88.75000000 -0.952007 0.303886 -0.036567 0.000000
200.28100586 142.87300110 125.00000000 -0.028827 0.985890 -0.164892 0.000000
170.92999268 227.90600586 186.25000000 -0.508131 -0.451856 -0.733232 0.000000
159.70700073 238.26600647 186.25000000 -0.067423 -0.612544 -0.787556 0.000000
109.63700104 205.46099854 186.25000000 0.630683 -0.680084 -0.373799 0.000000
138.12500000 156.25399780 138.75000000 0.468297 0.871352 -0.146434 0.000000
214.95700073 190.78500366 193.75000000 -0.000978 -0.000978 -0.999999 0.000000
268.91198730 154.52699280 167.50000000 -0.889101 0.390373 -0.238974 0.000000
84.60150146 285.31399536 145.00000000 0.686901 -0.686901 -0.237350 0.000000
135.10299683 292.65200806 112.50000000 -0.886576 -0.182573 0.425030 0.000000
104.02500153 233.94900513 15.00000000 -0.750648 -0.257591 0.608420 0.000000
151.07400513 196.39599609 65.00000000 -0.705724 0.708486 0.001381 0.000000
189.92199707 211.50399780 188.75000000 -0.000978 -0.000978 -0.999999 0.000000
166.61300659 232.22300720 96.25000000 -0.722848 -0.480237 0.496854 0.000000
164.02299500 293.51599121 141.25000000 -0.776977 -0.518523 -0.356989 0.000000
208.91400146 157.54899597 172.50000000 0.103221 0.915229 -0.389488 0.000000
238.69700623 168.33999634 105.00000000 -0.666480 -0.532177 0.522104 0.000000
172.65600586 221.00000000 186.25000000 -0.249484 -0.126701 -0.960055 0.000000
157.97999573 152.80099487 36.25000000 -0.589761 -0.640168 0.492308 0.000000
149.34800720 161.43400574 41.25000000 -0.407229 -0.891817 0.197046 0.000000
83.73829651 221.86300659 51.25000000 0.999469 0.027565 0.017355 0.000000
247.33000183 195.10200500 162.50000000 -0.806913 -0.315473 0.499367 0.000000
101.00399780 197.25999451 145.00000000 0.751471 0.656275 -0.067791 0.000000
93.23439789 226.17999268 176.25000000 0.564166 0.273391 -0.779086 0.000000
140.71499634 262.00601196 107.50000000 -0.554363 -0.200059 0.807873 0.000000
88.05470276 249.05700684 70.00000000 0.915578 -0.391611 0.091421 0.000000
99.70899963 180.42599487 100.00000000 0.799496 0.571935 -0.183565 0.000000
210.64100647 168.33999634 193.75000000 0.072625 0.821658 -0.565335 0.000000
264.16400146 147.62100220 113.75000000 -0.580972 -0.762427 0.284915 0.000000
211.50399780 172.65600586 198.75000000 0.146915 0.365189 -0.919268 0.000000
83.30660248 260.71099854 162.50000000 0.760893 -0.635815 -0.129545 0.000000
134.67199707 249.48800659 81.25000000 -0.662699 -0.636258 0.394975 0.000000
186.46899414 175.67799377 120.00000000 0.865910 -0.323375 -0.381613 0.000000
151.07400513 297.83200073 148.75000000 -0.544104 -0.365443 -0.755249 0.000000
217.97799683 213.22999573 137.50000000 -0.814780 -0.459008 0.354183 0.000000
202.00799561 204.59800720 186.25000000 -0.000978 -0.000978 -0.999999 0.000000
107.04699707 203.73399353 3.75000000 -0.555599 -0.363339 0.747860 0.000000
146.75799561 226.17999268 193.75000000 -0.652448 -0.136489 -0.745441 0.000000
132.08200073 308.19100952 141.25000000 -0.072215 -0.842507 -0.533824 0.000000
184.74200439 243.01400757 145.00000000 -0.859361 0.510714 -0.025876 0.000000
141.14599609 164.88699341 20.00000000 0.129637 -0.642226 0.755473 0.000000
146.75799561 307.32800293 133.75000000 -0.001242 -0.945148 -0.326641 0.000000
150.21099854 276.25000000 121.25000000 -0.763338 -0.482194 0.429888 0.000000
152.80099487 271.07000732 121.25000000 -0.293208 -0.719401 0.629676 0.000000
147.18899536 295.24200439 152.50000000 -0.289765 -0.635563 -0.715609 0.000000
192.51199341 181.28900146 193.75000000 0.169055 -0.336712 -0.926307 0.000000
222.72700500 180.42599487 103.75000000 0.000978 0.000978 0.999999 0.000000
122.58599854 159.27499390 105.00000000 0.686901 0.686901 -0.237350 0.000000
135.53500366 165.75000000 158.75000000 0.215734 0.537040 -0.815504 0.000000
126.03900146 256.39401245 183.75000000 -0.022408 -0.208752 -0.977712 0.000000
128.62899780 223.58999634 196.25000000 -0.000978 -0.000978 -0.999999 0.000000
182.15199280 169.20300293 188.75000000 0.117524 0.694729 -0.709605 0.000000
250.78300476 179.56199646 160.00000000 -0.781948 -0.380451 0.493776 0.000000
183.87899780 151.50599670 67.50000000 -0.999999 0.000978 0.000978 0.000000
228.33799744 138.98800659 107.50000000 0.141570 0.988690 -0.049492 0.000000
151.93699646 161.00199890 47.50000000 -0.191342 -0.969554 0.152817 0.000000
189.05900574 143.73599243 125.00000000 -0.001242 0.945148 -0.326641 0.000000
85.89649963 240.85499573 85.00000000 -0.000978 -0.000978 -0.999999 0.000000
169.20300293 188.19500732 188.75000000 -0.000978 -0.000978 -0.999999 0.000000
197.69099426 168.33999634 188.75000000 0.190829 0.786214 -0.587752 0.000000
91.50779724 248.19299316 37.50000000 0.953981 -0.259451 0.150349 0.000000
147.62100220 271.93399048 173.75000000 -0.207386 -0.566856 -0.797286 0.000000
78.99019623 273.66000366 147.50000000 0.986241 -0.165311 -0.001125 0.000000
139.41999817 222.72700500 47.50000000 -0.684432 -0.628627 0.369298 0.000000
105.31999969 206.32400513 3.75000000 -0.427859 -0.304290 0.851084 0.000000
266.32199097 166.61300659 170.00000000 -0.882641 -0.284189 0.374408 0.000000
225.31599426 208.48199463 160.00000000 -0.338440 -0.846881 0.410184 0.000000
129.49200439 154.52699280 98.75000000 0.445968 0.893300 -0.055917 0.000000
141.57800293 206.32400513 36.25000000 -0.781906 -0.132552 0.609142 0.000000
236.53900146 176.10899353 193.75000000 -0.000978 -0.000978 -0.999999 0.000000
167.47700500 200.28100586 188.75000000 -0.000978 -0.000978 -0.999999 0.000000
191.21699524 197.69099426 120.00000000 0.247361 -0.915671 0.316796 0.000000
145.89399719 187.33200073 78.75000000 -0.766190 0.439456 0.468862 0.000000
132.08200073 290.92599487 161.25000000 -0.179415 -0.731462 -0.657856 0.000000
87.19139862 286.17800903 132.50000000 0.883830 -0.442636 0.151390 0.000000
178.69900513 207.18699646 123.75000000 -0.000978 -0.000978 0.999999 0.000000
148.05299377 277.97601318 167.50000000 -0.482480 -0.692835 -0.535904 0.000000
239.12899780 170.49800110 107.50000000 -0.559132 -0.576024 0.596295 0.000000
151.93699646 296.10501099 128.75000000 -0.749299 -0.229952 0.621026 0.000000
99.27729797 270.20700073 63.75000000 -0.000978 -0.000978 0.999999 0.000000
103.16200256 170.92999268 60.00000000 0.686901 0.686901 0.237350 0.000000
219.27299500 201.57600403 190.00000000 -0.300416 -0.901248 -0.312255 0.000000
88.91790009 238.69700623 30.00000000 0.902725 -0.366048 0.226046 0.000000
148.05299377 224.45300293 65.00000000 -0.646981 -0.633675 0.424113 0.000000
145.03100586 155.82200623 27.50000000 -0.570499 -0.570499 0.590814 0.000000
131.21899414 184.31100464 17.50000000 -0.690925 -0.318764 0.648855 0.000000
113.95300293 234.81199646 26.25000000 -0.694569 0.001381 0.719425 0.000000
89.34960175 203.73399353 105.00000000 0.975744 0.139034 -0.169096 0.000000
86.75969696 202.00799561 75.00000000 0.971228 0.233339 -0.047645 0.000000
150.21099854 140.28300476 52.50000000 0.370671 0.927338 0.051446 0.000000
220.13699341 182.15199280 103.75000000 -0.172547 -0.544648 0.820723 0.000000
146.75799561 258.98400879 108.75000000 -0.271420 -0.382387 0.883239 0.000000
199.41799927 150.64300537 150.00000000 0.060800 0.945627 -0.319521 0.000000
137.69299316 206.32400513 32.50000000 -0.828486 0.001356 0.560008 0.000000
199.41799927 173.51899719 196.25000000 0.112287 0.291947 -0.949820 0.000000
148.91600037 271.07000732 172.50000000 -0.450230 -0.466602 -0.761298 0.000000
169.20300293 232.22300720 183.75000000 -0.000978 -0.000978 -0.999999 0.000000
244.30900574 142.00999451 137.50000000 -0.001242 0.945148 -0.326641 0.000000
188.19500732 178.69900513 128.75000000 0.411428 0.243865 -0.878212 0.000000
112.65799713 227.90600586 185.00000000 0.427589 -0.014472 -0.903857 0.000000
89.34960175 282.29299927 157.50000000 0.657267 -0.526150 -0.539598 0.000000
116.54299927 253.80499268 31.25000000 -0.945148 -0.001242 0.326641 0.000000
98.41400146 246.03500366 16.25000000 0.463564 -0.597445 0.654345 0.000000
164.45500183 274.52301025 160.00000000 -0.463834 -0.611190 -0.641331 0.000000
97.55079651 186.03700256 110.00000000 0.804548 0.560283 -0.196939 0.000000
84.60150146 264.16400146 113.75000000 0.918357 -0.077093 0.388172 0.000000
94.09760284 210.64100647 3.75000000 0.831707 -0.017813 0.554928 0.000000
228.76899719 212.36700439 166.25000000 -0.217026 -0.676058 0.704162 0.000000
176.97300720 237.83399963 120.00000000 -0.840952 -0.306225 0.446124 0.000000
97.55079651 289.63101196 102.50000000 0.663940 -0.587010 0.463253 0.000000
181.72099304 239.99200439 157.50000000 -0.883929 0.353873 0.305686 0.000000
121.29100037 300.42199707 100.00000000 0.000978 0.000978 0.999999 0.000000
150.21099854 245.17199707 186.25000000 -0.125986 -0.496702 -0.858729 0.000000
156.68600464 145.89399719 125.00000000 0.412939 0.867021 -0.278848 0.000000
260.71099854 181.28900146 181.25000000 0.000978 -0.999999 0.000978 0.000000
149.34800720 149.34800720 126.25000000 0.248274 0.935585 -0.251079 0.000000
141.57800293 292.65200806 118.75000000 -0.260317 -0.522193 0.812127 0.000000
158.84399414 143.73599243 120.00000000 0.345555 0.930131 -0.124291 0.000000
183.87899780 208.91400146 121.25000000 0.312708 0.509540 0.801613 0.000000
151.07400513 149.34800720 126.25000000 0.297345 0.926179 -0.231901 0.000000
157.11700439 214.09399414 68.75000000 -0.794313 -0.264771 0.546776 0.000000
86.75969696 255.53100586 102.50000000 0.991670 -0.078922 0.101798 0.000000
156.25399780 211.50399780 66.25000000 -0.956574 -0.057166 0.285829 0.000000
133.80900574 277.97601318 106.25000000 -0.795887 -0.411666 0.443953 0.000000
138.98800659 176.97300720 26.25000000 -0.853051 -0.303890 0.424212 0.000000
239.99200439 148.05299377 160.00000000 -0.056251 0.935330 -0.349277 0.000000
195.96499634 202.87100220 188.75000000 -0.000978 -0.000978 -0.999999 0.000000
213.22999573 151.50599670 160.00000000 0.145995 0.949639 -0.277257 0.000000
242.58200073 200.28100586 161.25000000 -0.474707 -0.629029 0.615610 0.000000
144.60000610 164.88699341 55.00000000 -0.593150 -0.744251 0.307024 0.000000
197.25999451 234.81199646 140.00000000 0.917020 -0.189091 -0.351169 0.000000
147.62100220 145.89399719 98.75000000 0.401405 0.899204 -0.174086 0.000000
244.30900574 211.50399780 176.25000000 -0.001359 0.822094 0.569351 0.000000
104.45700073 226.17999268 181.25000000 0.536296 -0.127133 -0.834400 0.000000
112.22699738 309.91799927 133.75000000 0.359197 -0.850566 -0.384076 0.000000
242.58200073 180.85699463 135.00000000 -0.756778 -0.591778 0.277644 0.000000
92.80269623 246.89799500 30.00000000 0.920675 -0.310710 0.236254 0.000000
180.42599487 225.31599426 183.75000000 -0.291737 -0.831527 -0.472707 0.000000
129.49200439 294.37899780 158.75000000 0.059839 -0.864193 -0.499590 0.000000
142.87300110 188.19500732 47.50000000 -0.872216 0.489031 0.009379 0.000000
258.55300903 194.23800659 177.50000000 -0.755822 -0.611856 -0.233163 0.000000
189.05900574 179.99400330 92.50000000 -0.545607 -0.303822 0.781029 0.000000
123.44899750 271.93399048 178.75000000 0.220452 -0.553441 -0.803184 0.000000
104.45700073 193.37500000 143.75000000 0.600218 0.799835 -0.001367 0.000000
198.55499268 210.64100647 121.25000000 -0.313803 -0.337826 0.887356 0.000000
233.94900513 208.91400146 181.25000000 -0.312544 -0.559373 -0.767736 0.000000
252.94099426 211.93499756 172.50000000 0.510710 0.747181 0.425318 0.000000
108.34200287 189.92199707 150.00000000 0.736712 0.647133 -0.196148 0.000000
139.41999817 167.47700500 52.50000000 -0.686807 0.136760 0.713858 0.000000
137.26199341 229.63299561 196.25000000 -0.000978 -0.000978 -0.999999 0.000000
85.46479797 285.74600220 146.25000000 0.686901 -0.686901 -0.237350 0.000000
256.82598877 157.11700439 112.50000000 -0.686901 -0.686901 0.237350 0.000000
202.87100220 140.71499634 108.75000000 -0.186292 0.928660 -0.320759 0.000000
177.83599854 246.03500366 171.25000000 -0.472606 -0.552765 -0.686364 0.000000
156.25399780 182.15199280 83.75000000 -0.120608 -0.731093 0.671533 0.000000
94.09760284 214.95700073 3.75000000 0.945148 -0.001242 0.326641 0.000000
165.75000000 209.77699280 188.75000000 -0.000978 -0.000978 -0.999999 0.000000
131.64999390 250.35099792 77.50000000 -0.646168 -0.675614 0.354983 0.000000
91.07610321 221.00000000 170.00000000 0.492213 0.559410 -0.666924 0.000000
145.46299744 299.55899048 122.50000000 -0.606131 -0.107137 0.788116 0.000000
153.66400146 252.50999451 182.50000000 -0.164112 -0.495292 -0.853085 0.000000
144.60000610 279.70300293 167.50000000 -0.333703 -0.633222 -0.698335 0.000000
103.59400177 300.42199707 146.25000000 0.535873 -0.673620 -0.508995 0.000000
91.07610321 250.35099792 45.00000000 0.993801 -0.077483 0.079729 0.000000
102.73000336 288.33599854 93.75000000 0.633848 -0.593497 0.495982 0.000000
152.80099487 169.20300293 183.75000000 -0.000978 -0.000978 -0.999999 0.000000
99.70899963 177.83599854 92.50000000 0.686901 0.686901 -0.237350 0.000000
149.34800720 181.28900146 186.25000000 0.317755 -0.102373 -0.942630 0.000000
165.75000000 161.00199890 55.00000000 -0.351250 -0.684528 0.638784 0.000000
122.15399933 252.94099426 52.50000000 -0.355439 0.358516 -0.863209 0.000000
117.40599823 237.40199280 186.25000000 0.000978 0.000978 -0.999999 0.000000
154.52699280 147.62100220 126.25000000 0.489601 0.828436 -0.272001 0.000000
169.63499451 156.25399780 165.00000000 -0.036193 0.896771 -0.441013 0.000000
145.03100586 243.44500732 88.75000000 -0.616534 -0.653292 0.439427 0.000000
127.76599884 199.85000610 20.00000000 -0.678165 -0.431559 0.594852 0.000000
183.01600647 240.85499573 166.25000000 -0.686901 0.686901 -0.237350 0.000000
239.99200439 164.02299500 191.25000000 0.055839 0.720176 -0.691541 0.000000
260.71099854 172.65600586 168.75000000 -0.625431 -0.598459 0.500682 0.000000
155.39100647 217.54699707 188.75000000 -0.000978 -0.000978 -0.999999 0.000000
123.44899750 200.28100586 188.75000000 -0.195806 0.652173 -0.732346 0.000000
193.37500000 194.23800659 191.25000000 0.000978 0.000978 -0.999999 0.000000
83.30660248 234.81199646 120.00000000 0.957808 0.286227 0.026021 0.000000
205.46099854 164.88699341 81.25000000 -0.000978 -0.000978 0.999999 0.000000
237.40199280 175.24600220 193.75000000 -0.000978 -0.000978 -0.999999 0.000000
143.30499268 166.18200684 27.50000000 -0.862980 -0.095255 0.496178 0.000000
145.89399719 214.09399414 191.25000000 0.091401 0.468253 -0.878854 0.000000
240.85499573 196.39599609 157.50000000 -0.447200 -0.556922 0.699893 0.000000
160.57000732 210.64100647 118.75000000 -0.999999 0.000978 0.000978 0.000000
267.61700439 176.10899353 181.25000000 -0.554767 -0.628960 -0.544649 0.000000
124.31199646 167.04499817 145.00000000 0.762036 0.633787 0.132722 0.000000
170.06599426 231.35899353 183.75000000 -0.427137 -0.599987 -0.676439 0.000000
108.34200287 173.51899719 115.00000000 0.784520 0.584152 -0.208075 0.000000
215.82000732 173.51899719 198.75000000 -0.200578 0.176980 -0.963559 0.000000
90.64450073 249.91999817 50.00000000 0.916649 -0.386174 0.103071 0.000000
190.78500366 211.50399780 188.75000000 -0.000978 -0.000978 -0.999999 0.000000
95.39260101 188.19500732 47.50000000 0.916244 0.400452 0.011664 0.000000
245.17199707 170.06599426 193.75000000 -0.392100 -0.112226 -0.913052 0.000000
144.60000610 144.16799927 40.00000000 0.394307 0.897741 0.196426 0.000000
171.79299927 133.37699890 65.00000000 0.440313 0.884956 0.151583 0.000000
107.04699707 200.28100586 181.25000000 0.691519 0.500639 -0.520732 0.000000
88.91790009 286.60900879 116.25000000 0.852121 -0.482418 0.202886 0.000000
176.10899353 151.07400513 56.25000000 -0.671620 -0.275987 0.687573 0.000000
251.21499634 161.43400574 111.25000000 -0.613922 -0.613922 0.496184 0.000000
131.21899414 259.84799194 183.75000000 0.148918 -0.523426 -0.838957 0.000000
144.16799927 247.33000183 92.50000000 -0.570323 -0.600785 0.560169 0.000000
134.67199707 183.01600647 181.25000000 0.363721 -0.073277 -0.928621 0.000000
123.44899750 216.68400574 23.75000000 -0.542951 -0.818208 0.189050 0.000000
239.99200439 203.30299377 162.50000000 -0.225942 -0.474629 0.850693 0.000000
112.22699738 206.75599670 190.00000000 0.001242 0.945148 -0.326641 0.000000
90.21289825 290.92599487 140.00000000 0.782190 -0.588563 -0.204384 0.000000
158.84399414 189.49000549 95.00000000 0.334054 -0.669737 -0.663219 0.000000
246.03500366 138.12500000 116.25000000 0.216753 0.969686 -0.112813 0.000000
110.06800079 167.47700500 95.00000000 0.634370 0.760344 -0.139471 0.000000
257.25799561 163.16000366 188.75000000 -0.331013 0.479890 -0.812487 0.000000
140.71499634 167.47700500 53.75000000 -0.570499 -0.570499 0.590814 0.000000
90.21289825 197.69099426 100.00000000 0.951394 0.259716 -0.165518 0.000000
237.40199280 193.37500000 188.75000000 -0.000978 -0.000978 -0.999999 0.000000
121.72299957 240.85499573 38.75000000 -0.842362 -0.217041 0.493275 0.000000
211.50399780 176.54100037 95.00000000 -0.387258 -0.614669 0.687177 0.000000
153.66400146 147.62100220 123.75000000 0.477153 0.827586 -0.295678 0.000000
92.37110138 221.00000000 3.75000000 0.595381 -0.445285 0.668762 0.000000
207.61900330 183.01600647 197.50000000 -0.062691 -0.382817 -0.921695 0.000000
184.74200439 170.06599426 81.25000000 -0.536274 -0.486155 0.689973 0.000000
173.08799744 223.58999634 100.00000000 -0.839277 -0.374929 0.393754 0.000000
180.42599487 169.20300293 188.75000000 -0.032352 0.651261 -0.758164 0.000000
132.08200073 161.00199890 145.00000000 0.686901 0.686901 -0.237350 0.000000
211.50399780 209.77699280 123.75000000 0.000978 0.000978 0.999999 0.000000
203.73399353 211.50399780 183.75000000 -0.321761 -0.339889 -0.883711 0.000000
164.02299500 181.28900146 81.25000000 0.026699 -0.701211 0.712453 0.000000
99.27729797 236.53900146 181.25000000 0.282120 0.056930 -0.957689 0.000000
152.80099487 154.52699280 31.25000000 -0.348548 -0.656187 0.669278 0.000000
128.62899780 215.82000732 28.75000000 -0.491271 -0.311191 0.813519 0.000000
150.21099854 304.30700684 130.00000000 -0.710268 -0.517315 0.477393 0.000000
253.80499268 135.96699524 112.50000000 0.001242 0.945148 -0.326641 0.000000
171.79299927 201.14399719 188.75000000 -0.000978 -0.000978 -0.999999 0.000000
228.76899719 184.74200439 193.75000000 -0.228426 -0.162407 -0.959919 0.000000
140.71499634 247.76199341 186.25000000 0.333904 -0.408451 -0.849515 0.000000
81.14839935 265.02700806 121.25000000 0.872739 -0.070988 0.482999 0.000000
160.13900757 200.28100586 85.00000000 -0.621814 0.671559 0.402935 0.000000
161.43400574 270.63900757 165.00000000 -0.359781 -0.782483 -0.508211 0.000000
115.68000031 159.27499390 55.00000000 0.499971 0.865804 -0.020324 0.000000
170.06599426 214.95700073 188.75000000 -0.000978 -0.000978 -0.999999 0.000000
108.77300262 268.48001099 38.75000000 0.387544 -0.860007 0.331960 0.000000
164.88699341 209.77699280 121.25000000 -0.587928 -0.001364 0.808912 0.000000
121.72299957 225.31599426 28.75000000 -0.447955 -0.447955 0.773740 0.000000
107.47799683 192.51199341 155.00000000 0.829973 0.555648 0.048987 0.000000
214.52499390 212.36700439 160.00000000 -0.050404 -0.993514 0.101928 0.000000
226.17999268 154.52699280 78.75000000 -0.300952 -0.674325 0.674325 0.000000
88.91790009 221.86300659 168.75000000 0.570499 0.570499 -0.590814 0.000000
151.93699646 158.41200256 37.50000000 -0.551358 -0.713620 0.432146 0.000000
203.73399353 140.28300476 95.00000000 0.000978 0.999999 0.000978 0.000000
77.26360321 254.66799927 135.00000000 0.990944 -0.034948 0.129646 0.000000
79.85350037 260.71099854 155.00000000 0.897326 -0.122555 -0.424011 0.000000
267.61700439 168.33999634 183.75000000 -0.701483 -0.233828 -0.673235 0.000000
236.53900146 153.66400146 171.25000000 0.017556 0.868359 -0.495626 0.000000
127.76599884 294.37899780 158.75000000 0.059839 -0.864193 -0.499590 0.000000
108.77300262 304.73800659 108.75000000 0.484495 -0.790322 0.375041 0.000000
145.89399719 212.36700439 191.25000000 0.091401 0.468253 -0.878854 0.000000
94.96089935 224.45300293 3.75000000 -0.045225 -0.339837 0.939396 0.000000
113.08999634 257.68899536 27.50000000 -0.786521 -0.157906 0.597034 0.000000
212.36700439 141.57800293 121.25000000 0.000978 0.999999 0.000978 0.000000
138.98800659 154.95899963 135.00000000 0.411784 0.896743 -0.162131 0.000000
110.06800079 164.88699341 77.50000000 0.665569 0.734369 -0.133114 0.000000
220.13699341 208.48199463 150.00000000 -0.337424 -0.172212 -0.925466 0.000000
89.78119659 222.29499817 170.00000000 0.485559 0.660293 -0.572926 0.000000
210.64100647 168.33999634 86.25000000 -0.001364 -0.587928 0.808912 0.000000
120.85900116 246.46699524 187.50000000 0.501102 -0.409696 -0.762263 0.000000
145.89399719 201.14399719 188.75000000 -0.503496 -0.301466 -0.809697 0.000000
174.81399536 157.97999573 60.00000000 -0.570499 0.570499 0.590814 0.000000
147.62100220 218.41000366 56.25000000 -0.628076 -0.624726 0.463938 0.000000
96.68750000 228.76899719 178.75000000 0.645394 0.049865 -0.762220 0.000000
92.80269623 226.17999268 5.00000000 0.626334 -0.055642 0.777567 0.000000
173.51899719 241.71899414 178.75000000 -0.479564 -0.295236 -0.826350 0.000000
147.62100220 171.79299927 68.75000000 -0.378510 -0.722610 0.578416 0.000000
219.27299500 176.97300720 98.75000000 -0.577038 -0.029199 0.816195 0.000000
138.55700684 184.74200439 27.50000000 -0.791200 -0.357886 0.495904 0.000000
254.66799927 177.83599854 166.25000000 -0.938755 -0.080767 0.334986 0.000000
135.53500366 152.36900330 17.50000000 0.009478 0.997311 -0.072666 0.000000
157.11700439 271.93399048 166.25000000 -0.466380 -0.312490 -0.827550 0.000000
84.60150146 278.83999634 128.75000000 0.916153 -0.359359 0.177549 0.000000
172.65600586 185.60499573 188.75000000 0.350361 -0.019111 -0.936420 0.000000
194.23800659 224.45300293 173.75000000 -0.319948 -0.947395 0.008715 0.000000
254.66799927 180.42599487 186.25000000 -0.641129 -0.212675 -0.737376 0.000000
109.63700104 232.22300720 21.25000000 -0.679680 -0.508502 0.528640 0.000000
243.44500732 166.61300659 193.75000000 -0.208659 0.531546 -0.820927 0.000000
94.52929688 214.09399414 167.50000000 0.690961 0.540388 -0.480159 0.000000
175.24600220 185.60499573 191.25000000 0.241738 -0.872358 -0.424918 0.000000
84.16989899 238.26600647 115.00000000 0.945148 -0.001242 0.326641 0.000000
91.50779724 281.86099243 160.00000000 0.301428 -0.877020 -0.374135 0.000000
258.55300903 173.51899719 167.50000000 -0.623471 -0.610027 0.489030 0.000000
249.91999817 176.97300720 147.50000000 -0.800499 -0.573514 0.174021 0.000000
102.29900360 174.38299561 47.50000000 0.855127 0.426793 0.294287 0.000000
182.58399963 199.41799927 122.50000000 -0.480445 -0.738003 0.473841 0.000000
265.89099121 144.60000610 132.50000000 -0.551778 0.828387 -0.096525 0.000000
120.42800140 262.43701172 52.50000000 -0.947489 -0.314973 0.055281 0.000000
182.15199280 165.75000000 186.25000000 -0.388401 0.472206 -0.791307 0.000000
133.37699890 149.34800720 65.00000000 0.512118 0.858906 -0.004032 0.000000
239.12899780 140.28300476 127.50000000 -0.001242 0.945148 -0.326641 0.000000
167.04499817 150.21099854 47.50000000 -0.697349 -0.496673 0.516740 0.000000
111.36299896 246.03500366 23.75000000 -0.819487 -0.063911 0.569522 0.000000
246.03500366 161.86500549 105.00000000 -0.549647 -0.502582 0.667308 0.000000
170.06599426 211.50399780 188.75000000 -0.000978 -0.000978 -0.999999 0.000000
140.28300476 154.52699280 135.00000000 0.411784 0.896743 -0.162131 0.000000
122.58599854 159.70700073 6.25000000 0.229684 0.057728 0.971552 0.000000
158.84399414 138.55700684 85.00000000 0.313575 0.943392 -0.108083 0.000000
125.17600250 162.72799683 132.50000000 0.686901 0.686901 -0.237350 0.000000
157.97999573 239.99200439 96.25000000 -0.433374 -0.695723 0.572850 0.000000
174.81399536 167.47700500 72.50000000 -0.669340 -0.568687 0.478100 0.000000
128.62899780 295.24200439 156.25000000 0.001368 -0.797530 -0.603278 0.000000
148.48399353 256.39401245 181.25000000 -0.288861 -0.742101 -0.604852 0.000000
183.87899780 222.72700500 186.25000000 -0.144676 -0.589144 -0.794971 0.000000
91.50779724 202.87100220 116.25000000 0.989661 0.094198 -0.108153 0.000000
179.99400330 160.57000732 70.00000000 -0.699010 -0.630575 0.337284 0.000000
79.42189789 264.16400146 126.25000000 0.945148 -0.001242 0.326641 0.000000
158.84399414 157.97999573 46.25000000 -0.582821 -0.726485 0.364059 0.000000
111.36299896 164.45500183 85.00000000 0.693644 0.716814 -0.070957 0.000000
232.22300720 138.55700684 110.00000000 0.141570 0.988690 -0.049492 0.000000
252.07800293 160.13900757 187.50000000 -0.049440 0.806585 -0.589047 0.000000
134.67199707 282.29299927 168.75000000 0.004130 -0.631882 -0.775054 0.000000
241.71899414 184.74200439 141.25000000 -0.655553 -0.662125 0.363101 0.000000
106.61499786 252.07800293 20.00000000 -0.861790 -0.425557 0.276078 0.000000
80.71679688 232.22300720 157.50000000 0.959234 0.266525 -0.093992 0.000000
188.19500732 212.36700439 118.75000000 -0.339720 0.213580 0.915955 0.000000
180.85699463 253.80499268 162.50000000 -0.782335 -0.224631 -0.580942 0.000000
122.58599854 311.64401245 118.75000000 0.040247 -0.987769 0.150638 0.000000
89.34960175 265.02700806 95.00000000 0.945148 0.001242 -0.326641 0.000000
122.58599854 265.02700806 78.75000000 -0.933557 -0.310258 0.179477 0.000000
145.89399719 221.43200684 57.50000000 -0.628076 -0.624726 0.463938 0.000000
228.76899719 172.65600586 196.25000000 -0.287922 0.296691 -0.910536 0.000000
183.01600647 247.76199341 131.25000000 -0.844294 -0.034546 0.534766 0.000000
164.88699341 135.10299683 65.00000000 0.272978 0.961031 0.043627 0.000000
264.16400146 146.75799561 111.25000000 -0.580972 -0.762427 0.284915 0.000000
88.91790009 254.23599243 82.50000000 0.952567 -0.285113 0.106425 0.000000
126.03900146 159.27499390 120.00000000 0.605428 0.794536 -0.046571 0.000000
113.95300293 165.75000000 103.75000000 0.706290 0.703377 -0.080095 0.000000
139.85200500 309.48599243 132.50000000 -0.901248 -0.300416 0.312255 0.000000
138.98800659 177.40400696 45.00000000 -0.903018 0.107138 -0.416028 0.000000
83.30660248 226.17999268 77.50000000 0.993546 0.041166 -0.105696 0.000000
93.23439789 193.80700684 40.00000000 0.899505 0.429840 0.078278 0.000000
252.94099426 158.41200256 185.00000000 0.090745 0.886509 -0.453725 0.000000
261.57400513 155.39100647 176.25000000 -0.455323 0.850856 -0.262156 0.000000
167.47700500 174.81399536 190.00000000 0.355830 0.355830 -0.864159 0.000000
120.85900116 182.15199280 166.25000000 0.686901 0.686901 -0.237350 0.000000
89.34960175 213.22999573 137.50000000 0.869446 0.483656 0.100703 0.000000
151.93699646 167.04499817 62.50000000 0.001242 -0.945148 0.326641 0.000000
209.77699280 142.00999451 77.50000000 -0.088457 0.973030 0.213045 0.000000
110.50000000 214.95700073 188.75000000 0.545692 -0.182905 -0.817782 0.000000
121.72299957 261.14300537 65.00000000 -0.872896 -0.485248 0.050862 0.000000
213.22999573 213.22999573 161.25000000 -0.050404 -0.993514 0.101928 0.000000
241.71899414 191.21699524 150.00000000 -0.892662 -0.306525 0.330449 0.000000
258.12100220 142.44099426 136.25000000 -0.001081 0.993536 -0.113516 0.000000
156.25399780 216.68400574 68.75000000 -0.545692 -0.182905 0.817782 0.000000
140.71499634 222.72700500 196.25000000 -0.126280 -0.046644 -0.990897 0.000000
258.12100220 170.92999268 163.75000000 -0.690173 -0.529746 0.492981 0.000000
145.03100586 272.79699707 116.25000000 -0.508301 -0.366299 0.779394 0.000000
103.16200256 197.69099426 162.50000000 0.751306 0.642901 -0.149057 0.000000
144.60000610 196.82800293 40.00000000 -0.828486 -0.001356 0.560008 0.000000
150.21099854 267.18499756 175.00000000 -0.244050 -0.495775 -0.833455 0.000000
127.76599884 193.80700684 17.50000000 -0.668389 -0.412975 0.618633 0.000000
132.08200073 149.77900696 52.50000000 -0.000978 -0.000978 0.999999 0.000000
116.54299927 162.72799683 7.50000000 0.875649 0.257721 0.408435 0.000000
114.38500214 161.43400574 85.00000000 0.686901 0.686901 0.237350 0.000000
218.84199524 210.64100647 150.00000000 -0.847852 -0.509887 -0.145472 0.000000
183.44700623 152.80099487 87.50000000 -0.988690 -0.141570 -0.049492 0.000000
183.87899780 149.34800720 66.25000000 -0.959590 -0.170741 0.223684 0.000000
130.78700256 256.39401245 85.00000000 -0.535660 -0.569456 0.623529 0.000000
172.65600586 228.76899719 103.75000000 -0.856822 -0.507273 0.092361 0.000000
105.31999969 245.17199707 183.75000000 0.519667 -0.309893 -0.796186 0.000000
121.72299957 163.16000366 6.25000000 0.209456 0.220266 0.952686 0.000000
156.25399780 176.10899353 186.25000000 0.380787 -0.043481 -0.923640 0.000000
271.50201416 163.16000366 172.50000000 -0.812411 0.579889 0.060966 0.000000
113.08999634 160.57000732 61.25000000 0.289700 0.957110 0.003667 0.000000
236.53900146 138.12500000 98.75000000 0.036751 0.998569 0.038851 0.000000
106.61499786 213.22999573 182.50000000 0.381263 0.001275 -0.924466 0.000000
142.44099426 168.33999634 36.25000000 -0.942623 -0.324725 -0.077566 0.000000
99.27729797 179.99400330 50.00000000 0.858755 0.505067 0.086300 0.000000
220.13699341 176.10899353 98.75000000 -0.570499 -0.570499 0.590814 0.000000
107.04699707 174.81399536 115.00000000 0.784520 0.584152 -0.208075 0.000000
115.68000031 163.59199524 7.50000000 0.694689 0.581947 0.422782 0.000000
170.06599426 212.79899597 120.00000000 -0.133120 0.641667 0.755343 0.000000
85.89649963 214.95700073 92.50000000 0.957237 0.285536 -0.046541 0.000000
216.68400574 212.79899597 155.00000000 -0.545344 -0.602749 -0.582489 0.000000
119.56400299 259.84799194 45.00000000 -0.635449 -0.635449 -0.438644 0.000000
82.01170349 277.97601318 151.25000000 0.754039 -0.337461 -0.563511 0.000000
248.62500000 146.32600403 95.00000000 -0.429849 -0.575898 0.695393 0.000000
107.04699707 226.61099243 15.00000000 -0.694904 -0.444939 0.564922 0.000000
166.61300659 164.45500183 182.50000000 0.142958 0.711779 -0.687702 0.000000
168.33999634 199.41799927 111.25000000 -0.639954 -0.623245 0.449472 0.000000
132.51400757 247.76199341 75.00000000 -0.642636 -0.662461 0.384921 0.000000
194.23800659 231.79100037 137.50000000 0.819006 -0.418250 -0.392805 0.000000
122.15399933 259.84799194 60.00000000 -0.873427 -0.477058 0.097677 0.000000
155.82200623 198.55499268 80.00000000 -0.686901 0.686901 0.237350 0.000000
262.43701172 191.64799500 176.25000000 -0.753495 -0.619886 -0.219057 0.000000
129.49200439 209.77699280 26.25000000 -0.743583 -0.185512 0.642394 0.000000
92.37110138 247.76199341 178.75000000 0.688710 -0.206768 -0.694928 0.000000
136.39799500 187.33200073 183.75000000 0.000978 0.000978 -0.999999 0.000000
119.99600220 297.39999390 155.00000000 0.238643 -0.584908 -0.775198 0.000000
186.03700256 144.16799927 72.50000000 -0.999999 0.000978 0.000978 0.000000
116.54299927 164.88699341 6.25000000 0.509847 0.661287 0.550231 0.000000
226.61099243 190.78500366 125.00000000 -0.521798 -0.708511 0.475119 0.000000
112.22699738 165.75000000 23.75000000 0.595769 0.777425 0.201669 0.000000
182.15199280 236.53900146 128.75000000 -0.806104 -0.318324 0.498866 0.000000
90.21289825 209.77699280 120.00000000 0.922860 0.327467 -0.202717 0.000000
153.66400146 170.92999268 183.75000000 0.192728 0.479580 -0.856072 0.000000
176.10899353 198.98599243 117.50000000 0.001381 -0.694569 0.719425 0.000000
246.89799500 194.23800659 161.25000000 -0.805151 -0.311620 0.504603 0.000000
211.50399780 160.57000732 181.25000000 0.001242 0.945148 -0.326641 0.000000
200.71299744 186.46899414 102.50000000 -0.390312 -0.779004 0.490724 0.000000
132.94500732 196.82800293 23.75000000 0.001381 -0.694569 0.719425 0.000000
76.83200073 261.14300537 140.00000000 0.999562 -0.015222 0.025370 0.000000
88.91790009 195.96499634 66.25000000 0.943392 0.313575 0.108083 0.000000
261.14300537 167.47700500 165.00000000 -0.701851 -0.488462 0.518469 0.000000
100.14099884 195.96499634 133.75000000 0.788052 0.438526 -0.432053 0.000000
215.38900757 200.28100586 125.00000000 -0.836559 0.337449 0.431621 0.000000
129.92399597 159.70700073 135.00000000 -0.000978 -0.000978 -0.999999 0.000000
147.18899536 232.22300720 75.00000000 -0.760878 -0.379624 0.526260 0.000000
145.03100586 157.97999573 158.75000000 0.454115 0.814220 -0.361698 0.000000
85.03320313 223.58999634 165.00000000 0.815694 0.351400 -0.459523 0.000000
94.09760284 258.98400879 173.75000000 0.000000 0.000000 0.000000 0.000000
117.40599823 189.92199707 176.25000000 0.465966 0.721336 -0.512397 0.000000
188.19500732 194.23800659 188.75000000 0.427199 0.030609 -0.903639 0.000000
158.84399414 217.54699707 76.25000000 0.000978 0.000978 0.999999 0.000000
101.43599701 275.38699341 70.00000000 0.001361 -0.823366 0.567510 0.000000
151.07400513 302.14801025 128.75000000 -0.710268 -0.517315 0.477393 0.000000
265.89099121 141.14599609 115.00000000 -0.875649 0.257721 -0.408435 0.000000
135.53500366 201.14399719 28.75000000 -0.834101 -0.096519 0.543102 0.000000
83.73829651 240.85499573 116.25000000 0.945148 -0.001242 0.326641 0.000000
106.61499786 166.61300659 62.50000000 0.797171 0.599667 -0.070128 0.000000
224.45300293 199.41799927 191.25000000 -0.097670 -0.785735 -0.610803 0.000000
159.27499390 243.44500732 102.50000000 -0.498237 -0.704864 0.504903 0.000000
141.14599609 266.75399780 110.00000000 -0.447955 -0.447955 0.773740 0.000000
227.90600586 166.61300659 193.75000000 0.052830 0.738196 -0.672515 0.000000
235.67599487 168.33999634 101.25000000 -0.754591 -0.250480 0.606508 0.000000
115.68000031 225.31599426 21.25000000 -0.511881 -0.701960 0.495207 0.000000
242.58200073 183.87899780 141.25000000 -0.655553 -0.662125 0.363101 0.000000
100.14099884 206.32400513 168.75000000 0.832367 0.438999 -0.338297 0.000000
167.47700500 157.97999573 168.75000000 0.029515 0.938066 -0.345198 0.000000
222.72700500 154.09599304 75.00000000 -0.130045 -0.710013 0.692076 0.000000
130.35499573 239.12899780 188.75000000 -0.146326 -0.539486 -0.829183 0.000000
81.58010101 257.25799561 120.00000000 0.837839 -0.168163 0.519371 0.000000
83.73829651 229.63299561 126.25000000 0.686901 0.686901 0.237350 0.000000
186.03700256 253.80499268 145.00000000 -0.945148 0.001242 0.326641 0.000000
100.14099884 265.02700806 48.75000000 0.686901 -0.686901 0.237350 0.000000
129.49200439 297.83200073 153.75000000 0.159628 -0.679558 -0.716044 0.000000
128.62899780 253.80499268 78.75000000 -0.729631 -0.662609 0.169079 0.000000
189.92199707 183.44700623 192.50000000 0.134035 -0.465519 -0.874830 0.000000
147.62100220 242.14999390 90.00000000 -0.600325 -0.680147 0.420726 0.000000
255.53100586 165.75000000 191.25000000 -0.822094 0.001359 -0.569351 0.000000
