201.56199646 173.43800354 392.50000000 -0.582927 0.582927 -0.566031 0.000000
217.18800354 167.96899414 392.50000000 -0.000978 -0.000978 -0.999999 0.000000
225.00000000 176.56199646 332.50000000 -0.697027 -0.283618 0.658570 0.000000
160.15600586 224.21899414 287.50000000 0.000978 0.000978 0.999999 0.000000
264.84399414 183.98399353 370.00000000 -0.676065 -0.551924 0.488176 0.000000
230.46899414 99.21880341 282.50000000 -0.499043 -0.297537 0.813897 0.000000
232.03100586 113.28099823 292.50000000 -0.223939 -0.882410 0.413769 0.000000
228.12500000 135.93800354 307.50000000 0.000978 0.000978 0.999999 0.000000
114.06199646 282.81201172 367.50000000 -0.000978 -0.000978 -0.999999 0.000000
129.29699707 211.71899414 405.00000000 0.175723 -0.533178 -0.827552 0.000000
163.28100586 203.90600586 322.50000000 0.000978 0.000978 0.999999 0.000000
152.34399414 193.35899353 280.00000000 -0.797007 -0.291973 0.528708 0.000000
155.46899414 156.25000000 297.50000000 -0.171710 -0.205790 0.963414 0.000000
161.32800293 272.65600586 370.00000000 -0.652049 -0.554326 -0.517258 0.000000
135.15600586 137.50000000 297.50000000 0.000978 0.000978 0.999999 0.000000
125.78099823 107.03099823 317.50000000 0.987889 -0.001116 0.155160 0.000000
162.50000000 260.93798828 377.50000000 -0.423964 -0.539440 -0.727502 0.000000
127.34400177 129.68800354 297.50000000 -0.557076 0.506585 0.658056 0.000000
102.73400116 178.12500000 390.00000000 0.786402 0.320622 -0.527990 0.000000
96.87500000 222.65600586 247.50000000 0.000978 0.000978 0.999999 0.000000
257.03100586 152.73399353 345.00000000 -0.376791 -0.224315 0.898727 0.000000
143.75000000 104.68800354 332.50000000 -0.000978 -0.000978 -0.999999 0.000000
157.81199646 222.65600586 287.50000000 0.000978 0.000978 0.999999 0.000000
107.03099823 213.28100586 397.50000000 -0.000978 -0.000978 -0.999999 0.000000
159.37500000 185.93800354 322.50000000 -0.728312 0.300650 0.615769 0.000000
139.84399414 153.90600586 297.50000000 0.154816 0.033257 0.987383 0.000000
111.71900177 279.68798828 367.50000000 -0.000978 -0.000978 -0.999999 0.000000
278.12500000 125.00000000 332.50000000 -0.906999 0.089461 0.411521 0.000000
259.37500000 92.18750000 307.50000000 -0.518489 0.669506 -0.531913 0.000000
254.68800354 86.71880341 292.50000000 0.000978 0.000978 0.999999 0.000000
197.65600586 187.50000000 332.50000000 0.232614 0.914561 -0.330860 0.000000
181.25000000 76.56250000 302.50000000 -0.001116 0.987889 -0.155160 0.000000
153.12500000 200.00000000 407.50000000 0.000978 0.000978 -0.999999 0.000000
89.06250000 231.25000000 377.50000000 -0.000978 -0.000978 -0.999999 0.000000
239.84399414 163.28100586 387.50000000 -0.000978 -0.000978 -0.999999 0.000000
199.21899414 112.50000000 277.50000000 0.000978 0.000978 0.999999 0.000000
232.03100586 132.81199646 307.50000000 -0.387730 -0.661616 0.641817 0.000000
191.40600586 136.32800293 290.00000000 0.004151 -0.718083 0.695945 0.000000
75.78119659 223.82800293 250.00000000 0.793668 -0.576518 0.194212 0.000000
171.09399414 204.68800354 402.50000000 -0.000978 -0.000978 -0.999999 0.000000
154.68800354 224.21899414 282.50000000 -0.999995 -0.000981 0.002944 0.000000
181.25000000 177.34399414 402.50000000 -0.000978 -0.000978 -0.999999 0.000000
171.09399414 118.75000000 282.50000000 0.000978 0.000978 0.999999 0.000000
189.06199646 247.65600586 367.50000000 -0.000978 -0.000978 -0.999999 0.000000
155.46899414 172.65600586 397.50000000 0.362223 0.374660 -0.853478 0.000000
215.23399353 223.43800354 345.00000000 0.372296 0.458579 -0.806908 0.000000
111.32800293 232.81199646 395.00000000 0.216593 -0.684060 -0.696526 0.000000
245.31199646 92.18750000 282.50000000 -0.560064 -0.115522 0.820355 0.000000
103.12500000 240.62500000 387.50000000 0.561390 -0.356361 -0.746893 0.000000
75.39060211 224.21899414 290.00000000 0.976519 -0.189363 -0.102726 0.000000
159.37500000 85.93750000 307.50000000 0.647355 0.647355 -0.402321 0.000000
204.68800354 114.84400177 282.50000000 0.020149 -0.219270 0.975456 0.000000
176.17199707 282.81201172 345.00000000 -0.739136 -0.661490 -0.126922 0.000000
200.78100586 112.50000000 357.50000000 -0.088520 0.782173 -0.616741 0.000000
181.25000000 214.06199646 317.50000000 -0.907270 -0.240288 -0.345141 0.000000
240.62500000 75.78119659 292.50000000 0.000978 0.000978 0.999999 0.000000
87.50000000 155.46899414 297.50000000 -0.000978 -0.000978 -0.999999 0.000000
114.84400177 301.56201172 337.50000000 0.000000 0.000000 0.000000 0.000000
186.71899414 240.23399353 320.00000000 -0.692485 0.241344 0.679866 0.000000
66.40619659 205.46899414 262.50000000 0.949085 0.071214 -0.306866 0.000000
195.31199646 82.81250000 312.50000000 -0.492191 0.835651 -0.243795 0.000000
99.21880341 225.00000000 247.50000000 -0.870364 -0.077085 0.486338 0.000000
105.46900177 244.53100586 262.50000000 0.161936 -0.612937 0.773360 0.000000
205.46899414 70.70310211 290.00000000 0.471891 -0.001322 -0.881656 0.000000
202.34399414 123.43800354 282.50000000 0.000978 0.000978 0.999999 0.000000
199.21899414 108.59400177 277.50000000 0.000978 0.000978 0.999999 0.000000
196.87500000 80.46880341 272.50000000 0.000978 0.000978 0.999999 0.000000
171.87500000 225.78100586 302.50000000 -0.769145 -0.277527 0.575669 0.000000
179.68800354 121.09400177 282.50000000 0.000978 0.000978 0.999999 0.000000
208.59399414 232.03100586 357.50000000 0.177268 0.355953 0.917537 0.000000
82.81250000 155.46899414 292.50000000 -0.000978 -0.000978 -0.999999 0.000000
210.15600586 111.71900177 282.50000000 -0.453556 -0.177606 0.873352 0.000000
166.40600586 151.95300293 300.00000000 -0.458560 0.394201 0.796447 0.000000
135.15600586 141.79699707 350.00000000 0.954848 -0.001223 -0.297091 0.000000
263.28100586 153.12500000 347.50000000 -0.637947 -0.513387 0.573984 0.000000
167.18800354 209.37500000 292.50000000 -0.615642 -0.315093 0.722289 0.000000
161.71899414 214.84399414 402.50000000 -0.000978 -0.000978 -0.999999 0.000000
126.56199646 175.78100586 402.50000000 0.000978 0.000978 -0.999999 0.000000
234.37500000 172.65600586 387.50000000 -0.356775 -0.199163 -0.912713 0.000000
247.65600586 159.37500000 342.50000000 -0.001116 -0.987889 0.155160 0.000000
236.71899414 114.84400177 357.50000000 0.379254 0.756880 -0.532258 0.000000
212.50000000 103.12500000 337.50000000 0.000978 0.000978 -0.999999 0.000000
144.14100647 172.65600586 295.00000000 -0.649273 0.685073 0.330332 0.000000
100.00000000 221.87500000 392.50000000 -0.000978 -0.000978 -0.999999 0.000000
126.56199646 169.53100586 272.50000000 -0.000978 -0.000978 0.999999 0.000000
171.09399414 142.57800293 385.00000000 0.700141 0.553793 -0.450684 0.000000
159.37500000 200.78100586 322.50000000 0.000978 0.000978 0.999999 0.000000
96.87500000 290.62500000 322.50000000 0.569258 -0.717760 0.400956 0.000000
78.12500000 158.59399414 262.50000000 0.000978 0.000978 0.999999 0.000000
121.48400116 145.31199646 325.00000000 0.682576 0.531637 -0.501450 0.000000
117.18800354 218.75000000 262.50000000 -0.400341 -0.074640 0.913321 0.000000
231.25000000 133.59399414 382.50000000 -0.208636 0.940935 -0.266667 0.000000
169.53100586 88.28119659 322.50000000 -0.107799 0.713247 -0.692573 0.000000
132.81199646 185.93800354 267.50000000 0.000978 0.000978 0.999999 0.000000
263.28100586 169.53100586 382.50000000 -0.233322 -0.811218 -0.536177 0.000000
183.59399414 247.65600586 317.50000000 -0.685497 0.262429 0.679135 0.000000
235.93800354 110.93800354 347.50000000 -0.001223 0.954848 -0.297091 0.000000
234.37500000 151.56199646 327.50000000 0.001116 -0.987889 0.155160 0.000000
71.87500000 160.93800354 262.50000000 0.561293 0.128169 0.817632 0.000000
194.53100586 179.68800354 342.50000000 -0.837737 -0.260732 0.479809 0.000000
113.28099823 273.43798828 287.50000000 -0.108607 -0.543036 0.832656 0.000000
117.96900177 301.56201172 337.50000000 0.001299 -0.905318 -0.424733 0.000000
217.18800354 196.09399414 362.50000000 0.774820 -0.526749 0.349555 0.000000
231.25000000 160.93800354 332.50000000 -0.468488 -0.616255 0.633047 0.000000
185.15600586 182.03100586 332.50000000 0.944257 0.313869 -0.099326 0.000000
110.15599823 250.00000000 267.50000000 -0.065357 -0.871894 0.485313 0.000000
129.68800354 293.75000000 312.50000000 -0.128072 -0.819952 0.557921 0.000000
195.31199646 212.50000000 352.50000000 0.803757 0.402681 -0.437975 0.000000
189.84399414 122.65599823 372.50000000 0.156414 0.942562 -0.295146 0.000000
110.93800354 195.31199646 402.50000000 0.316917 -0.587182 -0.744836 0.000000
185.93800354 81.64060211 310.00000000 -0.332163 0.775047 -0.537559 0.000000
253.12500000 163.28100586 347.50000000 -0.000978 -0.000978 -0.999999 0.000000
155.46899414 182.03100586 402.50000000 -0.000978 -0.000978 -0.999999 0.000000
94.53119659 286.71899414 342.50000000 0.670488 -0.505807 -0.542776 0.000000
189.84399414 194.53100586 307.50000000 -0.004113 0.796525 0.604591 0.000000
145.31199646 185.93800354 407.50000000 -0.000978 -0.000978 -0.999999 0.000000
160.93800354 218.75000000 287.50000000 0.000978 0.000978 0.999999 0.000000
209.37500000 152.34399414 307.50000000 -0.221913 -0.472508 0.852931 0.000000
187.89100647 225.00000000 350.00000000 -0.973589 0.227608 0.017875 0.000000
212.50000000 149.21899414 392.50000000 -0.000978 -0.000978 -0.999999 0.000000
175.78100586 211.71899414 297.50000000 -0.762186 -0.107620 0.638349 0.000000
66.01560211 207.03100586 260.00000000 0.987889 -0.001116 -0.155160 0.000000
250.78100586 155.46899414 382.50000000 -0.000978 -0.000978 -0.999999 0.000000
146.09399414 123.04699707 340.00000000 0.632726 0.464894 -0.619299 0.000000
139.06199646 142.18800354 297.50000000 0.000978 0.000978 0.999999 0.000000
180.46899414 247.65600586 312.50000000 -0.731408 0.052959 0.679880 0.000000
100.78099823 265.62500000 372.50000000 0.658275 -0.457275 -0.597975 0.000000
73.82810211 245.31199646 345.00000000 0.963804 0.250818 -0.090396 0.000000
225.78100586 163.28100586 327.50000000 -0.888302 -0.332174 0.317143 0.000000
183.59399414 116.40599823 357.50000000 -0.188931 0.861345 -0.471583 0.000000
109.37500000 162.89100647 345.00000000 0.716557 0.696771 0.032507 0.000000
161.71899414 93.75000000 282.50000000 0.732797 -0.367214 0.572855 0.000000
185.15600586 241.40600586 372.50000000 -0.606140 -0.606140 -0.514965 0.000000
107.81199646 182.81199646 262.50000000 -0.504004 0.062826 0.861414 0.000000
228.12500000 177.34399414 387.50000000 -0.000978 -0.000978 -0.999999 0.000000
187.89100647 225.78100586 355.00000000 -0.854708 -0.512825 0.080526 0.000000
246.87500000 167.96899414 382.50000000 -0.000978 -0.000978 -0.999999 0.000000
134.37500000 177.34399414 407.50000000 -0.000978 -0.000978 -0.999999 0.000000
95.31250000 230.46899414 247.50000000 -0.346693 0.371347 0.861339 0.000000
132.03100586 178.90600586 267.50000000 -0.882394 0.377310 0.281103 0.000000
96.87500000 230.46899414 247.50000000 -0.504629 -0.122904 0.854543 0.000000
189.84399414 251.56199646 342.50000000 -0.626797 -0.606632 0.489002 0.000000
193.75000000 129.68800354 382.50000000 -0.000978 -0.000978 -0.999999 0.000000
167.96899414 216.40600586 292.50000000 0.558781 -0.558781 0.612802 0.000000
86.71880341 248.43800354 372.50000000 0.699219 -0.272361 -0.660993 0.000000
185.93800354 227.34399414 367.50000000 -0.691755 -0.722131 -0.001381 0.000000
175.00000000 271.09399414 317.50000000 -0.899534 0.030651 0.435774 0.000000
80.85939789 231.25000000 250.00000000 0.228493 -0.918283 -0.323339 0.000000
229.68800354 109.37500000 347.50000000 0.095687 0.849755 -0.518422 0.000000
183.59399414 160.93800354 332.50000000 0.254009 -0.939695 0.229025 0.000000
260.93798828 121.87500000 317.50000000 -0.469334 -0.683123 0.559526 0.000000
260.93798828 91.40619659 297.50000000 -0.402162 -0.666960 0.627240 0.000000
119.53099823 184.37500000 262.50000000 -0.272936 0.946449 0.172452 0.000000
75.00000000 148.82800293 285.00000000 0.744469 0.470451 -0.473753 0.000000
225.78100586 139.06199646 387.50000000 -0.057901 0.166614 -0.984321 0.000000
124.21900177 225.78100586 267.50000000 -0.521756 0.074941 0.849797 0.000000
171.09399414 105.85900116 340.00000000 0.219931 0.841803 -0.492948 0.000000
114.06199646 170.31199646 397.50000000 0.474296 0.591614 -0.651948 0.000000
87.50000000 250.78100586 272.50000000 0.792251 -0.521259 0.317219 0.000000
169.53100586 290.23400879 335.00000000 -0.582087 -0.812698 0.026395 0.000000
211.71899414 187.89100647 325.00000000 -0.069806 0.343763 0.936458 0.000000
154.68800354 159.76600647 390.00000000 0.590902 0.412142 -0.693523 0.000000
135.15600586 157.03100586 297.50000000 0.000978 0.000978 0.999999 0.000000
128.51600647 124.21900177 325.00000000 0.635387 0.275493 -0.721379 0.000000
82.81250000 207.81199646 367.50000000 0.807497 0.212983 -0.550079 0.000000
205.46899414 201.56199646 317.50000000 0.000978 0.000978 0.999999 0.000000
257.81201172 132.03100586 372.50000000 -0.257905 0.640808 -0.723084 0.000000
132.03100586 257.81201172 282.50000000 0.000978 0.000978 0.999999 0.000000
187.50000000 70.31250000 287.50000000 -0.474819 0.711395 -0.518135 0.000000
257.81201172 146.09399414 377.50000000 -0.609733 -0.032239 -0.791951 0.000000
182.42199707 251.56199646 370.00000000 0.354244 -0.896727 -0.265313 0.000000
103.90599823 176.17199707 390.00000000 0.617221 0.427563 -0.660476 0.000000
189.06199646 171.87500000 332.50000000 0.109711 -0.993915 0.009776 0.000000
273.04699707 157.81199646 375.00000000 -0.569505 0.758805 -0.316035 0.000000
239.06199646 85.15619659 307.50000000 -0.340565 0.666464 -0.663205 0.000000
145.31199646 221.09399414 277.50000000 -0.000978 -0.000978 0.999999 0.000000
160.15600586 193.75000000 407.50000000 -0.000978 -0.000978 -0.999999 0.000000
260.93798828 124.21900177 362.50000000 -0.490645 0.753197 -0.438134 0.000000
169.53100586 190.62500000 327.50000000 -0.180590 0.403077 0.897171 0.000000
83.59380341 232.81199646 247.50000000 0.671037 -0.671037 0.315307 0.000000
187.50000000 83.59380341 272.50000000 0.000978 0.000978 0.999999 0.000000
275.00000000 166.40600586 367.50000000 -0.732125 -0.431343 0.527196 0.000000
161.71899414 178.12500000 317.50000000 -0.638359 -0.635026 0.435018 0.000000
94.53119659 281.25000000 352.50000000 0.571302 -0.703778 -0.422267 0.000000
252.34399414 121.09400177 362.50000000 -0.424268 0.781889 -0.456779 0.000000
257.03100586 121.09400177 357.50000000 -0.366126 0.697773 -0.615682 0.000000
123.04699707 267.96899414 380.00000000 0.503455 0.001335 -0.864020 0.000000
162.50000000 247.65600586 387.50000000 -0.337712 -0.352994 -0.872551 0.000000
266.40600586 133.20300293 370.00000000 -0.282985 0.657101 -0.698669 0.000000
196.09399414 110.15599823 277.50000000 0.000978 0.000978 0.999999 0.000000
95.31250000 148.43800354 272.50000000 0.000978 0.000978 0.999999 0.000000
180.46899414 75.78119659 297.50000000 -0.001116 0.987889 -0.155160 0.000000
209.76600647 187.50000000 325.00000000 -0.170640 0.847264 0.503017 0.000000
196.09399414 156.25000000 307.50000000 -0.000978 -0.000978 0.999999 0.000000
182.03100586 220.31199646 392.50000000 -0.076467 -0.774768 -0.627605 0.000000
202.34399414 189.06199646 317.50000000 -0.882626 0.045018 0.467915 0.000000
225.00000000 142.18800354 307.50000000 0.000978 0.000978 0.999999 0.000000
135.93800354 276.56201172 292.50000000 -0.873261 -0.121884 0.471762 0.000000
168.75000000 122.65599823 362.50000000 0.438468 0.655201 -0.615189 0.000000
160.54699707 270.31201172 305.00000000 -0.669278 -0.348548 0.656187 0.000000
162.10899353 179.68800354 320.00000000 -0.521116 -0.726253 0.448325 0.000000
186.32800293 221.87500000 335.00000000 -0.985684 -0.062415 0.156626 0.000000
104.68800354 221.87500000 392.50000000 0.271989 0.184515 -0.944445 0.000000
143.75000000 118.75000000 297.50000000 0.000978 0.000978 0.999999 0.000000
125.78099823 276.17199707 290.00000000 -0.023815 -0.671016 0.741060 0.000000
186.71899414 115.62500000 357.50000000 0.014578 0.891934 -0.451931 0.000000
67.18750000 201.56199646 262.50000000 0.781920 -0.020907 -0.623028 0.000000
99.21880341 233.59399414 247.50000000 -0.696945 0.251280 0.671659 0.000000
170.70300293 108.59400177 345.00000000 -0.109841 0.804033 -0.584352 0.000000
169.92199707 201.56199646 320.00000000 0.184379 0.892859 0.410861 0.000000
110.93800354 173.43800354 397.50000000 0.626274 0.481878 -0.612842 0.000000
196.48399353 207.81199646 340.00000000 -0.684953 0.684953 0.248355 0.000000
132.03100586 242.96899414 397.50000000 -0.001299 -0.905318 -0.424733 0.000000
108.59400177 179.68800354 262.50000000 -0.099488 0.050303 0.993766 0.000000
196.87500000 94.53119659 277.50000000 0.000978 0.000978 0.999999 0.000000
217.96899414 180.46899414 387.50000000 -0.000978 -0.000978 -0.999999 0.000000
200.78100586 102.34400177 337.50000000 -0.022945 0.875957 -0.481844 0.000000
157.03100586 219.53100586 402.50000000 0.210384 -0.446134 -0.869887 0.000000
151.56199646 254.68800354 292.50000000 0.178794 -0.891061 0.417185 0.000000
212.50000000 98.04689789 330.00000000 -0.001362 0.578659 -0.815569 0.000000
221.87500000 147.65600586 392.50000000 -0.023963 0.158613 -0.987050 0.000000
114.06199646 221.87500000 262.50000000 -0.827810 -0.208092 0.520988 0.000000
239.84399414 81.25000000 282.50000000 0.000978 0.000978 0.999999 0.000000
253.12500000 121.09400177 362.50000000 -0.424268 0.781889 -0.456779 0.000000
245.31199646 89.84380341 282.50000000 -0.268283 0.218240 0.938294 0.000000
275.00000000 135.93800354 367.50000000 -0.490532 0.713350 -0.500509 0.000000
71.09380341 156.25000000 267.50000000 0.816287 0.484720 0.314200 0.000000
221.87500000 162.50000000 322.50000000 -0.536020 -0.742560 0.401605 0.000000
225.00000000 168.75000000 327.50000000 -0.734669 -0.360004 0.575029 0.000000
139.06199646 185.93800354 272.50000000 0.000978 0.000978 0.999999 0.000000
274.21899414 140.62500000 342.50000000 0.092502 -0.952383 0.290535 0.000000
101.17199707 293.75000000 330.00000000 0.565850 -0.822670 -0.055033 0.000000
231.25000000 160.54699707 330.00000000 0.325172 -0.898308 0.295476 0.000000
175.78100586 100.00000000 277.50000000 0.000978 0.000978 0.999999 0.000000
153.12500000 139.06199646 377.50000000 0.383920 0.753136 -0.534220 0.000000
155.46899414 281.25000000 307.50000000 0.000978 0.000978 0.999999 0.000000
88.28119659 226.56199646 377.50000000 -0.000978 -0.000978 -0.999999 0.000000
103.12500000 178.90600586 262.50000000 -0.040117 0.350699 0.935629 0.000000
177.34399414 138.28100586 387.50000000 -0.000978 -0.000978 -0.999999 0.000000
96.09380341 283.98400879 310.00000000 -0.000978 -0.000978 0.999999 0.000000
98.82810211 235.15600586 250.00000000 -0.740920 0.055891 0.669264 0.000000
96.87500000 195.31199646 387.50000000 0.856363 0.208467 -0.472424 0.000000
208.59399414 198.82800293 380.00000000 0.179780 0.980949 -0.073601 0.000000
136.71899414 150.39100647 375.00000000 0.558781 0.558781 -0.612802 0.000000
91.40619659 167.18800354 297.50000000 -0.000978 -0.000978 -0.999999 0.000000
164.84399414 158.59399414 397.50000000 -0.000978 -0.000978 -0.999999 0.000000
178.90600586 225.00000000 312.50000000 -0.827711 -0.365586 0.425725 0.000000
175.00000000 183.59399414 402.50000000 -0.000978 -0.000978 -0.999999 0.000000
251.56199646 165.62500000 382.50000000 -0.000978 -0.000978 -0.999999 0.000000
89.84380341 235.93800354 247.50000000 0.332914 -0.722666 0.605741 0.000000
214.06199646 88.28119659 317.50000000 0.001299 0.905318 -0.424733 0.000000
201.56199646 101.56199646 337.50000000 -0.022945 0.875957 -0.481844 0.000000
209.37500000 222.65600586 337.50000000 -0.474089 0.880452 -0.006640 0.000000
78.12500000 253.12500000 352.50000000 0.805813 -0.395698 -0.440554 0.000000
237.50000000 133.59399414 382.50000000 -0.000978 -0.000978 -0.999999 0.000000
132.81199646 132.81199646 297.50000000 0.000978 0.000978 0.999999 0.000000
166.40600586 188.28100586 407.50000000 -0.000978 -0.000978 -0.999999 0.000000
175.00000000 239.45300293 385.00000000 -0.748922 -0.323728 -0.578200 0.000000
117.18800354 212.50000000 262.50000000 -0.000978 -0.000978 0.999999 0.000000
230.46899414 79.68750000 302.50000000 -0.715214 -0.688449 -0.120441 0.000000
86.32810211 236.71899414 250.00000000 0.491020 -0.739011 0.461262 0.000000
113.28099823 236.71899414 392.50000000 0.115743 -0.578717 -0.807273 0.000000
139.84399414 278.12500000 297.50000000 0.022607 -0.440171 0.897629 0.000000
196.09399414 169.53100586 312.50000000 0.070810 -0.692206 0.718218 0.000000
252.34399414 114.84400177 307.50000000 -0.430375 -0.446615 0.784419 0.000000
157.03100586 296.87500000 322.50000000 -0.981862 -0.041255 0.185057 0.000000
111.71900177 143.75000000 312.50000000 0.000978 0.000978 0.999999 0.000000
136.71899414 271.09399414 292.50000000 -0.385194 -0.173266 0.906424 0.000000
99.21880341 230.46899414 387.50000000 0.638083 -0.341072 -0.690304 0.000000
234.37500000 89.45310211 315.00000000 -0.356111 0.803245 -0.477476 0.000000
282.42199707 129.68800354 345.00000000 -0.929605 0.340167 -0.141851 0.000000
129.68800354 218.75000000 272.50000000 -0.780714 -0.101068 0.616661 0.000000
235.93800354 170.31199646 387.50000000 -0.288104 -0.199029 -0.936687 0.000000
142.96899414 160.93800354 302.50000000 -0.671099 -0.300949 0.677537 0.000000
242.18800354 125.00000000 307.50000000 -0.342615 -0.109691 0.933050 0.000000
184.37500000 267.18798828 357.50000000 -0.702740 -0.702740 0.110959 0.000000
110.15599823 295.31201172 342.50000000 0.001345 -0.848828 0.528668 0.000000
192.18800354 205.46899414 312.50000000 -0.539178 -0.673552 0.505584 0.000000
133.59399414 135.15600586 297.50000000 0.000978 0.000978 0.999999 0.000000
249.60899353 140.62500000 325.00000000 -0.521387 -0.471413 0.711284 0.000000
226.56199646 146.09399414 392.50000000 -0.305734 0.521173 -0.796809 0.000000
167.18800354 257.03100586 307.50000000 -0.676202 0.491631 0.548680 0.000000
81.25000000 191.79699707 300.00000000 0.868749 0.309940 -0.386280 0.000000
90.62500000 237.50000000 247.50000000 0.349109 -0.738813 0.576436 0.000000
164.06199646 235.93800354 392.50000000 -0.453258 -0.070262 -0.888606 0.000000
160.15600586 176.95300293 315.00000000 -0.626797 -0.606632 0.489002 0.000000
236.71899414 180.85899353 350.00000000 -0.402396 -0.402396 0.822287 0.000000
93.75000000 237.50000000 247.50000000 0.257596 -0.734859 0.627396 0.000000
75.00000000 241.40600586 342.50000000 0.935395 0.334360 -0.115063 0.000000
188.28100586 85.93750000 317.50000000 -0.153575 0.894182 -0.420538 0.000000
146.87500000 299.21899414 347.50000000 -0.359478 -0.890490 -0.278931 0.000000
178.90600586 71.48439789 290.00000000 0.056539 0.961162 -0.270131 0.000000
176.56199646 167.96899414 402.50000000 -0.000978 -0.000978 -0.999999 0.000000
177.34399414 156.25000000 327.50000000 -0.899893 -0.332473 0.282232 0.000000
107.81199646 139.06199646 287.50000000 -0.000978 -0.000978 0.999999 0.000000
76.95310211 232.81199646 280.00000000 0.983301 -0.175463 0.048282 0.000000
116.40599823 172.65600586 267.50000000 -0.469710 0.076659 0.879486 0.000000
149.21899414 261.71899414 292.50000000 -0.484471 -0.707560 0.514438 0.000000
134.37500000 232.03100586 277.50000000 -0.760647 -0.264091 0.593020 0.000000
134.37500000 176.56199646 407.50000000 -0.000978 -0.000978 -0.999999 0.000000
190.62500000 142.18800354 297.50000000 0.328908 -0.451658 0.829352 0.000000
207.03100586 187.50000000 337.50000000 -0.987760 -0.141109 0.066473 0.000000
92.18750000 238.28100586 247.50000000 0.257596 -0.734859 0.627396 0.000000
137.50000000 274.21899414 292.50000000 -0.564942 -0.537960 0.625652 0.000000
184.37500000 135.15600586 292.50000000 0.280783 -0.772550 0.569498 0.000000
139.06199646 257.03100586 387.50000000 -0.085996 -0.677763 -0.730235 0.000000
107.81199646 123.82800293 300.00000000 0.299316 0.597031 -0.744288 0.000000
139.06199646 137.50000000 297.50000000 0.000978 0.000978 0.999999 0.000000
132.03100586 257.03100586 282.50000000 0.000978 0.000978 0.999999 0.000000
210.93800354 218.75000000 367.50000000 0.000978 0.000978 0.999999 0.000000
86.71880341 265.62500000 297.50000000 0.622564 0.239930 0.744881 0.000000
250.78100586 136.71899414 322.50000000 -0.414657 -0.566643 0.712021 0.000000
108.59400177 262.50000000 272.50000000 0.743472 -0.526831 0.411946 0.000000
197.65600586 213.28100586 357.50000000 -0.271133 0.953594 -0.130937 0.000000
87.10939789 192.96899414 370.00000000 0.446663 0.891952 0.070092 0.000000
91.01560211 239.06199646 250.00000000 0.377067 -0.742708 0.553358 0.000000
74.21880341 211.71899414 287.50000000 0.981867 0.005742 -0.189483 0.000000
184.37500000 161.71899414 327.50000000 0.856228 -0.513737 0.054297 0.000000
111.71900177 130.46899414 312.50000000 -0.313897 0.868192 -0.384332 0.000000
172.65600586 266.40600586 312.50000000 -0.630256 -0.325660 0.704786 0.000000
94.53119659 239.06199646 247.50000000 0.347808 -0.664590 0.661324 0.000000
108.59400177 197.65600586 397.50000000 0.690037 0.237348 -0.683750 0.000000
141.40600586 273.04699707 295.00000000 -0.513023 -0.433843 0.740667 0.000000
139.06199646 243.75000000 282.50000000 -0.481422 -0.672649 0.561939 0.000000
218.75000000 185.93800354 342.50000000 -0.282773 -0.823322 -0.492118 0.000000
226.56199646 143.75000000 387.50000000 -0.607869 0.506838 -0.611237 0.000000
139.84399414 163.28100586 392.50000000 -0.399987 0.804794 -0.438540 0.000000
207.81199646 183.20300293 340.00000000 -0.985312 -0.170118 -0.014842 0.000000
114.84400177 283.59399414 367.50000000 -0.000978 -0.000978 -0.999999 0.000000
103.12500000 266.40600586 372.50000000 0.384690 -0.678574 -0.625741 0.000000
178.12500000 160.93800354 332.50000000 -0.542116 0.130754 0.830069 0.000000
113.28099823 199.21899414 262.50000000 0.000978 0.000978 0.999999 0.000000
214.84399414 201.56199646 367.50000000 -0.452133 -0.882872 -0.126940 0.000000
270.31201172 142.18800354 372.50000000 -0.358961 0.090076 -0.928996 0.000000
246.09399414 169.53100586 382.50000000 -0.000978 -0.000978 -0.999999 0.000000
139.06199646 133.59399414 297.50000000 0.000978 0.000978 0.999999 0.000000
129.68800354 231.25000000 272.50000000 0.000978 0.000978 0.999999 0.000000
123.43800354 275.78100586 287.50000000 0.015233 -0.619033 0.785217 0.000000
275.78100586 170.31199646 372.50000000 -0.942371 -0.283946 -0.176952 0.000000
90.23439789 283.59399414 340.00000000 0.729921 -0.488269 -0.478339 0.000000
175.00000000 252.34399414 377.50000000 -0.534504 -0.778481 -0.329049 0.000000
189.06199646 173.43800354 327.50000000 0.690320 -0.690320 -0.216602 0.000000
103.90599823 163.28100586 317.50000000 0.755890 0.568932 -0.323953 0.000000
67.96880341 183.98399353 265.00000000 0.412747 0.046751 0.909645 0.000000
208.59399414 192.18800354 387.50000000 -0.000978 -0.000978 -0.999999 0.000000
89.84380341 242.96899414 257.50000000 0.981862 -0.041255 0.185057 0.000000
174.21899414 66.79689789 280.00000000 -0.001371 0.788169 -0.615457 0.000000
103.12500000 273.04699707 290.00000000 0.444381 -0.441125 0.779701 0.000000
148.43800354 150.78100586 387.50000000 0.247270 0.087496 -0.964988 0.000000
193.75000000 203.51600647 320.00000000 -0.691335 0.688214 -0.220041 0.000000
225.78100586 161.71899414 322.50000000 -0.529225 -0.673712 0.515784 0.000000
123.82800293 196.87500000 265.00000000 -0.880839 -0.186134 0.435290 0.000000
77.34380341 244.53100586 297.50000000 0.898810 -0.349783 0.264182 0.000000
246.09399414 76.56250000 292.50000000 -0.374094 0.871868 -0.316071 0.000000
188.28100586 140.62500000 387.50000000 0.260573 0.376714 -0.888925 0.000000
173.43800354 96.09380341 327.50000000 -0.187018 0.937861 -0.292302 0.000000
195.31199646 117.96900177 282.50000000 0.000978 0.000978 0.999999 0.000000
246.87500000 114.84400177 302.50000000 -0.566005 -0.576143 0.589659 0.000000
141.79699707 200.00000000 275.00000000 -0.811641 -0.314847 0.492047 0.000000
229.68800354 158.59399414 327.50000000 -0.740619 -0.483299 0.466804 0.000000
225.78100586 118.75000000 367.50000000 0.187018 0.937861 -0.292302 0.000000
108.59400177 218.75000000 257.50000000 0.000978 0.000978 0.999999 0.000000
264.84399414 117.18800354 317.50000000 -0.256899 -0.475340 0.841460 0.000000
70.31250000 153.12500000 272.50000000 0.765443 0.556832 0.322545 0.000000
157.03100586 250.78100586 297.50000000 0.063635 -0.323368 0.944131 0.000000
259.37500000 98.04689789 320.00000000 -0.271401 0.905160 -0.327149 0.000000
242.96899414 153.12500000 332.50000000 -0.425962 -0.741733 0.518062 0.000000
85.54689789 154.68800354 265.00000000 -0.161328 0.848083 0.504706 0.000000
225.00000000 186.32800293 385.00000000 -0.618078 -0.738834 -0.268522 0.000000
79.68750000 185.54699707 255.00000000 0.468366 0.879409 0.085284 0.000000
100.78099823 194.53100586 392.50000000 0.001223 0.954848 -0.297091 0.000000
191.40600586 213.28100586 387.50000000 -0.622527 -0.348027 -0.700955 0.000000
242.18800354 159.37500000 337.50000000 0.000978 0.000978 0.999999 0.000000
117.96900177 236.71899414 262.50000000 -0.718209 -0.098405 0.688834 0.000000
141.40600586 256.25000000 287.50000000 0.000978 0.000978 0.999999 0.000000
183.59399414 143.75000000 297.50000000 0.000978 0.000978 0.999999 0.000000
130.46899414 242.96899414 397.50000000 -0.001299 -0.905318 -0.424733 0.000000
242.18800354 113.28099823 352.50000000 -0.000978 -0.000978 -0.999999 0.000000
199.60899353 172.65600586 395.00000000 -0.788169 -0.001371 -0.615457 0.000000
182.03100586 215.62500000 317.50000000 -0.895757 -0.289673 -0.337209 0.000000
218.35899353 212.50000000 350.00000000 0.925344 0.272328 -0.263773 0.000000
73.82810211 240.62500000 320.00000000 0.999525 0.029428 0.009133 0.000000
189.06199646 230.85899353 350.00000000 -0.973589 0.227608 0.017875 0.000000
178.90600586 155.85899353 305.00000000 -0.061602 -0.775034 0.628909 0.000000
133.59399414 260.93798828 287.50000000 -0.541931 -0.592578 0.595955 0.000000
73.43750000 246.87500000 332.50000000 0.974934 0.162279 -0.152215 0.000000
160.15600586 190.62500000 407.50000000 -0.000978 -0.000978 -0.999999 0.000000
136.71899414 167.18800354 287.50000000 -0.606538 0.743447 0.281778 0.000000
105.85900116 296.87500000 335.00000000 0.139723 -0.880112 -0.453740 0.000000
223.43800354 186.71899414 387.50000000 -0.501420 0.751308 -0.429084 0.000000
190.62500000 250.00000000 342.50000000 -0.891952 -0.446663 0.070092 0.000000
115.62500000 167.18800354 267.50000000 -0.407000 0.210112 0.888934 0.000000
167.96899414 222.65600586 397.50000000 -0.088131 -0.259283 -0.961772 0.000000
170.31199646 167.96899414 402.50000000 -0.000978 -0.000978 -0.999999 0.000000
207.03100586 179.68800354 327.50000000 -0.848633 -0.522781 0.080755 0.000000
171.87500000 250.78100586 307.50000000 -0.794441 0.103877 0.598391 0.000000
260.93798828 160.15600586 352.50000000 -0.643439 -0.626727 0.439544 0.000000
145.31199646 279.68798828 302.50000000 -0.095413 -0.418987 0.902965 0.000000
169.53100586 249.60899353 305.00000000 -0.758574 -0.098307 0.644128 0.000000
250.78100586 98.43750000 292.50000000 -0.303049 -0.859920 0.410731 0.000000
207.03100586 130.46899414 287.50000000 -0.455418 -0.391048 0.799798 0.000000
255.46899414 96.87500000 317.50000000 -0.056928 0.925411 -0.374666 0.000000
235.15600586 177.73399353 345.00000000 -0.598704 -0.622315 0.504260 0.000000
219.53100586 137.50000000 387.50000000 -0.188254 0.196153 -0.962333 0.000000
191.40600586 97.65619659 277.50000000 0.000978 0.000978 0.999999 0.000000
134.37500000 231.25000000 397.50000000 -0.000978 -0.000978 -0.999999 0.000000
80.85939789 237.50000000 265.00000000 0.813424 -0.516782 0.266978 0.000000
256.25000000 98.43750000 322.50000000 -0.037702 0.932145 -0.360117 0.000000
185.15600586 138.28100586 387.50000000 -0.417174 0.851406 -0.317920 0.000000
198.43800354 162.50000000 312.50000000 0.000978 0.000978 0.999999 0.000000
146.87500000 280.46899414 302.50000000 -0.095413 -0.418987 0.902965 0.000000
125.00000000 244.53100586 392.50000000 -0.000978 -0.000978 -0.999999 0.000000
174.21899414 267.18798828 317.50000000 -0.820171 -0.121779 0.559007 0.000000
256.25000000 123.43800354 312.50000000 -0.227291 -0.713223 0.663062 0.000000
78.51560211 231.25000000 260.00000000 0.671037 -0.671037 0.315307 0.000000
100.78099823 290.62500000 317.50000000 0.362561 -0.904220 0.225691 0.000000
100.00000000 175.00000000 382.50000000 0.686466 0.405263 -0.603760 0.000000
158.59399414 225.00000000 287.50000000 0.000978 0.000978 0.999999 0.000000
85.15619659 189.84399414 252.50000000 -0.647355 0.647355 0.402321 0.000000
190.62500000 257.42199707 355.00000000 0.001117 -0.988229 -0.152980 0.000000
88.28119659 192.18800354 372.50000000 0.446663 0.891952 0.070092 0.000000
168.75000000 137.50000000 297.50000000 0.228064 -0.457638 0.859392 0.000000
107.03099823 251.56199646 267.50000000 -0.431249 -0.860973 0.269721 0.000000
207.03100586 87.50000000 317.50000000 -0.312831 0.938494 -0.146170 0.000000
128.90600586 123.43800354 327.50000000 0.689396 0.721192 0.067928 0.000000
118.75000000 271.09399414 377.50000000 0.501621 -0.369361 -0.782271 0.000000
79.68750000 153.90600586 262.50000000 0.103199 0.565415 0.818325 0.000000
267.18798828 152.34399414 352.50000000 -0.562600 -0.589632 0.579495 0.000000
283.59399414 134.37500000 352.50000000 -0.909199 0.303066 -0.285497 0.000000
85.93750000 190.62500000 252.50000000 -0.700373 0.454161 0.550650 0.000000
69.53119659 158.59399414 267.50000000 0.812087 0.293734 0.504217 0.000000
243.75000000 160.15600586 387.50000000 -0.638684 -0.381230 -0.668391 0.000000
282.81201172 147.65600586 367.50000000 0.000978 0.000978 -0.999999 0.000000
70.31250000 165.62500000 282.50000000 0.979976 0.022246 -0.197869 0.000000
122.65599823 224.21899414 397.50000000 0.003811 -0.364588 -0.931161 0.000000
124.21900177 262.50000000 382.50000000 0.326379 -0.868812 -0.372348 0.000000
202.73399353 195.31199646 315.00000000 -0.667044 0.086117 0.740025 0.000000
266.40600586 125.00000000 322.50000000 -0.209574 -0.743600 0.634932 0.000000
112.50000000 228.90600586 262.50000000 -0.365229 -0.137482 0.920710 0.000000
128.12500000 238.28100586 272.50000000 -0.614797 0.191645 0.765047 0.000000
219.92199707 205.46899414 360.00000000 0.247639 -0.736609 0.629351 0.000000
195.31199646 187.50000000 342.50000000 -0.685571 0.376488 0.623097 0.000000
151.56199646 248.43800354 392.50000000 -0.000978 -0.000978 -0.999999 0.000000
96.87500000 157.81199646 267.50000000 -0.016781 0.925561 0.378228 0.000000
206.25000000 194.53100586 317.50000000 -0.660809 0.563285 0.496027 0.000000
243.75000000 167.96899414 342.50000000 -0.531778 -0.413239 0.739220 0.000000
75.39060211 231.25000000 345.00000000 0.998091 -0.026349 -0.055859 0.000000
73.04689789 220.31199646 270.00000000 0.493524 -0.737810 0.460512 0.000000
214.84399414 78.90619659 272.50000000 0.000978 0.000978 0.999999 0.000000
144.53100586 169.14100647 400.00000000 -0.413970 0.868881 -0.271431 0.000000
75.78119659 152.34399414 267.50000000 0.487967 0.679130 0.548334 0.000000
187.50000000 234.37500000 372.50000000 -0.779783 0.546965 0.304578 0.000000
211.71899414 110.93800354 352.50000000 0.351537 0.936173 0.001260 0.000000
187.10899353 246.09399414 320.00000000 -0.685612 -0.133522 0.715617 0.000000
142.18800354 204.68800354 277.50000000 -0.883942 -0.093858 0.458081 0.000000
74.60939789 213.28100586 350.00000000 0.966270 0.132878 -0.220604 0.000000
200.00000000 160.15600586 392.50000000 -0.139809 0.206508 -0.968405 0.000000
175.78100586 199.21899414 317.50000000 0.343369 0.852983 0.393087 0.000000
161.71899414 211.71899414 402.50000000 -0.000978 -0.000978 -0.999999 0.000000
95.31250000 135.93800354 297.50000000 0.446667 0.894653 -0.009223 0.000000
203.12500000 146.09399414 392.50000000 -0.000978 -0.000978 -0.999999 0.000000
251.56199646 167.18800354 352.50000000 0.000978 0.000978 -0.999999 0.000000
173.43800354 132.81199646 382.50000000 0.310393 0.310393 -0.898506 0.000000
98.43750000 164.84399414 262.50000000 0.000978 0.000978 0.999999 0.000000
179.68800354 264.06201172 362.50000000 -0.772062 -0.385218 -0.505497 0.000000
149.21899414 162.50000000 387.50000000 -0.248650 0.885908 -0.391586 0.000000
146.09399414 132.81199646 297.50000000 0.000978 0.000978 0.999999 0.000000
164.06199646 246.87500000 387.50000000 -0.000978 -0.000978 -0.999999 0.000000
99.21880341 254.68800354 377.50000000 -0.000978 -0.000978 -0.999999 0.000000
141.40600586 264.06201172 382.50000000 -0.000978 -0.000978 -0.999999 0.000000
146.09399414 139.84399414 292.50000000 -0.905318 -0.001299 0.424733 0.000000
172.65600586 138.28100586 382.50000000 0.831465 0.317867 -0.455661 0.000000
149.21899414 205.46899414 282.50000000 -0.000978 -0.000978 0.999999 0.000000
236.71899414 73.43750000 292.50000000 0.000978 0.000978 0.999999 0.000000
196.09399414 185.15600586 312.50000000 0.000978 0.000978 0.999999 0.000000
103.12500000 162.89100647 315.00000000 0.671037 0.671037 -0.315307 0.000000
177.34399414 89.84380341 272.50000000 -0.000978 -0.000978 0.999999 0.000000
235.93800354 168.35899353 340.00000000 -0.795444 -0.187074 0.576431 0.000000
214.06199646 92.18750000 277.50000000 0.110385 0.258431 0.959702 0.000000
107.81199646 265.62500000 277.50000000 -0.084270 -0.838418 0.538473 0.000000
120.31199646 266.40600586 282.50000000 -0.275027 -0.216392 0.936768 0.000000
178.90600586 234.37500000 387.50000000 -0.000978 -0.000978 -0.999999 0.000000
153.90600586 198.43800354 307.50000000 -0.414506 0.878393 0.237929 0.000000
154.68800354 133.59399414 367.50000000 0.228493 0.918283 -0.323339 0.000000
267.96899414 178.12500000 377.50000000 -0.903997 0.302316 -0.302316 0.000000
220.31199646 190.62500000 382.50000000 -0.867218 -0.184672 -0.462418 0.000000
173.82800293 242.96899414 310.00000000 -0.111736 0.382109 0.917337 0.000000
78.90619659 193.75000000 297.50000000 0.881974 0.284945 -0.375404 0.000000
250.78100586 182.81199646 357.50000000 -0.038042 -0.632626 0.773523 0.000000
260.15600586 175.78100586 377.50000000 -0.000978 -0.000978 -0.999999 0.000000
70.31250000 207.81199646 267.50000000 0.876916 -0.145912 -0.457961 0.000000
132.03100586 184.37500000 407.50000000 -0.000978 -0.000978 -0.999999 0.000000
197.65600586 91.40619659 322.50000000 0.000978 0.000978 -0.999999 0.000000
94.53119659 170.31199646 302.50000000 0.812315 0.543073 -0.212640 0.000000
100.78099823 150.00000000 302.50000000 -0.000978 -0.000978 -0.999999 0.000000
96.09380341 196.48399353 255.00000000 -0.776198 -0.221549 0.590282 0.000000
88.28119659 266.40600586 297.50000000 0.622564 0.239930 0.744881 0.000000
264.06201172 128.90600586 327.50000000 0.000978 0.000978 0.999999 0.000000
75.00000000 148.43800354 272.50000000 0.417030 0.780512 0.465711 0.000000
192.96899414 183.98399353 340.00000000 -0.884833 0.179299 0.430026 0.000000
214.84399414 94.92189789 275.00000000 0.034546 0.534766 0.844294 0.000000
186.71899414 153.12500000 392.50000000 -0.000978 -0.000978 -0.999999 0.000000
241.40600586 132.03100586 382.50000000 -0.491380 -0.798692 -0.347327 0.000000
146.87500000 169.53100586 302.50000000 0.020659 -0.098944 0.994879 0.000000
226.95300293 121.09400177 295.00000000 -0.294659 -0.436590 0.850038 0.000000
149.60899353 299.21899414 325.00000000 -0.385561 -0.895734 0.221368 0.000000
272.65600586 171.87500000 367.50000000 -0.000978 -0.000978 0.999999 0.000000
189.06199646 97.26560211 330.00000000 -0.318884 0.678236 -0.662049 0.000000
146.09399414 264.06201172 292.50000000 -0.168760 -0.156071 0.973223 0.000000
182.81199646 206.25000000 402.50000000 -0.741429 -0.600509 -0.299454 0.000000
207.03100586 188.67199707 340.00000000 -0.933824 -0.262594 -0.242935 0.000000
198.43800354 125.78099823 282.50000000 0.000978 0.000978 0.999999 0.000000
155.46899414 296.87500000 322.50000000 -0.981862 -0.041255 0.185057 0.000000
151.56199646 168.35899353 395.00000000 -0.126977 0.667748 -0.733477 0.000000
206.25000000 167.18800354 312.50000000 -0.291573 -0.373153 0.880762 0.000000
156.25000000 266.40600586 302.50000000 -0.711078 -0.117276 0.693264 0.000000
160.93800354 121.87500000 352.50000000 0.637452 0.731890 -0.240815 0.000000
117.96900177 169.53100586 397.50000000 0.086764 0.851992 -0.516316 0.000000
110.93800354 182.81199646 262.50000000 -0.180080 -0.041195 0.982789 0.000000
204.68800354 191.40600586 342.50000000 -0.910780 -0.092040 -0.402502 0.000000
134.37500000 202.34399414 407.50000000 -0.000978 -0.000978 -0.999999 0.000000
203.12500000 121.87500000 282.50000000 0.000978 0.000978 0.999999 0.000000
137.50000000 276.95300293 375.00000000 0.125671 -0.598786 -0.790988 0.000000
257.81201172 162.50000000 352.50000000 -0.590138 -0.603665 0.536028 0.000000
163.28100586 282.81201172 362.50000000 -0.001335 -0.503455 -0.864020 0.000000
147.65600586 286.71899414 307.50000000 -0.239746 -0.763114 0.600149 0.000000
183.59399414 189.84399414 402.50000000 -0.000978 -0.000978 -0.999999 0.000000
146.09399414 286.71899414 307.50000000 -0.239746 -0.763114 0.600149 0.000000
185.93800354 265.23400879 355.00000000 -0.850097 -0.481671 -0.212902 0.000000
116.40599823 281.25000000 292.50000000 0.236780 -0.616255 0.751109 0.000000
111.71900177 122.65599823 312.50000000 -0.000978 -0.000978 0.999999 0.000000
235.15600586 86.71880341 282.50000000 -0.083156 -0.698798 0.710469 0.000000
127.34400177 149.21899414 292.50000000 0.000978 0.000978 0.999999 0.000000
203.12500000 232.03100586 347.50000000 -0.983306 -0.122459 -0.134583 0.000000
75.00000000 233.59399414 342.50000000 0.987889 0.001116 -0.155160 0.000000
189.84399414 171.09399414 317.50000000 0.001345 -0.848828 -0.528668 0.000000
98.43750000 201.56199646 252.50000000 -0.609142 0.534897 0.585518 0.000000
182.03100586 207.81199646 402.50000000 -0.683970 -0.463227 -0.563565 0.000000
137.50000000 229.68800354 277.50000000 0.000978 0.000978 0.999999 0.000000
87.10939789 137.50000000 295.00000000 0.499351 0.479443 -0.721653 0.000000
147.65600586 121.09400177 297.50000000 0.000978 0.000978 0.999999 0.000000
157.03100586 165.62500000 297.50000000 0.000978 0.000978 0.999999 0.000000
64.84380341 202.34399414 252.50000000 0.948017 -0.281043 0.149262 0.000000
187.50000000 222.65600586 342.50000000 -0.964116 -0.240707 0.111987 0.000000
84.37500000 178.12500000 292.50000000 0.364239 -0.364239 -0.857123 0.000000
122.65599823 235.93800354 267.50000000 0.000978 0.000978 0.999999 0.000000
217.18800354 203.90600586 337.50000000 0.850044 0.222739 -0.477297 0.000000
157.03100586 271.09399414 302.50000000 -0.325455 -0.159265 0.932048 0.000000
124.21900177 124.21900177 297.50000000 0.193574 0.493687 0.847822 0.000000
272.65600586 133.20300293 365.00000000 -0.524775 0.723428 -0.448624 0.000000
159.37500000 143.35899353 385.00000000 0.405593 0.405593 -0.819139 0.000000
177.34399414 226.56199646 392.50000000 -0.000978 -0.000978 -0.999999 0.000000
92.18750000 268.75000000 292.50000000 0.825207 0.413396 0.384886 0.000000
147.65600586 155.46899414 292.50000000 -0.004144 -0.747327 0.664444 0.000000
168.75000000 282.81201172 357.50000000 -0.671037 -0.671037 -0.315307 0.000000
172.65600586 261.71899414 312.50000000 -0.463515 -0.201204 0.862943 0.000000
135.15600586 133.59399414 332.50000000 0.460994 0.365286 -0.808734 0.000000
77.34380341 238.28100586 357.50000000 0.824541 -0.551164 0.127870 0.000000
104.68800354 200.78100586 397.50000000 -0.000978 -0.000978 -0.999999 0.000000
271.87500000 167.18800354 362.50000000 -0.543224 -0.693655 0.473023 0.000000
239.06199646 100.00000000 282.50000000 0.000978 0.000978 0.999999 0.000000
215.62500000 109.76599884 350.00000000 0.190068 0.944869 -0.266642 0.000000
223.43800354 81.64060211 305.00000000 -0.086210 0.720364 -0.688218 0.000000
238.28100586 153.90600586 332.50000000 0.000978 0.000978 0.999999 0.000000
112.89099884 253.90600586 270.00000000 -0.058407 -0.616830 0.784927 0.000000
157.81199646 125.00000000 352.50000000 0.402930 0.406115 -0.820194 0.000000
98.43750000 221.09399414 392.50000000 -0.000978 -0.000978 -0.999999 0.000000
110.15599823 275.00000000 287.50000000 -0.064869 -0.736618 0.673191 0.000000
101.95300293 203.90600586 255.00000000 -0.600662 -0.155058 0.784323 0.000000
182.03100586 252.34399414 367.50000000 0.947332 -0.317477 -0.042075 0.000000
115.62500000 170.31199646 397.50000000 0.287122 0.431451 -0.855225 0.000000
260.15600586 160.15600586 352.50000000 -0.506769 -0.597685 0.621255 0.000000
262.50000000 160.54699707 355.00000000 -0.555389 -0.806309 0.203490 0.000000
77.73439789 238.28100586 290.00000000 -0.000978 -0.000978 0.999999 0.000000
136.71899414 129.68800354 297.50000000 0.000978 0.000978 0.999999 0.000000
197.65600586 198.43800354 307.50000000 -0.547608 -0.684929 0.480622 0.000000
238.28100586 90.62500000 282.50000000 0.000978 0.000978 0.999999 0.000000
193.75000000 118.35900116 365.00000000 -0.156000 0.716388 -0.680038 0.000000
182.03100586 267.18798828 327.50000000 -0.987889 0.001116 0.155160 0.000000
196.09399414 165.62500000 312.50000000 0.000978 0.000978 0.999999 0.000000
138.28100586 98.43750000 312.50000000 0.538096 -0.001349 -0.842882 0.000000
215.62500000 165.62500000 392.50000000 -0.000978 -0.000978 -0.999999 0.000000
205.46899414 171.87500000 317.50000000 -0.300426 -0.631377 0.714918 0.000000
170.70300293 143.75000000 300.00000000 0.241294 -0.701803 0.670261 0.000000
113.28099823 218.75000000 397.50000000 0.000978 0.000978 -0.999999 0.000000
192.18800354 171.87500000 337.50000000 -0.565243 0.106074 0.818076 0.000000
153.90600586 114.84400177 342.50000000 0.954632 0.001225 -0.297786 0.000000
133.59399414 174.21899414 272.50000000 0.095416 0.670845 0.735434 0.000000
182.81199646 169.53100586 327.50000000 0.369677 -0.922132 -0.114064 0.000000
91.79689789 179.68800354 315.00000000 0.854844 0.481875 -0.192452 0.000000
105.46900177 242.18800354 392.50000000 0.087113 -0.977877 0.190177 0.000000
120.31199646 181.25000000 402.50000000 -0.000978 -0.000978 -0.999999 0.000000
204.68800354 225.78100586 357.50000000 -0.944869 -0.190068 0.266642 0.000000
200.00000000 87.89060211 275.00000000 -0.702740 -0.702740 0.110959 0.000000
121.09400177 192.18800354 407.50000000 0.522508 0.063037 -0.850301 0.000000
160.93800354 220.31199646 402.50000000 -0.044880 -0.221974 -0.974019 0.000000
211.71899414 120.31199646 372.50000000 -0.065765 0.919362 -0.387877 0.000000
76.56250000 155.46899414 287.50000000 -0.000978 -0.000978 -0.999999 0.000000
200.00000000 88.28119659 277.50000000 -0.702740 -0.702740 0.110959 0.000000
102.34400177 139.06199646 302.50000000 -0.000978 -0.000978 -0.999999 0.000000
224.21899414 87.89060211 315.00000000 -0.117072 0.921426 -0.370498 0.000000
185.15600586 245.31199646 317.50000000 -0.427731 0.009156 0.903860 0.000000
196.48399353 214.06199646 360.00000000 -0.181618 0.910950 -0.370386 0.000000
263.28100586 151.56199646 347.50000000 -0.327304 -0.436927 0.837835 0.000000
210.93800354 119.53099823 282.50000000 -0.116059 -0.356370 0.927109 0.000000
153.90600586 228.90600586 287.50000000 -0.131626 -0.866415 0.481663 0.000000
255.46899414 120.70300293 360.00000000 -0.422619 0.697737 -0.578409 0.000000
220.31199646 191.40600586 382.50000000 -0.867218 -0.184672 -0.462418 0.000000
146.87500000 242.96899414 287.50000000 0.000978 0.000978 0.999999 0.000000
210.15600586 77.34380341 272.50000000 0.000978 0.000978 0.999999 0.000000
182.42199707 269.53100586 330.00000000 -0.845156 -0.315961 0.431138 0.000000
105.07800293 296.09399414 335.00000000 0.702740 -0.702740 -0.110959 0.000000
149.21899414 196.09399414 407.50000000 -0.000978 -0.000978 -0.999999 0.000000
139.06199646 158.59399414 297.50000000 0.000978 0.000978 0.999999 0.000000
159.37500000 177.34399414 312.50000000 -0.574218 -0.634839 0.516965 0.000000
200.00000000 110.15599823 277.50000000 -0.205220 -0.260313 0.943463 0.000000
100.78099823 209.37500000 252.50000000 -0.889513 0.163439 0.426677 0.000000
118.75000000 212.50000000 402.50000000 0.341234 0.233782 -0.910442 0.000000
189.84399414 142.96899414 297.50000000 0.328908 -0.451658 0.829352 0.000000
163.28100586 197.65600586 292.50000000 -0.145527 0.973132 0.178429 0.000000
85.15619659 242.18800354 372.50000000 0.478154 -0.359815 -0.801188 0.000000
246.09399414 142.96899414 322.50000000 -0.579595 -0.579595 0.572835 0.000000
182.03100586 206.25000000 402.50000000 -0.741429 -0.600509 -0.299454 0.000000
104.68800354 268.75000000 282.50000000 0.017880 -0.826590 0.562521 0.000000
243.75000000 185.15600586 357.50000000 0.000978 0.000978 0.999999 0.000000
86.71880341 253.90600586 367.50000000 0.866940 -0.287964 -0.406807 0.000000
178.12500000 251.56199646 312.50000000 -0.400205 -0.256311 0.879852 0.000000
173.43800354 185.93800354 327.50000000 0.327949 0.411879 0.850180 0.000000
