213.16999817 110.29699707 247.50000000 0.354369 -0.615656 0.703840 0.000000
231.19900513 101.81199646 221.25000000 -0.000978 -0.000978 -0.999999 0.000000
193.72700500 99.69139862 224.25000000 0.691210 0.230403 -0.684940 0.000000
63.27930069 168.27299500 121.50000000 0.393713 0.719885 -0.571625 0.000000
65.04689789 137.87100220 93.75000000 0.085086 0.461699 -0.882946 0.000000
218.47300720 119.48799896 230.25000000 -0.107976 0.370397 -0.922576 0.000000
147.77000427 59.03710175 193.50000000 -0.151444 0.982567 -0.107828 0.000000
103.22699738 176.05099487 159.75000000 0.499730 -0.725522 -0.473167 0.000000
84.13670349 167.56599426 131.25000000 0.546018 0.465868 -0.696298 0.000000
231.19900513 91.20700073 219.75000000 0.628909 -0.061602 -0.775034 0.000000
79.18750000 165.79899597 126.00000000 0.604262 0.503271 -0.617727 0.000000
47.01760101 188.07000732 144.00000000 -0.866720 0.143727 -0.477639 0.000000
106.05500031 74.59179688 124.50000000 -0.104795 -0.984110 -0.143340 0.000000
73.53119659 156.25399780 254.25000000 0.001380 -0.727510 0.686096 0.000000
169.68800354 145.29499817 238.50000000 0.113959 0.984844 0.130753 0.000000
75.65229797 90.50000000 177.75000000 -0.758216 -0.600583 0.253790 0.000000
59.74409866 109.58999634 111.00000000 -0.868876 -0.461729 0.178496 0.000000
183.12100220 60.45119858 216.00000000 0.001205 -0.962562 0.271059 0.000000
195.14100647 143.52699280 228.75000000 -0.154438 0.307509 -0.938929 0.000000
66.81449890 132.21499634 244.50000000 -0.550532 -0.418272 0.722470 0.000000
100.39800262 80.60160065 138.75000000 -0.368743 -0.922542 -0.113776 0.000000
209.28100586 82.72270203 221.25000000 -0.217055 0.698012 -0.682397 0.000000
114.53900146 229.07800293 186.75000000 0.705130 0.702185 -0.098630 0.000000
82.72270203 84.84380341 180.75000000 -0.548065 -0.810647 -0.206097 0.000000
107.46900177 86.96479797 92.25000000 0.216536 -0.166667 -0.961943 0.000000
130.09399414 135.04299927 182.25000000 -0.120102 -0.769543 0.627200 0.000000
103.93399811 141.40600586 122.25000000 0.920864 0.307909 -0.239167 0.000000
96.15619659 240.03700256 204.00000000 -0.093887 0.821874 0.561879 0.000000
191.25199890 69.99610138 237.00000000 0.201071 -0.781260 0.590934 0.000000
227.66400146 127.26599884 231.75000000 0.087564 0.299287 -0.950137 0.000000
79.89450073 182.41400146 146.25000000 0.547663 0.787561 -0.282512 0.000000
59.39059830 137.87100220 239.25000000 -0.807047 -0.307973 0.503812 0.000000
153.42599487 91.91410065 254.25000000 0.000978 0.000978 0.999999 0.000000
103.22699738 71.05660248 151.50000000 -0.438172 -0.874859 -0.206461 0.000000
96.15619659 164.03100586 258.75000000 0.020508 0.247307 0.968720 0.000000
154.48599243 160.49600220 214.50000000 0.638655 -0.471029 -0.608483 0.000000
86.96479797 78.48049927 177.75000000 -0.813155 -0.553669 0.179528 0.000000
152.71899414 108.17600250 219.75000000 -0.229404 -0.068201 -0.970939 0.000000
88.02539825 210.69500732 238.50000000 -0.315198 0.619081 0.719298 0.000000
121.60900116 152.01199341 261.75000000 0.113360 0.264507 0.957698 0.000000
137.16400146 109.23600006 208.50000000 0.315871 0.921885 -0.224397 0.000000
87.67189789 160.49600220 257.25000000 0.203570 0.159485 0.965983 0.000000
94.74220276 171.10200500 146.25000000 0.326890 0.433247 -0.839905 0.000000
130.09399414 212.10899353 194.25000000 0.944284 0.161683 -0.286682 0.000000
93.32810211 105.34799957 86.25000000 -0.000978 -0.000978 -0.999999 0.000000
94.74220276 243.21899414 183.75000000 0.121522 0.987510 -0.100285 0.000000
154.83999634 137.16400146 186.75000000 0.256313 -0.845678 -0.468116 0.000000
100.39800262 81.30860138 108.75000000 -0.504680 -0.812834 -0.290859 0.000000
58.68360138 147.77000427 99.75000000 0.191400 0.592576 -0.782445 0.000000
115.24600220 87.67189789 105.75000000 0.974799 -0.111085 -0.193462 0.000000
107.46900177 235.44099426 186.75000000 0.616611 0.726088 -0.304281 0.000000
174.63699341 59.03710175 207.00000000 -0.078761 -0.991935 0.099308 0.000000
69.99610138 137.87100220 252.75000000 -0.371681 -0.067942 0.925871 0.000000
219.88699341 123.73000336 231.75000000 0.026596 0.322947 -0.946043 0.000000
139.28500366 58.68360138 191.25000000 0.053562 -0.965363 0.255354 0.000000
49.84569931 205.03900146 160.50000000 -0.837365 0.522052 -0.162119 0.000000
204.33200073 125.14499664 249.75000000 0.625474 0.258107 0.736317 0.000000
117.72100067 104.64099884 132.00000000 0.980276 -0.169687 -0.101324 0.000000
152.01199341 86.25779724 252.75000000 -0.011632 -0.394205 0.918949 0.000000
217.05900574 83.42970276 242.25000000 0.209707 -0.737860 0.641550 0.000000
92.62110138 106.76200104 86.25000000 -0.000978 -0.000978 -0.999999 0.000000
100.04499817 106.76200104 90.00000000 0.765959 -0.229320 -0.600599 0.000000
46.31050110 151.30499268 186.00000000 -0.989797 -0.053906 0.131896 0.000000
116.30699921 84.13670349 117.00000000 0.998854 -0.011362 -0.046482 0.000000
85.55079651 170.39500427 254.25000000 -0.505430 0.439576 0.742505 0.000000
156.96099854 159.78900146 233.25000000 -0.903843 -0.001300 0.427862 0.000000
130.44700623 209.28100586 193.50000000 0.921509 0.076680 -0.380711 0.000000
147.77000427 139.28500366 206.25000000 0.708997 -0.169244 -0.684602 0.000000
118.42800140 63.63280106 177.00000000 -0.355554 -0.926636 0.122179 0.000000
90.50000000 87.31839752 115.50000000 -0.800162 -0.466627 0.376830 0.000000
93.32810211 107.46900177 86.25000000 -0.000978 -0.000978 -0.999999 0.000000
66.46089935 218.82600403 217.50000000 -0.627281 0.683258 0.373734 0.000000
187.36300659 64.33979797 228.75000000 0.116172 -0.928009 0.353983 0.000000
201.50399780 140.69900513 239.25000000 0.324996 0.881269 0.343136 0.000000
48.78519821 129.74000549 157.50000000 -0.894756 -0.419461 0.153182 0.000000
168.97999573 69.64260101 240.00000000 -0.145273 -0.786271 0.600561 0.000000
74.23829651 172.51600647 131.25000000 0.086717 0.848694 -0.521726 0.000000
77.06639862 96.15619659 98.25000000 -0.541774 -0.840497 -0.006789 0.000000
133.62899780 124.43800354 213.75000000 0.112713 -0.179598 -0.977262 0.000000
171.10200500 109.58999634 257.25000000 0.000978 0.000978 0.999999 0.000000
124.43800354 124.08399963 207.00000000 0.664225 -0.405823 -0.627784 0.000000
164.03100586 144.23399353 227.25000000 0.762028 0.406306 -0.504211 0.000000
176.75799561 121.60900116 254.25000000 0.233249 0.634000 0.737319 0.000000
241.09800720 118.07399750 234.75000000 0.952844 0.243251 -0.181430 0.000000
114.89299774 132.92199707 136.50000000 0.707727 0.558558 -0.432592 0.000000
69.28910065 171.10200500 246.75000000 -0.001380 0.727510 0.686096 0.000000
53.02730179 212.81599426 164.25000000 -0.554544 0.822255 -0.127972 0.000000
65.04689789 139.99200439 93.75000000 0.809195 0.454873 -0.371879 0.000000
98.98439789 209.98800659 168.75000000 0.410070 -0.057813 -0.910220 0.000000
71.05660248 121.60900116 249.00000000 -0.897745 -0.347562 0.270655 0.000000
195.84800720 142.11300659 239.25000000 0.179803 0.808357 0.560562 0.000000
82.72270203 91.91410065 122.25000000 -0.644145 -0.717307 0.265610 0.000000
63.63280106 167.91999817 121.50000000 0.393713 0.719885 -0.571625 0.000000
110.29699707 74.23829651 134.25000000 0.329010 0.802657 -0.497488 0.000000
153.42599487 119.48799896 219.75000000 -0.194176 0.333075 -0.922690 0.000000
45.60350037 149.89100647 207.00000000 -0.992976 -0.110828 0.041421 0.000000
86.96479797 89.08589935 101.25000000 -0.321313 -0.933600 0.158588 0.000000
74.94529724 191.60499573 152.25000000 0.966707 -0.079404 0.243252 0.000000
150.24400330 146.35499573 201.00000000 0.715287 -0.179205 0.675463 0.000000
158.02099609 136.45700073 225.00000000 0.800538 0.097343 -0.591323 0.000000
176.40400696 72.82420349 244.50000000 0.243323 -0.862964 0.442817 0.000000
159.78900146 145.64799500 228.75000000 0.464233 0.493971 0.735174 0.000000
107.46900177 220.59399414 176.25000000 0.581606 -0.157800 -0.798018 0.000000
124.43800354 219.88699341 221.25000000 0.953933 0.001225 -0.300017 0.000000
173.92999268 101.81199646 206.25000000 0.188179 0.172605 -0.966849 0.000000
150.59800720 89.08589935 254.25000000 -0.098331 -0.246465 0.964150 0.000000
155.89999390 152.01199341 250.50000000 0.349133 0.274849 0.895860 0.000000
41.36130142 166.85899353 162.00000000 -0.790847 -0.381733 -0.478374 0.000000
101.81199646 111.00399780 93.75000000 0.416481 0.314296 -0.853089 0.000000
133.62899780 217.76600647 198.75000000 0.441474 0.167556 -0.881491 0.000000
134.33599854 197.96899414 234.75000000 0.314568 0.946315 0.074400 0.000000
100.75199890 223.42199707 174.00000000 0.419300 0.140714 -0.896876 0.000000
91.20700073 110.29699707 86.25000000 0.380431 0.141784 -0.913876 0.000000
107.11499786 91.20700073 240.00000000 -0.363815 -0.777756 0.512575 0.000000
45.95700073 146.00199890 207.00000000 -0.995754 -0.089737 -0.020542 0.000000
248.16799927 104.28700256 225.00000000 0.001362 0.578659 0.815569 0.000000
59.03710175 133.62899780 237.00000000 -0.751271 -0.192043 0.631436 0.000000
44.54299927 142.11300659 114.75000000 -0.994344 -0.052334 -0.092419 0.000000
52.32030106 211.40199280 182.25000000 -0.444045 0.503471 0.741175 0.000000
168.27299500 134.68899536 252.00000000 0.107251 0.627343 0.771323 0.000000
148.47700500 103.93399811 257.25000000 0.000978 0.000978 0.999999 0.000000
141.40600586 202.21099854 221.25000000 0.756480 0.566150 0.327432 0.000000
168.27299500 128.67999268 254.25000000 0.391268 0.259346 0.882977 0.000000
140.69900513 57.62300110 187.50000000 -0.146355 -0.983357 0.107649 0.000000
48.07809830 129.03300476 120.00000000 -0.846932 -0.471535 0.245686 0.000000
94.03520203 113.12500000 257.25000000 0.149013 -0.026163 0.988489 0.000000
189.48399353 126.55899811 249.75000000 -0.023307 0.268647 0.962957 0.000000
92.62110138 204.33200073 167.25000000 0.527394 0.042911 -0.848537 0.000000
166.15199280 122.31600189 257.25000000 0.000978 0.000978 0.999999 0.000000
236.14799500 125.14499664 231.75000000 0.613851 0.456625 -0.643958 0.000000
45.60350037 142.11300659 106.50000000 -0.987754 0.052109 -0.147063 0.000000
150.59800720 124.43800354 221.25000000 0.287186 0.018488 -0.957696 0.000000
145.29499817 152.01199341 177.00000000 0.576436 0.738813 -0.349109 0.000000
77.06639862 106.40799713 240.00000000 -0.431037 -0.493316 0.755544 0.000000
65.04689789 111.71099854 86.25000000 -0.536406 -0.806941 -0.247213 0.000000
81.66210175 241.09800720 190.50000000 -0.493662 0.812255 0.310707 0.000000
127.97299957 215.29100037 226.50000000 0.365936 0.651465 0.664593 0.000000
98.27729797 115.95300293 260.25000000 -0.369362 -0.681267 0.632019 0.000000
84.84380341 210.34199524 237.00000000 -0.486099 -0.160075 0.859118 0.000000
168.27299500 91.20700073 201.75000000 0.803149 0.247003 -0.542164 0.000000
110.29699707 131.50799561 126.75000000 0.809416 0.424743 -0.405510 0.000000
136.81100464 209.98800659 204.00000000 0.862963 0.107334 -0.493735 0.000000
40.65430069 176.05099487 160.50000000 -0.958257 0.036231 0.283604 0.000000
104.64099884 113.12500000 101.25000000 0.699299 0.280039 -0.657693 0.000000
130.80099487 164.03100586 252.75000000 0.317305 0.273438 0.908047 0.000000
80.95510101 98.27729797 238.50000000 -0.442245 -0.727137 0.525063 0.000000
94.03520203 199.38299561 167.25000000 -0.000978 -0.000978 -0.999999 0.000000
164.03100586 126.20500183 217.50000000 -0.371248 0.841181 -0.393178 0.000000
63.98630142 181.00000000 238.50000000 -0.870699 0.312598 0.379692 0.000000
134.68899536 137.87100220 199.50000000 0.148994 -0.948998 -0.277854 0.000000
137.87100220 178.87899780 242.25000000 0.507845 0.294015 0.809721 0.000000
62.21879959 168.62699890 121.50000000 0.427871 0.594357 -0.680930 0.000000
95.09570313 189.48399353 163.50000000 0.563114 0.392374 -0.727287 0.000000
84.13670349 185.59599304 154.50000000 0.495034 0.394404 -0.774201 0.000000
65.75389862 97.57029724 167.25000000 -0.603360 -0.215597 0.767772 0.000000
91.91410065 186.30299377 250.50000000 -0.111138 0.191057 0.975267 0.000000
102.51999664 237.56199646 209.25000000 0.266370 0.912646 0.310038 0.000000
55.85549927 188.07000732 134.25000000 0.286397 0.789570 -0.542730 0.000000
45.60350037 136.45700073 142.50000000 -0.963135 -0.268013 0.023252 0.000000
165.44500732 147.06199646 245.25000000 -0.141134 -0.136225 0.980573 0.000000
257.35900879 108.17600250 224.25000000 -0.125435 0.170145 0.977403 0.000000
101.10500336 98.27729797 92.25000000 -0.009048 0.394215 -0.918974 0.000000
60.45119858 118.07399750 189.00000000 -0.841944 -0.538789 -0.028938 0.000000
177.46499634 85.55079651 204.75000000 0.686807 0.136760 -0.713858 0.000000
103.93399811 195.84800720 246.75000000 0.448825 0.568957 0.689089 0.000000
158.37500000 75.29879761 180.00000000 0.720063 0.360848 -0.592705 0.000000
115.24600220 97.92379761 115.50000000 0.979495 0.165912 -0.114295 0.000000
144.94099426 139.63900757 187.50000000 -0.242814 -0.970072 -0.001184 0.000000
129.38699341 137.16400146 264.75000000 0.389946 0.368021 0.844099 0.000000
141.40600586 118.78099823 261.75000000 -0.000978 -0.000978 0.999999 0.000000
109.58999634 79.18750000 110.25000000 0.331847 -0.935944 -0.117840 0.000000
150.59800720 153.07200623 193.50000000 0.647941 0.760872 -0.035291 0.000000
194.43400574 138.22500610 240.00000000 0.495292 -0.164112 0.853085 0.000000
74.94529724 202.91799927 153.75000000 0.498730 0.498730 -0.708898 0.000000
125.85199738 138.22500610 159.00000000 0.384191 -0.537867 -0.750398 0.000000
107.46900177 171.10200500 159.75000000 0.545357 0.636531 -0.545357 0.000000
182.41400146 120.19499969 219.75000000 0.451699 0.171032 -0.875623 0.000000
108.17600250 173.57600403 256.50000000 0.541471 0.078165 0.837078 0.000000
148.47700500 100.39800262 204.75000000 0.793120 0.571354 0.210985 0.000000
91.20700073 205.74600220 242.25000000 -0.131329 0.474806 0.870237 0.000000
86.96479797 163.32400513 257.25000000 -0.330487 -0.013823 0.943709 0.000000
159.43600464 170.39500427 219.00000000 0.759220 0.595064 -0.263596 0.000000
216.35200500 126.55899811 231.75000000 0.079259 0.240292 -0.967459 0.000000
128.67999268 96.15619659 182.25000000 0.041410 0.980816 -0.190484 0.000000
108.88300323 82.72270203 228.75000000 -0.889978 -0.178576 0.419582 0.000000
94.03520203 185.94900513 161.25000000 0.403044 0.343910 -0.848104 0.000000
49.84569931 131.50799561 208.50000000 -0.910182 -0.414191 0.003895 0.000000
119.48799896 189.48399353 243.75000000 0.074204 0.101603 0.992054 0.000000
78.48049927 92.62110138 110.25000000 -0.275188 -0.912925 -0.301396 0.000000
93.68160248 220.59399414 166.50000000 0.578659 0.001362 -0.815569 0.000000
115.59999847 73.53119659 217.50000000 -0.548768 -0.742066 0.384957 0.000000
187.36300659 66.81449890 196.50000000 0.144202 0.572347 -0.807233 0.000000
119.48799896 205.74600220 236.25000000 0.319166 0.434378 0.842288 0.000000
143.52699280 181.00000000 236.25000000 0.582692 0.339227 0.738509 0.000000
106.05500031 122.31600189 108.75000000 0.638178 0.493367 -0.591031 0.000000
141.75999451 171.80900574 199.50000000 0.863238 0.288764 -0.414048 0.000000
116.66000366 128.67999268 131.25000000 0.723123 0.616829 -0.310830 0.000000
142.11300659 140.34599304 186.00000000 -0.242814 -0.970072 -0.001184 0.000000
67.52149963 100.39800262 169.50000000 -0.605573 -0.239413 0.758922 0.000000
49.49219894 204.33200073 182.25000000 -0.551250 0.632167 -0.544507 0.000000
122.31600189 226.95700073 215.25000000 0.390960 0.744296 0.541455 0.000000
52.32030106 211.75599670 162.00000000 -0.869146 0.429301 -0.245530 0.000000
47.01760101 133.62899780 150.00000000 -0.955405 -0.271288 0.116641 0.000000
91.56050110 194.43400574 247.50000000 -0.304927 0.396865 0.865747 0.000000
44.54299927 140.34599304 133.50000000 -0.981576 -0.188810 -0.029318 0.000000
98.63089752 74.94529724 198.00000000 -0.753395 -0.634678 0.171987 0.000000
102.51999664 150.59800720 131.25000000 0.496027 0.563285 -0.660809 0.000000
220.59399414 103.22699738 227.25000000 -0.365037 -0.149651 -0.918887 0.000000
118.78099823 66.81449890 210.00000000 -0.394787 -0.918565 0.019544 0.000000
57.62300110 154.83999634 241.50000000 -0.970072 -0.242814 -0.001184 0.000000
197.26199341 104.64099884 227.25000000 0.325404 0.208884 -0.922215 0.000000
56.20899963 112.41799927 129.00000000 -0.553013 -0.771013 0.315779 0.000000
122.31600189 198.32200623 240.00000000 0.687818 0.628722 0.362787 0.000000
44.54299927 152.01199341 119.25000000 -0.897212 0.128577 -0.422467 0.000000
233.32000732 128.67999268 231.75000000 0.204002 0.578262 -0.789934 0.000000
159.08200073 149.89100647 189.75000000 0.887895 0.416886 -0.194547 0.000000
185.94900513 108.17600250 219.75000000 0.393516 0.183064 -0.900907 0.000000
153.07200623 178.87899780 210.00000000 0.584442 0.299426 -0.754170 0.000000
119.48799896 173.57600403 169.50000000 0.313596 0.889774 -0.331602 0.000000
168.27299500 113.47899628 208.50000000 0.527044 0.557354 -0.641546 0.000000
127.97299957 224.48199463 198.00000000 0.616736 0.423902 -0.663282 0.000000
42.06840134 190.19099426 171.00000000 -0.795164 0.477098 -0.374289 0.000000
41.71480179 159.43600464 168.00000000 -0.998504 -0.052990 0.013507 0.000000
67.87500000 176.75799561 243.75000000 -0.436415 0.545934 0.715190 0.000000
116.66000366 85.19730377 127.50000000 0.984594 -0.010268 -0.174557 0.000000
66.46089935 100.39800262 167.25000000 -0.605573 -0.239413 0.758922 0.000000
54.44139862 207.16000366 152.25000000 -0.413715 0.468877 -0.780381 0.000000
231.19900513 136.45700073 236.25000000 0.119973 0.762794 -0.635415 0.000000
202.91799927 88.37889862 224.25000000 0.401441 0.522693 -0.752088 0.000000
66.46089935 103.22699738 113.25000000 -0.861931 -0.506939 0.009413 0.000000
176.05099487 58.33010101 201.00000000 -0.078761 -0.991935 0.099308 0.000000
116.66000366 222.36099243 225.00000000 0.310721 0.726088 0.613391 0.000000
49.84569931 132.21499634 208.50000000 -0.910182 -0.414191 0.003895 0.000000
138.57800293 213.52299500 206.25000000 0.687838 -0.601651 0.406073 0.000000
137.16400146 190.54499817 235.50000000 0.572652 0.407622 0.711276 0.000000
136.10400391 161.91000366 253.50000000 0.106369 0.239652 0.965014 0.000000
106.05500031 71.41020203 206.25000000 -0.628045 -0.690358 0.359117 0.000000
60.09769821 212.10899353 152.25000000 -0.158815 0.456048 -0.875670 0.000000
84.13670349 96.15619659 236.25000000 -0.307807 -0.726812 0.614003 0.000000
50.55270004 134.33599854 198.00000000 -0.253661 -0.760983 -0.597127 0.000000
120.90200043 62.57229996 187.50000000 -0.387783 -0.914948 0.111781 0.000000
144.23399353 104.28700256 204.00000000 0.375314 0.922704 0.088070 0.000000
111.00399780 131.50799561 264.75000000 0.000978 0.000978 0.999999 0.000000
124.43800354 103.22699738 254.25000000 -0.095187 -0.642878 0.760031 0.000000
181.00000000 89.79299927 212.25000000 0.423590 -0.006517 -0.905831 0.000000
104.28700256 142.11300659 124.50000000 0.920864 0.307909 -0.239167 0.000000
69.28910065 230.13900757 190.50000000 -0.576057 0.623358 0.528756 0.000000
130.09399414 212.10899353 227.25000000 0.454062 0.635017 0.624964 0.000000
102.16600037 155.54699707 136.50000000 0.526115 0.693136 -0.492711 0.000000
75.65229797 217.05900574 153.75000000 0.485223 0.068126 -0.871733 0.000000
68.58200073 117.72100067 240.00000000 -0.753357 -0.239633 0.612396 0.000000
208.57400513 99.69139862 228.75000000 0.228622 0.113673 -0.966856 0.000000
135.39599609 93.32810211 178.50000000 0.311215 0.730467 -0.607917 0.000000
225.54299927 133.98199463 241.50000000 -0.014436 0.906825 0.421260 0.000000
46.66410065 145.64799500 176.25000000 -0.979733 -0.195947 -0.041564 0.000000
106.76200104 236.50199890 189.00000000 0.632829 0.713341 -0.301117 0.000000
193.02000427 77.41989899 249.00000000 0.409374 -0.667927 0.621520 0.000000
76.35939789 89.79299927 183.75000000 -0.847585 -0.497788 0.183868 0.000000
92.26760101 77.77339935 187.50000000 -0.671037 -0.671037 0.315307 0.000000
48.07809830 128.67999268 93.75000000 -0.863649 -0.417303 0.282788 0.000000
158.37500000 80.60160065 251.25000000 -0.172262 -0.267209 0.948117 0.000000
134.33599854 81.30860138 152.25000000 -0.697692 0.697692 -0.162643 0.000000
125.14499664 218.11900330 223.50000000 0.399729 0.816975 0.415654 0.000000
55.50199890 115.24600220 133.50000000 -0.895824 -0.430388 -0.110751 0.000000
135.75000000 205.03900146 228.75000000 0.544789 0.369155 0.752947 0.000000
116.66000366 83.42970276 122.25000000 0.991912 -0.125516 -0.018883 0.000000
41.71480179 186.65600586 167.25000000 -0.979192 0.151880 -0.134593 0.000000
118.07399750 88.37889862 131.25000000 0.974198 0.225542 0.008266 0.000000
136.45700073 144.94099426 161.25000000 0.550500 -0.530298 -0.644775 0.000000
240.39100647 115.59999847 232.50000000 0.881656 0.001322 -0.471891 0.000000
87.67189789 158.37500000 122.25000000 0.052809 0.743604 -0.666532 0.000000
42.06840134 164.03100586 148.50000000 -0.994656 -0.043054 -0.093836 0.000000
44.89649963 161.91000366 178.50000000 -0.950480 -0.226434 -0.212875 0.000000
62.21879959 103.22699738 129.75000000 0.157223 0.987454 -0.014704 0.000000
84.13670349 236.14799500 206.25000000 -0.058344 0.899585 0.432832 0.000000
59.39059830 120.90200043 86.25000000 -0.736064 -0.162389 -0.657145 0.000000
156.25399780 72.82420349 243.75000000 -0.080087 -0.694569 0.714955 0.000000
158.37500000 154.13299561 234.75000000 -0.648975 0.477928 0.591959 0.000000
96.15619659 84.13670349 119.25000000 -0.316416 -0.905098 -0.284039 0.000000
108.17600250 96.15619659 243.75000000 -0.147955 -0.493673 0.856969 0.000000
84.13670349 96.50980377 237.00000000 -0.299717 -0.788144 0.537587 0.000000
95.44920349 83.07620239 211.50000000 -0.412776 -0.891187 0.188156 0.000000
105.34799957 236.85499573 209.25000000 0.237361 0.945328 0.223641 0.000000
188.77699280 118.07399750 227.25000000 0.568104 0.280096 -0.773824 0.000000
137.16400146 139.99200439 174.75000000 0.514122 -0.762206 0.393344 0.000000
68.58200073 222.00799561 216.75000000 -0.656956 0.600120 0.456359 0.000000
51.96680069 147.06199646 99.00000000 -0.286082 0.489309 -0.823853 0.000000
118.07399750 92.26760101 174.00000000 0.150568 0.913260 -0.378531 0.000000
53.02730179 123.73000336 201.75000000 -0.882329 -0.462838 -0.085297 0.000000
56.91600037 149.18400574 237.00000000 -0.841245 0.180800 0.509528 0.000000
113.12500000 91.91410065 167.25000000 0.480863 0.875906 -0.039504 0.000000
79.54100037 88.37889862 130.50000000 -0.844128 -0.133129 0.519351 0.000000
79.54100037 203.62500000 240.00000000 -0.303066 0.909199 0.285497 0.000000
57.26950073 109.23600006 136.50000000 -0.681785 -0.728106 0.070929 0.000000
154.83999634 138.57800293 183.75000000 0.692998 -0.437071 -0.573344 0.000000
123.73000336 105.70099640 190.50000000 0.032686 0.131872 -0.990728 0.000000
101.10500336 239.68400574 204.75000000 0.056731 0.930132 0.362817 0.000000
145.64799500 138.57800293 204.75000000 0.512853 -0.559934 -0.650735 0.000000
65.04689789 143.52699280 246.75000000 -0.705227 -0.162979 0.689995 0.000000
135.75000000 165.44500732 252.75000000 0.031436 0.509813 0.859711 0.000000
106.05500031 228.01800537 223.50000000 0.176445 0.809835 0.559495 0.000000
68.58200073 219.88699341 219.75000000 -0.587333 0.687163 0.427605 0.000000
111.00399780 83.42970276 96.75000000 0.585365 -0.612356 -0.531383 0.000000
90.50000000 122.31600189 261.75000000 0.000978 0.000978 0.999999 0.000000
43.12889862 160.49600220 131.25000000 -0.997149 0.073273 0.018053 0.000000
54.08789825 219.88699341 196.50000000 -0.699365 0.690143 0.185985 0.000000
50.90620041 125.14499664 95.25000000 -0.858345 -0.429938 0.279995 0.000000
111.71099854 93.32810211 164.25000000 0.906862 0.408434 -0.103839 0.000000
134.33599854 69.99610138 228.75000000 -0.202835 -0.894515 0.398373 0.000000
200.79699707 74.94529724 213.75000000 0.568677 0.636176 -0.521428 0.000000
61.51169968 181.70700073 131.25000000 0.185353 0.534962 -0.824294 0.000000
168.27299500 72.11720276 246.75000000 -0.130654 -0.826496 0.547572 0.000000
149.89100647 152.71899414 252.75000000 0.497548 0.237292 0.834349 0.000000
147.77000427 135.75000000 207.75000000 0.146604 -0.471745 -0.869462 0.000000
218.11900330 73.53119659 228.00000000 0.768396 -0.639159 -0.032309 0.000000
162.26400757 160.49600220 238.50000000 0.975451 0.134329 0.174502 0.000000
62.92580032 135.04299927 92.25000000 -0.325621 0.845993 -0.422217 0.000000
123.02300262 191.25199890 240.00000000 -0.020521 0.245040 0.969296 0.000000
109.58999634 130.80099487 122.25000000 0.787601 0.514908 -0.338460 0.000000
48.78519821 125.85199738 114.75000000 -0.951380 -0.307099 -0.023816 0.000000
145.64799500 95.44920349 191.25000000 0.630137 0.545668 -0.552426 0.000000
115.95300293 139.28500366 264.75000000 0.000978 0.000978 0.999999 0.000000
89.08589935 86.25779724 110.25000000 -0.835651 -0.492191 0.243795 0.000000
52.67380142 132.92199707 226.50000000 -0.916008 -0.311124 0.253241 0.000000
49.49219894 121.60900116 111.75000000 -0.943802 -0.327441 0.044943 0.000000
42.06840134 181.70700073 202.50000000 -0.980160 0.017524 0.197434 0.000000
229.07800293 126.55899811 242.25000000 0.259861 0.090887 0.961359 0.000000
141.40600586 96.86329651 254.25000000 -0.166440 -0.269280 0.948570 0.000000
69.99610138 117.36699677 243.75000000 -0.726630 -0.279473 0.627617 0.000000
125.85199738 72.11720276 227.25000000 -0.384518 -0.860147 0.335102 0.000000
80.60160065 144.23399353 107.25000000 0.228974 0.001174 -0.973432 0.000000
62.92580032 150.24400330 103.50000000 0.104411 0.751462 -0.651463 0.000000
179.58599854 104.64099884 257.25000000 0.000978 0.000978 0.999999 0.000000
133.62899780 212.10899353 198.75000000 0.794505 0.094411 -0.599873 0.000000
137.16400146 147.77000427 261.75000000 0.151593 0.156604 0.975958 0.000000
115.95300293 125.85199738 186.75000000 0.991779 0.014374 0.127151 0.000000
152.36500549 162.61700439 249.00000000 0.760983 0.253661 0.597127 0.000000
119.13500214 126.55899811 174.00000000 0.974392 0.101057 0.200867 0.000000
231.19900513 90.50000000 234.75000000 0.095393 -0.288794 0.952627 0.000000
148.47700500 148.47700500 174.75000000 0.644833 0.537080 -0.543815 0.000000
82.72270203 227.66400146 221.25000000 -0.195139 0.760582 0.619222 0.000000
136.45700073 172.51600647 246.75000000 0.434873 0.618152 0.654808 0.000000
96.15619659 72.82420349 174.75000000 -0.332985 -0.925895 0.178435 0.000000
136.45700073 59.03710175 165.00000000 -0.314568 -0.946315 -0.074400 0.000000
185.94900513 83.42970276 212.25000000 0.028821 0.531135 -0.846797 0.000000
129.74000549 216.35200500 196.50000000 0.498586 0.311814 -0.808817 0.000000
196.55499268 96.15619659 254.25000000 0.199372 -0.237347 0.950746 0.000000
143.88099670 202.91799927 210.00000000 0.808395 0.411401 -0.421006 0.000000
95.44920349 84.49019623 114.00000000 -0.069769 -0.991628 0.108656 0.000000
156.60699463 80.60160065 184.50000000 0.595421 0.478014 -0.645738 0.000000
87.67189789 88.37889862 213.75000000 -0.611800 -0.774947 0.158615 0.000000
121.60900116 200.08999634 239.25000000 0.676431 0.542152 0.498511 0.000000
156.25399780 165.09199524 240.00000000 0.659839 0.559100 0.502015 0.000000
59.39059830 142.11300659 242.25000000 -0.981797 0.065772 0.178182 0.000000
97.57029724 212.81599426 236.25000000 -0.205100 0.237699 0.949438 0.000000
185.24200439 110.29699707 257.25000000 0.806928 0.517504 0.284706 0.000000
156.96099854 78.12699890 180.00000000 0.600839 0.408836 -0.686910 0.000000
122.31600189 133.27499390 193.50000000 0.494840 -0.788198 -0.365892 0.000000
47.37110138 173.92999268 129.75000000 -0.691955 0.244312 -0.679345 0.000000
62.92580032 157.66799927 111.75000000 0.058735 0.743505 -0.666146 0.000000
195.84800720 72.82420349 206.25000000 0.435124 0.678527 -0.591835 0.000000
123.73000336 223.77499390 219.00000000 0.395763 0.667333 0.630903 0.000000
119.48799896 101.10500336 189.75000000 0.333568 0.559169 -0.758988 0.000000
100.04499817 212.81599426 171.00000000 0.217812 0.582376 -0.783196 0.000000
113.83200073 83.07620239 102.00000000 0.749040 -0.661251 -0.041063 0.000000
154.13299561 140.69900513 258.75000000 0.001246 -0.332624 0.943059 0.000000
94.74220276 85.90429688 90.00000000 -0.362681 -0.557846 -0.746505 0.000000
111.35700226 110.29699707 172.50000000 0.916740 -0.376990 -0.132155 0.000000
111.71099854 173.22300720 254.25000000 0.540389 0.040286 0.840450 0.000000
187.36300659 76.35939789 204.75000000 0.592680 0.545400 -0.592680 0.000000
153.07200623 153.42599487 217.50000000 0.948730 0.126764 -0.289556 0.000000
228.72500610 134.33599854 241.50000000 -0.080425 0.983101 0.164450 0.000000
67.87500000 219.17999268 153.75000000 -0.157977 0.095269 -0.982836 0.000000
140.69900513 166.15199280 249.75000000 0.363884 0.579278 0.729401 0.000000
136.45700073 108.88300323 206.25000000 0.304747 0.933723 -0.187858 0.000000
69.64260101 230.49200439 204.00000000 -0.785251 0.461436 0.412864 0.000000
96.15619659 238.97700500 206.25000000 -0.093887 0.821874 0.561879 0.000000
74.23829651 125.85199738 86.25000000 0.405903 0.634535 -0.657729 0.000000
57.26950073 106.76200104 146.25000000 -0.510902 -0.639049 -0.574975 0.000000
96.15619659 183.12100220 161.25000000 0.453036 0.382599 -0.805219 0.000000
151.30499268 73.53119659 171.75000000 0.899515 0.069825 -0.431274 0.000000
97.57029724 79.89450073 134.25000000 -0.363311 -0.805045 0.468943 0.000000
75.65229797 139.99200439 99.75000000 0.168513 0.760584 -0.626989 0.000000
141.40600586 73.17769623 240.00000000 0.219806 -0.656299 0.721773 0.000000
84.84380341 234.38099670 160.50000000 0.308242 0.885632 -0.347336 0.000000
139.28500366 167.56599426 249.75000000 0.336427 0.536030 0.774266 0.000000
68.93550110 168.97999573 249.00000000 -0.104871 0.716376 0.689788 0.000000
201.85699463 138.57800293 234.00000000 0.431687 0.212135 -0.876724 0.000000
45.60350037 131.50799561 106.50000000 -0.953007 -0.301806 0.026298 0.000000
59.39059830 126.55899811 86.25000000 -0.325909 0.228280 -0.917427 0.000000
60.45119858 117.36699677 186.00000000 -0.879512 -0.452031 0.148752 0.000000
142.11300659 199.02900696 226.50000000 0.296129 0.841875 -0.451170 0.000000
133.62899780 149.89100647 159.75000000 0.398520 0.068897 -0.914568 0.000000
80.60160065 94.03520203 128.25000000 -0.387058 -0.132745 -0.912450 0.000000
82.72270203 92.62110138 110.25000000 -0.368066 -0.907896 -0.200632 0.000000
163.67799377 140.69900513 231.00000000 0.052464 0.789790 -0.611130 0.000000
117.72100067 108.88300323 120.00000000 0.973432 -0.001174 -0.228974 0.000000
234.73399353 131.15400696 240.00000000 0.669230 -0.287271 0.685279 0.000000
114.89299774 91.91410065 102.00000000 0.601079 0.631386 -0.489955 0.000000
148.47700500 113.12500000 257.25000000 -0.049203 -0.133877 0.989776 0.000000
111.00399780 127.61900330 120.00000000 0.676502 0.572939 -0.462694 0.000000
88.37889862 78.48049927 179.25000000 -0.566916 -0.809239 -0.154070 0.000000
117.36699677 68.93550110 216.00000000 -0.815712 -0.510015 -0.272944 0.000000
45.60350037 197.96899414 201.00000000 -0.914150 0.394902 -0.091552 0.000000
43.12889862 166.85899353 179.25000000 -0.957930 -0.239814 0.157668 0.000000
46.66410065 149.89100647 186.75000000 -0.782850 -0.363178 0.505221 0.000000
216.35200500 82.01560211 239.25000000 0.245403 -0.776848 0.579901 0.000000
127.97299957 172.86900330 175.50000000 -0.035099 0.607909 -0.793230 0.000000
197.96899414 63.27930069 214.50000000 0.196673 -0.978536 0.061536 0.000000
54.44139862 216.35200500 185.25000000 -0.619203 0.745250 0.247366 0.000000
175.34399414 91.91410065 206.25000000 0.500959 -0.311321 -0.807539 0.000000
63.98630142 132.92199707 240.00000000 -0.485257 -0.074117 0.871225 0.000000
57.97660065 131.50799561 236.25000000 -0.806202 0.287593 0.517038 0.000000
55.14839935 127.26599884 188.25000000 -0.828536 -0.311680 -0.465171 0.000000
48.78519821 190.89799500 174.75000000 -0.881645 0.293882 -0.369236 0.000000
224.83599854 109.58999634 243.75000000 0.330487 0.013823 0.943709 0.000000
204.33200073 121.60900116 249.75000000 0.240707 0.111987 0.964116 0.000000
44.54299927 158.37500000 185.25000000 -0.691342 0.199515 0.694435 0.000000
77.77339935 202.56399536 241.50000000 -0.303066 0.909199 0.285497 0.000000
218.82600403 130.80099487 232.50000000 -0.397512 0.209757 -0.893301 0.000000
120.19499969 122.31600189 263.25000000 0.249174 -0.176442 0.952250 0.000000
102.87300110 208.57400513 174.00000000 0.458264 0.220868 -0.860936 0.000000
88.37889862 134.33599854 261.75000000 -0.333314 -0.086316 0.938856 0.000000
183.82800293 111.00399780 219.75000000 0.429568 0.326472 -0.841954 0.000000
98.27729797 77.06639862 131.25000000 -0.426474 -0.889090 0.166253 0.000000
70.70310211 101.81199646 90.75000000 -0.336078 -0.391833 -0.856457 0.000000
61.15819931 99.69139862 154.50000000 -0.852996 -0.510647 0.107883 0.000000
227.66400146 113.12500000 242.25000000 0.322863 -0.039560 0.945619 0.000000
57.62300110 182.41400146 232.50000000 -0.941031 0.289865 0.174469 0.000000
42.42190170 153.42599487 167.25000000 -0.973138 -0.227910 -0.032559 0.000000
203.27099609 128.67999268 232.50000000 0.054545 0.389798 -0.919284 0.000000
70.70310211 95.44920349 141.75000000 -0.573235 -0.613818 -0.542798 0.000000
121.60900116 85.19730377 240.00000000 -0.358955 -0.696602 0.621206 0.000000
144.94099426 157.66799927 252.75000000 0.324553 0.532395 0.781806 0.000000
193.72700500 94.03520203 221.25000000 0.358471 0.146457 -0.921981 0.000000
149.89100647 151.30499268 254.25000000 0.600362 0.313862 0.735565 0.000000
162.61700439 152.01199341 239.25000000 0.229404 0.068201 0.970939 0.000000
193.72700500 123.73000336 251.25000000 -0.017228 0.175725 0.984289 0.000000
223.42199707 106.76200104 243.75000000 0.266027 -0.061779 0.961984 0.000000
69.64260101 147.77000427 106.50000000 -0.067802 0.696771 -0.714082 0.000000
196.20100403 98.98439789 226.50000000 0.403184 -0.645426 -0.648744 0.000000
59.39059830 220.59399414 174.75000000 -0.377077 0.312959 0.871705 0.000000
53.73440170 130.09399414 188.25000000 -0.661616 -0.641817 -0.387730 0.000000
84.13670349 131.50799561 258.75000000 -0.494487 0.014821 0.869058 0.000000
167.21299744 145.64799500 244.50000000 -0.178844 -0.625190 0.759705 0.000000
84.49019623 92.62110138 126.00000000 -0.403761 -0.861253 0.308577 0.000000
53.02730179 141.40600586 231.75000000 -0.829527 -0.278584 0.484020 0.000000
69.99610138 102.51999664 105.75000000 -0.674606 -0.730700 0.104807 0.000000
82.72270203 95.44920349 92.25000000 -0.701305 -0.534725 -0.471424 0.000000
212.81599426 125.85199738 231.75000000 -0.268149 0.253962 -0.929301 0.000000
67.87500000 102.87300110 99.00000000 -0.683833 -0.719589 -0.120676 0.000000
67.87500000 226.60400391 160.50000000 -0.742522 0.663437 -0.092266 0.000000
181.00000000 135.75000000 227.25000000 0.570011 0.234528 -0.787454 0.000000
206.45300293 125.14499664 231.75000000 0.017387 0.472113 -0.881367 0.000000
112.41799927 214.22999573 234.75000000 0.249009 0.430106 0.867758 0.000000
82.72270203 238.62300110 199.50000000 -0.200009 0.948340 0.246269 0.000000
101.81199646 86.25779724 228.75000000 -0.358455 -0.792458 0.493478 0.000000
59.74409866 113.83200073 168.00000000 -0.873818 -0.459520 0.159009 0.000000
65.04689789 106.76200104 114.75000000 -0.826546 -0.562491 0.020629 0.000000
213.52299500 130.80099487 242.25000000 0.190797 0.242217 0.951277 0.000000
158.37500000 60.80469894 219.75000000 -0.112092 -0.950804 0.288802 0.000000
164.03100586 80.60160065 254.25000000 -0.149796 -0.688457 0.709640 0.000000
115.95300293 80.60160065 122.25000000 0.687246 -0.556820 -0.466525 0.000000
62.92580032 128.67999268 86.25000000 -0.202717 0.327467 -0.922860 0.000000
106.40799713 105.34799957 100.50000000 0.468866 0.819331 -0.329942 0.000000
214.93800354 86.25779724 224.25000000 -0.347417 0.115806 -0.930532 0.000000
91.91410065 87.67189789 117.75000000 -0.182818 -0.884841 -0.428526 0.000000
111.00399780 193.02000427 246.75000000 -0.144202 0.572347 0.807233 0.000000
125.14499664 127.61900330 205.50000000 0.339353 -0.423800 -0.839781 0.000000
103.22699738 154.13299561 260.25000000 -0.160933 0.274532 0.948015 0.000000
185.94900513 61.51169968 219.75000000 -0.031582 -0.948714 0.314554 0.000000
42.06840134 154.83999634 171.00000000 -0.979042 -0.154716 -0.132437 0.000000
111.00399780 168.97999573 159.75000000 0.448457 0.733087 -0.511341 0.000000
222.00799561 120.90200043 230.25000000 -0.193544 0.299367 -0.934302 0.000000
113.47899628 201.50399780 178.50000000 0.548882 0.297510 -0.781163 0.000000
142.46699524 154.83999634 169.50000000 0.683981 0.341174 -0.644803 0.000000
130.09399414 107.46900177 191.25000000 0.622995 0.518319 -0.585852 0.000000
185.24200439 69.64260101 240.00000000 0.154397 -0.887422 0.434332 0.000000
87.67189789 83.07620239 175.50000000 -0.096522 0.449038 0.888284 0.000000
105.34799957 179.23199463 253.50000000 0.446689 -0.894688 0.001310 0.000000
94.74220276 82.01560211 128.25000000 -0.771898 -0.623741 -0.122970 0.000000
191.60499573 75.65229797 246.75000000 0.238974 -0.889101 0.390373 0.000000
64.33979797 104.99400330 220.50000000 -0.885363 -0.459947 0.067680 0.000000
115.95300293 79.18750000 123.75000000 0.613570 -0.679723 -0.401880 0.000000
64.33979797 112.06400299 234.00000000 -0.792890 -0.395638 0.463461 0.000000
155.89999390 70.70310211 175.50000000 0.691093 0.483598 -0.537145 0.000000
126.20500183 180.29299927 249.00000000 0.466655 0.667367 0.580392 0.000000
120.90200043 99.69139862 249.75000000 -0.574648 -0.524093 0.628574 0.000000
116.30699921 95.44920349 121.50000000 0.968719 0.241252 -0.058148 0.000000
176.75799561 142.82000732 246.75000000 0.644680 0.584083 0.493188 0.000000
90.50000000 76.00589752 178.50000000 -0.723554 -0.682292 0.104628 0.000000
60.09769821 223.77499390 184.50000000 -0.763566 0.436557 0.475798 0.000000
66.81449890 228.37100220 201.00000000 -0.766301 0.546897 0.337173 0.000000
71.05660248 129.38699341 87.00000000 0.548608 0.775728 -0.311891 0.000000
58.68360138 203.62500000 149.25000000 -0.013877 0.334305 -0.942363 0.000000
190.89799500 116.66000366 227.25000000 0.452150 0.268225 -0.850656 0.000000
161.91000366 144.94099426 251.25000000 0.065165 0.162320 0.984584 0.000000
134.33599854 114.53900146 261.75000000 0.045615 -0.515585 0.855623 0.000000
112.77100372 205.03900146 240.00000000 0.178524 0.770552 0.611864 0.000000
69.99610138 188.77699280 144.75000000 0.402756 0.236303 -0.884279 0.000000
123.37699890 67.16799927 151.50000000 -0.429377 -0.741950 -0.514923 0.000000
209.98800659 76.35939789 236.25000000 0.334054 -0.669737 0.663219 0.000000
73.53119659 85.19730377 163.50000000 -0.623185 -0.778622 0.073401 0.000000
139.99200439 203.97900391 222.00000000 0.672273 0.639399 0.373120 0.000000
44.54299927 182.41400146 179.25000000 -0.956976 0.283407 -0.062273 0.000000
52.32030106 127.97299957 197.25000000 -0.950989 -0.115071 -0.287016 0.000000
183.82800293 137.16400146 243.75000000 -0.297829 0.811545 0.502685 0.000000
89.08589935 237.91600037 168.00000000 0.391665 0.875575 -0.282785 0.000000
102.51999664 106.05500031 96.75000000 -0.001141 0.982547 0.186011 0.000000
70.70310211 93.32810211 143.25000000 -0.657030 -0.512517 -0.552846 0.000000
65.04689789 186.65600586 236.25000000 -0.781265 -0.004134 0.624185 0.000000
53.02730179 120.19499969 140.25000000 -0.889022 -0.200652 -0.411557 0.000000
105.70099640 212.10899353 175.50000000 0.245906 0.143335 -0.958637 0.000000
124.43800354 80.24800110 159.00000000 -0.376078 0.880537 -0.288478 0.000000
90.50000000 105.34799957 249.75000000 -0.049982 -0.738304 0.672614 0.000000
54.79489899 115.24600220 120.00000000 -0.776563 -0.521476 -0.353570 0.000000
167.56599426 80.60160065 254.25000000 -0.354414 -0.532430 0.768706 0.000000
229.07800293 83.07620239 223.50000000 0.310734 -0.947803 -0.071508 0.000000
90.50000000 95.09570313 237.00000000 0.472381 -0.502216 0.724317 0.000000
156.60699463 77.77339935 190.50000000 0.993961 0.025317 0.106771 0.000000
62.21879959 177.81799316 130.50000000 0.793698 0.310163 -0.523300 0.000000
103.22699738 202.91799927 171.75000000 0.509887 0.145472 -0.847852 0.000000
184.53500366 76.00589752 249.00000000 -0.039872 -0.135565 0.989966 0.000000
98.27729797 80.60160065 138.75000000 -0.289700 -0.957110 0.003667 0.000000
139.63900757 82.72270203 247.50000000 -0.517815 -0.353276 0.779143 0.000000
102.51999664 88.02539825 234.00000000 -0.387764 -0.655074 0.648473 0.000000
135.04299927 181.70700073 194.25000000 0.843702 0.312310 -0.436612 0.000000
73.17769623 137.16400146 253.50000000 -0.598498 -0.052351 0.799412 0.000000
212.10899353 84.84380341 224.25000000 0.036368 0.448533 -0.893026 0.000000
154.13299561 108.88300323 219.75000000 -0.510995 0.174304 -0.841726 0.000000
139.28500366 87.67189789 167.25000000 -0.391166 0.625536 -0.675051 0.000000
150.24400330 148.47700500 256.50000000 0.647958 0.533514 0.543612 0.000000
43.48239899 149.18400574 165.00000000 -0.905318 -0.001299 -0.424733 0.000000
133.62899780 87.31839752 249.00000000 -0.229244 -0.533877 0.813893 0.000000
97.57029724 91.91410065 90.75000000 -0.492878 -0.814115 -0.307065 0.000000
68.22850037 95.44920349 168.00000000 -0.673934 -0.052942 0.736892 0.000000
108.17600250 118.07399750 108.75000000 0.765106 0.305084 -0.567041 0.000000
66.46089935 104.64099884 96.75000000 -0.714418 -0.684210 -0.146508 0.000000
141.40600586 107.82199860 208.50000000 0.580154 0.797147 -0.167265 0.000000
111.00399780 209.98800659 236.25000000 0.182201 0.475500 0.860641 0.000000
176.05099487 142.11300659 249.75000000 0.642136 0.574720 0.507304 0.000000
150.24400330 72.11720276 171.00000000 0.856998 -0.201911 -0.474116 0.000000
240.74400330 116.66000366 238.50000000 0.975352 0.179044 0.128962 0.000000
162.61700439 92.62110138 257.25000000 0.000978 0.000978 0.999999 0.000000
209.28100586 109.58999634 228.75000000 0.001246 0.332624 -0.943059 0.000000
219.17999268 127.97299957 243.75000000 -0.364239 0.364239 0.857123 0.000000
89.79299927 84.49019623 136.50000000 -0.972055 -0.234388 0.013088 0.000000
217.05900574 72.47070313 225.00000000 0.948322 -0.063221 -0.310947 0.000000
101.10500336 163.32400513 258.75000000 -0.003738 0.325182 0.945644 0.000000
101.81199646 174.63699341 159.75000000 0.499730 -0.725522 -0.473167 0.000000
93.32810211 167.56599426 257.25000000 -0.028565 0.286889 0.957538 0.000000
153.42599487 173.92999268 212.25000000 0.253188 0.149792 -0.955750 0.000000
67.87500000 201.85699463 150.00000000 0.568852 0.612740 -0.548596 0.000000
194.43400574 69.99610138 236.25000000 0.236677 -0.753919 0.612853 0.000000
78.83399963 217.76600647 156.00000000 0.440382 -0.243648 -0.864118 0.000000
101.10500336 89.43949890 88.50000000 -0.107695 -0.644695 -0.756816 0.000000
47.37110138 161.20300293 186.75000000 -0.434798 -0.090294 0.895990 0.000000
160.85000610 157.66799927 240.00000000 0.894424 0.114092 0.432422 0.000000
188.42399597 120.19499969 225.00000000 0.834952 0.234399 -0.497907 0.000000
141.40600586 205.03900146 206.25000000 0.828965 0.168780 -0.533226 0.000000
45.25000000 183.82800293 207.75000000 -0.805045 0.363311 -0.468943 0.000000
69.28910065 107.82199860 109.50000000 -0.095393 -0.288794 -0.952627 0.000000
68.58200073 102.51999664 119.25000000 -0.535051 -0.843574 -0.045862 0.000000
63.63280106 96.15619659 156.75000000 -0.827519 -0.555025 0.084616 0.000000
72.47070313 102.51999664 235.50000000 -0.603572 -0.456441 0.653730 0.000000
124.08399963 189.48399353 184.50000000 0.489946 0.339930 -0.802746 0.000000
51.61330032 130.80099487 179.25000000 -0.734865 -0.613188 0.289783 0.000000
202.91799927 131.50799561 243.75000000 0.367756 0.583506 0.724070 0.000000
49.84569931 139.99200439 222.00000000 -0.889870 -0.384768 0.245123 0.000000
73.53119659 172.86900330 130.50000000 0.086717 0.848694 -0.521726 0.000000
91.91410065 85.90429688 217.50000000 -0.375135 -0.913064 0.159963 0.000000
75.65229797 237.91600037 186.00000000 -0.578269 0.815649 0.017942 0.000000
76.00589752 222.71499634 222.00000000 -0.500394 0.325653 0.802219 0.000000
156.60699463 159.78900146 220.50000000 0.812156 -0.438787 -0.384537 0.000000
47.37110138 152.01199341 107.25000000 -0.911328 0.313497 -0.266837 0.000000
103.22699738 96.15619659 243.75000000 -0.276375 -0.650200 0.707712 0.000000
67.87500000 160.49600220 249.75000000 -0.639216 0.478154 0.602306 0.000000
184.18200684 127.97299957 225.00000000 0.565928 0.596336 -0.569306 0.000000
154.13299561 81.66210175 180.00000000 0.714362 0.354729 -0.603203 0.000000
106.76200104 107.11499786 253.50000000 0.015361 -0.682884 0.730365 0.000000
152.71899414 76.35939789 176.25000000 0.658325 0.547201 -0.516894 0.000000
57.62300110 222.00799561 195.00000000 -0.556696 0.830209 -0.029009 0.000000
137.87100220 146.00199890 162.00000000 0.579178 -0.602818 -0.548784 0.000000
66.46089935 154.83999634 108.75000000 0.123141 0.775938 -0.618673 0.000000
53.73440170 127.61900330 190.50000000 -0.735093 -0.497221 -0.460879 0.000000
168.27299500 98.98439789 257.25000000 0.000978 0.000978 0.999999 0.000000
102.51999664 152.01199341 131.25000000 0.552716 0.552716 -0.623707 0.000000
109.23600006 127.97299957 118.50000000 0.761420 0.341103 -0.551261 0.000000
59.39059830 133.27499390 237.00000000 -0.751271 -0.192043 0.631436 0.000000
51.25979996 117.36699677 154.50000000 -0.957877 -0.138345 -0.251657 0.000000
63.63280106 161.20300293 114.75000000 0.076808 0.647794 -0.757934 0.000000
47.37110138 147.77000427 101.25000000 -0.348514 0.411028 -0.842374 0.000000
114.89299774 98.98439789 114.00000000 0.954189 0.287935 -0.081345 0.000000
66.46089935 200.79699707 149.25000000 0.437071 0.692998 -0.573344 0.000000
111.00399780 110.65000153 165.00000000 0.477192 -0.853526 0.209242 0.000000
222.00799561 82.72270203 221.25000000 -0.000978 -0.000978 -0.999999 0.000000
98.98439789 236.14799500 213.75000000 -0.126229 0.628173 0.767767 0.000000
104.64099884 208.57400513 239.25000000 0.149755 0.679191 0.718521 0.000000
144.23399353 168.97999573 246.75000000 0.460930 0.598371 0.655359 0.000000
72.82420349 156.96099854 114.75000000 0.223927 0.674913 -0.703100 0.000000
153.77900696 158.37500000 214.50000000 0.598200 -0.497096 -0.628532 0.000000
142.11300659 71.76370239 238.50000000 -0.938494 -0.312831 -0.146170 0.000000
89.08589935 196.90800476 160.50000000 0.196394 0.108830 -0.974467 0.000000
184.53500366 131.50799561 249.75000000 0.148477 0.348296 0.925551 0.000000
74.23829651 188.07000732 146.25000000 0.617389 0.446729 -0.647506 0.000000
47.01760101 129.38699341 135.00000000 -0.953019 -0.271723 0.133873 0.000000
114.18599701 98.98439789 147.00000000 0.965620 -0.140900 0.218460 0.000000
48.07809830 161.91000366 227.25000000 -0.649272 -0.738297 0.182656 0.000000
55.14839935 222.71499634 174.75000000 0.000978 0.000978 0.999999 0.000000
95.44920349 111.00399780 257.25000000 0.625619 -0.029392 0.779575 0.000000
61.51169968 111.35700226 225.00000000 -0.881939 -0.393803 0.259042 0.000000
141.05299377 205.74600220 207.00000000 0.828965 0.168780 -0.533226 0.000000
173.22300720 101.81199646 204.75000000 0.248014 0.155175 -0.956248 0.000000
72.82420349 91.91410065 174.75000000 -0.514983 -0.518337 0.682729 0.000000
169.68800354 136.45700073 251.25000000 -0.808671 0.328870 -0.487745 0.000000
88.37889862 92.26760101 232.50000000 -0.113805 -0.894985 0.431335 0.000000
113.83200073 168.97999573 161.25000000 0.541375 0.561614 -0.625702 0.000000
95.44920349 114.53900146 257.25000000 -0.328470 -0.362081 0.872356 0.000000
43.83589935 154.13299561 180.75000000 -0.690305 0.004150 -0.723506 0.000000
72.11720276 182.41400146 138.75000000 0.000978 0.000978 -0.999999 0.000000
199.38299561 120.90200043 251.25000000 0.092245 0.115598 0.989004 0.000000
119.84200287 113.83200073 141.00000000 0.930587 -0.349140 0.110040 0.000000
191.60499573 65.75389862 228.75000000 0.179039 -0.889372 0.420669 0.000000
65.75389862 108.17600250 174.75000000 0.000978 0.000978 0.999999 0.000000
160.85000610 163.32400513 237.00000000 0.322965 0.563983 0.760011 0.000000
222.71499634 114.53900146 243.75000000 0.288352 -0.001217 0.957524 0.000000
112.77100372 99.69139862 150.00000000 0.959658 -0.167643 0.225724 0.000000
129.74000549 72.11720276 231.00000000 -0.291982 -0.899660 0.324589 0.000000
96.86329651 210.69500732 236.25000000 -0.205100 0.237699 0.949438 0.000000
181.70700073 120.90200043 254.25000000 0.182032 0.466179 0.865761 0.000000
211.40199280 71.41020203 228.75000000 0.553222 -0.607360 0.570140 0.000000
156.96099854 118.07399750 216.75000000 -0.680035 -0.344094 -0.647419 0.000000
211.04899597 69.99610138 222.00000000 0.126409 -0.771840 -0.623124 0.000000
100.39800262 225.54299927 227.25000000 0.700955 0.348027 0.622527 0.000000
