92.39060211 235.25399780 188.75000000 0.623434 -0.136049 -0.769948 0.000000
133.45300293 188.63099670 145.00000000 0.294304 -0.294304 -0.909269 0.000000
168.95500183 263.48400879 150.00000000 -0.855363 -0.452839 0.251577 0.000000
133.45300293 149.27900696 120.00000000 0.233547 -0.625405 0.744530 0.000000
172.80499268 195.04699707 153.75000000 0.000978 0.000978 0.999999 0.000000
125.75399780 254.92999268 188.75000000 -0.025887 -0.505480 -0.862450 0.000000
191.62500000 197.18600464 140.00000000 0.188792 -0.155400 -0.969644 0.000000
154.83999634 253.21899414 126.25000000 -0.701436 -0.391154 0.595808 0.000000
101.80100250 155.26800537 127.50000000 0.834506 0.501924 0.227315 0.000000
248.94099426 170.66600037 160.00000000 0.687410 0.687410 -0.234380 0.000000
121.47699738 260.48999023 185.00000000 0.281379 -0.529747 -0.800122 0.000000
145.42999268 176.65400696 210.00000000 0.277052 0.232049 -0.932414 0.000000
131.74200439 290.43200684 127.50000000 -0.282563 -0.739135 0.611423 0.000000
142.00799561 173.66000366 208.75000000 -0.215512 0.524260 -0.823837 0.000000
127.46499634 138.15800476 122.50000000 0.442052 0.891120 -0.102444 0.000000
201.03500366 131.31399536 142.50000000 -0.001127 0.985809 -0.167869 0.000000
186.49200439 218.57200623 160.00000000 0.419871 0.905894 0.055353 0.000000
246.80299377 180.50399780 160.00000000 0.741175 -0.444045 -0.503471 0.000000
102.65599823 281.44900513 151.25000000 0.565449 -0.774523 -0.283517 0.000000
224.98800659 128.74800110 125.00000000 0.001127 0.985809 -0.167869 0.000000
163.82200623 221.56599426 152.50000000 0.463389 0.266333 0.845185 0.000000
177.08200073 161.68400574 121.25000000 -0.205972 0.328135 -0.921902 0.000000
196.75799561 172.80499268 188.75000000 -0.342875 0.297957 -0.890875 0.000000
109.92800140 155.69500732 172.50000000 0.343042 0.895472 -0.283640 0.000000
141.15199280 227.55499268 206.25000000 0.102459 -0.315362 -0.943424 0.000000
187.34800720 182.21499634 126.25000000 -0.001381 0.697373 -0.716707 0.000000
174.51600647 154.83999634 118.75000000 -0.202090 0.609357 -0.766710 0.000000
201.03500366 199.32400513 131.25000000 -0.000978 -0.000978 -0.999999 0.000000
133.45300293 144.14700317 155.00000000 0.154171 0.909468 -0.386135 0.000000
163.39500427 199.32400513 211.25000000 0.000978 0.000978 -0.999999 0.000000
180.50399780 156.55099487 116.25000000 -0.325448 0.600702 -0.730233 0.000000
131.74200439 186.49200439 128.75000000 -0.862456 -0.074325 0.500645 0.000000
143.71899414 274.60598755 126.25000000 -0.762600 0.382113 0.521950 0.000000
175.37100220 153.98399353 181.25000000 -0.116742 0.630998 -0.766950 0.000000
197.61300659 173.66000366 188.75000000 -0.273596 0.140135 -0.951581 0.000000
155.69500732 206.16799927 211.25000000 -0.157067 0.233620 -0.959558 0.000000
125.75399780 224.98800659 206.25000000 0.210025 -0.183606 -0.960301 0.000000
80.41410065 180.93200684 147.50000000 0.895046 0.445528 0.019949 0.000000
261.77301025 138.58599854 161.25000000 -0.567041 0.700071 -0.434011 0.000000
200.17999268 158.26199341 113.75000000 -0.999999 -0.000978 -0.000978 0.000000
97.52349854 268.19000244 167.50000000 0.687410 -0.687410 0.234380 0.000000
155.69500732 148.85200500 173.75000000 -0.254430 0.854703 -0.452490 0.000000
133.45300293 235.25399780 203.75000000 -0.395045 -0.465991 -0.791702 0.000000
148.85200500 213.01199341 211.25000000 -0.000978 -0.000978 -0.999999 0.000000
85.54689789 253.64700317 100.00000000 0.860095 -0.436898 0.263357 0.000000
100.08999634 261.77301025 176.25000000 0.329114 -0.727942 -0.601485 0.000000
159.11700439 226.69900513 203.75000000 -0.348038 -0.429929 -0.833085 0.000000
120.19300079 189.91400146 115.00000000 -0.798189 0.508228 0.323418 0.000000
189.91400146 164.25000000 143.75000000 0.000978 0.000978 0.999999 0.000000
120.62100220 257.49600220 186.25000000 0.240660 -0.659063 -0.712543 0.000000
122.33200073 291.28698730 142.50000000 0.228961 -0.934104 -0.273910 0.000000
254.92999268 168.10000610 162.50000000 0.607047 0.158164 -0.778767 0.000000
219.85600281 173.66000366 128.75000000 0.375230 0.365888 -0.851662 0.000000
124.47100067 141.15199280 117.50000000 0.299891 0.902627 0.308755 0.000000
109.50000000 195.04699707 93.75000000 -0.403615 0.074744 0.911871 0.000000
207.87899780 140.29699707 176.25000000 0.169421 0.731105 -0.660895 0.000000
118.91000366 256.64099121 103.75000000 -0.730004 -0.166118 0.662947 0.000000
223.27699280 142.00799561 176.25000000 -0.152289 0.622726 -0.767476 0.000000
99.66210175 235.25399780 85.00000000 -0.819423 -0.090727 0.565963 0.000000
228.41000366 133.02499390 110.00000000 0.567537 0.437719 -0.697355 0.000000
105.22299957 286.15399170 140.00000000 0.538618 -0.842523 -0.006784 0.000000
223.27699280 188.20300293 136.25000000 0.530057 0.158869 -0.832947 0.000000
116.77200317 219.00000000 97.50000000 -0.546683 -0.017812 0.837151 0.000000
112.49400330 278.88299561 162.50000000 0.101712 -0.682500 -0.723774 0.000000
89.82420349 267.76199341 158.75000000 0.688152 -0.622458 -0.372818 0.000000
164.25000000 268.61700439 146.25000000 -0.762312 -0.312949 0.566518 0.000000
189.91400146 157.40600586 148.75000000 0.001240 0.946173 -0.323658 0.000000
249.79699707 170.23800659 161.25000000 0.687410 0.687410 -0.234380 0.000000
212.58399963 219.00000000 145.00000000 0.265738 0.781490 -0.564497 0.000000
206.59599304 189.05900574 187.50000000 -0.406544 0.180847 -0.895554 0.000000
123.18800354 167.67199707 201.25000000 0.223480 0.695446 -0.682943 0.000000
88.11329651 255.35699463 172.50000000 0.483993 -0.671562 -0.561030 0.000000
228.41000366 171.52200317 135.00000000 0.943952 -0.312876 0.105179 0.000000
144.57400513 186.06399536 137.50000000 -0.000978 -0.000978 0.999999 0.000000
153.12899780 257.49600220 128.75000000 -0.599910 -0.321785 0.732505 0.000000
178.79299927 241.66999817 150.00000000 -0.891672 -0.414562 0.181825 0.000000
175.37100220 171.09399414 198.75000000 -0.504301 0.305110 -0.807830 0.000000
106.93399811 153.12899780 106.25000000 -0.435553 0.072821 -0.897213 0.000000
81.26959991 180.07600403 135.00000000 0.891633 0.450552 0.044649 0.000000
100.08999634 281.44900513 143.75000000 0.590255 -0.797363 -0.125744 0.000000
245.94700623 159.97300720 152.50000000 0.717859 0.308115 -0.624295 0.000000
176.22700500 210.44500732 203.75000000 -0.360259 -0.317697 -0.877087 0.000000
142.86300659 224.13299561 208.75000000 -0.101606 -0.664118 -0.740691 0.000000
98.37889862 239.53100586 83.75000000 -0.743657 -0.018138 0.668315 0.000000
262.62899780 177.93800354 168.75000000 0.492086 0.351032 -0.796635 0.000000
255.78500366 183.07000732 166.25000000 0.503455 0.001335 -0.864020 0.000000
109.07199860 214.72300720 205.00000000 0.572809 0.572809 -0.586327 0.000000
84.26370239 240.38699341 85.00000000 0.901153 -0.294465 0.318141 0.000000
99.23439789 281.02200317 142.50000000 0.593759 -0.793166 -0.135419 0.000000
179.64799500 168.52699280 146.25000000 0.610820 0.460207 0.644289 0.000000
132.59800720 164.25000000 201.25000000 -0.126737 0.382997 -0.915014 0.000000
111.21099854 284.01599121 113.75000000 0.369601 -0.835142 0.407348 0.000000
228.41000366 150.56300354 181.25000000 -0.000978 -0.000978 -0.999999 0.000000
142.00799561 198.89700317 130.00000000 -0.469897 0.062010 0.880540 0.000000
186.49200439 218.14500427 158.75000000 0.419871 0.905894 0.055353 0.000000
242.09800720 210.44500732 178.75000000 0.023468 -0.561853 -0.826904 0.000000
115.48799896 248.08599854 101.25000000 -0.503455 -0.001335 0.864020 0.000000
207.45100403 218.14500427 145.00000000 -0.336633 0.875854 -0.345772 0.000000
244.66400146 207.02299500 171.25000000 -0.079920 0.693124 -0.716374 0.000000
218.14500427 204.45700073 181.25000000 -0.409875 -0.682018 -0.605685 0.000000
234.82600403 159.97300720 137.50000000 0.848145 0.219218 -0.482279 0.000000
154.83999634 160.82800293 196.25000000 -0.132020 0.799535 -0.585930 0.000000
250.65199280 202.74600220 173.75000000 -0.000978 -0.000978 -0.999999 0.000000
154.83999634 181.78700256 130.00000000 0.192015 0.883854 -0.426536 0.000000
147.14100647 279.73800659 161.25000000 -0.203353 -0.693883 -0.690778 0.000000
172.80499268 178.79299927 203.75000000 -0.473766 0.440979 -0.762288 0.000000
154.83999634 134.30900574 143.75000000 -0.448216 0.892345 -0.053132 0.000000
115.91600037 149.70700073 155.00000000 0.442460 0.891899 -0.093517 0.000000
152.27299500 133.02499390 140.00000000 -0.123966 0.959106 -0.254457 0.000000
161.68400574 157.40600586 141.25000000 -0.846213 0.436304 0.305879 0.000000
219.00000000 128.74800110 125.00000000 -0.001240 0.946173 -0.323658 0.000000
82.12500000 252.79100037 112.50000000 0.898195 -0.402242 0.177332 0.000000
177.08200073 207.02299500 203.75000000 -0.433412 -0.151190 -0.888423 0.000000
81.69730377 257.49600220 137.50000000 0.636378 -0.636378 0.435944 0.000000
103.08399963 249.79699707 187.50000000 0.199743 -0.547386 -0.812694 0.000000
82.12500000 188.63099670 117.50000000 0.925269 0.278008 0.258049 0.000000
137.30299377 260.91799927 117.50000000 -0.428881 -0.558043 0.710387 0.000000
130.88699341 287.43798828 156.25000000 -0.049573 -0.786088 -0.616123 0.000000
80.84179688 250.65199280 112.50000000 0.890401 -0.421311 0.172289 0.000000
205.31300354 172.80499268 186.25000000 -0.000978 -0.000978 -0.999999 0.000000
194.19099426 162.53900146 186.25000000 -0.000978 -0.000978 -0.999999 0.000000
109.50000000 285.29901123 150.00000000 -0.020720 -0.819121 -0.573247 0.000000
199.32400513 156.97900391 185.00000000 0.130753 0.400694 -0.906834 0.000000
202.74600220 179.64799500 151.25000000 0.437161 0.897475 -0.058561 0.000000
144.57400513 238.24800110 110.00000000 -0.257291 -0.268662 0.928236 0.000000
94.95709991 182.64300537 190.00000000 0.677537 0.300949 -0.671099 0.000000
210.44500732 177.93800354 186.25000000 -0.229091 -0.099990 -0.968256 0.000000
121.90399933 195.04699707 110.00000000 -0.777362 0.573206 0.259121 0.000000
216.43400574 165.96099854 183.75000000 -0.000978 -0.000978 -0.999999 0.000000
87.68560028 247.23100281 85.00000000 0.833928 0.277976 0.476752 0.000000
99.23439789 232.68800354 193.75000000 0.615186 -0.126002 -0.778248 0.000000
153.98399353 157.83399963 192.50000000 -0.058511 0.774915 -0.629351 0.000000
234.39799500 159.97300720 181.25000000 -0.657756 -0.329690 -0.677245 0.000000
116.34400177 211.30099487 208.75000000 0.492152 -0.230077 -0.839554 0.000000
113.77700043 227.55499268 96.25000000 -0.366586 -0.549065 0.751094 0.000000
155.69500732 225.84399414 153.75000000 -0.145732 -0.274083 0.950600 0.000000
88.11329651 248.08599854 83.75000000 0.833928 0.277976 0.476752 0.000000
109.92800140 159.11700439 112.50000000 -0.920253 0.230421 0.316292 0.000000
165.96099854 253.64700317 180.00000000 -0.305082 -0.692488 -0.653747 0.000000
161.68400574 211.30099487 208.75000000 -0.541860 0.054606 -0.838693 0.000000
85.97460175 214.72300720 187.50000000 0.709072 -0.049935 -0.703366 0.000000
140.29699707 186.49200439 213.75000000 -0.447385 0.108671 -0.887714 0.000000
89.82420349 239.95899963 185.00000000 0.549362 -0.078480 -0.831891 0.000000
110.35500336 241.24200439 196.25000000 0.301261 -0.639575 -0.707238 0.000000
129.60400391 245.52000427 107.50000000 -0.749070 -0.581536 0.317348 0.000000
112.92199707 282.30499268 108.75000000 -0.170174 -0.811715 0.558713 0.000000
165.96099854 187.34800720 208.75000000 -0.168243 -0.001129 -0.985745 0.000000
195.90199280 166.38900757 145.00000000 -0.641474 0.365854 0.674286 0.000000
177.93800354 164.67799377 190.00000000 -0.953675 0.279412 -0.111503 0.000000
121.47699738 279.31100464 165.00000000 -0.056928 -0.865035 -0.498471 0.000000
225.84399414 147.56799316 117.50000000 0.525132 0.353858 -0.773964 0.000000
239.95899963 159.11700439 145.00000000 0.725713 0.212896 -0.654229 0.000000
176.65400696 232.68800354 142.50000000 -0.876116 -0.299125 0.378081 0.000000
215.57800293 189.05900574 133.75000000 0.231178 0.384315 -0.893789 0.000000
133.45300293 266.05099487 116.25000000 0.000978 0.000978 0.999999 0.000000
233.11500549 147.14100647 130.00000000 0.784429 0.396258 -0.477127 0.000000
83.40820313 254.07400513 110.00000000 0.849323 -0.488548 0.199929 0.000000
121.47699738 162.53900146 123.75000000 -0.166013 -0.268591 0.948841 0.000000
159.54499817 149.70700073 142.50000000 -0.211625 -0.770808 0.600891 0.000000
108.64499664 230.97700500 93.75000000 -0.727032 0.117455 0.676482 0.000000
251.50799561 197.61300659 178.75000000 -0.000978 -0.000978 -0.999999 0.000000
82.12500000 257.92401123 130.00000000 0.880124 -0.469861 0.067915 0.000000
94.10160065 183.07000732 188.75000000 0.854977 0.346025 -0.386369 0.000000
149.70700073 279.73800659 133.75000000 -0.381500 -0.767870 0.514619 0.000000
123.18800354 259.20700073 186.25000000 0.281379 -0.529747 -0.800122 0.000000
232.68800354 133.45300293 113.75000000 0.560967 0.451104 -0.694134 0.000000
250.65199280 185.63699341 178.75000000 -0.000978 -0.000978 -0.999999 0.000000
169.38299561 165.10600281 196.25000000 -0.203329 0.703115 -0.681385 0.000000
200.60699463 207.02299500 190.00000000 -0.621569 -0.148996 -0.769060 0.000000
190.77000427 129.17599487 121.25000000 -0.001240 0.946173 -0.323658 0.000000
107.78900146 210.44500732 91.25000000 -0.681224 0.079888 0.727704 0.000000
74.85350037 215.57800293 172.50000000 0.946173 0.001240 -0.323658 0.000000
79.55860138 182.64300537 145.00000000 0.687410 0.687410 0.234380 0.000000
118.91000366 273.75000000 106.25000000 -0.635488 -0.504008 0.584919 0.000000
238.67599487 195.90199280 158.75000000 0.732125 0.336031 -0.592518 0.000000
227.55499268 138.15800476 112.50000000 0.572809 0.572809 -0.586327 0.000000
180.07600403 169.38299561 145.00000000 0.374721 0.054288 0.925547 0.000000
214.72300720 153.12899780 183.75000000 -0.017324 0.183633 -0.982842 0.000000
243.80900574 150.56300354 176.25000000 -0.488583 0.229832 -0.841703 0.000000
102.65599823 171.94900513 191.25000000 0.757381 0.250361 -0.603070 0.000000
146.28500366 192.48100281 213.75000000 -0.000978 -0.000978 -0.999999 0.000000
233.54299927 189.05900574 148.75000000 0.520076 0.415076 -0.746481 0.000000
121.90399933 152.27299500 175.00000000 0.411780 0.894356 -0.174826 0.000000
156.55099487 225.84399414 118.75000000 -0.445135 0.477986 0.757222 0.000000
81.26959991 214.72300720 181.25000000 0.946173 -0.001240 -0.323658 0.000000
182.21499634 134.73599243 152.50000000 -0.019787 0.981186 -0.192047 0.000000
158.26199341 224.98800659 121.25000000 -0.446699 0.492853 0.746697 0.000000
107.36100006 229.26600647 200.00000000 0.487694 -0.346982 -0.801098 0.000000
158.26199341 224.13299561 203.75000000 -0.346403 -0.453962 -0.820928 0.000000
214.29499817 219.00000000 147.50000000 0.499608 0.823342 -0.269259 0.000000
109.92800140 162.53900146 110.00000000 -0.895936 0.249445 0.367526 0.000000
163.39500427 180.50399780 208.75000000 -0.371525 0.301769 -0.878012 0.000000
214.29499817 217.28900146 145.00000000 0.534661 0.675449 -0.507844 0.000000
127.46499634 170.23800659 206.25000000 0.511375 0.210923 -0.833071 0.000000
93.24610138 252.36300659 83.75000000 0.243272 -0.537678 0.807292 0.000000
222.42199707 179.64799500 133.75000000 0.463018 0.280288 -0.840865 0.000000
169.38299561 139.86900330 165.00000000 0.259177 0.845010 -0.467746 0.000000
109.92800140 171.94900513 105.00000000 -0.947688 0.231110 0.220170 0.000000
91.96289825 272.03900146 122.50000000 0.698943 -0.663916 0.265885 0.000000
96.24030304 203.60200500 197.50000000 0.705502 -0.023844 -0.708307 0.000000
78.70310211 242.95300293 111.25000000 0.971267 -0.208399 0.114935 0.000000
121.47699738 154.83999634 181.25000000 0.210408 0.887245 -0.410517 0.000000
240.38699341 184.78100586 153.75000000 0.657321 0.258177 -0.708007 0.000000
152.27299500 132.16999817 127.50000000 -0.108354 0.193045 0.975189 0.000000
96.66799927 189.91400146 196.25000000 0.602198 0.029341 -0.797807 0.000000
130.88699341 197.61300659 123.75000000 -0.525132 0.353858 0.773964 0.000000
133.45300293 286.58200073 156.25000000 -0.104952 -0.894194 -0.435203 0.000000
73.14260101 204.45700073 145.00000000 0.956876 0.008576 0.290371 0.000000
166.81599426 150.99000549 177.50000000 -0.158729 0.633405 -0.757365 0.000000
113.77700043 205.31300354 93.75000000 -0.440259 -0.017187 0.897706 0.000000
199.32400513 213.44000244 155.00000000 0.514800 0.855209 -0.059990 0.000000
101.80100250 274.17800903 162.50000000 0.486122 -0.721717 -0.492758 0.000000
204.45700073 189.91400146 188.75000000 -0.433792 0.189692 -0.880819 0.000000
86.40239716 175.37100220 171.25000000 0.761965 0.327017 -0.558989 0.000000
204.45700073 139.44099426 173.75000000 0.165749 0.752712 -0.637144 0.000000
81.26959991 252.36300659 116.25000000 0.911980 -0.388047 0.133085 0.000000
163.39500427 216.43400574 206.25000000 -0.751308 -0.501420 -0.429084 0.000000
166.81599426 140.72500610 165.00000000 0.170640 0.847264 -0.503017 0.000000
141.15199280 263.48400879 121.25000000 -0.149288 -0.524724 0.838080 0.000000
185.63699341 165.96099854 188.75000000 0.725979 -0.282414 -0.627054 0.000000
195.90199280 213.01199341 188.75000000 -0.807873 -0.554363 -0.200059 0.000000
137.73100281 134.73599243 130.00000000 0.313575 0.943392 -0.108083 0.000000
138.58599854 206.16799927 143.75000000 -0.704883 0.404441 -0.582725 0.000000
156.55099487 259.63500977 132.50000000 -0.868424 -0.053845 0.492889 0.000000
71.85939789 220.71099854 161.25000000 0.957875 -0.268309 -0.102398 0.000000
134.30900574 233.54299927 203.75000000 -0.192403 -0.651091 -0.734209 0.000000
178.79299927 153.12899780 116.25000000 -0.287165 0.656148 -0.697859 0.000000
95.81250000 233.54299927 191.25000000 0.534394 -0.202491 -0.820622 0.000000
189.05900574 184.35400391 147.50000000 -0.744029 -0.089167 0.662171 0.000000
214.72300720 148.85200500 111.25000000 0.000978 0.000978 -0.999999 0.000000
195.04699707 166.81599426 146.25000000 -0.995293 -0.080461 -0.054008 0.000000
76.99220276 245.94700623 162.50000000 0.823638 -0.352536 -0.444227 0.000000
173.66000366 236.96499634 138.75000000 -0.750700 -0.418881 0.510870 0.000000
182.21499634 226.27200317 182.50000000 0.859467 0.344095 0.378042 0.000000
161.68400574 219.00000000 206.25000000 -0.808255 -0.490670 -0.325525 0.000000
132.59800720 148.42399597 167.50000000 0.077905 0.973191 -0.216402 0.000000
118.05500031 203.60200500 96.25000000 -0.570377 0.248466 0.782901 0.000000
236.10899353 155.69500732 138.75000000 0.847256 0.174216 -0.501802 0.000000
132.59800720 294.28100586 133.75000000 0.001335 -0.503455 0.864020 0.000000
124.04299927 150.56300354 171.25000000 0.293961 0.934824 -0.199225 0.000000
161.25599670 273.75000000 160.00000000 -0.563483 -0.473192 -0.677183 0.000000
257.49600220 197.61300659 176.25000000 0.709306 0.179242 -0.681731 0.000000
144.57400513 155.69500732 188.75000000 0.101543 0.853817 -0.510574 0.000000
147.99600220 171.94900513 126.25000000 0.399442 -0.304555 0.864692 0.000000
187.77499390 175.37100220 122.50000000 -0.019497 0.393844 -0.918970 0.000000
76.56449890 236.10899353 115.00000000 0.960545 -0.255368 0.110184 0.000000
102.65599823 182.21499634 196.25000000 0.595513 0.357308 -0.719510 0.000000
171.52200317 221.56599426 200.00000000 -0.926104 0.285940 -0.246108 0.000000
210.44500732 205.31300354 133.75000000 0.300914 -0.218975 -0.928171 0.000000
235.25399780 205.31300354 168.75000000 0.169004 0.735397 -0.656224 0.000000
109.07199860 199.32400513 92.50000000 -0.414429 0.143840 0.898642 0.000000
110.35500336 287.86499023 142.50000000 -0.966136 -0.257556 -0.015719 0.000000
109.07199860 153.98399353 105.00000000 -0.435553 0.072821 -0.897213 0.000000
178.79299927 176.22700500 126.25000000 -0.259649 0.262487 -0.929345 0.000000
160.82800293 220.71099854 206.25000000 -0.714531 -0.644510 -0.272126 0.000000
164.67799377 266.05099487 145.00000000 -0.762600 -0.382113 0.521950 0.000000
91.53520203 171.94900513 86.25000000 -0.777947 0.585402 -0.228260 0.000000
194.19099426 165.96099854 143.75000000 -0.407917 0.522592 0.748666 0.000000
138.58599854 174.51600647 128.75000000 -0.000978 -0.000978 0.999999 0.000000
213.86700439 166.81599426 183.75000000 -0.298155 0.221850 -0.928378 0.000000
194.19099426 138.15800476 170.00000000 0.373290 0.833209 -0.407942 0.000000
142.86300659 148.85200500 171.25000000 -0.001240 0.946173 -0.323658 0.000000
106.07800293 158.26199341 96.25000000 0.824239 0.001358 -0.566240 0.000000
146.28500366 145.42999268 118.75000000 -0.128834 -0.496518 0.858412 0.000000
90.25199890 269.47299194 120.00000000 0.731655 -0.633680 0.251259 0.000000
117.19899750 176.65400696 120.00000000 -0.729639 0.216247 0.648741 0.000000
82.12500000 218.14500427 183.75000000 0.852011 0.028812 -0.522731 0.000000
122.33200073 272.89498901 173.75000000 0.291838 -0.850808 -0.436985 0.000000
150.56300354 224.98800659 206.25000000 -0.195259 -0.380394 -0.903977 0.000000
184.78100586 188.20300293 198.75000000 -0.571331 0.167329 -0.803481 0.000000
161.68400574 228.41000366 153.75000000 0.498528 -0.167162 0.850604 0.000000
73.99810028 227.55499268 120.00000000 0.988895 0.051805 0.139297 0.000000
127.46499634 160.39999390 195.00000000 -0.382113 0.762600 0.521950 0.000000
112.92199707 159.97300720 186.25000000 0.428924 0.791487 -0.435399 0.000000
126.60900116 195.90199280 118.75000000 -0.700405 0.577876 0.418918 0.000000
162.53900146 139.01400757 132.50000000 0.919514 0.306505 -0.246067 0.000000
127.89299774 195.04699707 122.50000000 -0.640012 0.688868 0.340362 0.000000
162.53900146 236.96499634 193.75000000 -0.572763 -0.532214 -0.623450 0.000000
170.23800659 130.88699341 121.25000000 0.400567 0.900198 -0.170851 0.000000
153.55700684 283.16000366 140.00000000 -0.484299 -0.500942 0.717295 0.000000
178.79299927 174.08799744 197.50000000 -0.586951 0.486042 -0.647496 0.000000
155.69500732 262.62899780 133.75000000 -0.568759 -0.255393 0.781848 0.000000
146.71299744 186.49200439 147.50000000 0.139567 -0.664818 0.733851 0.000000
159.11700439 196.75799561 211.25000000 -0.000978 -0.000978 -0.999999 0.000000
119.76599884 255.78500366 188.75000000 0.080066 -0.723507 -0.685658 0.000000
186.06399536 220.71099854 167.50000000 0.626995 0.616910 -0.475710 0.000000
216.43400574 159.97300720 118.75000000 0.663998 0.202759 -0.719719 0.000000
239.53100586 184.78100586 151.25000000 0.815784 0.266728 -0.513179 0.000000
187.34800720 218.57200623 190.00000000 0.687410 0.687410 0.234380 0.000000
72.28710175 223.27699280 160.00000000 0.902627 -0.299891 -0.308755 0.000000
154.83999634 233.54299927 201.25000000 -0.398555 -0.597006 -0.696231 0.000000
177.50999451 224.13299561 152.50000000 0.999999 0.000978 0.000978 0.000000
188.20300293 219.00000000 181.25000000 0.569418 0.777627 0.266570 0.000000
164.67799377 152.27299500 147.50000000 0.863292 0.424794 0.272538 0.000000
146.28500366 213.01199341 131.25000000 0.060461 0.535711 -0.842234 0.000000
207.02299500 218.14500427 153.75000000 0.063896 -0.577899 -0.813603 0.000000
191.19700623 152.27299500 112.50000000 -0.355734 -0.677043 -0.644256 0.000000
164.25000000 186.49200439 153.75000000 -0.000978 0.999999 -0.000978 0.000000
78.27539825 195.04699707 172.50000000 0.833928 0.277976 -0.476752 0.000000
144.57400513 162.53900146 126.25000000 0.259572 -0.116090 0.958721 0.000000
244.23599243 166.81599426 152.50000000 0.790757 0.285683 -0.541377 0.000000
164.25000000 200.17999268 153.75000000 0.000978 0.000978 0.999999 0.000000
133.45300293 248.94099426 111.25000000 0.000978 0.000978 0.999999 0.000000
83.83599854 230.97700500 183.75000000 0.610349 -0.395321 -0.686436 0.000000
199.32400513 197.61300659 191.25000000 -0.552207 0.112190 -0.826124 0.000000
231.83200073 152.27299500 131.25000000 0.737952 0.123737 -0.663412 0.000000
204.88499451 184.78100586 187.50000000 -0.364251 0.146538 -0.919700 0.000000
118.91000366 216.86099243 207.50000000 0.260316 -0.345617 -0.901546 0.000000
257.49600220 188.20300293 178.75000000 0.557755 0.418730 -0.716641 0.000000
94.95709991 176.22700500 86.25000000 -0.456966 0.343120 0.820641 0.000000
93.24610138 248.94099426 181.25000000 0.369123 -0.455412 -0.810153 0.000000
98.80670166 266.05099487 95.00000000 0.482788 -0.721693 0.496060 0.000000
242.09800720 167.67199707 178.75000000 -0.352568 0.470623 -0.808833 0.000000
164.25000000 149.70700073 148.75000000 0.932237 0.124207 0.339864 0.000000
196.75799561 179.64799500 191.25000000 -0.634050 0.456717 -0.624012 0.000000
151.41799927 203.60200500 211.25000000 -0.384343 0.001277 -0.923189 0.000000
254.92999268 133.88099670 157.50000000 -0.174287 0.900241 -0.398987 0.000000
114.63300323 173.66000366 201.25000000 0.548100 0.497816 -0.672135 0.000000
90.67970276 248.08599854 181.25000000 0.507034 -0.842065 -0.183968 0.000000
112.06600189 166.81599426 193.75000000 0.479294 0.613832 -0.627286 0.000000
180.07600403 192.48100281 202.50000000 -0.384343 -0.001277 -0.923189 0.000000
106.93399811 193.33599854 203.75000000 0.477297 0.222739 -0.850044 0.000000
116.34400177 278.02700806 106.25000000 -0.616589 -0.472102 0.630030 0.000000
221.13900757 213.01199341 155.00000000 -0.934374 -0.309607 -0.176323 0.000000
102.65599823 274.60598755 103.75000000 0.401577 -0.603192 0.689126 0.000000
97.52349854 195.04699707 196.25000000 0.649200 0.061624 -0.758117 0.000000
139.44099426 242.95300293 111.25000000 -0.503802 -0.261977 0.823135 0.000000
156.12300110 185.63699341 147.50000000 0.352897 0.861438 -0.365225 0.000000
88.96880341 208.73399353 191.25000000 0.875286 0.315103 -0.366859 0.000000
141.15199280 197.61300659 128.75000000 -0.469897 0.062010 0.880540 0.000000
107.36100006 221.56599426 202.50000000 0.485237 -0.125269 -0.865363 0.000000
108.64499664 238.67599487 196.25000000 0.449089 -0.353876 -0.820421 0.000000
208.73399353 204.45700073 133.75000000 0.237908 -0.268878 -0.933330 0.000000
145.42999268 151.41799927 118.75000000 0.599108 -0.318125 0.734756 0.000000
165.53300476 214.72300720 152.50000000 0.384343 -0.001277 0.923189 0.000000
215.57800293 183.07000732 131.25000000 0.687410 0.687410 -0.234380 0.000000
245.52000427 129.60400391 145.00000000 0.000978 0.000978 0.999999 0.000000
97.52349854 179.64799500 86.25000000 -0.691807 0.217068 0.688683 0.000000
174.51600647 236.53700256 140.00000000 -0.750700 -0.418881 0.510870 0.000000
175.37100220 158.26199341 121.25000000 -0.120561 0.441113 -0.889317 0.000000
192.48100281 209.58999634 196.25000000 -0.000978 -0.000978 -0.999999 0.000000
175.37100220 253.64700317 157.50000000 -0.673666 -0.600478 0.430814 0.000000
153.98399353 223.70500183 142.50000000 -0.687410 0.687410 -0.234380 0.000000
100.94499969 232.68800354 196.25000000 0.457321 -0.230924 -0.858797 0.000000
111.21099854 204.45700073 206.25000000 0.000978 0.000978 -0.999999 0.000000
142.00799561 175.37100220 208.75000000 -0.201961 0.468251 -0.860205 0.000000
131.74200439 152.70100403 122.50000000 -0.082154 -0.586612 0.805690 0.000000
184.78100586 199.75199890 200.00000000 0.172950 -0.687207 -0.705574 0.000000
116.34400177 201.03500366 96.25000000 -0.570377 0.248466 0.782901 0.000000
245.52000427 182.21499634 178.75000000 -0.119697 -0.604398 -0.787639 0.000000
100.08999634 156.97900391 135.00000000 0.553762 0.832674 0.001354 0.000000
114.63300323 273.75000000 168.75000000 -0.195970 -0.720615 -0.665064 0.000000
107.78900146 154.41200256 162.50000000 0.402788 0.909387 -0.103811 0.000000
146.28500366 210.01800537 127.50000000 -0.236738 0.963769 -0.122897 0.000000
88.54100037 177.08200073 105.00000000 0.572809 0.572809 0.586327 0.000000
239.95899963 180.50399780 150.00000000 0.802664 0.288581 -0.521968 0.000000
107.78900146 160.82800293 106.25000000 -0.897060 0.155948 0.413477 0.000000
219.85600281 196.75799561 138.75000000 0.565449 0.283517 -0.774523 0.000000
198.46899414 158.26199341 148.75000000 -0.729136 0.409831 -0.548087 0.000000
113.77700043 254.07400513 98.75000000 -0.636378 -0.636378 -0.435944 0.000000
128.32000732 195.04699707 143.75000000 -0.279613 0.420183 -0.863286 0.000000
113.34999847 273.75000000 102.50000000 -0.504284 -0.171070 0.846424 0.000000
152.27299500 256.64099121 126.25000000 -0.568546 -0.455170 0.685256 0.000000
202.74600220 139.44099426 173.75000000 0.197281 0.790654 -0.579609 0.000000
190.77000427 211.30099487 141.25000000 -0.501402 0.812617 -0.297069 0.000000
97.52349854 183.92599487 86.25000000 -0.860348 0.059959 0.506169 0.000000
236.96499634 162.53900146 141.25000000 0.898456 0.093039 -0.429093 0.000000
84.26370239 183.07000732 175.00000000 0.852481 0.361800 -0.377328 0.000000
119.76599884 260.91799927 106.25000000 -0.620770 0.079586 0.779942 0.000000
99.23439789 198.46899414 198.75000000 0.498744 0.347998 -0.793821 0.000000
136.02000427 227.55499268 206.25000000 0.149693 -0.217380 -0.964540 0.000000
184.78100586 134.73599243 155.00000000 -0.000978 0.999999 -0.000978 0.000000
159.97300720 196.75799561 211.25000000 -0.000978 -0.000978 -0.999999 0.000000
204.88499451 130.03100586 115.00000000 -0.143127 0.987924 0.059345 0.000000
132.59800720 263.91198730 182.50000000 -0.221955 -0.588258 -0.777618 0.000000
116.34400177 153.98399353 113.75000000 -0.573160 -0.426963 0.699421 0.000000
260.06298828 141.15199280 163.75000000 -0.406808 0.558331 -0.723031 0.000000
194.19099426 174.51600647 121.25000000 -0.123666 0.447756 -0.885563 0.000000
156.12300110 224.13299561 152.50000000 -0.145732 -0.274083 0.950600 0.000000
169.38299561 228.41000366 128.75000000 -0.814477 -0.266301 0.515472 0.000000
226.27200317 152.27299500 122.50000000 0.761995 0.534534 -0.365563 0.000000
227.55499268 191.62500000 141.25000000 0.524379 0.588451 -0.615429 0.000000
201.89100647 180.50399780 153.75000000 0.431971 0.896095 -0.102051 0.000000
196.75799561 214.29499817 147.50000000 -0.165140 0.984984 0.050362 0.000000
207.02299500 139.86900330 175.00000000 0.159237 0.723389 -0.671827 0.000000
157.40600586 265.19500732 173.75000000 -0.482788 -0.721693 -0.496060 0.000000
251.50799561 142.86300659 168.75000000 -0.196638 0.553331 -0.809418 0.000000
131.74200439 139.01400757 140.00000000 0.825507 -0.001360 -0.564391 0.000000
121.04900360 153.12899780 177.50000000 0.245507 0.901171 -0.357234 0.000000
159.11700439 246.80299377 190.00000000 -0.313575 -0.943392 0.108083 0.000000
71.85939789 219.00000000 151.25000000 0.984456 0.050575 0.168193 0.000000
183.07000732 138.58599854 106.25000000 -0.279560 0.461814 -0.841768 0.000000
124.89800262 234.82600403 102.50000000 0.687410 -0.687410 0.234380 0.000000
112.49400330 151.41799927 155.00000000 0.431335 0.894985 -0.113805 0.000000
192.90800476 216.43400574 170.00000000 0.452939 0.815290 -0.360762 0.000000
254.07400513 159.97300720 161.25000000 0.582673 0.037727 -0.811830 0.000000
141.15199280 150.56300354 176.25000000 0.001240 0.946173 -0.323658 0.000000
116.34400177 249.79699707 191.25000000 0.140368 -0.473198 -0.869701 0.000000
170.23800659 185.63699341 151.25000000 0.524763 0.851222 0.006745 0.000000
181.78700256 237.82000732 180.00000000 -0.865440 0.168974 -0.471658 0.000000
135.16400146 213.44000244 127.50000000 0.921923 0.307308 -0.235841 0.000000
85.54689789 182.64300537 177.50000000 0.838947 0.362237 -0.406144 0.000000
105.22299957 279.73800659 156.25000000 0.278732 -0.731074 -0.622767 0.000000
81.26959991 257.92401123 155.00000000 0.796835 -0.562563 -0.220401 0.000000
73.99810028 197.61300659 152.50000000 0.972717 0.161484 0.166570 0.000000
179.64799500 178.79299927 153.75000000 0.000978 0.000978 0.999999 0.000000
172.80499268 159.11700439 121.25000000 0.095393 0.288794 -0.952627 0.000000
133.45300293 197.61300659 153.75000000 0.000978 0.000978 0.999999 0.000000
127.46499634 248.94099426 108.75000000 -0.849262 -0.504847 0.154545 0.000000
96.66799927 162.96699524 167.50000000 0.627890 0.738047 -0.247065 0.000000
130.45899963 236.10899353 105.00000000 -0.384022 -0.743533 0.547436 0.000000
82.98049927 192.48100281 86.25000000 0.961655 0.191276 0.196552 0.000000
231.83200073 196.75799561 181.25000000 -0.519328 0.427003 -0.740248 0.000000
224.13299561 139.44099426 173.75000000 -0.117021 0.748048 -0.653246 0.000000
141.58000183 214.72300720 140.00000000 -0.946173 -0.001240 0.323658 0.000000
128.32000732 214.72300720 211.25000000 0.269285 -0.709064 -0.651701 0.000000
178.79299927 203.60200500 203.75000000 -0.443506 -0.009212 -0.896224 0.000000
160.82800293 268.61700439 166.25000000 -0.246465 -0.755093 -0.607528 0.000000
136.87500000 192.05299377 142.50000000 -0.645754 -0.162578 -0.746036 0.000000
93.24610138 230.12100220 191.25000000 0.613055 -0.449351 -0.649805 0.000000
191.62500000 191.62500000 151.25000000 0.863875 0.086246 0.496268 0.000000
235.25399780 136.87500000 168.75000000 -0.140925 0.919499 -0.366962 0.000000
129.17599487 287.43798828 156.25000000 -0.049573 -0.786088 -0.616123 0.000000
124.04299927 254.50199890 190.00000000 -0.034343 -0.520642 -0.853084 0.000000
260.91799927 165.96099854 173.75000000 -0.631823 0.571168 -0.523992 0.000000
190.77000427 212.58399963 147.50000000 -0.001240 0.946173 -0.323658 0.000000
82.12500000 192.48100281 178.75000000 0.946173 0.001240 -0.323658 0.000000
157.40600586 139.86900330 160.00000000 0.153048 0.867274 -0.473721 0.000000
204.45700073 142.86300659 106.25000000 0.097449 0.586150 -0.804320 0.000000
171.09399414 171.94900513 153.75000000 0.000978 0.000978 0.999999 0.000000
219.85600281 167.67199707 126.25000000 0.510166 0.421584 -0.749665 0.000000
131.74200439 288.29299927 153.75000000 -0.112013 -0.883345 -0.455142 0.000000
232.68800354 172.80499268 141.25000000 0.667001 0.159533 -0.727776 0.000000
153.12899780 201.89100647 153.75000000 0.000978 0.000978 0.999999 0.000000
218.14500427 129.17599487 118.75000000 -0.000978 0.999999 -0.000978 0.000000
198.46899414 199.32400513 191.25000000 -0.610731 -0.122738 -0.782268 0.000000
177.93800354 170.23800659 123.75000000 -0.257260 0.291753 -0.921248 0.000000
132.59800720 213.86700439 103.75000000 -0.103071 0.386174 0.916649 0.000000
149.70700073 214.72300720 211.25000000 -0.012258 -0.546144 -0.837602 0.000000
140.29699707 282.30499268 161.25000000 0.001335 -0.503455 -0.864020 0.000000
142.86300659 210.44500732 126.25000000 0.479291 0.542751 -0.689711 0.000000
103.51200104 205.31300354 201.25000000 0.272321 0.003631 -0.962200 0.000000
108.21700287 195.04699707 92.50000000 -0.519315 0.060190 0.852461 0.000000
106.93399811 254.07400513 93.75000000 0.000978 0.000978 0.999999 0.000000
183.07000732 247.65800476 167.50000000 -0.687410 -0.687410 -0.234380 0.000000
81.26959991 244.66400146 98.75000000 0.687410 -0.687410 0.234380 0.000000
72.71489716 217.28900146 166.25000000 0.946173 0.001240 -0.323658 0.000000
248.08599854 195.90199280 178.75000000 -0.000978 -0.000978 -0.999999 0.000000
136.87500000 283.16000366 126.25000000 -0.241194 -0.269404 0.932334 0.000000
101.80100250 282.30499268 126.25000000 0.463597 -0.859679 0.214545 0.000000
244.66400146 171.94900513 178.75000000 -0.412776 0.188156 -0.891187 0.000000
180.50399780 159.11700439 183.75000000 0.183813 0.794496 -0.578782 0.000000
101.80100250 186.06399536 197.50000000 0.683659 0.255381 -0.683659 0.000000
141.15199280 191.62500000 213.75000000 -0.000978 -0.000978 -0.999999 0.000000
153.12899780 238.67599487 151.25000000 0.617985 -0.463907 0.634732 0.000000
75.28130341 195.90199280 163.75000000 0.902627 -0.299891 0.308755 0.000000
124.89800262 201.03500366 146.25000000 -0.710075 0.561108 -0.425383 0.000000
154.83999634 164.25000000 201.25000000 -0.142874 0.672258 -0.726400 0.000000
183.92599487 204.45700073 143.75000000 -0.928591 -0.270780 -0.253767 0.000000
75.28130341 194.61900330 162.50000000 0.902627 -0.299891 0.308755 0.000000
162.53900146 179.64799500 208.75000000 -0.363898 0.392010 -0.844930 0.000000
104.36699677 259.20700073 91.25000000 -0.657756 -0.329690 0.677245 0.000000
153.98399353 213.86700439 153.75000000 0.000978 0.000978 0.999999 0.000000
185.20899963 242.95300293 162.50000000 -0.852011 -0.028812 0.522731 0.000000
174.51600647 172.80499268 153.75000000 0.000978 0.000978 0.999999 0.000000
133.88099670 135.16400146 120.00000000 0.599071 0.800158 0.029325 0.000000
200.17999268 164.67799377 117.50000000 -0.237303 0.445889 -0.863059 0.000000
247.23100281 174.51600647 178.75000000 -0.237978 0.224222 -0.945035 0.000000
170.23800659 142.00799561 111.25000000 -0.409875 0.682018 -0.605685 0.000000
194.19099426 154.83999634 183.75000000 0.131382 0.562432 -0.816339 0.000000
122.33200073 233.54299927 203.75000000 0.286452 -0.453678 -0.843873 0.000000
133.45300293 161.68400574 126.25000000 0.000978 0.000978 0.999999 0.000000
86.40239716 228.41000366 186.25000000 0.739243 -0.101407 -0.665760 0.000000
153.98399353 257.92401123 182.50000000 -0.319263 -0.701729 -0.636904 0.000000
207.02299500 196.33000183 132.50000000 0.351032 0.492086 -0.796635 0.000000
154.83999634 211.30099487 211.25000000 -0.302466 -0.350619 -0.886330 0.000000
125.75399780 275.46099854 113.75000000 -0.449086 -0.449086 0.772427 0.000000
178.79299927 207.02299500 203.75000000 -0.415662 -0.095285 -0.904514 0.000000
224.98800659 160.82800293 181.25000000 -0.660119 0.196335 -0.725049 0.000000
89.82420349 270.75601196 125.00000000 0.714758 -0.661582 0.226783 0.000000
168.10000610 172.80499268 142.50000000 -0.861974 0.486950 -0.140997 0.000000
118.05500031 201.03500366 208.75000000 0.434845 -0.340655 -0.833585 0.000000
187.77499390 205.31300354 140.00000000 -0.762825 0.009691 -0.646532 0.000000
89.82420349 266.05099487 113.75000000 0.874132 -0.124876 0.469361 0.000000
124.47100067 195.04699707 145.00000000 -0.167630 0.980086 0.106451 0.000000
166.38900757 157.40600586 147.50000000 -0.697373 -0.001381 0.716707 0.000000
227.98199463 128.32000732 122.50000000 -0.001127 0.985809 -0.167869 0.000000
131.74200439 235.25399780 203.75000000 -0.395045 -0.465991 -0.791702 0.000000
243.80900574 186.91999817 157.50000000 0.809192 0.434240 -0.395783 0.000000
80.41410065 182.64300537 130.00000000 0.902627 0.299891 0.308755 0.000000
124.89800262 234.39799500 101.25000000 0.687410 -0.687410 0.234380 0.000000
130.88699341 189.91400146 143.75000000 0.294304 -0.294304 -0.909269 0.000000
190.34199524 136.87500000 165.00000000 0.214321 0.864778 -0.454121 0.000000
121.47699738 275.46099854 168.75000000 0.094789 -0.774356 -0.625610 0.000000
147.14100647 219.85600281 148.75000000 -0.277976 0.833928 0.476752 0.000000
175.37100220 145.42999268 173.75000000 -0.429309 0.854001 -0.293899 0.000000
103.51200104 227.55499268 198.75000000 0.469410 -0.351660 -0.809932 0.000000
137.73100281 143.71899414 156.25000000 0.179128 0.863073 -0.472248 0.000000
74.42579651 224.98800659 171.25000000 0.914425 -0.265198 -0.305774 0.000000
240.38699341 212.15600586 176.25000000 0.023468 -0.561853 -0.826904 0.000000
123.18800354 208.73399353 211.25000000 0.347836 0.133360 -0.928022 0.000000
120.62100220 266.05099487 106.25000000 -0.697373 -0.001381 0.716707 0.000000
82.12500000 208.73399353 183.75000000 0.824239 0.001358 -0.566240 0.000000
217.28900146 128.74800110 125.00000000 -0.001240 0.946173 -0.323658 0.000000
152.27299500 190.77000427 211.25000000 -0.360749 -0.899664 -0.245898 0.000000
113.77700043 175.79899597 202.50000000 0.729602 0.504600 -0.461585 0.000000
148.85200500 162.53900146 123.75000000 0.509042 -0.227769 0.830059 0.000000
235.25399780 169.38299561 181.25000000 -0.306349 0.268600 -0.913239 0.000000
137.73100281 157.83399963 192.50000000 0.111733 0.883966 -0.454005 0.000000
225.84399414 165.96099854 183.75000000 -0.282552 0.305976 -0.909144 0.000000
74.85350037 243.80900574 155.00000000 0.943392 -0.313575 -0.108083 0.000000
112.49400330 184.78100586 97.50000000 -0.718794 0.506310 0.476429 0.000000
143.71899414 134.30900574 138.75000000 0.253686 0.921583 -0.293817 0.000000
99.23439789 257.49600220 181.25000000 0.695992 -0.607142 -0.383372 0.000000
152.27299500 261.77301025 178.75000000 -0.344821 -0.645519 -0.681472 0.000000
173.23199463 232.68800354 182.50000000 -0.337877 0.359281 -0.869918 0.000000
95.81250000 239.53100586 188.75000000 0.544453 -0.387493 -0.743922 0.000000
157.40600586 217.28900146 153.75000000 0.000978 0.000978 0.999999 0.000000
174.51600647 187.34800720 153.75000000 -0.268368 0.061737 0.961336 0.000000
116.34400177 149.27900696 152.50000000 0.452388 0.886569 -0.096640 0.000000
110.35500336 259.20700073 183.75000000 0.163998 -0.570233 -0.804946 0.000000
103.51200104 228.41000366 198.75000000 0.500142 -0.319138 -0.804990 0.000000
97.52349854 249.79699707 183.75000000 0.503014 -0.587130 -0.634235 0.000000
83.83599854 176.65400696 157.50000000 0.636378 0.636378 -0.435944 0.000000
246.37500000 196.75799561 178.75000000 -0.000978 -0.000978 -0.999999 0.000000
86.40239716 258.35198975 166.25000000 0.708552 -0.647773 -0.279902 0.000000
104.36699677 186.49200439 91.25000000 -0.681320 0.020985 0.731685 0.000000
75.28130341 192.48100281 143.75000000 0.929862 0.364316 0.051294 0.000000
181.35899353 229.26600647 168.75000000 0.794233 0.475251 -0.378590 0.000000
147.14100647 177.93800354 211.25000000 0.364072 0.345638 -0.864862 0.000000
129.17599487 292.14300537 145.00000000 0.001240 -0.946173 -0.323658 0.000000
146.28500366 199.75199890 135.00000000 -0.999999 0.000978 0.000978 0.000000
148.42399597 223.27699280 112.50000000 -0.768170 0.481126 0.422412 0.000000
142.00799561 191.62500000 213.75000000 -0.000978 -0.000978 -0.999999 0.000000
143.71899414 283.58801270 157.50000000 -0.240415 -0.879529 -0.410646 0.000000
90.67970276 266.05099487 161.25000000 0.661872 -0.632013 -0.403095 0.000000
91.96289825 257.49600220 90.00000000 0.690358 -0.519858 0.503143 0.000000
164.25000000 185.63699341 208.75000000 -0.157905 0.188716 -0.969254 0.000000
99.66210175 224.98800659 197.50000000 0.486643 -0.264178 -0.832700 0.000000
177.08200073 140.29699707 108.75000000 -0.209142 0.390497 -0.896533 0.000000
109.50000000 219.00000000 93.75000000 -0.480392 -0.328188 0.813336 0.000000
110.35500336 284.44299316 115.00000000 0.418440 -0.828985 0.371069 0.000000
122.33200073 150.99000549 170.00000000 0.405753 0.901198 -0.152335 0.000000
146.28500366 219.85600281 208.75000000 0.142872 -0.403153 -0.903911 0.000000
122.33200073 248.94099426 193.75000000 0.162985 -0.702206 -0.693067 0.000000
144.14700317 224.13299561 107.50000000 -0.512397 0.465966 0.721336 0.000000
252.36300659 157.40600586 173.75000000 -0.122836 0.087740 -0.988541 0.000000
245.94700623 207.02299500 172.50000000 -0.034763 0.568721 -0.821795 0.000000
183.07000732 237.82000732 158.75000000 0.697373 0.001381 0.716707 0.000000
204.45700073 201.89100647 188.75000000 -0.430931 0.120095 -0.894358 0.000000
226.69900513 158.26199341 126.25000000 0.760878 0.379624 -0.526260 0.000000
121.47699738 248.94099426 103.75000000 -0.150384 -0.419644 0.895144 0.000000
85.11920166 177.08200073 120.00000000 0.855127 0.426793 0.294287 0.000000
174.51600647 249.79699707 151.25000000 -0.812735 -0.407166 0.416746 0.000000
200.17999268 209.58999634 133.75000000 -0.258029 0.647448 -0.717100 0.000000
147.99600220 184.35400391 137.50000000 -0.000978 -0.000978 0.999999 0.000000
104.36699677 235.25399780 196.25000000 0.220557 -0.344530 -0.912499 0.000000
143.71899414 175.37100220 128.75000000 0.000978 0.000978 0.999999 0.000000
201.03500366 129.60400391 112.50000000 -0.180080 0.982789 0.041195 0.000000
184.35400391 203.60200500 145.00000000 -0.820331 -0.490944 -0.293311 0.000000
105.22299957 164.25000000 96.25000000 0.525351 0.263455 -0.809072 0.000000
110.35500336 176.65400696 100.00000000 -0.924737 0.208172 0.318631 0.000000
167.67199707 149.70700073 176.25000000 -0.158729 0.633405 -0.757365 0.000000
104.79499817 185.63699341 200.00000000 0.534093 0.111450 -0.838048 0.000000
182.21499634 163.39500427 186.25000000 -0.209736 0.697566 -0.685137 0.000000
159.11700439 168.10000610 202.50000000 -0.072795 0.566660 -0.820730 0.000000
90.67970276 195.90199280 191.25000000 0.579974 0.267073 -0.769612 0.000000
176.22700500 178.79299927 153.75000000 -0.327478 -0.042380 0.943908 0.000000
79.55860138 218.14500427 86.25000000 0.993536 0.001081 0.113516 0.000000
147.99600220 192.48100281 151.25000000 0.749479 -0.246684 0.614352 0.000000
121.04900360 230.12100220 100.00000000 -0.133957 -0.312566 0.940403 0.000000
85.11920166 189.91400146 182.50000000 0.846377 0.298630 -0.440983 0.000000
254.92999268 164.25000000 161.25000000 0.502469 0.034228 -0.863918 0.000000
254.07400513 172.80499268 176.25000000 -0.686901 -0.686901 -0.237350 0.000000
127.46499634 213.86700439 211.25000000 0.305146 -0.660342 -0.686174 0.000000
149.70700073 158.26199341 193.75000000 -0.077039 0.699167 -0.710796 0.000000
155.69500732 239.53100586 196.25000000 -0.134188 -0.550024 -0.824298 0.000000
191.62500000 213.44000244 150.00000000 -0.288264 0.939273 -0.186199 0.000000
85.54689789 174.51600647 126.25000000 0.686901 0.686901 -0.237350 0.000000
196.33000183 191.62500000 192.50000000 -0.339816 0.032058 -0.939945 0.000000
118.91000366 234.82600403 100.00000000 -0.279674 -0.001211 0.960094 0.000000
150.56300354 260.91799927 181.25000000 -0.251723 -0.707673 -0.660178 0.000000
144.57400513 176.22700500 208.75000000 -0.208681 0.616768 -0.758980 0.000000
252.36300659 149.70700073 156.25000000 0.500333 0.116792 -0.857920 0.000000
134.30900574 291.28698730 130.00000000 -0.195382 -0.857591 0.475777 0.000000
126.60900116 189.05900574 123.75000000 -0.633454 0.439574 0.636797 0.000000
249.79699707 150.56300354 173.75000000 -0.313583 0.164389 -0.935223 0.000000
106.07800293 229.26600647 91.25000000 -0.725010 -0.104839 0.680712 0.000000
160.82800293 216.86099243 132.50000000 -0.197246 0.973665 -0.114327 0.000000
138.58599854 265.19500732 121.25000000 -0.155587 -0.528995 0.834241 0.000000
213.01199341 146.28500366 181.25000000 -0.019602 0.406424 -0.913474 0.000000
79.55860138 221.56599426 86.25000000 0.946173 -0.001240 0.323658 0.000000
204.45700073 130.45899963 137.50000000 0.189361 0.946804 -0.260201 0.000000
141.15199280 144.57400513 161.25000000 0.146894 0.947399 -0.284354 0.000000
236.96499634 184.78100586 148.75000000 0.800499 0.174021 -0.573514 0.000000
220.71099854 210.44500732 168.75000000 0.855127 0.426793 -0.294287 0.000000
159.11700439 185.63699341 211.25000000 0.597144 0.449949 -0.664051 0.000000
233.97099304 176.22700500 142.50000000 0.921083 -0.230629 -0.313713 0.000000
166.81599426 132.16999817 120.00000000 0.452062 0.866825 -0.210366 0.000000
112.92199707 178.79299927 108.75000000 -0.855952 0.425671 0.293513 0.000000
246.37500000 181.35899353 158.75000000 0.848441 -0.412545 -0.331593 0.000000
245.52000427 202.74600220 178.75000000 -0.000978 -0.000978 -0.999999 0.000000
262.20098877 181.35899353 170.00000000 0.906978 0.228564 -0.353765 0.000000
142.00799561 214.72300720 118.75000000 -0.610843 0.664105 0.431086 0.000000
263.48400879 154.83999634 163.75000000 0.451585 0.890965 -0.047464 0.000000
250.22500610 181.35899353 162.50000000 0.563357 -0.248127 -0.788075 0.000000
118.05500031 203.60200500 208.75000000 0.457770 -0.272812 -0.846180 0.000000
187.34800720 153.98399353 113.75000000 -0.107426 0.422728 -0.899867 0.000000
103.08399963 223.27699280 87.50000000 -0.697373 0.001381 0.716707 0.000000
138.58599854 246.80299377 195.00000000 -0.193336 -0.564786 -0.802270 0.000000
79.13089752 183.92599487 132.50000000 0.896301 0.436447 0.078478 0.000000
171.52200317 180.50399780 145.00000000 -0.639612 0.395006 -0.659445 0.000000
183.07000732 176.22700500 153.75000000 0.000978 0.000978 0.999999 0.000000
134.30900574 195.04699707 126.25000000 -0.591008 -0.001365 0.806665 0.000000
82.98049927 256.21301270 115.00000000 0.900785 -0.397954 0.173836 0.000000
186.49200439 175.37100220 143.75000000 -0.299927 0.044293 0.952933 0.000000
146.28500366 201.03500366 136.25000000 -0.979704 -0.139254 0.144183 0.000000
208.73399353 171.09399414 186.25000000 -0.000978 -0.000978 -0.999999 0.000000
215.57800293 145.42999268 111.25000000 -0.141826 0.091770 -0.985629 0.000000
116.34400177 223.27699280 96.25000000 -0.677569 0.136716 0.722640 0.000000
136.02000427 146.28500366 163.75000000 0.178469 0.909478 -0.375499 0.000000
214.72300720 200.17999268 136.25000000 0.564617 0.157254 -0.810234 0.000000
212.15600586 174.51600647 186.25000000 -0.000978 -0.000978 -0.999999 0.000000
177.93800354 133.02499390 145.00000000 -0.909655 0.001294 0.415362 0.000000
138.58599854 142.00799561 153.75000000 0.115239 0.880653 -0.459533 0.000000
218.14500427 197.61300659 183.75000000 -0.304099 -0.023777 -0.952344 0.000000
248.08599854 154.83999634 151.25000000 0.707165 0.315554 -0.632727 0.000000
212.15600586 213.01199341 138.75000000 0.446729 0.617389 -0.647506 0.000000
