120.79900360 265.37701416 392.50000000 0.600799 0.563566 -0.566951 0.000000
213.06199646 187.38099670 462.50000000 0.000978 0.000978 0.999999 0.000000
98.92189789 264.42599487 437.50000000 -0.773083 0.312114 0.552202 0.000000
281.54699707 191.66099548 425.00000000 -0.833928 -0.277976 0.476752 0.000000
158.84599304 183.57600403 332.50000000 0.183394 -0.001139 -0.983039 0.000000
239.69500732 182.62500000 457.50000000 0.000978 0.000978 0.999999 0.000000
315.78900146 161.69900513 437.50000000 0.000978 0.000978 0.999999 0.000000
148.38299561 200.69700623 482.50000000 -0.817600 -0.504942 0.276702 0.000000
181.67399597 248.25599670 407.50000000 0.251117 0.712287 -0.655430 0.000000
261.57199097 160.74800110 457.50000000 0.000978 0.000978 0.999999 0.000000
165.50399780 229.23199463 397.50000000 -0.000978 -0.000978 -0.999999 0.000000
114.14099884 200.69700623 462.50000000 -0.587052 -0.349630 0.730157 0.000000
161.69900513 225.42799377 487.50000000 0.000978 0.000978 0.999999 0.000000
203.55099487 259.67001343 427.50000000 0.736332 0.611747 -0.289102 0.000000
243.50000000 210.68499756 405.00000000 -0.164742 -0.787434 0.593976 0.000000
179.77099609 265.85299683 420.00000000 0.386439 0.447371 -0.806551 0.000000
248.25599670 127.45700073 447.50000000 0.000978 0.000978 0.999999 0.000000
182.62500000 192.13699341 357.50000000 0.709244 0.405046 -0.576984 0.000000
272.98599243 172.16200256 457.50000000 0.000978 0.000978 0.999999 0.000000
238.74400330 98.44629669 410.00000000 0.158096 -0.790481 0.591731 0.000000
124.60399628 218.77000427 472.50000000 -0.727684 -0.649773 0.219707 0.000000
195.94099426 220.67199707 392.50000000 0.865827 0.346023 -0.361402 0.000000
140.77299500 277.74200439 467.50000000 0.067837 0.466555 0.881887 0.000000
217.81799316 145.52900696 382.50000000 0.109618 -0.210417 0.971447 0.000000
239.69500732 180.72300720 407.50000000 -0.398437 0.887226 -0.232545 0.000000
145.52900696 215.91600037 487.50000000 -0.477487 0.270422 0.835989 0.000000
320.54501343 155.99200439 447.50000000 0.550919 -0.223762 0.804002 0.000000
102.72699738 283.92498779 425.00000000 -0.784732 0.618487 0.040857 0.000000
288.20498657 184.52699280 422.50000000 -0.863611 -0.204343 0.460891 0.000000
152.18800354 211.16000366 372.50000000 0.554928 0.831707 -0.017813 0.000000
231.13499451 168.35699463 457.50000000 0.000978 0.000978 0.999999 0.000000
227.33000183 198.79499817 462.50000000 0.000978 0.000978 0.999999 0.000000
170.25999451 201.64799500 482.50000000 0.287560 -0.120590 0.950141 0.000000
198.79499817 253.96299744 467.50000000 0.047952 0.875468 0.480891 0.000000
238.26899719 189.28300476 395.00000000 0.616662 -0.391820 0.682792 0.000000
175.96699524 158.84599304 457.50000000 0.000978 0.000978 0.999999 0.000000
241.59800720 202.60000610 402.50000000 0.176981 -0.041022 0.983359 0.000000
285.82699585 125.55500031 410.00000000 -0.758694 -0.554866 0.341331 0.000000
119.37200165 171.21099854 380.00000000 -0.846613 -0.424083 0.321558 0.000000
266.80398560 178.82000732 405.00000000 -0.617373 -0.328941 0.714597 0.000000
128.40800476 211.16000366 477.50000000 0.000978 0.000978 0.999999 0.000000
206.88000488 134.11500549 385.00000000 -0.951415 -0.117769 0.284498 0.000000
111.28700256 183.57600403 422.50000000 -0.802107 -0.478703 -0.357026 0.000000
305.32598877 145.52900696 452.50000000 0.589286 -0.416650 0.692203 0.000000
209.25799561 143.62699890 452.50000000 0.000978 0.000978 0.999999 0.000000
285.35198975 136.96899414 452.50000000 0.202837 -0.815925 0.541408 0.000000
242.54899597 102.25099945 415.00000000 0.800536 -0.548717 0.240938 0.000000
287.25399780 134.11500549 422.50000000 -0.340817 -0.253053 0.905432 0.000000
272.03500366 155.04100037 407.50000000 -0.719411 -0.026749 0.694070 0.000000
241.59800720 149.33399963 457.50000000 0.000978 0.000978 0.999999 0.000000
186.42999268 270.13299561 422.50000000 0.013650 0.306503 -0.951772 0.000000
187.38099670 233.03700256 402.50000000 0.687780 0.447973 -0.571208 0.000000
233.03700256 160.74800110 457.50000000 0.000978 0.000978 0.999999 0.000000
255.86500549 93.21479797 387.50000000 -0.660161 0.001378 0.751123 0.000000
208.30700684 145.52900696 382.50000000 0.172384 0.730724 0.660550 0.000000
196.89300537 273.93798828 427.50000000 -0.000978 -0.000978 -0.999999 0.000000
201.64799500 155.99200439 387.50000000 0.000978 0.000978 0.999999 0.000000
151.23599243 140.77299500 437.50000000 -0.485466 -0.613132 0.623211 0.000000
255.86500549 166.45500183 392.50000000 -0.178118 -0.140221 0.973967 0.000000
103.67800140 146.47999573 342.50000000 -0.663916 -0.698943 0.265885 0.000000
155.04100037 285.35198975 457.50000000 -0.502845 0.071435 0.861420 0.000000
133.16400146 202.60000610 332.50000000 0.302490 0.326331 -0.895549 0.000000
312.93600464 187.38099670 437.50000000 0.433370 -0.846548 0.309106 0.000000
251.10899353 87.50779724 397.50000000 -0.134705 -0.812668 0.566943 0.000000
220.67199707 131.73699951 450.00000000 0.783109 -0.593820 0.184710 0.000000
226.37899780 120.32299805 440.00000000 0.109510 -0.807456 0.579674 0.000000
108.43399811 168.35699463 307.50000000 0.116641 -0.271288 -0.955405 0.000000
187.38099670 299.61898804 432.50000000 -0.148567 0.448586 -0.881305 0.000000
288.20498657 146.47999573 427.50000000 0.000978 0.000978 0.999999 0.000000
227.33000183 253.96299744 432.50000000 0.497409 0.764868 -0.409343 0.000000
181.67399597 242.54899597 477.50000000 0.000978 0.000978 0.999999 0.000000
159.79699707 144.10299683 365.00000000 0.658356 -0.584647 -0.474083 0.000000
284.39999390 189.28300476 447.50000000 0.000978 0.000978 0.999999 0.000000
94.64160156 243.50000000 430.00000000 -0.967775 -0.199740 0.153349 0.000000
264.42599487 122.70099640 392.50000000 -0.000978 -0.000978 0.999999 0.000000
195.94099426 177.86900330 402.50000000 -0.626131 -0.129391 0.768907 0.000000
233.98800659 87.98339844 395.00000000 0.524257 -0.801342 0.288105 0.000000
171.21099854 279.64498901 462.50000000 0.390043 0.800953 0.454248 0.000000
236.84199524 106.05599976 420.00000000 0.431728 -0.172982 0.885261 0.000000
175.01600647 137.44400024 450.00000000 -0.323094 -0.464940 0.824283 0.000000
103.67800140 169.30900574 307.50000000 0.000978 0.000978 -0.999999 0.000000
111.76300049 191.18600464 395.00000000 -0.862323 -0.480374 0.160125 0.000000
153.13900757 188.33200073 482.50000000 0.132101 -0.788154 0.601134 0.000000
266.32800293 201.17300415 435.00000000 0.058541 -0.995200 -0.078423 0.000000
161.69900513 166.93099976 340.00000000 0.435124 -0.591835 -0.678527 0.000000
233.03700256 114.14099884 432.50000000 0.087869 -0.566109 0.819634 0.000000
175.01600647 292.01000977 427.50000000 -0.000978 -0.000978 -0.999999 0.000000
189.28300476 294.86300659 437.50000000 -0.233115 0.962413 -0.139348 0.000000
246.82899475 120.79900360 435.00000000 0.131153 -0.901146 0.413201 0.000000
242.54899597 91.31250000 402.50000000 0.922103 -0.331048 0.200334 0.000000
126.50599670 252.06100464 467.50000000 0.000978 0.000978 0.999999 0.000000
222.57400513 189.28300476 407.50000000 0.384854 0.635917 0.668952 0.000000
257.76800537 206.40400696 412.50000000 -0.655050 -0.601440 0.457362 0.000000
200.69700623 282.49798584 442.50000000 0.513271 0.570488 0.641168 0.000000
238.74400330 96.06839752 382.50000000 -0.677246 -0.719668 0.153024 0.000000
242.54899597 124.60399628 382.50000000 0.000978 0.000978 0.999999 0.000000
146.47999573 223.52499390 482.50000000 -0.260481 0.246401 0.933508 0.000000
160.74800110 206.88000488 360.00000000 0.396211 0.917471 0.035541 0.000000
122.70099640 141.72500610 367.50000000 -0.683103 -0.683103 0.258343 0.000000
125.55500031 140.77299500 372.50000000 -0.813519 -0.491271 0.311191 0.000000
218.77000427 105.58000183 422.50000000 0.073709 -0.660491 0.747207 0.000000
124.60399628 216.86700439 472.50000000 -0.861551 0.077301 0.501752 0.000000
130.78599548 218.77000427 370.00000000 0.375114 -0.001272 -0.926978 0.000000
120.79900360 265.85299683 395.00000000 0.610576 0.573366 -0.546305 0.000000
97.97070313 264.42599487 402.50000000 -0.846613 0.424083 -0.321558 0.000000
177.86900330 266.32800293 472.50000000 0.000978 0.000978 0.999999 0.000000
196.41700745 201.64799500 395.00000000 0.498530 0.785710 0.366234 0.000000
295.81399536 112.71399689 425.00000000 0.607528 -0.755093 -0.246465 0.000000
108.90899658 219.72099304 340.00000000 -0.399869 0.732269 -0.551259 0.000000
233.98800659 229.23199463 432.50000000 0.000978 0.000978 -0.999999 0.000000
101.77500153 184.52699280 342.50000000 -0.736769 -0.058884 0.673576 0.000000
185.47900391 249.20700073 477.50000000 0.120569 0.841077 0.527307 0.000000
144.57800293 290.10699463 417.50000000 -0.000978 -0.000978 -0.999999 0.000000
167.40600586 272.98599243 467.50000000 -0.000978 -0.000978 0.999999 0.000000
115.09200287 154.08999634 362.50000000 -0.749275 -0.628274 0.209425 0.000000
170.25999451 196.89300537 347.50000000 -0.543708 0.072400 -0.836146 0.000000
221.62300110 143.62699890 377.50000000 0.520036 -0.780859 0.346154 0.000000
162.64999390 151.71200562 355.00000000 0.001141 -0.982547 -0.186011 0.000000
210.20899963 146.47999573 387.50000000 0.480529 -0.854772 0.196104 0.000000
206.40400696 213.06199646 387.50000000 0.000978 0.000978 -0.999999 0.000000
155.04100037 128.88400269 425.00000000 -0.542419 -0.814392 0.206272 0.000000
123.65200043 243.50000000 467.50000000 0.000978 0.000978 0.999999 0.000000
257.76800537 182.62500000 457.50000000 0.000978 0.000978 0.999999 0.000000
106.53099823 193.56300354 420.00000000 -0.874641 -0.292558 0.386540 0.000000
187.38099670 259.67001343 472.50000000 -0.001141 0.982547 0.186011 0.000000
156.94299316 258.71899414 402.50000000 -0.000978 -0.000978 -0.999999 0.000000
175.01600647 282.97399902 425.00000000 0.397099 0.397099 -0.827421 0.000000
150.28500366 134.11500549 427.50000000 -0.694041 -0.594655 0.405823 0.000000
213.06199646 181.67399597 407.50000000 0.000978 0.000978 0.999999 0.000000
288.20498657 186.42999268 427.50000000 -0.810292 -0.550877 0.199903 0.000000
180.24699402 202.60000610 365.00000000 0.821270 0.570058 -0.023465 0.000000
98.92189789 172.16200256 307.50000000 -0.370671 -0.051446 -0.927338 0.000000
139.82200623 303.42401123 442.50000000 -0.055771 0.762198 0.644937 0.000000
289.15600586 188.33200073 447.50000000 0.000978 0.000978 0.999999 0.000000
310.08200073 162.64999390 437.50000000 0.000978 0.000978 0.999999 0.000000
290.10699463 179.77099609 447.50000000 0.000978 0.000978 0.999999 0.000000
241.59800720 181.19799805 400.00000000 -0.974406 -0.165132 0.152527 0.000000
108.43399811 142.19999695 345.00000000 -0.781769 -0.550251 0.293362 0.000000
314.83801270 156.94299316 447.50000000 0.000978 0.000978 0.999999 0.000000
212.11099243 246.35400391 422.50000000 0.739981 0.300166 -0.601937 0.000000
295.81399536 191.18600464 432.50000000 0.000978 0.000978 0.999999 0.000000
245.40199280 172.16200256 397.50000000 0.574720 -0.507304 0.642136 0.000000
231.13499451 122.70099640 442.50000000 0.187656 -0.782664 0.593482 0.000000
194.03900146 225.42799377 392.50000000 0.620170 0.576235 -0.532299 0.000000
125.07900238 134.11500549 370.00000000 -0.744746 -0.274714 0.608182 0.000000
233.98800659 195.94099426 462.50000000 0.000978 0.000978 0.999999 0.000000
143.62699890 288.20498657 417.50000000 -0.000978 -0.000978 -0.999999 0.000000
201.64799500 125.55500031 382.50000000 0.000978 0.000978 0.999999 0.000000
236.84199524 193.08799744 402.50000000 0.658846 -0.658846 0.363104 0.000000
97.97070313 184.52699280 332.50000000 -0.865424 0.156684 0.475910 0.000000
220.67199707 190.71000671 405.00000000 0.286593 0.661245 0.693267 0.000000
161.69900513 184.52699280 477.50000000 0.326239 -0.624886 0.709286 0.000000
98.92189789 168.35699463 337.50000000 -0.744288 0.299316 0.597031 0.000000
284.39999390 198.79499817 432.50000000 0.000978 0.000978 0.999999 0.000000
306.27700806 129.83500671 440.00000000 0.656013 -0.656013 -0.373221 0.000000
175.96699524 297.71701050 442.50000000 0.000978 0.000978 0.999999 0.000000
308.17999268 190.23399353 442.50000000 -0.651775 -0.747230 0.129758 0.000000
152.18800354 178.82000732 472.50000000 0.000978 0.000978 0.999999 0.000000
248.25599670 170.25999451 392.50000000 0.679085 -0.455505 0.575638 0.000000
164.55299377 165.50399780 457.50000000 0.000978 0.000978 0.999999 0.000000
149.33399963 262.52301025 402.50000000 -0.000978 -0.000978 -0.999999 0.000000
259.67001343 152.18800354 457.50000000 0.000978 0.000978 0.999999 0.000000
139.82200623 304.85101318 440.00000000 0.212592 0.848860 0.483986 0.000000
290.10699463 116.04299927 407.50000000 -0.603070 -0.250361 0.757381 0.000000
215.91600037 216.86700439 462.50000000 0.000978 0.000978 0.999999 0.000000
141.72500610 128.88400269 400.00000000 -0.700772 -0.700772 0.133552 0.000000
189.28300476 98.44629669 400.00000000 -0.654112 0.522954 0.546495 0.000000
117.94499969 169.78399658 440.00000000 0.449086 -0.449086 0.772427 0.000000
183.57600403 286.77801514 445.00000000 0.669264 0.504884 0.545140 0.000000
108.43399811 185.47900391 442.50000000 -0.952105 0.087265 0.293055 0.000000
267.27899170 98.92189789 392.50000000 -0.362631 0.908744 -0.206598 0.000000
129.35899353 280.59600830 402.50000000 0.653017 0.237604 -0.719106 0.000000
197.84399414 256.81600952 457.50000000 0.857066 0.514240 -0.031540 0.000000
141.72500610 157.89500427 452.50000000 -0.149340 -0.903153 0.402508 0.000000
294.86300659 198.79499817 442.50000000 -0.267293 -0.936227 -0.228109 0.000000
147.43200684 223.52499390 482.50000000 -0.459676 0.476152 0.749651 0.000000
272.98599243 194.51499939 425.00000000 0.827016 -0.204857 0.523524 0.000000
110.33599854 174.06399536 307.50000000 0.517335 0.191550 -0.834070 0.000000
129.35899353 253.96299744 472.50000000 -0.077168 0.489665 0.868489 0.000000
195.94099426 223.52499390 477.50000000 0.343423 0.169609 0.923739 0.000000
136.49299622 123.65200043 380.00000000 -0.621807 -0.690715 0.369147 0.000000
97.49510193 175.01600647 310.00000000 -0.671313 0.269482 -0.690448 0.000000
154.08999634 252.06100464 482.50000000 -0.347877 0.876528 0.332686 0.000000
295.81399536 113.66500092 420.00000000 0.658602 -0.752490 0.001381 0.000000
167.40600586 225.42799377 487.50000000 0.000978 0.000978 0.999999 0.000000
97.01950073 271.08401489 417.50000000 -0.868867 0.174949 -0.463102 0.000000
246.35400391 206.40400696 402.50000000 -0.125857 -0.323440 0.937841 0.000000
231.13499451 167.88200378 410.00000000 -0.171707 -0.606294 -0.776482 0.000000
100.34899902 186.42999268 335.00000000 -0.690759 0.283676 0.665116 0.000000
244.45100403 142.67599487 382.50000000 -0.255017 0.093549 0.962401 0.000000
252.06100464 210.20899963 407.50000000 -0.628377 -0.773499 0.082719 0.000000
141.72500610 220.67199707 482.50000000 -0.147473 0.256416 0.955250 0.000000
187.38099670 135.06599426 377.50000000 0.314120 -0.335162 0.888254 0.000000
210.20899963 112.23799896 432.50000000 -0.113336 -0.790408 0.602005 0.000000
150.28500366 172.16200256 472.50000000 0.000978 0.000978 0.999999 0.000000
307.22900391 192.13699341 442.50000000 -0.390303 -0.920278 0.027413 0.000000
160.74800110 167.40600586 337.50000000 0.481911 -0.572584 -0.663257 0.000000
162.64999390 282.49798584 417.50000000 0.763872 0.329671 -0.554812 0.000000
227.33000183 155.04100037 382.50000000 0.000978 0.000978 0.999999 0.000000
172.16200256 278.69299316 462.50000000 0.467289 0.762419 0.447614 0.000000
270.13299561 130.78599548 450.00000000 -0.064308 -0.613065 0.787410 0.000000
148.38299561 240.64599609 397.50000000 0.000978 0.000978 -0.999999 0.000000
212.11099243 196.89300537 402.50000000 0.101526 0.716571 0.690086 0.000000
286.30300903 116.04299927 407.50000000 0.000978 0.000978 0.999999 0.000000
140.77299500 250.15800476 392.50000000 0.272184 -0.647831 -0.711499 0.000000
164.55299377 300.57000732 427.50000000 -0.000978 -0.000978 -0.999999 0.000000
134.11500549 206.40400696 332.50000000 0.323094 0.464940 -0.824283 0.000000
287.25399780 197.84399414 442.50000000 -0.175197 -0.164966 -0.970614 0.000000
313.88699341 144.57800293 442.50000000 -0.000978 -0.000978 0.999999 0.000000
179.77099609 258.71899414 472.50000000 0.000978 0.000978 0.999999 0.000000
266.32800293 159.79699707 457.50000000 0.000978 0.000978 0.999999 0.000000
225.90299988 170.25999451 410.00000000 -0.290546 -0.956431 -0.028680 0.000000
280.11999512 105.58000183 420.00000000 -0.203048 -0.652542 0.730041 0.000000
124.60399628 305.32598877 417.50000000 -0.676841 0.722065 -0.143207 0.000000
98.92189789 188.33200073 332.50000000 -0.690759 0.283676 0.665116 0.000000
216.86700439 166.45500183 407.50000000 -0.272321 0.003631 0.962200 0.000000
100.82399750 176.91799927 307.50000000 -0.400477 0.329349 -0.855072 0.000000
251.10899353 216.39199829 450.00000000 -0.785255 -0.590085 0.187546 0.000000
181.19799805 100.82399750 405.00000000 -0.700772 -0.700772 0.133552 0.000000
123.65200043 243.50000000 372.50000000 0.642493 0.625804 -0.442235 0.000000
104.62899780 176.91799927 307.50000000 -0.000978 -0.000978 -0.999999 0.000000
261.57199097 178.82000732 402.50000000 -0.383924 0.046176 0.922209 0.000000
280.59600830 137.44400024 455.00000000 0.145106 -0.593889 0.791353 0.000000
162.64999390 242.54899597 482.50000000 0.000978 0.000978 0.999999 0.000000
191.18600464 217.81799316 387.50000000 -0.546042 0.620426 -0.562948 0.000000
161.69900513 115.09200287 377.50000000 0.000978 0.000978 0.999999 0.000000
148.38299561 154.08999634 447.50000000 -0.147636 -0.860969 0.486761 0.000000
175.96699524 141.72500610 382.50000000 -0.639711 -0.633030 0.435939 0.000000
159.79699707 161.69900513 342.50000000 0.675449 -0.507844 -0.534661 0.000000
160.74800110 168.35699463 337.50000000 0.481911 -0.572584 -0.663257 0.000000
251.10899353 140.77299500 387.50000000 -0.589878 0.197648 0.782930 0.000000
265.37701416 172.16200256 402.50000000 -0.264281 -0.159642 0.951142 0.000000
181.67399597 292.01000977 427.50000000 0.176984 0.352553 -0.918903 0.000000
123.65200043 225.42799377 347.50000000 0.830276 0.554923 -0.051980 0.000000
247.30499268 214.01400757 412.50000000 -0.048259 -0.935185 0.350857 0.000000
103.67800140 177.86900330 307.50000000 -0.000978 -0.000978 -0.999999 0.000000
107.48200226 200.69700623 447.50000000 -0.923573 -0.059800 0.378731 0.000000
194.99000549 185.95399475 395.00000000 0.961375 -0.109982 0.252312 0.000000
178.82000732 276.79098511 422.50000000 -0.000978 -0.000978 -0.999999 0.000000
134.11500549 279.64498901 407.50000000 0.321523 0.812520 -0.486245 0.000000
97.01950073 176.91799927 332.50000000 -0.896491 0.075740 0.436540 0.000000
229.23199463 110.33599854 422.50000000 0.000978 0.000978 0.999999 0.000000
156.94299316 216.86700439 487.50000000 0.000978 0.000978 0.999999 0.000000
266.32800293 167.40600586 402.50000000 -0.233532 -0.089626 0.968210 0.000000
116.04299927 143.62699890 357.50000000 -0.680796 -0.341214 0.648144 0.000000
200.69700623 215.91600037 472.50000000 0.460548 -0.178039 0.869596 0.000000
285.35198975 158.84599304 422.50000000 0.000978 0.000978 0.999999 0.000000
237.79299927 220.67199707 462.50000000 0.000978 0.000978 0.999999 0.000000
102.25099945 231.13499451 365.00000000 -0.982547 -0.001141 -0.186011 0.000000
138.87100220 151.71200562 440.00000000 -0.549587 -0.830838 0.087532 0.000000
175.01600647 283.92498779 455.00000000 0.340543 0.656645 0.672939 0.000000
109.38500214 188.33200073 422.50000000 -0.823113 -0.488870 -0.288949 0.000000
176.91799927 199.74600220 482.50000000 0.000978 0.000978 0.999999 0.000000
252.06100464 172.16200256 457.50000000 0.000978 0.000978 0.999999 0.000000
157.89500427 220.67199707 397.50000000 -0.000978 -0.000978 -0.999999 0.000000
125.07900238 269.18200684 465.00000000 0.431004 0.580774 0.690606 0.000000
209.25799561 192.13699341 407.50000000 0.001353 0.550634 0.834745 0.000000
290.10699463 150.28500366 457.50000000 0.313618 -0.313618 0.896263 0.000000
316.73999023 141.72500610 447.50000000 0.272400 0.792006 0.546374 0.000000
232.08599854 172.16200256 457.50000000 0.000978 0.000978 0.999999 0.000000
271.08401489 106.53099823 422.50000000 0.000978 0.000978 0.999999 0.000000
265.85299683 158.84599304 400.00000000 -0.841233 -0.072106 0.535844 0.000000
137.91999817 145.52900696 412.50000000 -0.886780 -0.446937 0.117764 0.000000
116.99400330 291.05899048 442.50000000 -0.618152 0.654808 0.434873 0.000000
104.62899780 227.33000183 347.50000000 -0.000978 -0.000978 -0.999999 0.000000
252.06100464 131.26199341 452.50000000 0.990420 -0.089196 0.105413 0.000000
107.00700378 145.52900696 345.00000000 -0.614766 -0.260762 0.744356 0.000000
273.93798828 112.23799896 422.50000000 0.000978 0.000978 0.999999 0.000000
93.69039917 262.52301025 410.00000000 -0.919552 0.286371 -0.269102 0.000000
112.23799896 277.74200439 447.50000000 -0.441761 0.531105 0.723031 0.000000
114.14099884 260.62100220 457.50000000 -0.000978 -0.000978 0.999999 0.000000
268.23001099 136.01800537 397.50000000 0.000978 0.000978 0.999999 0.000000
286.30300903 182.62500000 422.50000000 -0.391439 -0.001283 0.920203 0.000000
214.96499634 144.57800293 382.50000000 -0.087850 -0.374378 0.923105 0.000000
318.64300537 154.08999634 442.50000000 0.513899 -0.826840 -0.228570 0.000000
294.86300659 112.23799896 417.50000000 0.700772 -0.700772 0.133552 0.000000
140.77299500 257.76800537 477.50000000 -0.113547 0.495868 0.860942 0.000000
276.79098511 199.74600220 427.50000000 0.725259 -0.463037 -0.509507 0.000000
165.02799988 119.84799957 420.00000000 -0.362039 -0.630701 0.686399 0.000000
231.13499451 130.31100464 447.50000000 0.000978 0.000978 0.999999 0.000000
141.72500610 280.11999512 465.00000000 -0.084573 0.439501 0.894252 0.000000
140.77299500 262.52301025 472.50000000 0.000978 0.000978 0.999999 0.000000
123.65200043 167.40600586 452.50000000 -0.543814 0.746315 0.383772 0.000000
252.06100464 163.60200500 392.50000000 -0.235565 0.003551 0.971852 0.000000
233.03700256 186.42999268 402.50000000 0.346124 0.888534 0.301173 0.000000
194.99000549 99.87300110 407.50000000 0.812743 -0.269874 0.516349 0.000000
125.55500031 306.27700806 422.50000000 -0.798149 0.601075 0.040822 0.000000
178.82000732 297.71701050 427.50000000 0.558834 0.711394 -0.426173 0.000000
180.72300720 206.40400696 482.50000000 0.000978 0.000978 0.999999 0.000000
168.35699463 181.67399597 342.50000000 0.574823 0.138136 -0.806534 0.000000
155.99200439 119.84799957 377.50000000 0.207883 -0.886085 0.414293 0.000000
155.51699829 136.01800537 435.00000000 -0.373580 -0.689560 0.620439 0.000000
118.89600372 282.49798584 452.50000000 0.000978 0.000978 0.999999 0.000000
194.03900146 227.80599976 400.00000000 0.376806 0.643368 -0.666404 0.000000
145.52900696 205.45300293 482.50000000 -0.651066 -0.529937 0.543396 0.000000
117.94499969 192.13699341 462.50000000 -0.700717 0.117530 0.703692 0.000000
219.72099304 179.29600525 415.00000000 -0.790978 0.556034 0.255306 0.000000
232.56199646 131.26199341 380.00000000 -0.723183 -0.230603 0.651021 0.000000
150.76100159 152.18800354 345.00000000 0.387157 -0.588150 -0.710063 0.000000
115.09200287 263.47500610 457.50000000 -0.855169 0.437564 0.277892 0.000000
218.77000427 175.01600647 462.50000000 -0.830752 -0.436657 0.345227 0.000000
118.89600372 177.86900330 462.50000000 -0.642952 -0.656175 0.395027 0.000000
246.35400391 201.17300415 400.00000000 0.171638 -0.618199 0.767053 0.000000
211.63600159 116.04299927 385.00000000 -0.030906 -0.152243 0.987860 0.000000
201.64799500 231.13499451 472.50000000 0.402107 -0.200323 0.893409 0.000000
156.94299316 138.87100220 367.50000000 0.826122 -0.464202 -0.319434 0.000000
116.04299927 243.50000000 462.50000000 -0.118390 0.293980 0.948451 0.000000
233.03700256 126.50599670 447.50000000 0.000978 0.000978 0.999999 0.000000
234.93899536 101.77500153 382.50000000 0.000978 0.000978 0.999999 0.000000
145.52900696 136.96899414 357.50000000 0.897606 0.174334 -0.404859 0.000000
253.01199341 157.89500427 387.50000000 -0.829814 0.507705 0.231612 0.000000
194.99000549 190.23399353 367.50000000 0.963213 -0.093379 -0.251996 0.000000
166.45500183 243.50000000 397.50000000 0.648167 0.601271 -0.467283 0.000000
256.81600952 167.88200378 395.00000000 -0.394043 -0.491338 0.776735 0.000000
163.60200500 177.86900330 472.50000000 -0.000978 -0.000978 0.999999 0.000000
171.21099854 158.84599304 457.50000000 -0.160521 -0.273830 0.948288 0.000000
233.03700256 85.60549927 392.50000000 0.321231 -0.885271 0.336312 0.000000
114.14099884 178.82000732 432.50000000 0.314104 -0.934009 -0.170197 0.000000
206.40400696 218.77000427 467.50000000 0.926737 -0.093350 0.363930 0.000000
110.33599854 208.30700684 452.50000000 -0.587707 -0.049328 0.807569 0.000000
305.32598877 138.87100220 437.50000000 -0.689941 -0.437240 0.576891 0.000000
108.43399811 227.33000183 452.50000000 -0.434019 -0.866525 0.246498 0.000000
236.84199524 167.40600586 457.50000000 0.000978 0.000978 0.999999 0.000000
175.01600647 245.40199280 482.50000000 0.441474 0.881491 0.167556 0.000000
237.79299927 195.94099426 402.50000000 0.000978 0.000978 0.999999 0.000000
137.91999817 283.44900513 457.50000000 0.179450 0.221986 0.958395 0.000000
170.73500061 104.62899780 405.00000000 -0.360149 -0.849703 0.385095 0.000000
172.16200256 149.33399963 382.50000000 -0.000978 -0.000978 0.999999 0.000000
134.11500549 225.42799377 392.50000000 0.720170 0.296729 -0.627142 0.000000
119.84799957 283.44900513 402.50000000 -0.000978 -0.000978 -0.999999 0.000000
233.98800659 210.20899963 412.50000000 0.768194 -0.384909 0.511588 0.000000
109.38500214 243.50000000 452.50000000 0.000978 0.000978 0.999999 0.000000
172.16200256 98.92189789 387.50000000 -0.000978 -0.000978 0.999999 0.000000
193.08799744 278.69299316 427.50000000 -0.000978 -0.000978 -0.999999 0.000000
144.57800293 300.57000732 417.50000000 0.017350 0.460443 -0.887520 0.000000
207.35499573 211.16000366 467.50000000 0.861772 0.122698 0.492235 0.000000
177.86900330 275.83999634 422.50000000 -0.000978 -0.000978 -0.999999 0.000000
210.20899963 162.64999390 457.50000000 0.000978 0.000978 0.999999 0.000000
266.32800293 172.16200256 457.50000000 0.000978 0.000978 0.999999 0.000000
177.86900330 263.47500610 472.50000000 0.000978 0.000978 0.999999 0.000000
198.79499817 136.96899414 452.50000000 -0.036324 -0.450681 0.891946 0.000000
155.04100037 255.86500549 402.50000000 -0.000978 -0.000978 -0.999999 0.000000
253.01199341 156.94299316 387.50000000 -0.861548 0.462988 0.208270 0.000000
258.71899414 104.15299988 415.00000000 -0.001381 -0.724826 0.688930 0.000000
199.74600220 195.94099426 402.50000000 -0.035356 0.668937 0.742478 0.000000
286.30300903 136.01800537 422.50000000 -0.363112 -0.165308 0.916964 0.000000
131.26199341 246.35400391 472.50000000 0.000978 0.000978 0.999999 0.000000
242.54899597 123.65200043 442.50000000 0.011470 -0.931632 0.363222 0.000000
107.95800018 261.57199097 380.00000000 0.502954 0.859981 -0.086423 0.000000
172.16200256 116.99400330 377.50000000 0.000978 0.000978 0.999999 0.000000
156.94299316 272.98599243 412.50000000 0.232272 0.765408 -0.600167 0.000000
166.45500183 200.22200012 350.00000000 0.474476 0.821269 -0.316843 0.000000
260.62100220 148.38299561 457.50000000 0.000978 0.000978 0.999999 0.000000
126.02999878 152.18800354 385.00000000 -0.799672 -0.254087 0.544026 0.000000
114.14099884 154.08999634 357.50000000 -0.000978 -0.999999 -0.000978 0.000000
108.43399811 213.06199646 452.50000000 -0.742208 0.055773 0.667844 0.000000
190.23399353 289.15600586 427.50000000 -0.000978 -0.000978 -0.999999 0.000000
287.25399780 184.52699280 422.50000000 -0.863611 -0.204343 0.460891 0.000000
187.38099670 260.62100220 467.50000000 -0.163468 0.969226 0.184063 0.000000
158.84599304 202.60000610 347.50000000 0.391632 0.609756 -0.689074 0.000000
99.87300110 207.35499573 432.50000000 0.000978 0.000978 0.999999 0.000000
160.74800110 216.39199829 390.00000000 -0.146537 0.705490 -0.693405 0.000000
110.33599854 156.94299316 312.50000000 0.275870 -0.494072 -0.824493 0.000000
182.62500000 294.86300659 427.50000000 0.332878 0.212870 -0.918629 0.000000
94.16600037 247.30499268 432.50000000 -0.974931 -0.186476 0.121397 0.000000
102.72699738 269.65701294 440.00000000 -0.842860 0.325615 0.428441 0.000000
199.74600220 228.28100586 472.50000000 0.544364 0.037399 0.838015 0.000000
96.06839752 157.41900635 315.00000000 -0.284699 -0.590074 -0.755486 0.000000
194.03900146 260.14599609 465.00000000 0.647895 0.657787 0.384121 0.000000
133.16400146 303.42401123 417.50000000 -0.000978 -0.000978 -0.999999 0.000000
106.53099823 271.55999756 390.00000000 -0.604821 0.775451 0.181294 0.000000
217.81799316 128.40800476 447.50000000 0.016538 -0.347308 0.937605 0.000000
151.23599243 259.67001343 477.50000000 -0.938095 0.333988 0.091814 0.000000
229.23199463 219.72099304 462.50000000 -0.000978 -0.000978 0.999999 0.000000
128.40800476 297.71701050 442.50000000 -0.276207 0.550836 0.787585 0.000000
284.39999390 110.33599854 402.50000000 0.000978 0.000978 0.999999 0.000000
296.76599121 142.19999695 430.00000000 -0.567761 -0.109465 0.815883 0.000000
104.62899780 157.89500427 312.50000000 -0.037070 -0.325964 -0.944655 0.000000
211.16000366 231.13499451 417.50000000 0.920033 0.314333 -0.233955 0.000000
106.53099823 157.89500427 312.50000000 0.057553 -0.297999 -0.952830 0.000000
253.96299744 96.06839752 407.50000000 0.467540 -0.625063 0.625063 0.000000
102.72699738 148.38299561 342.50000000 -0.663916 -0.698943 0.265885 0.000000
131.26199341 284.39999390 412.50000000 0.410826 0.823238 -0.391792 0.000000
233.03700256 130.31100464 447.50000000 -0.288509 -0.170918 0.942099 0.000000
99.87300110 177.86900330 337.50000000 -0.887901 0.301976 0.347048 0.000000
132.21299744 153.13900757 407.50000000 -0.834400 -0.536296 0.127133 0.000000
113.18900299 164.55299377 362.50000000 -0.850279 -0.272151 0.450510 0.000000
309.13101196 168.35699463 447.50000000 0.000978 0.000978 0.999999 0.000000
141.72500610 210.20899963 482.50000000 0.000978 0.000978 0.999999 0.000000
279.64498901 173.11300659 412.50000000 0.000000 0.000000 0.000000 0.000000
240.64599609 195.94099426 457.50000000 0.000978 0.000978 0.999999 0.000000
167.40600586 205.92900085 370.00000000 -0.001141 0.982547 -0.186011 0.000000
255.86500549 109.38500214 387.50000000 -0.562279 -0.531886 0.633198 0.000000
224.47700500 166.45500183 412.50000000 -0.524260 -0.581574 -0.622032 0.000000
116.04299927 134.59100342 355.00000000 -0.769872 -0.067634 0.634605 0.000000
133.16400146 283.44900513 457.50000000 -0.095095 0.234569 0.967437 0.000000
150.28500366 209.25799561 487.50000000 0.000978 0.000978 0.999999 0.000000
101.77500153 262.52301025 387.50000000 0.000978 0.000978 -0.999999 0.000000
201.64799500 156.46800232 455.00000000 -0.064339 -0.616226 0.784937 0.000000
198.79499817 251.10899353 417.50000000 -0.000978 -0.000978 -0.999999 0.000000
263.47500610 93.21479797 392.50000000 -0.000978 -0.000978 0.999999 0.000000
121.75000000 229.23199463 357.50000000 0.446403 0.861028 -0.243630 0.000000
108.43399811 158.84599304 312.50000000 0.057553 -0.297999 -0.952830 0.000000
155.04100037 140.77299500 362.50000000 0.934187 -0.001261 -0.356781 0.000000
103.20200348 197.84399414 425.00000000 -0.933568 -0.312114 -0.176171 0.000000
100.82399750 255.38999939 380.00000000 -0.842950 0.136338 -0.520430 0.000000
163.60200500 288.20498657 422.50000000 0.422720 0.353577 -0.834441 0.000000
228.28100586 96.06839752 407.50000000 0.210980 -0.914246 0.345892 0.000000
148.38299561 299.61898804 417.50000000 0.132500 0.250570 -0.958988 0.000000
210.20899963 271.08401489 442.50000000 0.719846 0.636848 0.276127 0.000000
190.71000671 199.74600220 370.00000000 0.181978 0.907027 -0.379719 0.000000
166.45500183 277.74200439 467.50000000 0.276610 0.557961 0.782410 0.000000
194.03900146 103.20200348 420.00000000 -0.438212 -0.520893 0.732558 0.000000
104.15299988 212.11099243 345.00000000 -0.964331 0.025732 -0.263445 0.000000
270.13299561 149.33399963 407.50000000 -0.242388 -0.965746 0.092641 0.000000
162.64999390 121.75000000 377.50000000 0.000978 0.000978 0.999999 0.000000
145.52900696 272.98599243 407.50000000 0.411713 0.563832 -0.715951 0.000000
175.96699524 131.26199341 447.50000000 -0.000978 -0.000978 0.999999 0.000000
100.82399750 159.79699707 312.50000000 -0.237634 -0.416980 -0.877302 0.000000
218.77000427 238.74400330 452.50000000 -0.092928 -0.431354 -0.897384 0.000000
117.94499969 139.82200623 357.50000000 -0.881491 -0.441474 0.167556 0.000000
268.23001099 109.38500214 422.50000000 0.000978 0.000978 0.999999 0.000000
228.28100586 123.65200043 377.50000000 0.000978 0.000978 0.999999 0.000000
115.09200287 292.01000977 437.50000000 -0.762206 0.514122 0.393344 0.000000
311.03298950 187.38099670 442.50000000 -0.157797 -0.905558 0.393783 0.000000
253.01199341 202.60000610 452.50000000 0.727789 -0.335529 0.598116 0.000000
152.18800354 119.84799957 367.50000000 0.974674 0.193934 0.111356 0.000000
197.84399414 185.47900391 462.50000000 0.000978 0.000978 0.999999 0.000000
228.28100586 118.89600372 377.50000000 0.000978 0.000978 0.999999 0.000000
189.28300476 142.67599487 387.50000000 0.514240 -0.857066 -0.031540 0.000000
169.78399658 120.79900360 430.00000000 -0.586220 -0.586220 0.559189 0.000000
96.06839752 233.98800659 402.50000000 -0.954272 -0.205929 -0.216697 0.000000
274.88900757 163.60200500 407.50000000 -0.869469 -0.001331 0.493986 0.000000
157.89500427 257.76800537 402.50000000 0.301424 -0.003691 -0.953483 0.000000
185.47900391 287.25399780 427.50000000 -0.000978 -0.000978 -0.999999 0.000000
149.33399963 283.44900513 462.50000000 -0.001367 0.600218 0.799835 0.000000
241.59800720 212.58700562 410.00000000 -0.001261 -0.934187 0.356781 0.000000
193.08799744 225.90299988 395.00000000 0.322392 0.717687 -0.617243 0.000000
208.30700684 271.08401489 432.50000000 0.498835 0.829333 -0.251734 0.000000
105.58000183 166.45500183 347.50000000 -0.718905 -0.483144 0.499747 0.000000
213.06199646 182.62500000 462.50000000 0.000978 0.000978 0.999999 0.000000
147.43200684 252.06100464 392.50000000 0.220401 -0.796835 -0.562563 0.000000
197.84399414 119.84799957 377.50000000 0.000978 0.000978 0.999999 0.000000
157.89500427 191.18600464 337.50000000 0.572517 0.686019 -0.449000 0.000000
227.33000183 138.87100220 452.50000000 0.000978 0.000978 0.999999 0.000000
95.59279633 251.10899353 400.00000000 -0.902055 0.359355 -0.239081 0.000000
213.06199646 221.62300110 462.50000000 0.000978 0.000978 0.999999 0.000000
181.19799805 186.42999268 350.00000000 0.864275 0.326981 -0.382246 0.000000
141.72500610 244.45100403 397.50000000 -0.000978 -0.000978 -0.999999 0.000000
221.62300110 254.91400146 432.50000000 -0.014561 0.443456 -0.896178 0.000000
168.35699463 267.27899170 472.50000000 0.000978 0.000978 0.999999 0.000000
160.74800110 301.52099609 442.50000000 0.190711 0.584339 0.788782 0.000000
236.84199524 204.50199890 462.50000000 0.277483 0.075445 0.957764 0.000000
117.47000122 206.40400696 465.00000000 -0.651948 0.018148 0.758047 0.000000
197.84399414 132.21299744 447.50000000 -0.077378 -0.505070 0.859603 0.000000
265.37701416 136.01800537 452.50000000 0.169112 -0.665785 0.726726 0.000000
201.64799500 142.67599487 382.50000000 0.000978 0.000978 0.999999 0.000000
185.47900391 265.37701416 422.50000000 -0.012033 0.482654 -0.875729 0.000000
303.42401123 137.91999817 447.50000000 -0.020018 -0.460420 0.887476 0.000000
200.69700623 237.79299927 472.50000000 0.395779 0.043681 0.917306 0.000000
170.25999451 107.00700378 410.00000000 -0.360149 -0.849703 0.385095 0.000000
97.97070313 161.69900513 312.50000000 -0.511309 -0.592308 -0.622683 0.000000
95.59279633 233.98800659 405.00000000 -0.954272 -0.205929 -0.216697 0.000000
154.08999634 157.41900635 455.00000000 0.070684 -0.464296 0.882855 0.000000
117.94499969 272.03500366 457.50000000 -0.554195 0.166709 0.815522 0.000000
139.82200623 219.24499512 390.00000000 0.001367 0.600218 -0.799835 0.000000
129.35899353 169.30900574 462.50000000 -0.532344 -0.844165 0.063207 0.000000
96.54389954 231.13499451 435.00000000 -0.867668 -0.001333 0.497143 0.000000
206.40400696 157.89500427 387.50000000 0.224613 -0.352136 0.908597 0.000000
196.89300537 225.42799377 397.50000000 0.358694 0.871551 -0.334272 0.000000
139.82200623 119.84799957 377.50000000 -0.765192 -0.570300 0.298728 0.000000
107.48200226 161.69900513 312.50000000 0.057553 -0.297999 -0.952830 0.000000
155.51699829 155.04100037 345.00000000 0.406717 -0.629166 -0.662368 0.000000
318.64300537 181.67399597 437.50000000 0.976151 0.189773 -0.105429 0.000000
216.86700439 147.43200684 417.50000000 0.000978 0.000978 0.999999 0.000000
252.06100464 134.11500549 452.50000000 0.073606 -0.373381 0.924753 0.000000
132.21299744 139.82200623 387.50000000 -0.717365 -0.055843 0.694456 0.000000
115.56700134 166.45500183 370.00000000 -0.656013 -0.656013 -0.373221 0.000000
222.57400513 104.62899780 382.50000000 0.000978 0.000978 0.999999 0.000000
107.00700378 193.08799744 440.00000000 -0.997021 -0.061571 -0.046448 0.000000
217.81799316 194.03900146 462.50000000 0.000978 0.000978 0.999999 0.000000
113.18900299 266.32800293 392.50000000 -0.000978 -0.000978 -0.999999 0.000000
98.92189789 232.08599854 392.50000000 -0.964418 -0.263908 -0.015810 0.000000
200.69700623 174.06399536 402.50000000 -0.169997 -0.278795 0.945185 0.000000
253.01199341 204.50199890 452.50000000 0.738352 -0.279075 0.613965 0.000000
262.04800415 191.18600464 420.00000000 -0.210666 -0.902232 0.376293 0.000000
133.63999939 129.35899353 390.00000000 -0.743832 0.195583 0.639110 0.000000
155.04100037 259.67001343 402.50000000 -0.000978 -0.000978 -0.999999 0.000000
227.33000183 97.01950073 412.50000000 0.314120 -0.919412 0.236666 0.000000
248.25599670 184.52699280 392.50000000 0.000978 0.000978 0.999999 0.000000
234.93899536 217.81799316 462.50000000 0.000978 0.000978 0.999999 0.000000
267.27899170 128.40800476 447.50000000 -0.651247 0.294267 0.699488 0.000000
152.18800354 231.13499451 397.50000000 -0.000978 -0.000978 -0.999999 0.000000
280.59600830 169.30900574 417.50000000 -0.960356 -0.246949 0.129354 0.000000
239.69500732 186.42999268 392.50000000 0.151646 -0.608087 0.779252 0.000000
211.16000366 153.13900757 387.50000000 -0.755593 -0.509738 0.411396 0.000000
277.74200439 141.72500610 457.50000000 0.337182 -0.156796 0.928290 0.000000
159.79699707 216.86700439 487.50000000 0.000978 0.000978 0.999999 0.000000
132.21299744 281.54699707 407.50000000 0.372043 0.827993 -0.419538 0.000000
224.47700500 183.57600403 462.50000000 0.000978 0.000978 0.999999 0.000000
271.08401489 164.55299377 457.50000000 0.000978 0.000978 0.999999 0.000000
200.69700623 242.54899597 472.50000000 0.795211 -0.001369 0.606331 0.000000
206.40400696 138.87100220 382.50000000 -0.724674 0.230080 0.649546 0.000000
95.11720276 163.60200500 312.50000000 -0.866398 -0.369561 -0.335825 0.000000
250.15800476 212.11099243 407.50000000 -0.628377 -0.773499 0.082719 0.000000
96.06839752 163.60200500 312.50000000 -0.866398 -0.369561 -0.335825 0.000000
194.51499939 294.86300659 435.00000000 -0.190180 0.874237 -0.446701 0.000000
169.30900574 246.35400391 402.50000000 0.379116 -0.019409 -0.925146 0.000000
277.74200439 109.38500214 422.50000000 -0.126131 -0.429413 0.894257 0.000000
179.77099609 162.64999390 457.50000000 0.000978 0.000978 0.999999 0.000000
229.23199463 225.42799377 432.50000000 -0.000978 -0.000978 -0.999999 0.000000
278.69299316 199.74600220 432.50000000 -0.142973 -0.989726 0.001108 0.000000
203.55099487 203.55099487 467.50000000 0.570488 -0.641168 0.513271 0.000000
229.23199463 205.45300293 402.50000000 -0.148567 -0.448586 0.881305 0.000000
156.94299316 208.30700684 362.50000000 0.001331 0.869469 -0.493986 0.000000
167.40600586 105.58000183 397.50000000 -0.444884 -0.893849 0.055781 0.000000
178.82000732 223.52499390 482.50000000 0.490619 0.490619 0.720129 0.000000
226.37899780 122.70099640 377.50000000 0.000978 0.000978 0.999999 0.000000
117.94499969 163.60200500 312.50000000 0.647419 -0.344094 -0.680035 0.000000
216.86700439 172.63800049 460.00000000 0.001376 -0.779928 0.625868 0.000000
300.57000732 139.82200623 447.50000000 0.076342 -0.603537 0.793672 0.000000
155.04100037 303.42401123 427.50000000 0.743604 -0.009729 -0.668549 0.000000
218.77000427 232.08599854 432.50000000 -0.000978 -0.000978 -0.999999 0.000000
107.48200226 230.18400574 347.50000000 -0.000978 -0.000978 -0.999999 0.000000
275.83999634 175.96699524 457.50000000 0.000978 0.000978 0.999999 0.000000
181.67399597 99.39749908 400.00000000 -0.478377 -0.808949 0.341698 0.000000
209.25799561 151.23599243 382.50000000 -0.321281 -0.360870 0.875529 0.000000
181.67399597 134.11500549 447.50000000 -0.077142 -0.495114 0.865397 0.000000
306.27700806 191.18600464 437.50000000 -0.258100 -0.957723 0.127085 0.000000
176.91799927 198.79499817 482.50000000 0.000978 0.000978 0.999999 0.000000
183.57600403 202.60000610 482.50000000 0.410845 0.041217 0.910773 0.000000
209.25799561 147.43200684 452.50000000 -0.181625 -0.333684 0.925023 0.000000
194.03900146 202.60000610 477.50000000 0.622347 -0.622347 0.474729 0.000000
268.23001099 116.99400330 427.50000000 -0.767167 -0.509816 0.389284 0.000000
96.54389954 225.42799377 420.00000000 -0.975515 -0.215843 -0.042204 0.000000
104.62899780 264.42599487 447.50000000 0.000978 0.000978 0.999999 0.000000
106.53099823 287.25399780 412.50000000 -0.720733 0.541793 -0.432440 0.000000
223.52499390 164.55299377 457.50000000 0.000978 0.000978 0.999999 0.000000
200.69700623 132.21299744 447.50000000 0.225360 -0.473407 0.851527 0.000000
143.62699890 127.45700073 357.50000000 0.514693 -0.514693 -0.685698 0.000000
155.04100037 224.47700500 397.50000000 -0.000978 -0.000978 -0.999999 0.000000
174.06399536 228.28100586 397.50000000 0.000978 0.000978 -0.999999 0.000000
122.70099640 161.69900513 387.50000000 -0.896312 -0.385810 0.218577 0.000000
112.23799896 188.33200073 452.50000000 -0.794993 -0.427329 0.430554 0.000000
174.06399536 134.11500549 382.50000000 0.000978 0.000978 0.999999 0.000000
184.52699280 95.11720276 397.50000000 -0.668671 -0.678338 0.304527 0.000000
111.76300049 273.93798828 450.00000000 -0.361733 0.543411 0.757531 0.000000
115.09200287 165.50399780 312.50000000 -0.000978 -0.000978 -0.999999 0.000000
195.94099426 249.20700073 417.50000000 -0.013907 0.342623 -0.939370 0.000000
116.99400330 165.50399780 312.50000000 -0.000978 -0.000978 -0.999999 0.000000
241.59800720 223.52499390 432.50000000 -0.000978 -0.000978 -0.999999 0.000000
153.13900757 143.62699890 357.50000000 0.590033 0.128654 -0.797063 0.000000
227.33000183 195.94099426 402.50000000 0.000978 0.000978 0.999999 0.000000
214.01400757 120.79900360 442.50000000 0.000978 0.000978 0.999999 0.000000
279.64498901 103.67800140 402.50000000 0.000978 0.000978 0.999999 0.000000
300.57000732 120.79900360 427.50000000 0.441021 -0.349340 0.826718 0.000000
292.96099854 129.83500671 445.00000000 0.623475 -0.208856 0.753430 0.000000
180.72300720 280.11999512 455.00000000 0.399101 0.680625 0.614384 0.000000
224.47700500 182.62500000 412.50000000 -0.263361 0.863156 0.430817 0.000000
244.45100403 101.77500153 382.50000000 0.000978 0.000978 0.999999 0.000000
157.89500427 225.42799377 397.50000000 -0.000978 -0.000978 -0.999999 0.000000
254.91400146 158.84599304 392.50000000 -0.690240 -0.300874 0.658061 0.000000
240.64599609 225.42799377 452.50000000 0.061006 -0.583104 -0.810103 0.000000
206.40400696 202.12399292 395.00000000 0.275047 0.736110 0.618459 0.000000
191.18600464 263.47500610 462.50000000 0.534860 0.750767 0.387651 0.000000
271.08401489 179.29600525 410.00000000 -0.009688 -0.643551 0.765342 0.000000
211.16000366 127.45700073 382.50000000 0.000978 0.000978 0.999999 0.000000
270.13299561 191.66099548 450.00000000 0.206293 0.483358 0.850770 0.000000
234.93899536 214.96499634 422.50000000 0.793769 -0.527595 -0.302614 0.000000
94.16600037 167.40600586 312.50000000 -0.937463 -0.160590 -0.308827 0.000000
190.23399353 233.98800659 402.50000000 0.060394 0.401284 -0.913961 0.000000
312.93600464 188.33200073 437.50000000 0.684653 0.046972 0.727354 0.000000
171.21099854 167.88200378 345.00000000 0.586549 -0.204753 -0.783605 0.000000
195.46600342 224.47700500 395.00000000 0.506425 0.580454 -0.637658 0.000000
186.42999268 256.81600952 417.50000000 0.234131 0.375493 -0.896765 0.000000
223.52499390 95.59279633 410.00000000 0.266429 -0.920261 0.286592 0.000000
113.18900299 251.10899353 462.50000000 -0.530057 0.158869 0.832947 0.000000
262.52301025 191.18600464 417.50000000 -0.631540 -0.770914 0.082754 0.000000
134.59100342 281.54699707 410.00000000 0.313391 0.817337 -0.483473 0.000000
131.26199341 208.78199768 335.00000000 0.381288 0.661890 -0.645384 0.000000
117.94499969 167.40600586 312.50000000 0.748961 -0.101529 -0.654789 0.000000
122.70099640 218.77000427 467.50000000 -0.569258 0.400956 0.717760 0.000000
210.20899963 243.50000000 422.50000000 0.513485 0.048442 -0.856730 0.000000
317.69100952 183.57600403 437.50000000 0.974192 0.216896 -0.062495 0.000000
274.88900757 112.23799896 422.50000000 0.000978 0.000978 0.999999 0.000000
222.57400513 165.02799988 415.00000000 -0.530123 -0.647929 -0.546953 0.000000
163.60200500 182.62500000 477.50000000 0.000978 0.000978 0.999999 0.000000
121.75000000 269.18200684 397.50000000 0.537327 0.402584 -0.741084 0.000000
95.11720276 168.35699463 312.50000000 -0.937463 -0.160590 -0.308827 0.000000
135.06599426 309.13101196 432.50000000 -0.185333 0.943138 0.275940 0.000000
255.38999939 187.38099670 395.00000000 -0.635944 -0.514490 0.575217 0.000000
155.04100037 209.25799561 487.50000000 0.000978 0.000978 0.999999 0.000000
188.33200073 236.84199524 402.50000000 0.178104 0.265117 -0.947624 0.000000
250.63400269 220.67199707 460.00000000 0.015429 -0.974395 -0.224313 0.000000
120.79900360 240.17100525 365.00000000 0.780081 0.242310 -0.576853 0.000000
259.67001343 177.86900330 402.50000000 -0.328043 -0.066654 0.942308 0.000000
243.50000000 227.33000183 442.50000000 -0.443708 -0.560036 -0.699630 0.000000
292.01000977 145.52900696 427.50000000 0.000978 0.000978 0.999999 0.000000
122.70099640 160.27200317 385.00000000 -0.896312 -0.385810 0.218577 0.000000
210.20899963 104.62899780 422.50000000 0.314063 -0.782766 0.537255 0.000000
162.64999390 255.86500549 477.50000000 0.000978 0.000978 0.999999 0.000000
263.47500610 159.79699707 397.50000000 -0.708468 -0.092409 0.699667 0.000000
186.42999268 168.83299255 365.00000000 0.710831 -0.702318 -0.038308 0.000000
194.51499939 167.40600586 395.00000000 -0.587327 -0.587327 0.556861 0.000000
111.28700256 182.62500000 437.50000000 -0.833454 -0.552453 0.012277 0.000000
272.98599243 170.25999451 407.50000000 -0.580215 -0.147664 0.800965 0.000000
108.43399811 140.29800415 340.00000000 -0.852247 -0.493562 0.173414 0.000000
205.45300293 160.74800110 457.50000000 0.000978 0.000978 0.999999 0.000000
301.52099609 162.64999390 432.50000000 -0.701783 -0.290670 0.650394 0.000000
292.01000977 155.04100037 427.50000000 -0.696587 -0.038305 0.716449 0.000000
155.99200439 237.79299927 482.50000000 -0.462863 0.391901 0.795092 0.000000
239.69500732 118.89600372 382.50000000 -0.000978 -0.000978 0.999999 0.000000
137.91999817 157.41900635 450.00000000 -0.140688 -0.899552 0.413538 0.000000
191.66099548 245.40199280 475.00000000 0.731036 0.472438 0.492330 0.000000
120.79900360 275.83999634 457.50000000 -0.270292 0.175214 0.946701 0.000000
176.91799927 277.26699829 460.00000000 0.465583 0.001319 0.885003 0.000000
190.71000671 195.94099426 365.00000000 0.233055 0.758603 -0.608446 0.000000
141.72500610 133.16400146 352.50000000 0.750171 -0.554899 -0.359626 0.000000
93.69039917 170.25999451 315.00000000 -0.848149 -0.469156 0.246040 0.000000
178.82000732 174.06399536 462.50000000 0.493088 -0.799472 0.343087 0.000000
148.38299561 132.21299744 357.50000000 -0.000978 -0.000978 -0.999999 0.000000
169.30900574 264.42599487 407.50000000 0.513424 0.808603 -0.287329 0.000000
116.99400330 292.96099854 442.50000000 -0.618152 0.654808 0.434873 0.000000
283.44900513 134.11500549 422.50000000 0.000978 0.000978 0.999999 0.000000
289.15600586 127.45700073 417.50000000 -0.732213 -0.561855 0.384944 0.000000
235.89100647 193.08799744 402.50000000 0.658846 -0.658846 0.363104 0.000000
173.11300659 183.57600403 477.50000000 0.299261 -0.580917 0.756953 0.000000
182.62500000 214.96499634 482.50000000 0.000978 0.000978 0.999999 0.000000
284.39999390 136.01800537 422.50000000 -0.207834 -0.235002 0.949515 0.000000
