86.48439789 165.93800354 398.75000000 -0.000978 -0.000978 -0.999999 0.000000
231.32800293 141.67999268 387.50000000 0.772088 -0.630128 0.082569 0.000000
158.20300293 66.09380341 373.75000000 -0.130420 0.907332 -0.399675 0.000000
201.44500732 73.12500000 377.50000000 0.693374 0.693374 -0.196122 0.000000
84.37500000 90.70310211 251.25000000 -0.144838 0.798850 0.583833 0.000000
77.34380341 127.26599884 383.75000000 0.560046 0.261982 -0.785947 0.000000
226.40600586 99.84380341 373.75000000 0.085996 -0.677763 0.730235 0.000000
218.67199707 151.87500000 388.75000000 0.049245 -0.820282 0.569836 0.000000
120.93800354 66.44529724 370.00000000 0.099398 0.995047 0.001069 0.000000
206.01600647 136.40600586 401.25000000 -0.000978 -0.000978 -0.999999 0.000000
87.18750000 86.48439789 378.75000000 0.394975 0.662699 -0.636258 0.000000
163.82800293 100.54699707 406.25000000 0.520782 0.621904 -0.584826 0.000000
170.85899353 61.52339935 355.00000000 0.080550 0.982230 -0.169516 0.000000
143.43800354 97.73439789 328.75000000 -0.916747 -0.304620 0.258422 0.000000
126.21099854 142.03100586 335.00000000 0.000978 0.000978 -0.999999 0.000000
204.96099854 92.10939789 357.50000000 -0.415621 -0.258441 0.872048 0.000000
173.67199707 75.58589935 322.50000000 -0.479315 -0.620587 0.620587 0.000000
209.17999268 92.81250000 360.00000000 -0.510726 -0.204594 0.835045 0.000000
130.07800293 95.97660065 310.00000000 -0.650248 -0.673178 0.352149 0.000000
46.40620041 200.39100647 331.25000000 0.952651 -0.206746 0.222961 0.000000
104.06199646 215.15600586 401.25000000 -0.000978 -0.000978 -0.999999 0.000000
137.10899353 172.96899414 343.75000000 -0.888413 -0.442074 0.123667 0.000000
200.39100647 74.53119659 378.75000000 0.601029 0.721561 -0.343678 0.000000
232.03100586 88.24220276 382.50000000 -0.418030 0.725356 -0.546909 0.000000
123.75000000 215.85899353 398.75000000 -0.316207 -0.192535 -0.928947 0.000000
222.18800354 120.93800354 378.75000000 -0.685430 0.162619 0.709747 0.000000
75.93750000 140.62500000 388.75000000 0.254510 0.232258 -0.938766 0.000000
89.29689789 125.85900116 251.25000000 -0.962562 -0.001205 0.271059 0.000000
53.43750000 148.35899353 376.25000000 0.575939 0.160902 -0.801502 0.000000
180.00000000 148.00799561 390.00000000 -0.276736 -0.944718 0.175857 0.000000
137.10899353 161.71899414 398.75000000 -0.288682 -0.155861 -0.944653 0.000000
53.43750000 189.14100647 296.25000000 0.836494 -0.419031 0.353116 0.000000
98.43750000 191.95300293 323.75000000 -0.496637 -0.758887 0.421240 0.000000
156.09399414 64.68750000 371.25000000 -0.081513 0.896639 -0.435195 0.000000
132.18800354 148.71099854 347.50000000 -0.506322 0.640892 0.576971 0.000000
176.48399353 118.82800293 346.25000000 0.085214 -0.587834 0.804481 0.000000
169.45300293 140.62500000 356.25000000 -0.142472 0.172732 0.974610 0.000000
84.37500000 140.62500000 391.25000000 0.126188 0.509103 -0.851405 0.000000
48.86719894 215.15600586 340.00000000 0.814220 -0.361698 0.454115 0.000000
156.79699707 117.42199707 348.75000000 -0.046177 -0.268324 0.962221 0.000000
220.78100586 90.00000000 388.75000000 -0.524375 0.688556 -0.500920 0.000000
126.21099854 159.60899353 305.00000000 -0.722396 -0.389995 0.571006 0.000000
104.76599884 193.35899353 401.25000000 -0.000978 -0.000978 -0.999999 0.000000
139.92199707 144.14100647 401.25000000 -0.000978 -0.000978 -0.999999 0.000000
191.25000000 108.98400116 348.75000000 -0.210384 0.446134 0.869887 0.000000
108.28099823 149.06199646 281.25000000 -0.619945 -0.439476 0.650023 0.000000
112.50000000 184.92199707 326.25000000 -0.469297 -0.745935 0.472590 0.000000
56.60160065 116.71900177 300.00000000 0.883935 0.441244 -0.154797 0.000000
62.92969894 174.37500000 255.00000000 0.420443 -0.653099 0.629833 0.000000
222.18800354 80.85939789 378.75000000 -0.413093 0.625446 -0.661945 0.000000
47.46089935 196.17199707 385.00000000 0.531594 0.274422 -0.801312 0.000000
144.84399414 80.85939789 393.75000000 0.271022 0.142854 -0.951914 0.000000
39.37500000 189.84399414 371.25000000 0.914265 -0.083115 -0.396499 0.000000
184.21899414 66.44529724 370.00000000 -0.145550 0.908625 -0.391429 0.000000
63.98440170 108.98400116 246.25000000 0.833415 0.498821 0.237899 0.000000
210.93800354 134.29699707 401.25000000 -0.000978 -0.000978 -0.999999 0.000000
66.09380341 114.60900116 236.25000000 0.255125 0.082503 0.963382 0.000000
157.50000000 155.39100647 388.75000000 0.345386 -0.479084 -0.806962 0.000000
103.00800323 71.01560211 340.00000000 0.456171 0.889601 -0.022742 0.000000
126.56199646 228.86700439 390.00000000 -0.228828 -0.973408 -0.010671 0.000000
142.03100586 126.56199646 401.25000000 -0.000978 -0.000978 -0.999999 0.000000
207.42199707 115.31199646 358.75000000 -0.800852 -0.088340 0.592312 0.000000
40.78120041 201.09399414 351.25000000 0.963679 -0.184869 0.192736 0.000000
121.64099884 118.82800293 396.25000000 -0.000978 -0.000978 -0.999999 0.000000
140.62500000 62.22660065 342.50000000 0.139422 0.983225 0.117599 0.000000
56.25000000 222.18800354 336.25000000 0.436612 -0.843702 0.312310 0.000000
210.93800354 137.10899353 373.75000000 -0.620454 -0.559592 0.549448 0.000000
73.12500000 201.79699707 396.25000000 -0.000978 -0.000978 -0.999999 0.000000
106.17199707 201.79699707 401.25000000 -0.000978 -0.000978 -0.999999 0.000000
147.65600586 122.34400177 348.75000000 -0.856764 -0.399823 0.325725 0.000000
88.94529724 78.75000000 322.50000000 0.554098 0.830442 -0.057807 0.000000
73.82810211 115.31199646 236.25000000 -0.535277 0.093279 0.839510 0.000000
95.62500000 227.81199646 398.75000000 -0.000978 -0.000978 -0.999999 0.000000
64.33589935 107.57800293 247.50000000 0.835322 0.487656 0.253827 0.000000
51.32809830 193.35899353 386.25000000 0.642394 0.185512 -0.743583 0.000000
139.21899414 125.15599823 401.25000000 0.273352 0.270490 -0.923100 0.000000
105.46900177 144.84399414 396.25000000 -0.000978 -0.000978 -0.999999 0.000000
178.59399414 156.79699707 368.75000000 -0.559121 -0.685966 0.465656 0.000000
225.00000000 125.15599823 401.25000000 -0.000978 -0.000978 -0.999999 0.000000
113.90599823 149.06199646 286.25000000 -0.620285 -0.475720 0.623647 0.000000
47.10940170 163.47700500 375.00000000 0.856562 0.122779 -0.501226 0.000000
183.51600647 114.60900116 346.25000000 0.000978 0.000978 0.999999 0.000000
65.39060211 116.01599884 236.25000000 0.000978 0.000978 0.999999 0.000000
47.81250000 188.43800354 316.25000000 0.959147 -0.104846 0.262762 0.000000
119.53099823 175.78100586 398.75000000 -0.309691 0.105002 -0.945022 0.000000
120.93800354 233.08599854 387.50000000 -0.658905 -0.642391 0.391380 0.000000
56.60160065 124.45300293 312.50000000 0.982213 0.175865 -0.065800 0.000000
115.31199646 178.94500732 320.00000000 -0.464265 -0.756275 0.460984 0.000000
126.56199646 65.03910065 365.00000000 0.256964 0.966330 0.013270 0.000000
60.11719894 191.25000000 392.50000000 0.430569 0.025172 -0.902207 0.000000
158.90600586 129.37500000 401.25000000 -0.000978 -0.000978 -0.999999 0.000000
126.56199646 65.74220276 312.50000000 -0.047195 0.995488 0.082317 0.000000
68.20310211 149.76600647 388.75000000 0.348867 0.312621 -0.883493 0.000000
120.23400116 219.72700500 370.00000000 -0.507911 -0.384585 0.770792 0.000000
97.03119659 86.48439789 383.75000000 0.258889 0.056280 -0.964266 0.000000
100.19499969 163.12500000 282.50000000 -0.300402 0.498574 0.813131 0.000000
51.67969894 159.60899353 265.00000000 0.986949 -0.140319 0.079003 0.000000
48.86719894 170.85899353 305.00000000 0.991655 -0.025714 0.126333 0.000000
223.59399414 95.27339935 392.50000000 -0.357073 0.394495 -0.846683 0.000000
170.15600586 61.52339935 352.50000000 0.109645 0.993452 -0.032118 0.000000
231.32800293 85.42970276 375.00000000 -0.679742 0.673314 0.290859 0.000000
103.35900116 99.49220276 292.50000000 -0.944977 0.314992 0.088303 0.000000
70.31250000 244.68800354 363.75000000 -0.001379 -0.663079 0.748548 0.000000
154.68800354 135.00000000 368.75000000 -0.929206 -0.011503 0.369382 0.000000
126.56199646 183.86700439 337.50000000 -0.637370 -0.689533 0.343952 0.000000
180.70300293 78.04689789 331.25000000 -0.195139 -0.619222 0.760582 0.000000
80.15619659 136.40600586 388.75000000 0.114463 0.133741 -0.984384 0.000000
118.82800293 150.46899414 293.75000000 -0.614252 -0.229758 0.754921 0.000000
226.40600586 90.00000000 386.25000000 -0.120561 0.736761 -0.665318 0.000000
64.68750000 213.75000000 393.75000000 0.438017 0.428319 -0.790370 0.000000
214.45300293 106.87500000 401.25000000 -0.183698 -0.063634 -0.980921 0.000000
107.57800293 225.00000000 398.75000000 -0.110184 -0.255368 -0.960545 0.000000
108.28099823 199.33599854 342.50000000 -0.340028 -0.546300 0.765465 0.000000
209.88299561 85.78119659 390.00000000 0.501575 0.501575 -0.704872 0.000000
39.02339935 186.32800293 350.00000000 0.971560 0.120337 0.203939 0.000000
101.95300293 153.98399353 276.25000000 -0.798236 -0.367799 0.477014 0.000000
188.43800354 124.45300293 348.75000000 -0.396478 -0.164603 0.903167 0.000000
93.16410065 92.81250000 382.50000000 0.404459 0.112581 -0.907600 0.000000
162.77299500 155.39100647 392.50000000 0.430279 -0.485905 -0.760760 0.000000
87.89060211 214.45300293 401.25000000 0.134454 0.054012 -0.989447 0.000000
44.64839935 187.73399353 377.50000000 0.655416 0.162713 -0.737533 0.000000
106.52300262 177.18800354 310.00000000 -0.464636 -0.788423 0.403116 0.000000
41.83589935 166.64100647 350.00000000 0.948508 0.256463 0.185902 0.000000
111.09400177 199.68800354 343.75000000 -0.243272 -0.537678 0.807292 0.000000
121.64099884 102.30500031 392.50000000 0.317939 0.449499 -0.834785 0.000000
111.09400177 239.41400146 395.00000000 -0.470884 -0.784807 -0.402922 0.000000
120.23400116 115.31199646 326.25000000 -0.578461 -0.069987 0.812702 0.000000
67.50000000 213.04699707 316.25000000 -0.393526 -0.785433 0.477737 0.000000
60.46879959 191.25000000 393.75000000 0.476476 -0.068068 -0.876549 0.000000
51.32809830 182.10899353 383.75000000 0.805708 0.001368 -0.592312 0.000000
59.76559830 189.84399414 276.25000000 0.802517 -0.442269 0.400455 0.000000
120.93800354 90.70310211 293.75000000 0.123371 -0.747656 0.652526 0.000000
63.98440170 100.89800262 292.50000000 0.842409 0.528486 -0.105121 0.000000
98.08589935 193.35899353 325.00000000 -0.531105 -0.723031 0.441761 0.000000
142.73399353 163.47700500 385.00000000 -0.978727 -0.119718 -0.166618 0.000000
144.14100647 135.70300293 358.75000000 -0.322061 0.044909 0.945653 0.000000
82.96880341 146.25000000 246.25000000 -0.803064 -0.298191 0.515917 0.000000
140.62500000 92.10939789 321.25000000 -0.591031 -0.493367 0.638178 0.000000
71.01560211 127.96900177 378.75000000 0.554940 0.366163 -0.746972 0.000000
65.39060211 209.53100586 311.25000000 -0.342738 -0.780414 0.522958 0.000000
105.46900177 147.65600586 276.25000000 -0.691292 -0.394317 0.605499 0.000000
146.95300293 78.04689789 313.75000000 -0.733998 -0.598491 0.321023 0.000000
51.32809830 137.10899353 366.25000000 0.792794 0.361823 -0.490471 0.000000
187.03100586 136.40600586 356.25000000 -0.283089 -0.686131 0.670138 0.000000
46.75780106 187.73399353 320.00000000 0.962562 0.001205 0.271059 0.000000
91.40619659 82.26560211 378.75000000 0.485411 0.569393 -0.663451 0.000000
63.28120041 120.23400116 236.25000000 0.799069 0.400339 0.448572 0.000000
114.60900116 185.97700500 330.00000000 -0.373854 -0.816115 0.440670 0.000000
119.53099823 209.53100586 398.75000000 -0.206494 0.022419 -0.978191 0.000000
98.43750000 127.96900177 263.75000000 -0.631280 -0.314833 0.708778 0.000000
187.73399353 88.59380341 351.25000000 0.000978 0.000978 0.999999 0.000000
87.89060211 169.45300293 271.25000000 -0.681997 -0.585284 0.438546 0.000000
217.96899414 106.87500000 401.25000000 -0.235963 0.399209 -0.885976 0.000000
104.06199646 223.94500732 360.00000000 -0.497040 -0.631830 0.594763 0.000000
189.84399414 148.35899353 398.75000000 -0.936432 -0.280511 -0.210732 0.000000
111.79699707 158.90600586 398.75000000 -0.000978 -0.000978 -0.999999 0.000000
126.56199646 154.68800354 398.75000000 -0.000978 -0.000978 -0.999999 0.000000
194.06199646 150.11700439 395.00000000 -0.001205 -0.962562 0.271059 0.000000
134.29699707 117.42199707 333.75000000 -0.003700 -0.309558 0.950873 0.000000
232.03100586 127.26599884 386.25000000 -0.350894 -0.700155 0.621816 0.000000
187.03100586 71.71880341 331.25000000 -0.375879 -0.704158 0.602392 0.000000
128.67199707 142.03100586 346.25000000 -0.662705 -0.064689 0.746082 0.000000
136.40600586 113.90599823 398.75000000 0.893903 0.296973 0.335773 0.000000
184.92199707 147.30499268 387.50000000 -0.020102 -0.997713 -0.064539 0.000000
46.40620041 222.89100647 361.25000000 0.906249 -0.404800 0.121860 0.000000
132.89100647 161.71899414 318.75000000 -0.771093 -0.504863 0.387981 0.000000
100.19499969 106.87500000 267.50000000 -0.913096 0.043861 0.405378 0.000000
111.79699707 101.95300293 311.25000000 -0.602211 -0.649180 0.464658 0.000000
185.62500000 144.14100647 401.25000000 -0.000978 -0.000978 -0.999999 0.000000
104.06199646 241.87500000 373.75000000 -0.200018 -0.801600 0.563410 0.000000
42.18750000 196.17199707 343.75000000 0.910032 -0.212004 0.356225 0.000000
167.34399414 133.24200439 375.00000000 0.245552 -0.774191 0.583380 0.000000
50.27339935 201.09399414 317.50000000 0.956945 -0.252106 0.143872 0.000000
131.48399353 170.85899353 398.75000000 -0.076000 -0.134462 -0.988000 0.000000
85.07810211 118.82800293 246.25000000 -0.376423 0.462921 0.802502 0.000000
98.08589935 125.85900116 262.50000000 -0.767272 0.052670 0.639156 0.000000
60.46879959 163.82800293 388.75000000 0.498574 0.300402 -0.813131 0.000000
212.34399414 76.99220276 350.00000000 -0.400202 -0.571482 0.716412 0.000000
137.10899353 143.43800354 401.25000000 0.088506 -0.036058 -0.995423 0.000000
133.24200439 144.14100647 400.00000000 -0.207705 -0.978185 0.003481 0.000000
160.31199646 94.21880341 341.25000000 -0.711259 -0.210109 0.670794 0.000000
155.03900146 158.20300293 360.00000000 -0.524299 -0.764535 0.374963 0.000000
75.23439789 123.04699707 236.25000000 -0.578659 0.001362 0.815569 0.000000
94.92189789 75.58589935 330.00000000 0.577022 0.811301 -0.094001 0.000000
98.43750000 248.20300293 393.75000000 -0.000978 -0.000978 -0.999999 0.000000
46.75780106 210.23399353 340.00000000 0.804610 -0.345744 0.482766 0.000000
128.67199707 151.87500000 303.75000000 -0.785072 -0.348386 0.512143 0.000000
160.31199646 142.03100586 396.25000000 0.319326 -0.640274 -0.698628 0.000000
52.03120041 135.00000000 358.75000000 0.934328 0.329682 0.135430 0.000000
247.85200500 116.71900177 390.00000000 -0.715646 0.556981 0.421454 0.000000
100.54699707 191.95300293 401.25000000 -0.000978 -0.000978 -0.999999 0.000000
117.42199707 148.35899353 291.25000000 -0.755526 -0.064759 0.651911 0.000000
104.76599884 145.54699707 396.25000000 -0.000978 -0.000978 -0.999999 0.000000
62.57809830 215.15600586 393.75000000 0.707203 0.701346 -0.089315 0.000000
128.67199707 89.29689789 391.25000000 0.247309 0.493082 -0.834092 0.000000
106.17199707 180.00000000 401.25000000 -0.000978 -0.000978 -0.999999 0.000000
121.64099884 95.97660065 302.50000000 0.200418 -0.906929 0.370558 0.000000
109.68800354 132.18800354 396.25000000 -0.000978 -0.000978 -0.999999 0.000000
218.67199707 137.10899353 401.25000000 -0.000978 -0.000978 -0.999999 0.000000
75.23439789 124.45300293 236.25000000 -0.578659 0.001362 0.815569 0.000000
224.29699707 73.12500000 366.25000000 -0.379254 0.756880 -0.532258 0.000000
117.42199707 184.57000732 330.00000000 -0.460487 -0.744371 0.483594 0.000000
141.32800293 153.63299561 335.00000000 -0.607777 0.424612 -0.671053 0.000000
119.18000031 232.03100586 382.50000000 -0.646876 -0.666628 0.370349 0.000000
88.24220276 85.78119659 380.00000000 0.432692 0.545424 -0.717837 0.000000
109.68800354 183.51600647 321.25000000 -0.485300 -0.708772 0.511983 0.000000
153.28100586 110.03900146 360.00000000 0.001362 0.578659 -0.815569 0.000000
201.44500732 138.51600647 367.50000000 -0.391632 -0.689074 0.609756 0.000000
96.32810211 238.35899353 366.25000000 -0.248563 -0.561221 0.789461 0.000000
141.32800293 197.92999268 382.50000000 -0.939188 -0.312154 0.143127 0.000000
90.00000000 82.26560211 273.75000000 0.480863 0.875906 0.039504 0.000000
122.34400177 180.00000000 398.75000000 -0.000978 -0.000978 -0.999999 0.000000
48.16410065 175.78100586 312.50000000 0.992720 -0.055214 0.107047 0.000000
143.08599854 158.90600586 390.00000000 -0.875627 -0.357865 -0.324363 0.000000
72.42189789 182.81199646 266.25000000 -0.641258 -0.641258 0.421398 0.000000
170.15600586 82.96880341 398.75000000 -0.087207 0.430497 -0.898369 0.000000
143.08599854 178.59399414 375.00000000 -0.409241 0.909576 0.072059 0.000000
152.57800293 148.71099854 355.00000000 0.061083 0.805441 0.589520 0.000000
80.15619659 169.80499268 260.00000000 -0.599550 -0.518484 0.609683 0.000000
50.97660065 196.17199707 387.50000000 0.667572 0.189634 -0.719991 0.000000
45.00000000 219.37500000 373.75000000 0.917537 -0.355953 -0.177268 0.000000
159.60899353 104.41400146 405.00000000 0.528575 0.521863 -0.669528 0.000000
127.26599884 136.05499268 325.00000000 -0.755325 0.655172 0.015301 0.000000
69.25779724 92.10939789 280.00000000 0.771371 0.617999 0.151868 0.000000
165.23399353 73.12500000 386.25000000 -0.169627 0.815110 -0.553915 0.000000
124.10199738 225.70300293 380.00000000 -0.667846 -0.628073 0.399382 0.000000
61.52339935 111.79699707 250.00000000 0.857174 0.427820 0.286747 0.000000
209.88299561 102.65599823 362.50000000 -0.772976 -0.129574 0.621062 0.000000
108.98400116 78.75000000 283.75000000 -0.326171 0.803494 0.498007 0.000000
207.42199707 76.64060211 378.75000000 -0.200439 0.794106 -0.573776 0.000000
118.82800293 144.49200439 292.50000000 -0.859778 -0.014894 0.510451 0.000000
77.34380341 205.66400146 317.50000000 -0.634050 -0.624012 0.456717 0.000000
101.95300293 241.87500000 396.25000000 -0.071646 -0.512760 -0.855537 0.000000
116.71900177 130.07800293 298.75000000 -0.785433 0.393526 0.477737 0.000000
67.85160065 172.26600647 252.50000000 -0.049848 -0.764809 0.642326 0.000000
186.32800293 125.85900116 403.75000000 -0.000978 -0.000978 -0.999999 0.000000
180.70300293 152.57800293 386.25000000 -0.962562 -0.001205 -0.271059 0.000000
64.33589935 105.46900177 355.00000000 0.864677 0.492682 0.097968 0.000000
92.10939789 139.92199707 256.25000000 -0.763803 -0.001376 0.645448 0.000000
201.79699707 137.81199646 401.25000000 0.000978 0.000978 -0.999999 0.000000
139.92199707 62.92969894 337.50000000 0.139422 0.983225 0.117599 0.000000
131.48399353 208.12500000 373.75000000 -0.756880 -0.379254 0.532258 0.000000
94.92189789 190.54699707 318.75000000 -0.435128 -0.719699 0.541015 0.000000
107.57800293 132.89100647 281.25000000 -0.901690 0.211220 0.377282 0.000000
135.70300293 134.64799500 347.50000000 -0.787878 -0.474021 0.393130 0.000000
82.96880341 111.09400177 246.25000000 -0.776391 -0.006895 0.630214 0.000000
141.32800293 62.92969894 322.50000000 -0.098475 0.981102 0.166556 0.000000
232.73399353 122.34400177 398.75000000 0.015348 0.743692 -0.668346 0.000000
85.78119659 232.38299561 355.00000000 -0.968070 -0.241081 0.068702 0.000000
185.62500000 80.85939789 343.75000000 -0.344359 -0.834952 0.429269 0.000000
92.10939789 173.32000732 285.00000000 -0.653547 -0.626939 0.424057 0.000000
132.18800354 177.89100647 398.75000000 -0.143277 -0.704321 -0.695272 0.000000
154.68800354 153.98399353 388.75000000 -0.000978 -0.000978 -0.999999 0.000000
143.43800354 63.98440170 371.25000000 0.062532 0.955846 -0.287137 0.000000
134.29699707 97.73439789 393.75000000 0.000978 0.000978 -0.999999 0.000000
52.73440170 126.91400146 295.00000000 0.971569 0.214927 -0.099294 0.000000
90.70310211 132.89100647 253.75000000 -0.774793 -0.119997 0.620723 0.000000
141.32800293 124.45300293 401.25000000 0.173395 0.282619 -0.943430 0.000000
212.34399414 105.46900177 366.25000000 -0.769522 -0.142504 0.622518 0.000000
138.51600647 168.04699707 341.25000000 -0.926825 -0.320227 0.196086 0.000000
50.27339935 153.28100586 272.50000000 0.997804 0.007314 0.065824 0.000000
113.20300293 170.85899353 306.25000000 -0.693374 -0.693374 0.196122 0.000000
194.06199646 65.39060211 366.25000000 -0.269875 0.943879 -0.190420 0.000000
214.45300293 113.20300293 368.75000000 -0.736494 0.123493 0.665076 0.000000
123.75000000 144.14100647 398.75000000 0.000978 0.000978 -0.999999 0.000000
181.40600586 84.37500000 348.75000000 0.000978 0.000978 0.999999 0.000000
91.75779724 122.34400177 255.00000000 -0.825971 0.118414 0.551135 0.000000
129.37500000 195.46899414 358.75000000 -0.673869 -0.570197 0.469869 0.000000
45.35160065 165.23399353 372.50000000 0.842564 0.177460 -0.508521 0.000000
107.22699738 104.76599884 305.00000000 -0.962562 0.001205 0.271059 0.000000
124.10199738 134.29699707 305.00000000 -0.601806 0.271527 0.751067 0.000000
220.07800293 132.18800354 381.25000000 0.000978 0.000978 0.999999 0.000000
210.93800354 97.73439789 398.75000000 -0.163215 0.477882 -0.863128 0.000000
77.69529724 130.07800293 237.50000000 -0.870127 0.045362 0.490735 0.000000
72.07029724 91.40619659 295.00000000 0.548503 0.822012 -0.153105 0.000000
82.26560211 213.04699707 333.75000000 -0.247226 -0.634600 0.732231 0.000000
84.37500000 193.35899353 311.25000000 -0.639689 -0.538419 0.548546 0.000000
96.67970276 113.90599823 262.50000000 -0.840497 0.006789 0.541774 0.000000
126.21099854 162.42199707 307.50000000 -0.742658 -0.442960 0.502241 0.000000
66.79689789 229.92199707 393.75000000 0.537628 -0.108685 -0.836148 0.000000
144.49200439 178.59399414 390.00000000 -0.964364 0.219943 -0.147062 0.000000
203.20300293 146.25000000 398.75000000 -0.026657 -0.331307 -0.943146 0.000000
85.78119659 81.21089935 287.50000000 0.340513 0.927030 0.157053 0.000000
138.16400146 208.12500000 387.50000000 -0.883088 -0.368580 0.290351 0.000000
199.68800354 122.34400177 353.75000000 -0.600373 -0.270881 0.752447 0.000000
143.78900146 165.93800354 365.00000000 -0.854037 -0.509551 -0.104781 0.000000
140.62500000 199.68800354 383.75000000 -0.939188 -0.312154 0.143127 0.000000
172.26600647 93.51560211 346.25000000 -0.364710 0.084785 0.927253 0.000000
97.73439789 71.36720276 360.00000000 -0.001279 0.921899 -0.387428 0.000000
139.92199707 100.54699707 396.25000000 0.307028 0.529743 -0.790637 0.000000
241.87500000 112.85199738 382.50000000 -0.344565 -0.081152 0.935248 0.000000
106.52300262 117.42199707 282.50000000 -0.962562 -0.001205 0.271059 0.000000
180.00000000 61.52339935 345.00000000 -0.001205 0.962562 0.271059 0.000000
89.29689789 235.54699707 361.25000000 -0.340362 -0.688868 0.640012 0.000000
110.39099884 67.85160065 337.50000000 -0.001158 0.978290 0.207235 0.000000
232.73399353 141.67999268 397.50000000 -0.284032 -0.275381 -0.918418 0.000000
149.76600647 148.35899353 356.25000000 0.152185 0.634356 0.757913 0.000000
104.06199646 237.30499268 370.00000000 -0.285077 -0.584488 0.759675 0.000000
196.17199707 149.41400146 390.00000000 0.121166 -0.912229 0.391353 0.000000
47.46089935 153.28100586 340.00000000 0.864805 0.342543 0.367120 0.000000
101.25000000 98.43750000 276.25000000 -0.962346 0.190889 0.193522 0.000000
207.77299500 87.89060211 357.50000000 -0.402788 -0.103811 0.909387 0.000000
40.07809830 177.89100647 366.25000000 0.940268 0.283047 -0.189158 0.000000
144.14100647 161.01600647 346.25000000 -0.788052 -0.555255 0.265830 0.000000
123.75000000 135.00000000 398.75000000 0.498744 0.265686 -0.825025 0.000000
144.84399414 67.50000000 376.25000000 0.057397 0.919688 -0.388431 0.000000
77.34380341 132.18800354 236.25000000 -0.896644 0.101796 0.430891 0.000000
112.50000000 209.53100586 401.25000000 -0.235408 -0.186982 -0.953740 0.000000
52.03120041 127.61699677 275.00000000 0.693374 0.693374 0.196122 0.000000
56.25000000 166.64100647 386.25000000 0.613500 0.343365 -0.711139 0.000000
170.15600586 161.01600647 366.25000000 -0.427644 -0.192513 0.883210 0.000000
106.17199707 228.86700439 365.00000000 -0.525553 -0.445974 0.724501 0.000000
230.97700500 142.03100586 387.50000000 -0.609322 -0.174743 0.773429 0.000000
152.57800293 138.16400146 365.00000000 -0.672240 0.336934 0.659218 0.000000
127.96900177 168.39799500 317.50000000 -0.704090 -0.534310 0.467729 0.000000
164.53100586 152.22700500 395.00000000 0.428764 -0.384135 -0.817681 0.000000
137.81199646 132.18800354 348.75000000 -0.812487 -0.479890 0.331013 0.000000
144.84399414 125.15599823 401.25000000 -0.000978 -0.000978 -0.999999 0.000000
215.85899353 152.22700500 390.00000000 0.116380 -0.794033 0.596630 0.000000
69.60939789 219.72700500 330.00000000 -0.491148 -0.750684 0.441869 0.000000
59.06250000 133.59399414 236.25000000 0.820075 0.118407 0.559873 0.000000
57.65620041 233.43800354 388.75000000 0.662629 -0.435633 -0.609218 0.000000
166.64100647 169.80499268 382.50000000 0.758027 -0.648710 0.067604 0.000000
126.91400146 125.85900116 397.50000000 0.276649 0.207139 -0.938381 0.000000
50.97660065 156.09399414 267.50000000 0.978847 -0.186505 0.084110 0.000000
230.62500000 111.79699707 398.75000000 -0.000978 -0.000978 -0.999999 0.000000
142.03100586 110.39099884 398.75000000 0.310951 0.275914 -0.909495 0.000000
60.11719894 189.14100647 275.00000000 0.608076 -0.608076 0.510380 0.000000
56.60160065 116.71900177 260.00000000 0.941119 0.326943 0.086038 0.000000
223.59399414 132.18800354 381.25000000 -0.000978 -0.000978 0.999999 0.000000
78.75000000 254.17999268 382.50000000 0.115237 -0.993236 -0.014267 0.000000
161.01600647 62.92969894 337.50000000 0.252223 0.950896 0.179389 0.000000
112.50000000 197.57800293 401.25000000 -0.000978 -0.000978 -0.999999 0.000000
69.96089935 92.10939789 270.00000000 0.693374 0.693374 0.196122 0.000000
163.82800293 108.28099823 346.25000000 0.086375 -0.226578 0.970155 0.000000
200.74200439 84.37500000 392.50000000 -0.149771 0.715574 -0.682292 0.000000
98.43750000 246.79699707 393.75000000 0.149466 -0.134643 -0.979557 0.000000
71.36720276 165.23399353 247.50000000 -0.460620 -0.587918 0.664967 0.000000
213.04699707 149.06199646 386.25000000 0.155743 -0.464317 0.871868 0.000000
96.32810211 95.97660065 385.00000000 0.341501 0.175669 -0.923319 0.000000
121.64099884 151.87500000 398.75000000 -0.000978 -0.000978 -0.999999 0.000000
80.15619659 253.82800293 378.75000000 0.072469 -0.959902 0.270807 0.000000
58.35940170 194.76600647 391.25000000 0.515490 0.252327 -0.818902 0.000000
204.60899353 130.78100586 361.25000000 0.459961 0.722321 -0.516418 0.000000
164.53100586 151.87500000 396.25000000 0.427054 -0.379427 -0.820768 0.000000
42.18750000 198.28100586 378.75000000 0.623352 0.113471 -0.773664 0.000000
68.20310211 179.29699707 396.25000000 0.373772 0.230126 -0.898519 0.000000
190.54699707 141.32800293 366.25000000 -0.281079 -0.852452 0.440818 0.000000
59.76559830 117.77300262 355.00000000 0.937736 0.327870 0.114687 0.000000
130.07800293 82.26560211 391.25000000 -0.000978 -0.000978 -0.999999 0.000000
58.00780106 135.70300293 237.50000000 0.851671 0.045699 0.522081 0.000000
93.51560211 181.40600586 303.75000000 -0.460538 -0.758822 0.460538 0.000000
111.09400177 179.29699707 401.25000000 -0.000978 -0.000978 -0.999999 0.000000
203.20300293 148.35899353 398.75000000 0.134467 -0.481478 -0.866082 0.000000
175.07800293 75.93750000 388.75000000 -0.069360 0.833730 -0.547799 0.000000
99.14060211 74.17970276 377.50000000 0.451994 0.833608 -0.317490 0.000000
42.53910065 201.79699707 345.00000000 0.900549 -0.239461 0.362864 0.000000
95.62500000 81.56250000 381.25000000 0.480460 0.713208 -0.510385 0.000000
219.37500000 68.55470276 355.00000000 -0.440706 0.792625 0.421335 0.000000
111.79699707 199.68800354 343.75000000 -0.243272 -0.537678 0.807292 0.000000
78.04689789 135.70300293 236.25000000 -0.900357 -0.001307 0.435151 0.000000
122.34400177 156.79699707 298.75000000 -0.453072 -0.620257 0.640319 0.000000
143.08599854 174.37500000 392.50000000 -0.935568 0.163966 -0.312775 0.000000
50.27339935 146.95300293 272.50000000 0.986701 0.081536 0.140620 0.000000
45.00000000 218.67199707 358.75000000 0.914696 -0.379606 0.138675 0.000000
219.37500000 99.84380341 396.25000000 -0.335040 0.442001 -0.832095 0.000000
63.98440170 191.25000000 393.75000000 0.253416 0.074386 -0.964493 0.000000
45.35160065 166.64100647 372.50000000 0.840575 0.090215 -0.534130 0.000000
56.60160065 116.01599884 265.00000000 0.947992 0.315147 0.044656 0.000000
123.04699707 113.55500031 395.00000000 0.326834 0.568336 -0.755098 0.000000
78.04689789 119.53099823 381.25000000 0.572833 0.401148 -0.714803 0.000000
179.29699707 105.46900177 346.25000000 0.000978 0.000978 0.999999 0.000000
144.84399414 163.82800293 356.25000000 -0.746863 -0.647281 0.152390 0.000000
62.57809830 110.39099884 318.75000000 0.923319 0.314412 -0.220515 0.000000
131.83599854 120.23400116 335.00000000 0.073679 -0.371074 0.925676 0.000000
136.40600586 165.93800354 331.25000000 -0.786598 -0.500270 0.361931 0.000000
165.23399353 82.96880341 398.75000000 0.088878 0.630890 -0.770765 0.000000
140.27299500 121.64099884 340.00000000 -0.569498 -0.280783 0.772550 0.000000
87.89060211 79.80470276 375.00000000 0.775597 0.129514 -0.617798 0.000000
142.38299561 164.53100586 385.00000000 -0.978727 -0.119718 -0.166618 0.000000
189.84399414 101.95300293 351.25000000 -0.492573 0.028496 0.869805 0.000000
169.45300293 105.46900177 406.25000000 -0.000978 -0.000978 -0.999999 0.000000
55.89839935 123.75000000 365.00000000 0.922677 0.250339 -0.293254 0.000000
206.71899414 114.60900116 358.75000000 -0.704089 0.023891 0.709710 0.000000
103.35900116 75.23439789 293.75000000 0.103913 0.985386 0.134968 0.000000
95.62500000 130.78100586 258.75000000 -0.781306 -0.070505 0.620153 0.000000
52.38280106 137.81199646 342.50000000 0.921355 0.378583 0.088200 0.000000
56.95309830 120.93800354 311.25000000 0.953951 0.279493 -0.108910 0.000000
124.45300293 214.45300293 398.75000000 -0.305282 -0.115980 -0.945173 0.000000
90.00000000 135.70300293 253.75000000 -0.789691 -0.038006 0.612327 0.000000
83.67189789 160.31199646 256.25000000 -0.662495 -0.336945 0.669006 0.000000
56.25000000 119.53099823 256.25000000 0.911905 0.365048 0.187535 0.000000
53.78910065 182.10899353 387.50000000 0.873484 -0.025731 -0.486172 0.000000
41.48440170 161.71899414 363.75000000 0.944327 0.294002 -0.147678 0.000000
101.25000000 74.88279724 297.50000000 0.136835 0.980037 0.144232 0.000000
175.07800293 159.60899353 368.75000000 -0.553228 -0.690281 0.466316 0.000000
118.82800293 184.92199707 331.25000000 -0.361570 -0.766917 0.530194 0.000000
61.52339935 110.39099884 360.00000000 0.933568 0.312114 0.176171 0.000000
96.32810211 243.98399353 371.25000000 -0.494619 -0.538213 0.682407 0.000000
134.64799500 213.04699707 395.00000000 -0.799069 -0.400339 -0.448572 0.000000
155.03900146 101.25000000 357.50000000 -0.549553 0.657111 0.515942 0.000000
175.78100586 104.76599884 346.25000000 0.000978 0.000978 0.999999 0.000000
77.34380341 137.81199646 236.25000000 -0.759546 -0.277496 0.588291 0.000000
99.84380341 154.33599854 272.50000000 -0.813898 -0.374297 0.444379 0.000000
78.04689789 245.74200439 365.00000000 0.001376 -0.763803 0.645448 0.000000
67.50000000 243.98399353 388.75000000 0.535713 -0.449468 -0.714836 0.000000
181.40600586 152.57800293 366.25000000 -0.662629 -0.609218 0.435633 0.000000
233.08599854 144.84399414 390.00000000 -0.627930 -0.347400 0.696432 0.000000
78.75000000 198.63299561 310.00000000 -0.357880 -0.812785 0.459677 0.000000
97.03119659 170.85899353 398.75000000 0.201039 -0.022338 -0.979329 0.000000
117.42199707 179.29699707 401.25000000 -0.248719 0.277144 -0.928078 0.000000
174.37500000 129.37500000 353.75000000 0.647709 -0.489567 0.583779 0.000000
168.75000000 101.25000000 343.75000000 -0.162361 -0.012489 0.986652 0.000000
45.70309830 217.61700439 377.50000000 0.880537 -0.363996 -0.303581 0.000000
117.42199707 190.54699707 338.75000000 -0.347413 -0.547782 0.761078 0.000000
213.75000000 77.34380341 351.25000000 -0.457156 -0.496765 0.737721 0.000000
84.37500000 242.57800293 393.75000000 0.231711 -0.426050 -0.874523 0.000000
66.79689789 223.59399414 333.75000000 -0.187433 -0.787829 0.586681 0.000000
59.06250000 139.21899414 236.25000000 0.745103 -0.023855 0.666523 0.000000
120.93800354 110.03900146 325.00000000 -0.648518 -0.326697 0.687527 0.000000
140.62500000 99.14060211 396.25000000 0.296826 0.538096 -0.788890 0.000000
68.90619659 138.51600647 383.75000000 0.414936 0.480024 -0.772920 0.000000
47.46089935 206.71899414 385.00000000 0.867916 -0.433203 -0.243016 0.000000
77.34380341 85.42970276 295.00000000 0.708486 0.705724 0.001381 0.000000
104.06199646 242.57800293 393.75000000 -0.071646 -0.512760 -0.855537 0.000000
163.12500000 64.33589935 370.00000000 -0.039286 0.884617 -0.464661 0.000000
48.16410065 157.50000000 325.00000000 0.982049 0.173867 0.073144 0.000000
78.04689789 138.86700439 237.50000000 -0.759546 -0.277496 0.588291 0.000000
42.89059830 159.60899353 348.75000000 0.850754 0.120294 0.511612 0.000000
46.75780106 194.06199646 325.00000000 0.967056 -0.156645 0.200661 0.000000
204.60899353 130.07800293 401.25000000 -0.000978 -0.000978 -0.999999 0.000000
73.12500000 209.53100586 316.25000000 -0.632390 -0.507599 0.585172 0.000000
211.64100647 153.63299561 392.50000000 0.126482 -0.934332 0.333204 0.000000
119.18000031 129.37500000 307.50000000 -0.300975 0.905862 0.298039 0.000000
127.26599884 64.33589935 327.50000000 0.000978 0.999999 0.000978 0.000000
178.59399414 120.93800354 348.75000000 0.148363 -0.606939 0.780778 0.000000
65.39060211 101.25000000 308.75000000 0.763418 0.636917 -0.107379 0.000000
53.43750000 237.65600586 371.25000000 0.749730 -0.656920 0.079758 0.000000
89.29689789 92.10939789 256.25000000 -0.499351 0.721653 0.479443 0.000000
92.10939789 199.68800354 401.25000000 -0.000978 -0.000978 -0.999999 0.000000
85.07810211 158.20300293 396.25000000 0.057095 0.212587 -0.975473 0.000000
206.01600647 113.90599823 401.25000000 -0.000978 -0.000978 -0.999999 0.000000
69.60939789 127.96900177 378.75000000 0.341876 0.382097 -0.858558 0.000000
201.79699707 120.93800354 403.75000000 -0.362844 0.128306 -0.922975 0.000000
104.76599884 103.71099854 292.50000000 -0.938084 0.266232 0.221628 0.000000
72.42189789 139.92199707 386.25000000 0.411724 0.513425 -0.752913 0.000000
189.14100647 147.65600586 386.25000000 0.152584 -0.956638 0.248116 0.000000
61.17190170 222.18800354 331.25000000 0.219208 -0.875341 0.430960 0.000000
181.05499268 150.46899414 385.00000000 -0.985554 -0.118554 -0.120949 0.000000
75.93750000 253.47700500 382.50000000 0.591658 -0.799104 -0.106645 0.000000
59.76559830 196.87500000 393.75000000 0.254240 0.274125 -0.927479 0.000000
190.54699707 63.28120041 358.75000000 0.001205 0.962562 -0.271059 0.000000
127.61699677 208.82800293 397.50000000 -0.488806 0.001332 -0.872392 0.000000
116.71900177 71.36720276 297.50000000 -0.001376 0.763803 0.645448 0.000000
85.78119659 196.87500000 316.25000000 -0.584169 -0.631307 0.510096 0.000000
59.06250000 141.32800293 236.25000000 0.659220 -0.248196 0.709808 0.000000
221.48399353 114.60900116 398.75000000 -0.482892 -0.085879 -0.871459 0.000000
170.50799561 170.85899353 382.50000000 -0.065344 -0.954536 -0.290845 0.000000
98.08589935 154.68800354 270.00000000 -0.687954 -0.480396 0.544003 0.000000
53.43750000 199.68800354 391.25000000 0.524511 0.208284 -0.825534 0.000000
74.53119659 141.32800293 236.25000000 -0.726771 -0.285917 0.624544 0.000000
90.70310211 74.53119659 358.75000000 0.446363 0.879640 0.164296 0.000000
85.78119659 102.65599823 248.75000000 -0.786307 -0.070437 0.613808 0.000000
50.27339935 163.12500000 290.00000000 0.999999 -0.000978 -0.000978 0.000000
113.20300293 153.98399353 398.75000000 -0.000978 -0.000978 -0.999999 0.000000
121.64099884 214.45300293 398.75000000 -0.000978 -0.000978 -0.999999 0.000000
104.76599884 188.43800354 401.25000000 -0.000978 -0.000978 -0.999999 0.000000
87.18750000 201.79699707 323.75000000 -0.486857 -0.680931 0.547087 0.000000
43.94530106 195.46899414 380.00000000 0.780414 0.342738 -0.522958 0.000000
203.20300293 131.48399353 401.25000000 -0.000978 -0.000978 -0.999999 0.000000
93.16410065 92.10939789 260.00000000 -0.718006 0.026697 0.695525 0.000000
127.96900177 180.70300293 333.75000000 -0.568265 -0.704118 0.425784 0.000000
116.01599884 68.90619659 381.25000000 -0.001330 0.871255 -0.490829 0.000000
104.76599884 215.85899353 401.25000000 -0.000978 -0.000978 -0.999999 0.000000
144.14100647 78.75000000 393.75000000 0.314726 0.158050 -0.935932 0.000000
242.57800293 125.15599823 398.75000000 -0.515092 0.294563 -0.804930 0.000000
138.51600647 122.34400177 338.75000000 -0.628278 -0.268808 0.730075 0.000000
144.84399414 179.29699707 388.75000000 -0.968734 0.174140 -0.176720 0.000000
214.45300293 72.07029724 372.50000000 -0.264974 0.791786 -0.550330 0.000000
58.00780106 142.73399353 237.50000000 0.659220 -0.248196 0.709808 0.000000
67.50000000 100.89800262 370.00000000 0.743258 0.250909 -0.620171 0.000000
115.31199646 78.04689789 388.75000000 0.377681 0.244382 -0.893104 0.000000
104.06199646 218.67199707 356.25000000 -0.545600 -0.726917 0.417029 0.000000
107.22699738 111.79699707 287.50000000 -0.969988 0.162732 0.180671 0.000000
77.34380341 228.51600647 343.75000000 -0.376714 0.260573 0.888925 0.000000
123.04699707 82.26560211 391.25000000 0.315348 0.243350 -0.917244 0.000000
90.70310211 86.48439789 381.25000000 0.506097 0.348644 -0.788868 0.000000
125.85900116 65.74220276 315.00000000 0.000978 0.999999 0.000978 0.000000
72.77339935 94.92189789 332.50000000 0.797171 0.599667 -0.070128 0.000000
76.28910065 142.73399353 237.50000000 -0.726771 -0.285917 0.624544 0.000000
127.26599884 128.67199707 333.75000000 -0.701783 -0.290670 0.650394 0.000000
110.39099884 164.53100586 293.75000000 -0.527967 -0.605560 0.595439 0.000000
144.14100647 111.79699707 338.75000000 -0.715262 -0.223813 0.662048 0.000000
129.37500000 64.33589935 357.50000000 0.196105 0.980527 -0.010443 0.000000
180.70300293 147.65600586 361.25000000 -0.346535 -0.346535 0.871681 0.000000
142.38299561 159.60899353 337.50000000 -0.826122 -0.464202 0.319434 0.000000
145.19500732 183.51600647 390.00000000 -0.987915 0.030837 -0.151899 0.000000
112.50000000 91.40619659 293.75000000 -0.073790 -0.878517 0.471977 0.000000
124.45300293 118.82800293 396.25000000 0.062133 0.100542 -0.992991 0.000000
75.23439789 218.67199707 333.75000000 -0.398003 -0.688660 0.606087 0.000000
137.10899353 149.06199646 331.25000000 -0.883227 0.466790 0.044910 0.000000
165.93800354 104.06199646 343.75000000 0.142233 -0.267184 0.953091 0.000000
106.17199707 176.48399353 308.75000000 -0.464636 -0.788423 0.403116 0.000000
90.00000000 82.61720276 270.00000000 0.209583 0.946548 0.245198 0.000000
76.64060211 234.14100647 351.25000000 -0.251335 -0.728713 0.637031 0.000000
122.34400177 230.27299500 385.00000000 -0.669051 -0.642749 0.373156 0.000000
71.01560211 97.38279724 335.00000000 0.803949 0.593491 -0.037882 0.000000
197.92999268 113.20300293 352.50000000 -0.602308 -0.100628 0.791896 0.000000
58.35940170 239.41400146 382.50000000 0.768138 -0.542689 -0.339784 0.000000
62.57809830 247.85200500 375.00000000 0.433203 -0.867916 -0.243016 0.000000
74.53119659 90.00000000 306.25000000 0.693374 0.693374 -0.196122 0.000000
84.02339935 167.34399414 262.50000000 -0.708687 -0.590298 0.386407 0.000000
78.75000000 89.29689789 261.25000000 0.326524 0.912815 0.245256 0.000000
120.93800354 101.25000000 391.25000000 0.279262 0.070134 -0.957650 0.000000
87.89060211 158.20300293 396.25000000 0.081008 0.225577 -0.970852 0.000000
71.01560211 204.60899353 396.25000000 -0.000978 -0.000978 -0.999999 0.000000
126.56199646 113.20300293 396.25000000 0.314356 0.494440 -0.810376 0.000000
127.96900177 149.76600647 398.75000000 0.000978 0.000978 -0.999999 0.000000
59.06250000 162.77299500 387.50000000 0.583600 0.281464 -0.761701 0.000000
227.81199646 103.71099854 395.00000000 -0.292558 0.489683 -0.821353 0.000000
146.95300293 81.56250000 318.75000000 -0.699059 -0.566221 0.436704 0.000000
108.98400116 161.01600647 398.75000000 -0.000978 -0.000978 -0.999999 0.000000
118.82800293 141.67999268 397.50000000 0.439626 0.216087 -0.871800 0.000000
54.84379959 196.17199707 391.25000000 0.464616 0.287471 -0.837551 0.000000
156.09399414 92.10939789 401.25000000 -0.000978 -0.000978 -0.999999 0.000000
95.27339935 117.42199707 260.00000000 -0.829912 0.023397 0.557404 0.000000
108.98400116 115.31199646 291.25000000 -0.956627 0.220144 0.190792 0.000000
201.09399414 67.50000000 368.75000000 -0.100720 0.953565 -0.283846 0.000000
102.30500031 151.87500000 275.00000000 -0.797218 -0.316659 0.513975 0.000000
169.45300293 62.92969894 327.50000000 -0.000978 0.999999 -0.000978 0.000000
90.00000000 135.70300293 391.25000000 0.548896 0.545519 -0.633342 0.000000
53.43750000 165.23399353 383.75000000 0.209348 0.733494 -0.646653 0.000000
146.95300293 151.52299500 352.50000000 -0.031768 0.835646 0.548349 0.000000
113.20300293 96.32810211 303.75000000 -0.179871 -0.851786 0.492044 0.000000
51.32809830 135.00000000 363.75000000 0.971820 0.227867 0.060354 0.000000
205.66400146 115.31199646 357.50000000 -0.704089 0.023891 0.709710 0.000000
61.17190170 145.54699707 236.25000000 0.524717 -0.142570 0.839253 0.000000
104.76599884 95.62500000 388.75000000 0.329408 0.264991 -0.906239 0.000000
116.71900177 210.58599854 400.00000000 -0.308634 -0.262266 -0.914309 0.000000
101.25000000 208.12500000 401.25000000 -0.000978 -0.000978 -0.999999 0.000000
178.59399414 125.85900116 351.25000000 -0.050861 -0.350812 0.935064 0.000000
74.53119659 145.54699707 236.25000000 -0.578659 0.001362 0.815569 0.000000
181.40600586 71.01560211 378.75000000 0.501575 0.501575 -0.704872 0.000000
149.76600647 158.90600586 378.75000000 -0.477406 -0.858142 -0.188880 0.000000
142.38299561 163.12500000 345.00000000 -0.768844 -0.582553 0.263649 0.000000
99.14060211 151.87500000 268.75000000 -0.765835 -0.375601 0.521939 0.000000
99.14060211 116.01599884 388.75000000 0.509042 0.227769 -0.830059 0.000000
128.32000732 171.56199646 322.50000000 -0.734181 -0.532900 0.420710 0.000000
94.92189789 120.23400116 388.75000000 0.251889 -0.038090 -0.967006 0.000000
63.98440170 206.01600647 303.75000000 -0.001205 -0.962562 0.271059 0.000000
60.11719894 118.82800293 325.00000000 0.944869 0.190068 -0.266642 0.000000
105.46900177 132.18800354 276.25000000 -0.876276 0.031150 0.480801 0.000000
91.40619659 76.99220276 317.50000000 -0.000978 -0.000978 -0.999999 0.000000
149.06199646 158.20300293 383.75000000 0.001104 -0.990125 -0.140185 0.000000
166.28900146 132.89100647 360.00000000 -0.837352 -0.394325 -0.378615 0.000000
126.56199646 93.16410065 300.00000000 -0.466284 -0.718509 0.516065 0.000000
73.82810211 114.60900116 376.25000000 0.405204 0.330684 -0.852325 0.000000
172.96899414 121.64099884 348.75000000 0.240476 -0.443141 0.863596 0.000000
142.73399353 111.79699707 336.25000000 -0.552445 -0.407325 0.727249 0.000000
215.15600586 116.01599884 401.25000000 -0.000978 -0.000978 -0.999999 0.000000
194.06199646 96.32810211 401.25000000 -0.586840 0.221420 -0.778840 0.000000
210.93800354 88.24220276 392.50000000 -0.055937 0.727186 -0.684157 0.000000
97.73439789 152.57800293 396.25000000 -0.105065 0.181701 -0.977725 0.000000
82.96880341 186.32800293 398.75000000 -0.000978 -0.000978 -0.999999 0.000000
67.14839935 103.35900116 335.00000000 -0.000978 -0.000978 -0.999999 0.000000
104.06199646 117.42199707 276.25000000 -0.950273 -0.055144 0.306498 0.000000
101.25000000 182.10899353 401.25000000 -0.000978 -0.000978 -0.999999 0.000000
90.00000000 148.35899353 256.25000000 -0.999999 0.000978 0.000978 0.000000
136.05499268 153.28100586 322.50000000 -0.921754 -0.122625 0.367875 0.000000
187.73399353 87.18750000 398.75000000 -0.029359 0.193773 -0.980607 0.000000
113.20300293 92.10939789 296.25000000 0.001205 -0.962562 0.271059 0.000000
60.82030106 112.50000000 315.00000000 0.925266 0.154443 -0.346453 0.000000
176.48399353 84.37500000 343.75000000 -0.663504 -0.676482 0.319585 0.000000
207.77299500 140.62500000 375.00000000 -0.394975 -0.636258 0.662699 0.000000
70.31250000 224.29699707 336.25000000 -0.209260 -0.754885 0.621578 0.000000
111.79699707 162.42199707 293.75000000 -0.562036 -0.616045 0.551909 0.000000
140.62500000 117.42199707 338.75000000 -0.548510 -0.351111 0.758853 0.000000
79.45310211 91.40619659 373.75000000 0.406477 -0.830352 0.381171 0.000000
138.51600647 110.39099884 396.25000000 0.378685 0.719665 -0.581962 0.000000
94.92189789 244.68800354 393.75000000 0.152694 -0.360021 -0.920364 0.000000
238.35899353 111.79699707 393.75000000 -0.498112 0.384536 -0.777185 0.000000
87.53910065 210.93800354 335.00000000 -0.568852 -0.548596 0.612740 0.000000
198.98399353 77.34380341 343.75000000 -0.315389 -0.625926 0.713265 0.000000
82.96880341 79.80470276 355.00000000 0.693374 0.693374 0.196122 0.000000
124.45300293 99.84380341 308.75000000 -0.121987 -0.927921 0.352253 0.000000
90.70310211 76.99220276 317.50000000 -0.000978 -0.000978 -0.999999 0.000000
148.35899353 62.92969894 367.50000000 -0.039320 0.978233 -0.203749 0.000000
99.14060211 163.12500000 398.75000000 0.000978 0.000978 -0.999999 0.000000
81.56250000 88.24220276 260.00000000 0.266417 0.931756 0.246683 0.000000
96.32810211 243.98399353 393.75000000 0.199480 -0.360212 -0.911293 0.000000
163.12500000 99.84380341 343.75000000 -0.721958 0.386470 0.573949 0.000000
97.73439789 231.32800293 398.75000000 -0.000978 -0.000978 -0.999999 0.000000
229.57000732 82.96880341 377.50000000 -0.351393 0.935760 0.029605 0.000000
60.46879959 168.75000000 391.25000000 0.509765 0.001338 -0.860313 0.000000
191.25000000 124.45300293 351.25000000 -0.641016 0.046904 0.766093 0.000000
38.32030106 198.28100586 362.50000000 0.949634 -0.294532 0.106982 0.000000
120.23400116 99.84380341 311.25000000 0.250301 -0.836895 0.486781 0.000000
51.67969894 128.67199707 272.50000000 0.942012 0.323693 0.088520 0.000000
193.35899353 116.71900177 403.75000000 0.000978 0.000978 -0.999999 0.000000
187.03100586 112.50000000 346.25000000 -0.155711 0.191744 0.969014 0.000000
39.72660065 201.79699707 360.00000000 0.949634 -0.294532 0.106982 0.000000
75.93750000 94.92189789 246.25000000 0.058912 0.936041 0.346924 0.000000
179.29699707 122.34400177 348.75000000 0.119285 -0.596423 0.793758 0.000000
232.73399353 117.42199707 381.25000000 -0.000978 -0.000978 0.999999 0.000000
214.45300293 144.84399414 383.75000000 0.862391 -0.012146 0.506098 0.000000
125.85900116 229.92199707 393.75000000 -0.649067 -0.619033 -0.442166 0.000000
147.65600586 105.81999969 340.00000000 -0.640126 -0.439564 0.630097 0.000000
60.46879959 118.82800293 368.75000000 0.564428 0.109385 -0.818202 0.000000
207.77299500 73.82810211 345.00000000 -0.199566 -0.552997 0.808930 0.000000
149.06199646 137.81199646 361.25000000 -0.776143 -0.211395 0.594066 0.000000
92.10939789 81.21089935 277.50000000 0.587236 0.794496 -0.154694 0.000000
124.10199738 177.18800354 325.00000000 -0.481664 -0.765765 0.426150 0.000000
127.96900177 116.71900177 331.25000000 -0.536015 -0.324809 0.779222 0.000000
52.73440170 149.06199646 253.75000000 0.952567 -0.285113 -0.106425 0.000000
135.70300293 151.17199707 321.25000000 -0.918403 0.065696 0.390154 0.000000
68.20310211 232.03100586 393.75000000 0.203860 -0.307899 -0.929322 0.000000
49.57030106 173.67199707 300.00000000 0.985274 -0.164797 0.045582 0.000000
56.25000000 170.85899353 388.75000000 0.589507 0.426770 -0.685820 0.000000
47.10940170 161.36700439 330.00000000 0.944972 0.209841 0.250987 0.000000
233.78900146 128.67199707 400.00000000 -0.589606 0.207824 -0.780496 0.000000
124.45300293 155.39100647 398.75000000 -0.000978 -0.000978 -0.999999 0.000000
49.57030106 145.54699707 277.50000000 0.983373 0.082646 0.161700 0.000000
122.34400177 147.65600586 298.75000000 -0.658339 -0.152856 0.737037 0.000000
127.26599884 82.26560211 291.25000000 0.439521 -0.439521 0.783353 0.000000
53.43750000 156.79699707 378.75000000 0.501896 0.333004 -0.798254 0.000000
121.28900146 129.37500000 317.50000000 -0.770986 0.636169 0.029491 0.000000
135.35200500 172.26600647 335.00000000 -0.801250 -0.396611 0.447994 0.000000
157.50000000 73.47660065 387.50000000 0.083922 0.843485 -0.530556 0.000000
143.43800354 62.92969894 367.50000000 -0.001205 0.962562 -0.271059 0.000000
144.14100647 140.62500000 401.25000000 -0.000978 -0.000978 -0.999999 0.000000
240.11700439 94.92189789 380.00000000 -0.743117 0.656395 0.130083 0.000000
