61.04880142 211.85200500 140.00000000 -0.699902 -0.021039 0.713929 0.000000
209.42599487 165.76199341 241.50000000 -0.259121 -0.573206 -0.777362 0.000000
139.07800293 160.10200500 211.50000000 -0.100812 0.200380 0.974518 0.000000
57.41019821 281.79501343 216.00000000 0.831211 -0.529766 -0.168630 0.000000
184.35899353 75.60350037 237.00000000 -0.200927 0.575173 -0.792972 0.000000
197.29699707 106.73400116 251.50000000 -0.317474 0.534441 -0.783315 0.000000
33.55659866 207.80900574 148.00000000 0.973487 -0.178494 0.143048 0.000000
64.68750000 211.04299927 146.50000000 -0.753843 -0.006916 0.657019 0.000000
198.10499573 174.25199890 191.00000000 -0.969364 -0.198483 0.144700 0.000000
162.52699280 71.96479797 231.50000000 0.476524 0.725578 -0.496448 0.000000
68.73049927 133.41799927 181.50000000 -0.807895 0.573680 0.134896 0.000000
75.19920349 273.30499268 248.50000000 0.299172 -0.747129 -0.593544 0.000000
172.22999573 75.19920349 236.50000000 -0.219696 0.489392 -0.843937 0.000000
36.38669968 166.97500610 182.00000000 0.972139 0.223580 -0.070409 0.000000
68.32620239 257.94100952 147.00000000 -0.880819 0.189692 0.433792 0.000000
101.07399750 158.08000183 207.00000000 -0.216898 0.094031 0.971655 0.000000
185.97700500 108.35199738 253.50000000 -0.015525 0.046576 -0.998794 0.000000
63.07030106 283.41198730 205.00000000 0.500333 -0.857920 0.116792 0.000000
253.08999634 148.78100586 243.50000000 -0.233836 -0.217427 -0.947653 0.000000
101.88300323 192.44500732 174.50000000 -0.101133 0.497119 0.861768 0.000000
29.10939980 239.74800110 195.00000000 0.841884 -0.359016 0.402913 0.000000
114.81999969 246.62100220 171.50000000 -0.223451 -0.150274 0.963061 0.000000
47.70700073 200.53100586 271.50000000 0.741246 -0.152476 -0.653686 0.000000
223.17199707 115.62899780 251.50000000 -0.128013 0.270543 -0.954159 0.000000
135.03500366 139.88699341 253.50000000 -0.000978 -0.000978 -0.999999 0.000000
150.39799500 276.13500977 201.00000000 -0.766933 -0.635957 -0.085862 0.000000
79.24220276 138.67399597 211.00000000 -0.570359 0.496330 0.654483 0.000000
203.76600647 134.22700500 196.50000000 0.328493 -0.120312 -0.936812 0.000000
34.36520004 160.91000366 164.00000000 0.974677 -0.037349 -0.220477 0.000000
31.13089943 203.76600647 221.00000000 0.912383 -0.260473 0.315769 0.000000
139.88699341 158.48399353 253.50000000 -0.066243 -0.090944 -0.993650 0.000000
171.42199707 145.14300537 209.00000000 -0.678272 0.675065 0.290230 0.000000
112.39499664 218.72500610 170.00000000 -0.317437 0.085616 0.944407 0.000000
124.52300262 187.99800110 198.00000000 -0.159386 0.929985 -0.331246 0.000000
232.06599426 129.37500000 221.50000000 0.644292 -0.162210 -0.747379 0.000000
67.11329651 282.60400391 158.00000000 0.561570 -0.766359 0.311983 0.000000
165.35699463 242.57800293 214.00000000 -0.858558 -0.341876 0.382097 0.000000
125.73600006 218.32000732 274.00000000 -0.540586 -0.307767 -0.782973 0.000000
242.57800293 147.97300720 223.50000000 0.627411 -0.023755 -0.778326 0.000000
165.35699463 195.67999268 222.00000000 -0.808654 -0.586450 -0.046410 0.000000
34.76950073 159.29299927 168.50000000 0.973141 0.101447 -0.206652 0.000000
41.64260101 160.91000366 199.00000000 0.950511 0.303080 -0.068354 0.000000
258.75000000 160.91000366 238.50000000 0.942497 -0.003755 -0.334192 0.000000
47.30270004 194.06199646 129.00000000 -0.481460 0.588824 0.649216 0.000000
34.36520004 174.65600586 231.00000000 0.960965 0.194308 0.196952 0.000000
35.17380142 182.74200439 207.00000000 0.934752 0.349378 -0.064602 0.000000
159.29299927 174.65600586 253.50000000 -0.000978 -0.000978 -0.999999 0.000000
135.03500366 217.10699463 268.00000000 -0.449148 -0.397633 -0.800096 0.000000
53.36719894 271.28298950 187.00000000 0.710289 -0.689177 0.143264 0.000000
189.21099854 104.71299744 250.00000000 -0.202425 0.294563 -0.933947 0.000000
257.13299561 150.39799500 236.50000000 0.824493 -0.494072 -0.275870 0.000000
135.84399414 276.53900146 178.50000000 0.903258 0.098512 0.417636 0.000000
50.13280106 248.23800659 253.50000000 0.580322 -0.411682 -0.702669 0.000000
238.53500366 179.10400391 231.00000000 -0.150417 0.811657 -0.564436 0.000000
59.02730179 279.77301025 196.50000000 0.636921 -0.770716 -0.018118 0.000000
86.51950073 194.87100220 173.50000000 -0.045502 0.500517 0.864530 0.000000
57.41019821 247.02499390 262.00000000 0.628960 -0.544649 -0.554767 0.000000
119.26799774 146.35499573 251.00000000 0.582909 -0.397963 -0.708408 0.000000
97.83979797 291.09399414 208.50000000 0.178496 -0.868876 -0.461729 0.000000
32.74800110 203.76600647 152.00000000 0.987525 -0.064277 0.143746 0.000000
116.03299713 277.34799194 170.00000000 -0.583701 0.259597 0.769352 0.000000
233.27900696 125.33200073 222.00000000 0.712942 -0.146206 -0.685811 0.000000
159.29299927 79.24220276 238.50000000 0.355830 0.355830 -0.864159 0.000000
36.79100037 157.67599487 175.00000000 0.964400 0.069155 -0.255245 0.000000
69.94339752 278.15600586 237.00000000 0.260442 -0.839887 -0.476193 0.000000
171.42199707 142.31199646 218.50000000 -0.413715 -0.780381 0.468877 0.000000
238.53500366 151.61099243 246.00000000 -0.342557 -0.321430 -0.882801 0.000000
63.87889862 185.16799927 156.50000000 -0.569967 0.370724 0.733281 0.000000
192.04100037 195.67999268 226.00000000 0.458484 -0.561852 -0.688560 0.000000
223.17199707 97.83979797 221.50000000 0.569421 -0.244929 -0.784709 0.000000
196.08399963 185.16799927 219.00000000 -0.965696 -0.001197 -0.259673 0.000000
95.41410065 183.55099487 183.50000000 -0.018654 0.953848 0.299710 0.000000
47.70700073 204.16999817 129.00000000 -0.619857 0.040947 0.783646 0.000000
69.53910065 279.36898804 236.00000000 0.197466 -0.836592 -0.511000 0.000000
179.50799561 162.93200684 201.00000000 -0.827046 0.550880 -0.111920 0.000000
31.13089943 208.61700439 171.00000000 0.991702 0.032496 0.124383 0.000000
64.68750000 283.41198730 220.00000000 0.423064 -0.815796 -0.394328 0.000000
193.25399780 184.35899353 226.50000000 -0.919196 -0.068437 -0.387807 0.000000
102.69100189 120.88500214 220.00000000 -0.694716 0.694716 0.186387 0.000000
44.87699890 145.54699707 242.00000000 0.810365 0.519945 0.270122 0.000000
129.37500000 169.80499268 208.50000000 0.116327 0.223706 0.967690 0.000000
86.92379761 297.56201172 184.00000000 0.216988 -0.961320 -0.169645 0.000000
173.03900146 174.25199890 179.00000000 -0.139620 0.671075 0.728124 0.000000
57.41019821 246.62100220 134.50000000 -0.613609 -0.135860 0.777835 0.000000
198.50999451 172.22999573 191.00000000 -0.969364 -0.198483 0.144700 0.000000
189.21099854 110.77700043 253.50000000 -0.021827 0.042615 -0.998853 0.000000
105.92600250 297.96701050 172.00000000 -0.278846 -0.878743 0.387370 0.000000
104.30899811 279.77301025 233.50000000 -0.212813 -0.809915 -0.546578 0.000000
39.62110138 216.70300293 258.50000000 0.826064 -0.057895 -0.560594 0.000000
89.75389862 296.35000610 191.00000000 0.092810 -0.988013 -0.123355 0.000000
67.11329651 283.81600952 161.50000000 0.999999 -0.000978 -0.000978 0.000000
185.97700500 91.37110138 203.50000000 0.483135 -0.059527 -0.873520 0.000000
250.25999451 121.28900146 240.00000000 0.842670 0.354891 -0.404919 0.000000
116.43800354 298.77499390 187.00000000 -0.120473 -0.991934 -0.039407 0.000000
153.63299561 161.71899414 213.50000000 0.000978 0.000978 0.999999 0.000000
56.60160065 275.32598877 190.00000000 0.744936 -0.647837 0.159304 0.000000
46.89839935 253.49400330 152.00000000 0.865495 -0.399813 0.301774 0.000000
36.38669968 161.31399536 174.00000000 0.953565 0.073351 -0.292118 0.000000
129.37500000 132.60899353 208.50000000 0.040357 0.081804 0.995831 0.000000
214.68200684 160.91000366 209.00000000 0.324388 0.592291 -0.737539 0.000000
207.80900574 135.03500366 198.50000000 0.711589 -0.172924 -0.680983 0.000000
128.56599426 293.51998901 198.50000000 -0.356793 -0.834614 -0.419665 0.000000
40.02539825 164.95300293 198.00000000 0.929705 0.368035 -0.014106 0.000000
94.60549927 188.40199280 177.50000000 0.110312 0.420305 0.900653 0.000000
35.17380142 172.22999573 184.00000000 0.957096 0.267674 -0.110987 0.000000
35.98239899 188.40199280 254.00000000 0.848884 0.180518 -0.496799 0.000000
35.57809830 233.68400574 166.50000000 0.943123 -0.247173 0.222317 0.000000
194.87100220 68.32620239 231.00000000 -0.084139 0.426213 -0.900702 0.000000
67.92189789 237.72700500 273.50000000 0.543519 -0.247621 -0.802042 0.000000
33.15230179 257.53698730 209.00000000 0.918050 -0.395688 -0.024812 0.000000
48.11130142 216.70300293 129.00000000 -0.302800 0.484794 0.820541 0.000000
109.16000366 195.67999268 173.50000000 0.004064 0.540548 0.841304 0.000000
88.54100037 250.66400146 162.00000000 -0.277368 -0.062060 0.958757 0.000000
36.79100037 153.63299561 140.00000000 -0.562676 0.721084 0.404269 0.000000
191.63699341 99.45700073 206.50000000 0.534260 -0.117916 -0.837056 0.000000
119.67199707 250.66400146 173.50000000 -0.448006 -0.061652 0.891902 0.000000
214.27699280 80.05079651 233.50000000 -0.736855 0.515963 -0.436838 0.000000
29.91799927 166.57000732 146.50000000 0.888599 -0.223259 -0.400683 0.000000
87.32810211 186.78500366 178.50000000 -0.290212 0.684644 0.668610 0.000000
179.50799561 120.48000336 199.50000000 0.000978 0.000978 -0.999999 0.000000
254.70700073 139.88699341 238.50000000 0.831911 -0.546437 -0.096600 0.000000
156.86700439 231.25799561 183.50000000 -0.074197 0.029034 0.996821 0.000000
40.02539825 244.19500732 160.00000000 0.917051 -0.381990 0.114459 0.000000
89.75389862 101.88300323 221.50000000 0.241796 -0.060759 -0.968423 0.000000
180.31599426 153.63299561 213.50000000 -0.635142 0.564383 -0.527319 0.000000
26.27930069 229.64100647 209.00000000 0.951418 0.098152 0.291838 0.000000
143.92999268 92.58399963 244.00000000 0.328360 0.490161 -0.807417 0.000000
115.62899780 169.80499268 211.50000000 -0.018115 -0.653549 0.756667 0.000000
67.51760101 288.66799927 172.00000000 0.612423 -0.787400 0.070278 0.000000
100.26599884 175.06100464 188.00000000 -0.098847 0.522889 0.846650 0.000000
205.38299561 144.73800659 198.50000000 0.481875 0.192452 -0.854844 0.000000
182.74200439 191.23199463 212.00000000 0.318874 -0.943390 0.091296 0.000000
156.86700439 156.86700439 253.50000000 -0.000978 -0.000978 -0.999999 0.000000
133.82200623 219.93800354 267.00000000 -0.449148 -0.397633 -0.800096 0.000000
121.28900146 176.27299500 184.50000000 -0.104824 0.988176 -0.111891 0.000000
96.22270203 152.82400513 278.50000000 -0.102630 0.318554 -0.942333 0.000000
90.56250000 249.85499573 271.50000000 -0.159181 -0.729201 -0.665528 0.000000
32.34379959 184.35899353 228.50000000 0.990340 0.137640 0.016785 0.000000
66.30470276 249.04699707 266.50000000 0.549973 -0.414544 -0.725040 0.000000
171.01800537 114.81999969 201.00000000 -0.109764 -0.109764 -0.987878 0.000000
77.62500000 294.73199463 170.00000000 0.428336 -0.901545 0.061191 0.000000
245.40800476 175.46499634 227.00000000 0.406430 0.461485 -0.788572 0.000000
31.93950081 181.93400574 232.00000000 0.927912 0.290415 0.233749 0.000000
59.02730179 130.18400574 171.50000000 -0.606579 0.343132 0.717162 0.000000
40.42969894 173.84800720 266.50000000 0.865466 -0.172504 -0.470330 0.000000
49.32419968 133.82200623 189.00000000 0.845682 0.533177 -0.023301 0.000000
231.25799561 135.84399414 249.50000000 -0.102359 -0.055116 -0.993219 0.000000
41.23830032 262.38900757 228.00000000 0.784774 -0.536448 -0.310408 0.000000
164.95300293 115.62899780 201.50000000 0.000978 0.000978 -0.999999 0.000000
76.41210175 140.69500732 199.00000000 -0.833600 0.549642 0.054824 0.000000
113.20300293 252.28100586 171.50000000 -0.190484 -0.041410 0.980816 0.000000
207.80900574 86.51950073 241.50000000 -0.224645 0.832867 -0.505833 0.000000
117.24600220 232.06599426 171.50000000 -0.068900 -0.018020 0.997461 0.000000
80.85939789 287.45498657 150.00000000 -0.110925 -0.652239 0.749853 0.000000
130.18400574 176.67799377 177.00000000 0.140335 0.938749 0.314733 0.000000
72.36910248 109.16000366 225.00000000 0.804960 0.432204 -0.406497 0.000000
130.18400574 191.63699341 171.50000000 0.428947 0.287502 0.856357 0.000000
207.00000000 144.73800659 248.50000000 -0.000978 -0.000978 -0.999999 0.000000
33.96089935 190.42399597 219.00000000 0.935306 -0.016588 0.353451 0.000000
61.45309830 156.86700439 278.50000000 0.289200 0.309752 -0.905769 0.000000
218.32000732 152.01600647 248.50000000 -0.114959 -0.336761 -0.934546 0.000000
221.14999390 135.84399414 249.00000000 0.678458 -0.018185 -0.734414 0.000000
137.05700684 182.74200439 265.00000000 -0.790036 0.371687 -0.487537 0.000000
63.47460175 279.77301025 157.00000000 0.486136 -0.590428 0.644256 0.000000
134.22700500 250.66400146 178.50000000 -0.146170 -0.312831 0.938494 0.000000
158.48399353 110.77700043 253.50000000 -0.000978 -0.000978 -0.999999 0.000000
56.60160065 124.92800140 170.00000000 -0.483237 0.776109 0.405138 0.000000
242.17399597 159.29299927 240.00000000 0.201417 -0.165032 -0.965503 0.000000
160.10200500 195.27499390 244.00000000 -0.546788 -0.380303 -0.745917 0.000000
245.40800476 157.67599487 225.00000000 0.570955 0.187273 -0.799337 0.000000
240.15199280 119.67199707 231.50000000 0.734865 -0.289783 -0.613188 0.000000
92.98829651 267.23999023 257.00000000 -0.102469 -0.832742 -0.544097 0.000000
87.73239899 149.58999634 202.00000000 -0.367606 0.794606 -0.483185 0.000000
39.62110138 177.89100647 263.50000000 0.885041 -0.198143 -0.421238 0.000000
135.84399414 184.35899353 171.50000000 0.278557 0.450923 0.847982 0.000000
42.85549927 152.41999817 235.00000000 0.903438 0.426958 0.038814 0.000000
47.70700073 205.38299561 271.50000000 0.689396 -0.067928 -0.721192 0.000000
212.66000366 152.01600647 248.50000000 0.019167 -0.356514 -0.934093 0.000000
174.65600586 93.79689789 201.50000000 0.051618 -0.200469 -0.978339 0.000000
71.96479797 132.60899353 206.50000000 -0.848617 0.255350 0.463299 0.000000
122.09799957 197.29699707 283.50000000 -0.528644 0.111522 -0.841486 0.000000
162.52699280 146.35499573 221.50000000 -0.254455 -0.170983 0.951850 0.000000
109.16000366 92.58399963 240.00000000 0.116094 0.803839 -0.583408 0.000000
36.38669968 206.19099426 134.50000000 0.952707 -0.212163 0.217569 0.000000
123.71499634 91.77539825 242.00000000 0.108531 -0.939261 0.325592 0.000000
50.94139862 270.47500610 190.00000000 0.617321 -0.762030 0.195511 0.000000
152.41999817 248.23800659 185.00000000 -0.831648 -0.075346 0.550167 0.000000
31.13089943 198.10499573 228.00000000 0.996386 -0.057841 -0.062206 0.000000
227.21499634 84.09380341 226.50000000 0.793466 -0.217240 -0.568523 0.000000
33.55659866 175.46499634 175.00000000 0.969632 0.244495 0.005963 0.000000
71.15619659 145.14300537 272.00000000 0.423215 0.592501 -0.685442 0.000000
181.12500000 151.61099243 200.00000000 -0.420852 0.794943 -0.436977 0.000000
58.21879959 122.09799957 206.50000000 0.895403 0.391281 -0.212493 0.000000
76.81639862 209.42599487 156.50000000 -0.504503 0.279585 0.816889 0.000000
24.66209984 227.21499634 202.00000000 0.981960 -0.003437 0.189059 0.000000
100.26599884 278.96499634 161.50000000 -0.245940 0.160858 0.955844 0.000000
219.12899780 138.27000427 206.50000000 0.480146 -0.162985 -0.861914 0.000000
78.43360138 274.11300659 146.50000000 -0.604102 0.757874 -0.246348 0.000000
156.46299744 190.82800293 174.00000000 -0.823820 -0.066643 0.562920 0.000000
90.56250000 253.89799500 163.50000000 -0.449352 -0.114819 0.885946 0.000000
212.25599670 76.00779724 232.00000000 -0.282780 0.541863 -0.791467 0.000000
126.94899750 176.27299500 276.50000000 -0.767460 0.392692 -0.506752 0.000000
90.56250000 154.44099426 194.50000000 -0.552890 0.054867 0.831446 0.000000
152.82400513 201.33999634 251.50000000 -0.742362 0.044002 -0.668552 0.000000
91.37110138 128.56599426 216.50000000 -0.048530 0.260069 0.964370 0.000000
107.54299927 299.58401489 181.00000000 -0.009664 -0.995376 0.095565 0.000000
111.58599854 112.39499664 253.50000000 0.000978 0.000978 -0.999999 0.000000
143.92999268 283.00799561 191.50000000 -0.735849 -0.507653 0.448124 0.000000
154.44099426 142.31199646 253.50000000 -0.066917 -0.103210 -0.992406 0.000000
219.93800354 160.10200500 211.50000000 0.345023 0.475400 -0.809293 0.000000
43.25979996 263.60198975 195.00000000 0.758290 -0.575531 0.306202 0.000000
122.09799957 281.79501343 222.00000000 -0.535172 -0.636466 -0.555430 0.000000
141.10000610 130.99200439 218.00000000 -0.903686 0.226287 -0.363518 0.000000
251.06799316 157.67599487 230.00000000 0.700252 -0.055848 -0.711708 0.000000
113.20300293 257.94100952 171.50000000 -0.237081 0.063304 0.969425 0.000000
110.77700043 168.99600220 201.50000000 0.894995 -0.022608 0.445503 0.000000
98.64839935 193.65800476 174.00000000 -0.101691 0.508455 0.855063 0.000000
50.13280106 138.27000427 163.50000000 -0.583388 0.194463 0.788570 0.000000
84.09380341 279.77301025 149.50000000 -0.608648 -0.043777 0.792231 0.000000
49.32419968 237.32200623 259.00000000 0.650988 -0.395893 -0.647675 0.000000
54.17580032 265.62298584 152.00000000 0.819617 -0.479814 0.313059 0.000000
119.67199707 165.76199341 273.50000000 -0.726771 0.285917 -0.624544 0.000000
50.13280106 264.41000366 238.50000000 0.683504 -0.476280 -0.553154 0.000000
42.04690170 269.26199341 206.50000000 0.743609 -0.627763 -0.230128 0.000000
143.12100220 280.17800903 208.00000000 -0.534595 -0.685421 -0.494375 0.000000
25.87500000 221.55499268 196.50000000 0.947901 0.177647 0.264436 0.000000
100.26599884 146.75999451 211.00000000 0.109403 0.291302 0.950355 0.000000
35.17380142 156.86700439 138.00000000 -0.456538 0.576943 0.677281 0.000000
232.06599426 103.09600067 246.00000000 0.772387 0.573367 -0.273257 0.000000
67.11329651 208.61700439 149.50000000 -0.769384 0.015304 0.638603 0.000000
94.60549927 289.88101196 210.00000000 -0.065896 -0.968544 -0.239960 0.000000
124.52300262 182.74200439 208.50000000 -0.117777 0.206427 0.971348 0.000000
114.81999969 262.79299927 171.50000000 -0.135051 0.056560 0.989223 0.000000
160.91000366 90.56250000 201.50000000 0.000978 0.000978 -0.999999 0.000000
45.68550110 255.51600647 161.00000000 0.836758 -0.453439 0.306967 0.000000
71.15619659 114.41600037 214.00000000 0.325771 0.550441 0.768692 0.000000
46.49409866 220.74600220 266.00000000 0.745844 -0.202289 -0.634662 0.000000
125.33200073 264.41000366 176.50000000 -0.507844 0.675449 0.534661 0.000000
68.73049927 128.16200256 200.00000000 -0.904581 0.423392 0.049732 0.000000
173.03900146 80.45510101 239.00000000 -0.143274 0.409961 -0.900780 0.000000
43.66410065 256.72900391 182.00000000 0.786938 -0.538933 0.300467 0.000000
42.04690170 141.50399780 156.50000000 0.270072 0.434862 0.859044 0.000000
40.83399963 228.83200073 141.00000000 0.916771 -0.367554 0.156316 0.000000
66.30470276 203.76600647 149.50000000 -0.732294 0.101667 0.673357 0.000000
25.47069931 168.99600220 130.00000000 0.857884 0.422036 -0.293123 0.000000
123.71499634 277.75201416 228.00000000 -0.415161 -0.841289 -0.346229 0.000000
105.11699677 211.85200500 288.50000000 -0.254725 -0.213418 -0.943169 0.000000
32.74800110 233.68400574 182.00000000 0.934399 -0.208110 0.289119 0.000000
113.60700226 151.20700073 245.00000000 0.930982 0.029781 -0.363847 0.000000
141.50399780 258.34600830 180.00000000 -0.207793 0.207793 0.955847 0.000000
88.94529724 139.88699341 268.50000000 -0.385346 0.855808 -0.345109 0.000000
145.95100403 260.36700439 231.00000000 -0.133610 -0.943366 -0.303659 0.000000
28.70509911 195.67999268 236.00000000 0.899329 0.146800 -0.411895 0.000000
150.39799500 218.32000732 251.50000000 -0.610318 -0.135792 -0.780431 0.000000
193.25399780 166.97500610 199.00000000 -0.510288 0.804138 -0.304909 0.000000
185.16799927 167.37899780 246.50000000 -0.480228 -0.182873 -0.857869 0.000000
69.53910065 217.51199341 151.50000000 -0.602847 -0.004120 0.797846 0.000000
63.87889862 242.57800293 268.50000000 0.720853 -0.293800 -0.627736 0.000000
130.18400574 115.62899780 253.50000000 -0.000978 -0.000978 -0.999999 0.000000
199.72300720 146.35499573 196.50000000 0.262166 0.783358 -0.563578 0.000000
62.26169968 151.20700073 273.50000000 0.123096 0.992394 -0.001089 0.000000
30.32229996 218.32000732 235.00000000 0.985629 -0.141826 -0.091770 0.000000
73.98629761 187.59399414 171.00000000 -0.627937 0.286007 0.723806 0.000000
95.41410065 202.95700073 167.50000000 -0.246121 0.518557 0.818855 0.000000
47.70700073 269.66598511 198.00000000 0.643337 -0.688941 0.333884 0.000000
156.86700439 250.25999451 189.00000000 -0.577040 -0.134989 0.805483 0.000000
226.40600586 81.26370239 231.00000000 0.758257 -0.634645 0.149239 0.000000
191.63699341 114.81999969 253.50000000 -0.000978 -0.000978 -0.999999 0.000000
156.86700439 137.46099854 253.50000000 0.000978 0.000978 -0.999999 0.000000
164.14500427 238.53500366 198.50000000 -0.904581 -0.423392 0.049732 0.000000
148.78100586 141.50399780 218.50000000 0.213888 0.211198 0.953754 0.000000
173.03900146 184.35899353 183.50000000 -0.203142 -0.947543 0.246770 0.000000
76.81639862 141.90800476 188.00000000 -0.641232 0.651174 0.405948 0.000000
242.98199463 142.31199646 224.00000000 0.640576 -0.196032 -0.742451 0.000000
90.56250000 146.75999451 274.00000000 -0.280411 0.562406 -0.777862 0.000000
75.19920349 132.60899353 253.50000000 -0.127194 0.190162 -0.973478 0.000000
220.74600220 153.63299561 246.50000000 -0.276411 -0.554401 -0.785007 0.000000
201.74400330 117.24600220 200.00000000 0.237541 -0.345382 -0.907902 0.000000
134.22700500 177.48599243 266.00000000 -0.832367 0.426411 -0.354031 0.000000
118.05500031 175.86900330 191.00000000 -0.491139 0.732574 -0.471295 0.000000
118.05500031 96.22270203 248.50000000 -0.657235 0.753685 0.001378 0.000000
49.32419968 265.21899414 166.50000000 0.879301 -0.458952 0.127248 0.000000
184.35899353 190.02000427 201.50000000 0.386369 -0.854977 0.346025 0.000000
63.87889862 257.94100952 258.50000000 0.529225 -0.515784 -0.673712 0.000000
224.78900146 92.58399963 226.00000000 0.755888 -0.267809 -0.597421 0.000000
126.14099884 235.30099487 173.50000000 0.000978 0.000978 0.999999 0.000000
40.02539825 143.92999268 170.00000000 0.889058 0.397931 -0.226333 0.000000
29.10939980 155.25000000 136.50000000 -0.422036 0.293123 -0.857884 0.000000
181.93400574 92.17970276 201.50000000 0.261060 -0.233140 -0.936746 0.000000
159.29299927 156.05900574 253.50000000 -0.126167 0.068292 -0.989656 0.000000
95.81839752 130.18400574 245.00000000 0.648923 -0.195756 -0.735241 0.000000
215.89500427 80.05079651 221.50000000 0.581422 -0.356670 -0.731256 0.000000
147.97300720 93.79689789 246.50000000 0.160678 0.569131 -0.806394 0.000000
35.17380142 215.08599854 149.00000000 0.960353 -0.156765 0.230537 0.000000
160.10200500 251.47300720 221.50000000 -0.767656 -0.490583 -0.412350 0.000000
74.39060211 147.97300720 181.50000000 -0.700660 0.560861 0.441033 0.000000
103.50000000 188.40199280 177.50000000 -0.078099 0.538173 0.839208 0.000000
112.39499664 293.92401123 170.00000000 -0.494476 -0.154065 0.855428 0.000000
189.61500549 172.22999573 181.00000000 -0.227189 -0.102806 0.968409 0.000000
136.24800110 190.02000427 169.00000000 0.132493 0.377954 0.916295 0.000000
79.24220276 174.65600586 183.50000000 -0.755009 0.420905 0.502793 0.000000
119.67199707 148.78100586 248.50000000 0.492853 -0.446699 -0.746697 0.000000
58.21879959 202.95700073 141.50000000 -0.656224 0.169004 0.735397 0.000000
59.83589935 224.78900146 141.50000000 -0.768348 0.023792 0.639590 0.000000
51.34569931 250.66400146 141.00000000 -0.465211 -0.786159 0.406857 0.000000
99.05269623 274.11300659 160.00000000 -0.275346 0.241457 0.930528 0.000000
187.59399414 169.80499268 178.50000000 -0.061652 0.199461 0.977964 0.000000
241.77000427 140.69500732 223.50000000 0.641647 -0.236892 -0.729501 0.000000
141.50399780 272.49600220 218.50000000 -0.504008 -0.635488 -0.584919 0.000000
57.00590134 122.90599823 197.00000000 0.705724 0.708486 -0.001381 0.000000
207.00000000 119.67199707 203.50000000 0.525391 -0.426572 -0.736207 0.000000
152.01600647 139.07800293 218.50000000 0.077823 0.524953 0.847566 0.000000
200.53100586 165.76199341 216.50000000 -0.139572 0.640830 -0.754889 0.000000
27.89649963 207.00000000 182.00000000 0.985209 0.017164 0.170495 0.000000
66.30470276 256.32400513 144.50000000 -0.817773 0.336916 0.466621 0.000000
142.31199646 272.09201050 182.00000000 -0.615687 -0.145308 0.774477 0.000000
134.22700500 147.97300720 253.50000000 -0.000978 -0.000978 -0.999999 0.000000
29.51370049 194.06199646 189.00000000 0.975082 0.172369 -0.139657 0.000000
164.14500427 102.69100189 251.50000000 -0.195839 0.545010 -0.815237 0.000000
190.02000427 181.12500000 186.50000000 -0.351705 -0.791738 0.499454 0.000000
51.34569931 168.99600220 148.00000000 -0.794197 0.106770 0.598207 0.000000
92.17970276 152.41999817 204.00000000 -0.549973 0.725040 0.414544 0.000000
179.50799561 161.71899414 191.50000000 -0.097920 0.987455 0.123874 0.000000
181.12500000 75.19920349 206.50000000 0.362413 -0.209362 -0.908198 0.000000
32.74800110 185.97700500 167.00000000 0.991743 0.127431 -0.014405 0.000000
49.32419968 175.06100464 142.00000000 -0.922520 0.355889 0.149334 0.000000
77.22070313 273.30499268 147.00000000 -0.604102 0.757874 -0.246348 0.000000
171.42199707 103.50000000 201.50000000 -0.000978 -0.000978 -0.999999 0.000000
244.19500732 126.14099884 233.50000000 0.697724 -0.076880 -0.712229 0.000000
55.79299927 248.23800659 258.50000000 0.481357 -0.585344 -0.652432 0.000000
222.76800537 120.48000336 216.00000000 0.229754 -0.739276 -0.632996 0.000000
156.86700439 167.37899780 253.50000000 -0.000978 -0.000978 -0.999999 0.000000
37.19530106 264.81399536 216.00000000 0.727604 -0.680944 0.083113 0.000000
42.85549927 265.21899414 200.50000000 0.585938 -0.656452 0.475130 0.000000
142.71699524 181.93400574 200.00000000 0.552426 0.545668 0.630137 0.000000
152.01600647 246.62100220 236.50000000 -0.592907 -0.475334 -0.650015 0.000000
120.48000336 135.03500366 208.50000000 0.038476 0.093442 0.994881 0.000000
35.98239899 155.25000000 169.00000000 0.949169 0.205631 -0.238314 0.000000
97.03119659 183.55099487 181.50000000 0.107730 0.754108 0.647854 0.000000
84.90229797 121.28900146 221.50000000 -0.539465 0.583434 0.607110 0.000000
99.45700073 152.01600647 278.50000000 -0.443255 0.440008 -0.780973 0.000000
210.23399353 97.83979797 213.50000000 0.486816 -0.109926 -0.866560 0.000000
44.87699890 214.27699280 265.00000000 0.717886 -0.123876 -0.685051 0.000000
38.40819931 143.12100220 162.00000000 0.891764 0.410124 -0.191196 0.000000
44.06840134 249.04699707 155.00000000 0.871409 -0.404637 0.277335 0.000000
153.63299561 92.98829651 246.50000000 0.083133 0.686940 -0.721943 0.000000
159.29299927 168.99600220 208.50000000 0.333364 0.710635 0.619569 0.000000
195.67999268 116.43800354 201.50000000 -0.972759 0.173752 -0.153460 0.000000
29.51370049 193.25399780 240.00000000 0.984805 0.161967 0.062659 0.000000
113.20300293 173.44299316 189.00000000 -0.702786 0.711169 -0.018163 0.000000
191.63699341 189.61500549 201.00000000 -0.441728 -0.844707 0.302235 0.000000
141.50399780 126.14099884 253.50000000 -0.000978 -0.000978 -0.999999 0.000000
148.37699890 221.55499268 177.00000000 -0.339682 -0.197556 0.919558 0.000000
238.13099670 130.99200439 224.00000000 0.448899 -0.265050 -0.853369 0.000000
157.27099609 219.12899780 246.00000000 -0.646218 -0.485083 -0.589149 0.000000
35.17380142 157.67599487 169.00000000 0.974662 0.129536 -0.182356 0.000000
170.20899963 219.93800354 231.00000000 -0.927639 0.133701 -0.348726 0.000000
245.40800476 158.48399353 225.00000000 0.570955 0.187273 -0.799337 0.000000
42.45119858 252.28100586 169.00000000 0.893366 -0.441835 0.081719 0.000000
94.60549927 257.13299561 266.50000000 -0.095313 -0.711181 -0.696518 0.000000
134.22700500 143.92999268 253.50000000 -0.000978 -0.000978 -0.999999 0.000000
202.14799500 75.19920349 213.50000000 0.463659 -0.252488 -0.849276 0.000000
27.89649963 203.76600647 195.00000000 0.983781 0.172779 0.048190 0.000000
215.08599854 102.28700256 248.00000000 -0.169609 0.343423 -0.923739 0.000000
101.07399750 110.77700043 253.50000000 0.714156 0.517722 -0.471110 0.000000
124.52300262 180.31599426 176.50000000 0.219776 0.444036 0.868637 0.000000
97.83979797 246.62100220 273.50000000 0.624272 -0.748815 0.222621 0.000000
202.95700073 117.24600220 203.50000000 0.321942 -0.536570 -0.780029 0.000000
118.45899963 298.37100220 191.00000000 0.193425 -0.961860 -0.193425 0.000000
39.21680069 160.10200500 230.00000000 0.920339 0.384036 -0.074112 0.000000
52.96289825 272.49600220 196.00000000 0.652800 -0.740648 0.159035 0.000000
121.28900146 235.30099487 266.50000000 -0.507343 -0.527435 -0.681480 0.000000
196.48800659 168.59199524 240.00000000 -0.943119 -0.332049 -0.016413 0.000000
32.34379959 187.99800110 130.00000000 0.901208 -0.297443 0.315201 0.000000
28.70509911 215.08599854 180.00000000 0.925023 -0.333684 0.181625 0.000000
45.68550110 259.55899048 176.00000000 0.852902 -0.520062 -0.045765 0.000000
99.45700073 269.66598511 250.00000000 -0.264771 -0.794313 -0.546776 0.000000
147.16400146 230.04499817 249.00000000 -0.192112 -0.748467 -0.634737 0.000000
84.09380341 217.51199341 286.50000000 -0.155953 -0.462029 -0.873045 0.000000
135.84399414 273.70901489 222.00000000 -0.443255 -0.780973 -0.440008 0.000000
244.19500732 110.77700043 236.50000000 0.622418 -0.094747 -0.776929 0.000000
74.79489899 139.07800293 192.00000000 -0.820889 0.570023 0.034843 0.000000
75.19920349 293.11499023 187.00000000 0.598207 -0.794197 -0.106770 0.000000
168.18800354 105.11699677 251.50000000 -0.470913 0.645201 -0.601629 0.000000
198.10499573 174.25199890 201.00000000 -0.981736 0.161398 -0.100722 0.000000
187.59399414 165.76199341 181.50000000 -0.486857 0.680931 0.547087 0.000000
173.84800720 63.87889862 221.50000000 0.159204 0.641366 -0.750535 0.000000
126.14099884 240.15199280 173.50000000 -0.624484 -0.314662 0.714848 0.000000
192.04100037 158.48399353 208.00000000 -0.240148 0.804108 -0.543819 0.000000
103.50000000 204.97900391 290.00000000 -0.219229 -0.110248 -0.969424 0.000000
213.46899414 87.32810211 241.50000000 -0.078543 0.552657 -0.829699 0.000000
107.54299927 163.33599854 280.50000000 -0.401136 0.754790 -0.519020 0.000000
159.29299927 171.01800537 207.00000000 0.346803 0.714772 0.607312 0.000000
230.04499817 121.28900146 219.00000000 0.588332 -0.148206 -0.794922 0.000000
143.52499390 251.47300720 241.00000000 -0.646551 0.035215 -0.762057 0.000000
82.47660065 143.92999268 208.50000000 -0.660167 0.596657 0.456267 0.000000
83.28520203 292.30700684 206.00000000 -0.088909 -0.970490 -0.224152 0.000000
184.35899353 155.65400696 210.00000000 -0.591528 0.703572 -0.393803 0.000000
107.54299927 153.22900391 251.00000000 -0.411939 0.819106 0.399215 0.000000
47.30270004 179.50799561 275.00000000 0.693130 -0.004150 -0.720800 0.000000
117.24600220 219.93800354 171.50000000 -0.107954 -0.064773 0.992044 0.000000
57.00590134 122.90599823 200.00000000 0.656993 0.753069 -0.035322 0.000000
54.98440170 177.89100647 281.50000000 0.501282 0.034147 -0.864610 0.000000
75.60350037 173.84800720 177.00000000 -0.695661 0.420053 0.582761 0.000000
61.85739899 164.14500427 280.00000000 0.630198 0.123074 -0.766618 0.000000
36.79100037 236.91799927 241.00000000 0.869701 -0.473198 -0.140368 0.000000
241.77000427 100.66999817 238.00000000 0.884909 0.009287 -0.465672 0.000000
71.15619659 147.16400146 273.50000000 0.179225 0.678603 -0.712304 0.000000
120.48000336 161.31399536 247.00000000 0.365229 0.137482 -0.920710 0.000000
34.76950073 152.41999817 142.00000000 -0.488914 0.633404 0.599802 0.000000
67.92189789 276.53900146 146.50000000 0.598704 -0.504260 0.622315 0.000000
127.35399628 169.80499268 258.00000000 -0.604556 0.739258 0.296665 0.000000
87.32810211 137.05700684 210.00000000 -0.156505 0.472439 0.867357 0.000000
67.92189789 175.06100464 288.00000000 0.358869 0.067536 -0.930941 0.000000
54.58010101 219.12899780 270.00000000 0.611474 -0.296910 -0.733447 0.000000
34.36520004 226.40600586 245.00000000 0.857876 -0.014908 -0.513641 0.000000
37.59960175 251.47300720 187.00000000 0.802346 -0.551903 0.227254 0.000000
152.01600647 255.91999817 227.00000000 -0.355830 -0.355830 -0.864159 0.000000
135.84399414 185.97700500 191.50000000 -0.125245 0.570232 -0.811880 0.000000
156.86700439 253.89799500 221.50000000 -0.753384 -0.507180 -0.418547 0.000000
154.44099426 226.00199890 245.00000000 -0.777218 -0.082498 -0.623800 0.000000
210.23399353 147.97300720 201.50000000 0.577091 0.371104 -0.727494 0.000000
116.03299713 295.13699341 172.00000000 -0.515784 -0.529225 0.673712 0.000000
59.83589935 194.06199646 283.50000000 0.450605 -0.041948 -0.891737 0.000000
106.73400116 292.30700684 211.00000000 -0.089052 -0.863661 -0.496145 0.000000
87.73239899 278.96499634 242.00000000 0.083614 -0.851727 -0.517272 0.000000
177.89100647 115.62899780 199.50000000 0.083105 -0.026982 -0.996175 0.000000
150.39799500 261.57998657 222.00000000 -0.491254 -0.833129 -0.254097 0.000000
165.35699463 190.82800293 240.00000000 -0.760392 -0.288535 -0.581852 0.000000
160.10200500 89.75389862 201.50000000 -0.000978 -0.000978 -0.999999 0.000000
121.69300079 245.81199646 175.00000000 -0.477180 -0.153223 0.865345 0.000000
125.33200073 249.04699707 256.50000000 -0.454601 -0.435048 -0.777220 0.000000
128.97099304 175.46499634 272.00000000 -0.718937 0.496448 -0.486486 0.000000
33.55659866 230.44900513 170.00000000 0.977844 -0.115259 0.174748 0.000000
35.17380142 164.14500427 171.00000000 0.960489 0.061845 -0.271360 0.000000
80.85939789 250.66400146 158.50000000 -0.506441 0.145327 0.849940 0.000000
33.96089935 194.06199646 253.50000000 0.764459 0.301634 -0.569753 0.000000
202.14799500 90.56250000 211.50000000 0.462349 -0.056250 -0.884912 0.000000
117.24600220 293.11499023 205.00000000 -0.259107 -0.916284 -0.305428 0.000000
164.14500427 66.70899963 224.00000000 0.122615 0.796262 -0.592395 0.000000
66.30470276 168.18800354 285.50000000 0.473407 0.225360 -0.851527 0.000000
54.17580032 168.99600220 152.50000000 -0.784311 0.273010 0.557066 0.000000
56.60160065 215.08599854 276.50000000 0.603634 -0.205328 -0.770367 0.000000
71.15619659 288.26400757 201.00000000 0.445503 -0.894995 -0.022608 0.000000
111.58599854 298.77499390 176.00000000 -0.253271 -0.893112 0.371760 0.000000
194.06199646 166.97500610 197.00000000 -0.505484 0.832292 -0.227544 0.000000
122.90599823 295.54098511 180.00000000 -0.462000 -0.498430 0.733569 0.000000
95.41410065 139.07800293 243.50000000 -0.052464 0.611130 -0.789790 0.000000
40.83399963 155.25000000 228.00000000 0.846878 0.524122 -0.089972 0.000000
227.21499634 177.08200073 233.50000000 -0.519629 0.838255 -0.165269 0.000000
51.75000000 184.35899353 277.50000000 -0.100812 -0.200380 -0.974518 0.000000
35.98239899 226.40600586 247.00000000 0.778585 -0.001373 -0.627537 0.000000
160.50599670 198.10499573 182.00000000 -0.926183 -0.353684 0.130739 0.000000
143.12100220 136.65199280 216.50000000 -0.892310 -0.445466 -0.073095 0.000000
133.82200623 164.14500427 249.00000000 0.232618 0.472837 -0.849891 0.000000
135.43899536 228.83200073 174.00000000 -0.873648 -0.436080 0.215807 0.000000
126.94899750 186.78500366 278.50000000 -0.825500 0.004080 -0.564387 0.000000
117.24600220 228.42799377 275.00000000 -0.560874 -0.638352 -0.527188 0.000000
124.52300262 201.33999634 171.50000000 0.062383 0.105485 0.992462 0.000000
40.42969894 190.02000427 263.50000000 0.620326 -0.539194 -0.569619 0.000000
100.26599884 104.30899811 248.50000000 0.351679 0.436839 -0.827945 0.000000
106.73400116 240.96099854 273.50000000 -0.054419 -0.528837 -0.846977 0.000000
191.23199463 186.78500366 231.00000000 -0.927439 -0.101842 -0.359841 0.000000
30.72660065 216.70300293 234.50000000 0.990281 -0.125076 -0.060817 0.000000
113.20300293 139.88699341 251.50000000 0.621705 -0.282884 -0.730383 0.000000
108.35199738 181.93400574 181.50000000 0.660827 -0.660827 0.355830 0.000000
178.69900513 159.29299927 218.50000000 -0.397512 0.209757 -0.893301 0.000000
113.60700226 177.08200073 195.00000000 -0.604823 0.303214 -0.736376 0.000000
59.02730179 239.34399414 136.50000000 -0.871705 0.312959 0.377077 0.000000
141.50399780 186.38099670 200.00000000 0.417618 0.660535 0.623931 0.000000
52.96289825 133.41799927 216.00000000 0.852260 0.520283 -0.054400 0.000000
44.87699890 266.83599854 228.00000000 0.719549 -0.588424 0.368790 0.000000
33.15230179 247.42999268 221.50000000 0.885723 -0.099661 -0.453389 0.000000
55.79299927 154.44099426 273.50000000 0.286958 0.500217 -0.816969 0.000000
122.50199890 290.28500366 207.00000000 -0.112950 -0.959424 -0.258356 0.000000
110.37300110 168.18800354 202.00000000 0.894995 -0.022608 0.445503 0.000000
50.53710175 152.01600647 265.00000000 0.834160 0.294685 -0.466194 0.000000
31.93950081 185.16799927 140.00000000 0.306510 -0.789304 0.532026 0.000000
140.29100037 127.75800323 218.00000000 0.609512 -0.152002 -0.778068 0.000000
109.16000366 255.91999817 260.00000000 -0.001275 -0.381263 -0.924466 0.000000
51.34569931 128.56599426 177.00000000 0.707885 0.630131 -0.319115 0.000000
163.74000549 201.33999634 207.00000000 -0.999999 -0.000978 -0.000978 0.000000
110.37300110 170.61300659 202.00000000 0.894995 -0.022608 0.445503 0.000000
181.12500000 166.57000732 221.50000000 0.206738 0.704154 -0.679283 0.000000
249.04699707 159.29299927 241.50000000 0.821678 0.137192 -0.553194 0.000000
38.40819931 164.14500427 218.00000000 0.840893 -0.421229 0.339802 0.000000
54.17580032 276.53900146 223.50000000 0.548623 -0.823673 -0.143440 0.000000
48.91989899 139.88699341 202.00000000 0.897212 0.422467 -0.128577 0.000000
241.77000427 142.71699524 248.00000000 -0.275518 0.051581 -0.959911 0.000000
80.05079651 145.14300537 202.00000000 -0.632660 0.678672 -0.373023 0.000000
203.76600647 107.94699860 207.00000000 0.408870 -0.264030 -0.873564 0.000000
102.69100189 189.21099854 291.50000000 -0.121200 0.121200 -0.985201 0.000000
109.16000366 126.14099884 216.50000000 0.684018 0.261863 0.680843 0.000000
190.02000427 93.79689789 206.50000000 0.628173 -0.126229 -0.767767 0.000000
47.30270004 203.76600647 270.00000000 0.738435 -0.038268 -0.673238 0.000000
164.14500427 232.06599426 231.50000000 -0.854319 -0.361264 -0.373668 0.000000
37.59960175 207.00000000 130.00000000 0.815422 -0.549162 0.183054 0.000000
241.36500549 95.41410065 237.00000000 0.577865 -0.131534 0.805463 0.000000
105.92600250 225.19299316 282.00000000 -0.152721 -0.538230 -0.828845 0.000000
67.11329651 282.60400391 227.00000000 0.393303 -0.816859 -0.421964 0.000000
143.12100220 185.16799927 198.50000000 0.588063 0.621763 0.517293 0.000000
129.37500000 147.16400146 206.50000000 0.509220 0.255384 0.821872 0.000000
76.81639862 173.03900146 181.50000000 -0.800553 0.413968 0.433297 0.000000
223.57600403 107.54299927 220.00000000 0.732936 -0.089240 -0.674419 0.000000
70.34770203 267.64498901 253.50000000 0.230349 -0.703583 -0.672243 0.000000
156.86700439 69.53910065 226.50000000 0.001373 0.778585 -0.627537 0.000000
180.31599426 121.28900146 253.50000000 -0.000978 -0.000978 -0.999999 0.000000
225.59800720 80.45510101 231.00000000 0.934752 -0.320762 -0.152809 0.000000
68.32620239 146.35499573 170.00000000 -0.618217 0.209171 0.757664 0.000000
48.91989899 156.05900574 270.00000000 0.765040 0.592238 -0.252919 0.000000
148.78100586 204.97900391 256.00000000 -0.740862 0.006924 -0.671622 0.000000
177.89100647 189.61500549 211.00000000 0.293795 -0.949893 0.106715 0.000000
194.06199646 162.93200684 216.00000000 -0.258079 0.542748 -0.799262 0.000000
45.68550110 133.41799927 167.00000000 0.842992 0.535433 -0.051726 0.000000
65.49610138 227.21499634 276.50000000 0.918860 0.306287 -0.248768 0.000000
135.03500366 278.56100464 179.00000000 -0.557749 -0.444534 0.700932 0.000000
39.62110138 258.34600830 230.00000000 0.882937 -0.385255 -0.268329 0.000000
203.76600647 71.56050110 215.00000000 0.462810 -0.248970 -0.850776 0.000000
83.28520203 148.37699890 200.00000000 -0.413014 0.818055 -0.400257 0.000000
190.82800293 166.97500610 200.00000000 -0.520801 0.755895 -0.396723 0.000000
42.85549927 149.18600464 152.00000000 -0.391199 0.332442 0.858164 0.000000
152.41999817 261.98400879 188.00000000 -0.834322 -0.171640 0.523876 0.000000
111.58599854 226.00199890 280.00000000 -0.235475 -0.210975 -0.948705 0.000000
168.99600220 73.58200073 201.50000000 0.688630 -0.293751 -0.662947 0.000000
123.71499634 177.48599243 209.00000000 0.423058 -0.058120 0.904237 0.000000
213.06399536 86.51950073 241.00000000 -0.095259 0.728364 -0.678536 0.000000
75.60350037 219.93800354 156.00000000 -0.666202 0.478256 0.572229 0.000000
120.88500214 278.96499634 227.00000000 -0.394782 -0.797621 -0.456013 0.000000
219.12899780 111.58599854 216.50000000 0.550020 -0.307692 -0.776405 0.000000
255.51600647 172.63499451 237.00000000 0.355830 0.355830 0.864159 0.000000
225.59800720 109.96900177 248.50000000 -0.450528 0.261153 -0.853712 0.000000
61.85739899 236.10899353 142.00000000 -0.883153 -0.082316 0.461807 0.000000
65.09179688 244.19500732 145.00000000 -0.772798 0.181387 0.608179 0.000000
230.04499817 130.18400574 218.00000000 0.732657 -0.313996 -0.603838 0.000000
81.66799927 288.26400757 222.00000000 -0.068897 -0.914568 -0.398520 0.000000
193.25399780 199.31799316 218.00000000 0.484526 -0.862835 -0.144048 0.000000
236.91799927 122.09799957 251.50000000 -0.000978 -0.000978 -0.999999 0.000000
202.95700073 100.26599884 248.50000000 0.264991 0.329408 -0.906239 0.000000
159.29299927 90.56250000 246.50000000 0.248401 0.910803 -0.329749 0.000000
46.89839935 163.74000549 145.00000000 -0.673364 0.283101 0.682961 0.000000
107.13899994 173.03900146 214.00000000 -0.485976 -0.271712 0.830662 0.000000
106.73400116 294.73199463 206.00000000 -0.200478 -0.919923 -0.336973 0.000000
223.97999573 94.60549927 223.50000000 0.751187 -0.253545 -0.609453 0.000000
114.01200104 258.75000000 171.50000000 -0.211108 0.131783 0.968538 0.000000
61.45309830 121.69300079 225.00000000 0.544897 0.761563 -0.350869 0.000000
115.62899780 236.91799927 171.50000000 0.000978 0.000978 0.999999 0.000000
105.92600250 152.41999817 251.00000000 -0.688683 0.691807 -0.217068 0.000000
38.81250000 167.78300476 209.00000000 0.969014 0.191744 0.155711 0.000000
119.67199707 208.61700439 283.50000000 -0.342330 -0.243273 -0.907540 0.000000
220.74600220 109.16000366 216.50000000 0.600561 -0.145273 -0.786271 0.000000
54.98440170 188.40199280 144.50000000 -0.914801 0.285604 0.285604 0.000000
108.35199738 227.21499634 281.50000000 -0.133411 -0.535108 -0.834183 0.000000
217.51199341 112.39499664 251.50000000 0.072728 0.432254 -0.898814 0.000000
47.30270004 242.57800293 137.00000000 0.605946 -0.511425 0.609322 0.000000
47.70700073 215.08599854 129.50000000 -0.403576 0.504878 0.763036 0.000000
31.13089943 195.67999268 207.00000000 0.924375 0.223616 -0.309074 0.000000
180.31599426 109.96900177 201.50000000 0.507964 -0.521376 -0.685668 0.000000
52.15430069 130.99200439 197.00000000 0.949175 0.314746 0.001234 0.000000
96.22270203 183.55099487 181.50000000 0.107730 0.754108 0.647854 0.000000
65.49610138 287.05099487 171.50000000 0.600914 -0.795960 0.073142 0.000000
35.57809830 155.25000000 168.50000000 0.949169 0.205631 -0.238314 0.000000
228.02299500 83.28520203 233.50000000 0.192884 -0.729873 0.655806 0.000000
145.14300537 261.17599487 229.00000000 -0.454897 -0.736107 -0.501214 0.000000
169.80499268 213.06399536 226.00000000 -0.957033 0.275099 -0.091700 0.000000
85.71089935 261.17599487 158.50000000 -0.371243 -0.523632 0.766804 0.000000
226.40600586 155.25000000 211.50000000 0.427419 0.182346 -0.885473 0.000000
154.03700256 199.72300720 250.00000000 -0.737059 0.032414 -0.675050 0.000000
151.20700073 180.31599426 251.50000000 0.192452 -0.481875 -0.854844 0.000000
54.98440170 272.89999390 180.00000000 0.703377 -0.706290 -0.080095 0.000000
119.67199707 111.58599854 253.50000000 0.000978 0.000978 -0.999999 0.000000
53.36719894 217.51199341 271.50000000 0.548008 -0.251365 -0.797812 0.000000
50.13280106 270.47500610 194.00000000 0.617321 -0.762030 0.195511 0.000000
109.16000366 261.17599487 170.50000000 -0.178540 0.086233 0.980147 0.000000
45.28120041 162.93200684 271.00000000 0.654808 0.434873 -0.618152 0.000000
115.62899780 131.80099487 211.50000000 0.347336 0.308242 0.885632 0.000000
121.69300079 215.08599854 281.00000000 -0.615656 -0.703840 -0.354369 0.000000
182.74200439 92.17970276 246.50000000 0.097570 0.592701 -0.799491 0.000000
46.49409866 258.75000000 241.00000000 0.693327 -0.427303 -0.580267 0.000000
57.00590134 131.80099487 169.00000000 -0.492517 0.254750 0.832184 0.000000
48.91989899 239.34399414 134.00000000 0.690306 -0.244846 0.680829 0.000000
128.97099304 172.22999573 254.00000000 -0.577899 0.813603 0.063896 0.000000
213.46899414 69.94339752 226.00000000 -0.374053 0.772396 -0.513311 0.000000
94.60549927 117.24600220 221.50000000 -0.319922 -0.214703 -0.922796 0.000000
45.28120041 265.62298584 195.00000000 0.704786 -0.630256 0.325660 0.000000
215.89500427 167.37899780 238.50000000 0.037841 -0.598448 -0.800267 0.000000
111.58599854 198.50999451 172.00000000 0.099358 0.368849 0.924164 0.000000
73.58200073 135.43899536 260.00000000 -0.039339 0.201463 -0.978706 0.000000
116.43800354 297.15798950 195.00000000 0.113838 -0.980473 -0.160352 0.000000
123.71499634 188.40199280 198.50000000 -0.185537 0.759014 -0.624078 0.000000
145.54699707 172.22999573 210.50000000 -0.286561 0.696391 0.657969 0.000000
97.83979797 142.31199646 211.50000000 0.018023 0.243910 0.969630 0.000000
175.06100464 171.42199707 182.00000000 0.309417 0.479047 0.821447 0.000000
88.13670349 184.35899353 181.50000000 -0.325106 0.783136 0.530098 0.000000
59.83589935 165.76199341 162.50000000 -0.633649 0.290355 0.717066 0.000000
33.96089935 240.15199280 183.50000000 0.921290 -0.227109 0.315667 0.000000
195.67999268 158.88900757 208.00000000 -0.090738 0.825279 -0.557388 0.000000
203.76600647 156.46299744 247.00000000 -0.168316 -0.366336 -0.915133 0.000000
240.96099854 103.50000000 236.50000000 0.618013 -0.201895 -0.759802 0.000000
70.34770203 283.41198730 154.00000000 0.502569 -0.728145 0.466079 0.000000
152.01600647 95.00980377 248.00000000 0.083133 0.686940 -0.721943 0.000000
104.71299744 152.82400513 275.00000000 -0.610681 0.563315 -0.556548 0.000000
233.27900696 178.69900513 237.00000000 0.512725 -0.492684 -0.703118 0.000000
148.78100586 181.52900696 186.00000000 0.511700 0.833601 -0.208021 0.000000
99.45700073 239.34399414 276.50000000 0.163217 -0.985174 -0.052840 0.000000
150.39799500 206.59599304 170.00000000 -0.314795 -0.201864 0.927445 0.000000
103.09600067 97.83979797 220.00000000 0.287604 0.103748 -0.952114 0.000000
36.79100037 168.99600220 222.00000000 0.958773 0.256977 0.121314 0.000000
217.91600037 115.62899780 210.00000000 0.660342 -0.305146 -0.686174 0.000000
157.27099609 255.51600647 221.00000000 -0.739404 -0.566387 -0.363989 0.000000
145.54699707 176.67799377 206.00000000 0.248702 0.826433 0.505129 0.000000
57.00590134 279.77301025 219.00000000 0.946800 -0.310362 -0.085120 0.000000
29.10939980 207.40400696 209.00000000 0.957329 0.198943 -0.209624 0.000000
146.75999451 277.34799194 189.00000000 -0.801647 -0.435363 0.409659 0.000000
242.17399597 107.54299927 236.00000000 0.704154 -0.206738 -0.679283 0.000000
50.53710175 252.28100586 252.00000000 0.662238 -0.432039 -0.612195 0.000000
64.68750000 142.71699524 268.00000000 0.143280 0.698301 -0.701318 0.000000
71.96479797 156.86700439 179.50000000 -0.746298 0.281652 0.603085 0.000000
135.84399414 270.07000732 228.50000000 -0.242814 -0.970072 0.001184 0.000000
38.40819931 155.25000000 142.00000000 -0.553285 0.604045 0.573589 0.000000
158.08000183 208.61700439 246.00000000 -0.890752 0.270061 -0.365552 0.000000
214.68200684 174.65600586 226.00000000 -0.082556 0.964003 -0.252749 0.000000
78.02929688 222.36300659 282.00000000 0.159166 -0.146633 -0.976302 0.000000
208.61700439 78.02929688 235.00000000 -0.311692 0.663758 -0.679907 0.000000
115.62899780 174.25199890 284.00000000 -0.402758 0.263980 -0.876414 0.000000
61.45309830 198.10499573 283.50000000 0.690722 -0.275970 -0.668389 0.000000
130.18400574 262.38900757 242.00000000 -0.581759 -0.527799 -0.618857 0.000000
47.70700073 171.01800537 138.00000000 -0.917816 0.068534 0.391046 0.000000
64.68750000 228.83200073 146.50000000 -0.689533 -0.343952 0.637370 0.000000
219.93800354 136.24800110 208.00000000 0.469884 -0.283791 -0.835866 0.000000
54.58010101 144.73800659 262.00000000 0.540190 0.777424 -0.322190 0.000000
