162.92999268 149.91200256 180.00000000 0.398202 -0.682397 0.613000 0.000000
146.97300720 191.48399353 211.25000000 0.579522 -0.528835 0.620071 0.000000
189.80499268 165.44900513 188.75000000 0.333332 -0.665039 0.668291 0.000000
125.97699738 196.52299500 228.75000000 0.045218 -0.480952 0.875580 0.000000
156.63099670 234.31599426 215.00000000 0.743505 -0.058735 0.666146 0.000000
169.64799500 284.28698730 167.50000000 0.648552 0.608332 0.457506 0.000000
81.46489716 251.11300659 83.75000000 -0.790425 0.201060 -0.578622 0.000000
176.36700439 269.58999634 176.25000000 -0.001355 0.830587 0.556887 0.000000
80.20510101 183.08599854 132.50000000 -0.688082 -0.688082 -0.230406 0.000000
179.30700684 251.11300659 157.50000000 0.905219 -0.121722 -0.407139 0.000000
170.48800659 216.67999268 208.75000000 0.000978 0.000978 0.999999 0.000000
152.01199341 215.00000000 166.25000000 0.110510 0.620330 0.776517 0.000000
102.88099670 211.64100647 92.50000000 0.845451 -0.428175 -0.319185 0.000000
109.18000031 304.86300659 113.75000000 0.215400 0.612107 -0.760873 0.000000
72.64649963 228.43800354 140.00000000 0.000978 0.000978 -0.999999 0.000000
144.03300476 223.39799500 227.50000000 0.098938 0.526238 0.844562 0.000000
78.52539825 256.99200439 105.00000000 0.000000 0.000000 0.000000 0.000000
165.44900513 141.93400574 133.75000000 -0.044015 -0.759622 0.648874 0.000000
221.71899414 201.56300354 191.25000000 0.311201 0.127983 0.941687 0.000000
216.25999451 190.64500427 182.50000000 -0.415631 -0.027709 0.909111 0.000000
157.89100647 250.69299316 205.00000000 0.682600 0.333969 0.650017 0.000000
170.06799316 272.10900879 150.00000000 0.749013 -0.046902 -0.660894 0.000000
162.92999268 151.17199707 138.75000000 -0.401757 -0.280472 0.871738 0.000000
182.24600220 191.48399353 153.75000000 -0.487310 0.088987 0.868683 0.000000
170.90800476 162.08999634 145.00000000 -0.668325 -0.070730 0.740499 0.000000
152.01199341 272.52899170 192.50000000 0.502474 0.569695 0.650360 0.000000
76.84570313 216.67999268 105.00000000 -0.869534 -0.261616 -0.418889 0.000000
196.52299500 225.49800110 162.50000000 0.036368 -0.893026 0.448533 0.000000
94.06250000 292.26599121 156.25000000 -0.313713 0.921083 0.230629 0.000000
112.53900146 175.52699280 131.25000000 0.466403 0.479588 -0.743279 0.000000
70.96679688 221.71899414 152.50000000 -0.999999 0.000978 0.000978 0.000000
208.70100403 220.87899780 180.00000000 0.688082 0.688082 -0.230406 0.000000
82.72460175 187.28500366 192.50000000 -0.820794 -0.518964 0.238692 0.000000
72.22660065 216.67999268 136.25000000 -0.936710 0.309486 -0.163684 0.000000
200.72300720 224.23800659 153.75000000 0.184955 -0.978671 0.089415 0.000000
81.04489899 254.47300720 85.00000000 -0.298301 0.298301 -0.906660 0.000000
82.30470276 186.44500732 116.25000000 -0.517923 -0.776078 -0.359803 0.000000
196.94299316 184.76600647 167.50000000 -0.620305 0.216096 0.754005 0.000000
107.08000183 213.32000732 130.00000000 0.688082 -0.688082 -0.230406 0.000000
73.48639679 229.27699280 127.50000000 -0.988709 -0.135614 0.063750 0.000000
97.42189789 254.05299377 85.00000000 0.001329 0.873026 -0.487672 0.000000
81.46489716 254.89300537 85.00000000 -0.761638 0.171787 -0.624817 0.000000
83.56449890 174.68800354 167.50000000 -0.894688 -0.446689 0.001310 0.000000
150.33200073 203.24200439 151.25000000 0.239732 -0.910980 0.335624 0.000000
124.29699707 203.24200439 231.25000000 -0.630860 -0.142356 0.762726 0.000000
179.72700500 152.01199341 153.75000000 -0.674187 -0.139642 0.725239 0.000000
143.61300659 256.15200806 126.25000000 0.321973 0.453903 -0.830846 0.000000
136.47500610 178.04699707 205.00000000 0.568790 -0.659393 0.491609 0.000000
182.24600220 190.64500427 201.25000000 0.297932 -0.235209 0.925156 0.000000
169.64799500 263.71099854 188.75000000 0.428670 0.635499 0.642171 0.000000
146.97300720 175.52699280 136.25000000 0.000978 0.000978 0.999999 0.000000
134.37500000 288.06600952 183.75000000 0.149833 0.823342 0.547411 0.000000
85.24420166 193.16400146 202.50000000 -0.793553 -0.412130 0.447686 0.000000
154.11099243 264.55099487 137.50000000 0.430497 0.087207 -0.898369 0.000000
192.32400513 145.29299927 163.75000000 -0.605592 -0.204946 0.768932 0.000000
104.98000336 247.75399780 221.25000000 -0.000978 -0.000978 0.999999 0.000000
124.29699707 147.81300354 156.25000000 -0.660652 -0.566513 0.492547 0.000000
176.36700439 168.80900574 193.75000000 0.223807 -0.315040 0.922312 0.000000
125.97699738 159.57000732 176.25000000 0.224315 -0.898727 0.376791 0.000000
88.18360138 232.63699341 216.25000000 -0.818468 0.238912 0.522524 0.000000
188.96499634 188.96499634 198.75000000 -0.000978 -0.000978 0.999999 0.000000
100.78099823 175.52699280 121.25000000 0.759741 0.126376 -0.637826 0.000000
164.60899353 230.11700439 146.25000000 -0.148381 -0.883081 -0.445142 0.000000
178.04699707 262.45098877 155.00000000 0.912393 0.181336 -0.366956 0.000000
183.92599487 161.66999817 187.50000000 0.152417 -0.629284 0.762083 0.000000
204.92199707 194.84399414 173.75000000 -0.544445 0.293651 0.785715 0.000000
79.78520203 205.76199341 203.75000000 -0.840607 -0.240392 0.485378 0.000000
163.35000610 141.09399414 162.50000000 -0.269317 -0.779603 0.565409 0.000000
159.57000732 140.25399780 158.75000000 -0.638842 -0.638842 0.428675 0.000000
133.11500549 229.27699280 152.50000000 0.948663 -0.146258 -0.280439 0.000000
106.23999786 201.56300354 142.50000000 0.654082 -0.004149 -0.756412 0.000000
83.14459991 258.67199707 83.75000000 -0.727477 0.317767 -0.608113 0.000000
188.96499634 224.23800659 203.75000000 0.000978 0.000978 0.999999 0.000000
140.25399780 229.69700623 157.50000000 -0.440346 -0.009201 -0.897781 0.000000
140.25399780 202.40199280 228.75000000 0.621345 -0.139241 0.771066 0.000000
159.57000732 152.01199341 138.75000000 -0.455053 -0.136372 0.879960 0.000000
163.77000427 280.50799561 176.25000000 0.324691 0.809352 0.489413 0.000000
132.69500732 184.76600647 153.75000000 -0.939691 0.083264 0.331734 0.000000
76.00589752 195.68400574 167.50000000 -0.984979 -0.163575 0.055309 0.000000
152.85200500 208.28100586 166.25000000 0.535660 -0.623529 0.569456 0.000000
95.74220276 172.16799927 113.75000000 0.000978 0.000978 -0.999999 0.000000
167.96899414 267.07000732 186.25000000 0.638842 0.638842 0.428675 0.000000
99.10160065 267.07000732 203.75000000 -0.519186 0.495814 0.696143 0.000000
83.98439789 278.82800293 101.25000000 -0.465868 0.696298 -0.546018 0.000000
117.99800110 313.26199341 120.00000000 -0.688082 0.688082 -0.230406 0.000000
117.57800293 312.84201050 120.00000000 -0.688082 0.688082 -0.230406 0.000000
167.12899780 277.14898682 146.25000000 0.674853 -0.035370 -0.737104 0.000000
115.89800262 241.03500366 101.25000000 0.746388 0.289285 -0.599348 0.000000
93.64260101 162.08999634 145.00000000 -0.708486 -0.705724 -0.001381 0.000000
76.84570313 189.80499268 135.00000000 -0.970072 -0.242814 0.001184 0.000000
89.02349854 270.85000610 95.00000000 0.568957 0.448825 -0.689089 0.000000
157.89100647 225.07800293 156.25000000 -0.000978 -0.000978 -0.999999 0.000000
220.45899963 209.12100220 182.50000000 -0.348014 0.869269 -0.351080 0.000000
151.17199707 286.38699341 178.75000000 -0.000978 -0.000978 0.999999 0.000000
102.46099854 245.23399353 221.25000000 -0.000978 -0.000978 0.999999 0.000000
169.64799500 194.84399414 146.25000000 -0.343482 -0.301484 0.889453 0.000000
200.72300720 231.37699890 170.00000000 0.382696 -0.757250 0.529261 0.000000
131.43600464 182.24600220 147.50000000 -0.255177 -0.079981 0.963581 0.000000
204.08200073 203.24200439 171.25000000 -0.000978 -0.000978 0.999999 0.000000
186.02499390 243.55499268 202.50000000 0.839351 0.384376 0.384376 0.000000
115.47899628 265.39099121 115.00000000 0.503269 0.167756 -0.847690 0.000000
153.69099426 236.83599854 128.75000000 0.034113 -0.498053 -0.866475 0.000000
203.24200439 157.89100647 183.75000000 -0.068162 -0.231752 0.970384 0.000000
146.97300720 287.22698975 133.75000000 -0.000978 -0.000978 -0.999999 0.000000
198.20300293 241.87500000 156.25000000 -0.419406 0.738484 -0.527958 0.000000
76.00589752 216.67999268 187.50000000 -0.984673 -0.089733 0.149555 0.000000
185.60600281 204.08200073 156.25000000 -0.619783 0.043766 0.783552 0.000000
182.24600220 229.27699280 206.25000000 0.000978 0.000978 0.999999 0.000000
81.88480377 187.28500366 115.00000000 -0.884997 -0.384847 -0.262055 0.000000
179.72700500 193.16400146 151.25000000 -0.688852 -0.159668 0.707099 0.000000
172.16799927 277.14898682 173.75000000 0.798367 0.598418 0.067126 0.000000
99.10160065 190.22500610 132.50000000 -0.000978 -0.000978 -0.999999 0.000000
157.05099487 263.29098511 197.50000000 0.268352 0.633564 0.725661 0.000000
98.26170349 199.04299927 113.75000000 0.764999 -0.457034 0.453758 0.000000
137.73399353 205.76199341 146.25000000 -0.688082 -0.688082 0.230406 0.000000
85.66410065 262.03100586 83.75000000 -0.225035 0.578883 -0.783743 0.000000
101.62100220 159.14999390 177.50000000 0.001381 -0.705724 -0.708486 0.000000
152.43200684 206.60200500 162.50000000 0.265006 -0.826013 0.497468 0.000000
141.93400574 288.90600586 131.25000000 0.703149 0.123909 -0.700163 0.000000
88.18360138 261.61099243 85.00000000 0.546348 0.727914 -0.414300 0.000000
175.52699280 199.04299927 148.75000000 -0.482511 -0.182612 0.856642 0.000000
179.72700500 205.76199341 206.25000000 0.339512 0.246255 0.907794 0.000000
135.21499634 200.72300720 141.25000000 -0.102859 -0.121776 0.987213 0.000000
178.88699341 157.89100647 186.25000000 -0.001236 -0.948187 -0.317711 0.000000
126.81600189 308.22299194 156.25000000 -0.504039 0.753595 0.421948 0.000000
118.41799927 228.43800354 228.75000000 0.000978 0.000978 0.999999 0.000000
81.88480377 237.67599487 202.50000000 -0.891151 0.229069 0.391634 0.000000
184.76600647 213.32000732 203.75000000 0.000978 0.000978 0.999999 0.000000
183.50599670 264.55099487 172.50000000 0.697319 0.716727 -0.006932 0.000000
208.70100403 157.89100647 182.50000000 0.372060 -0.598246 0.709700 0.000000
163.77000427 176.36700439 141.25000000 -0.760983 -0.253661 0.597127 0.000000
162.08999634 165.44900513 138.75000000 -0.166719 -0.040805 0.985160 0.000000
145.29299927 170.06799316 135.00000000 -0.350729 -0.369269 0.860598 0.000000
111.69899750 215.00000000 226.25000000 -0.097536 -0.150518 0.983784 0.000000
182.24600220 208.28100586 203.75000000 0.221462 0.268819 0.937385 0.000000
80.62500000 182.66600037 132.50000000 -0.688082 -0.688082 -0.230406 0.000000
134.37500000 175.52699280 151.25000000 0.514597 0.374991 0.771085 0.000000
189.80499268 218.35899353 146.25000000 0.602359 -0.339334 0.722506 0.000000
134.37500000 172.16799927 198.75000000 0.388603 -0.649876 0.653184 0.000000
213.74000549 168.80900574 182.50000000 -0.727942 0.601485 0.329114 0.000000
83.98439789 270.85000610 185.00000000 -0.801502 0.575939 0.160902 0.000000
173.84800720 194.00399780 146.25000000 -0.333720 -0.379857 0.862751 0.000000
88.18360138 211.64100647 216.25000000 -0.642776 -0.192679 0.741427 0.000000
78.10549927 250.27400208 91.25000000 0.000000 0.000000 0.000000 0.000000
74.74610138 209.96099854 176.25000000 -0.970072 -0.242814 -0.001184 0.000000
172.16799927 253.21299744 195.00000000 0.360533 0.585662 0.725959 0.000000
97.42189789 196.10400391 95.00000000 0.917086 -0.102812 -0.385204 0.000000
184.76600647 220.87899780 203.75000000 0.329039 -0.258844 0.908148 0.000000
97.84179688 167.12899780 190.00000000 -0.638842 -0.638842 0.428675 0.000000
183.92599487 215.83999634 148.75000000 -0.223119 -0.972599 -0.065333 0.000000
99.52149963 196.52299500 102.50000000 0.980620 0.162825 -0.108958 0.000000
86.50389862 220.03900146 216.25000000 -0.601147 -0.201407 0.773342 0.000000
134.37500000 177.62699890 207.50000000 0.574755 -0.684708 0.448142 0.000000
195.68400574 166.28900146 166.25000000 -0.646603 0.055668 0.760793 0.000000
197.36300659 220.87899780 143.75000000 0.153087 -0.692683 -0.704808 0.000000
127.65599823 315.36099243 142.50000000 0.052515 0.986114 0.157545 0.000000
72.64649963 234.31599426 140.00000000 -0.999999 -0.000978 -0.000978 0.000000
144.87300110 175.52699280 195.00000000 -0.000978 -0.999999 -0.000978 0.000000
162.92999268 251.11300659 201.25000000 0.449492 0.636641 0.626615 0.000000
222.97900391 204.92199707 190.00000000 0.867287 -0.134654 0.479252 0.000000
146.13299561 209.12100220 226.25000000 0.891809 -0.123350 0.435271 0.000000
178.88699341 200.72300720 151.25000000 -0.558076 -0.054824 0.827977 0.000000
125.97699738 157.05099487 171.25000000 0.210104 -0.868727 0.448519 0.000000
95.32230377 198.20300293 87.50000000 0.673468 -0.502162 -0.542470 0.000000
155.37100220 144.03300476 167.50000000 0.109764 -0.987878 0.109764 0.000000
110.85900116 224.23800659 93.75000000 0.830102 -0.488752 -0.268426 0.000000
188.54499817 211.64100647 160.00000000 -0.549748 -0.376830 0.745504 0.000000
103.72100067 162.08999634 187.50000000 -0.430439 -0.853164 0.294673 0.000000
136.05499268 307.38299561 126.25000000 -0.000978 -0.000978 -0.999999 0.000000
145.71299744 216.67999268 227.50000000 0.437565 -0.123198 0.890707 0.000000
104.98000336 170.48800659 123.75000000 0.733995 0.254136 -0.629815 0.000000
192.32400513 141.93400574 163.75000000 -0.569961 -0.210471 0.794258 0.000000
183.92599487 248.59399414 193.75000000 0.300939 0.667860 0.680734 0.000000
177.20700073 272.94900513 171.25000000 0.710964 0.551867 0.435859 0.000000
75.16600037 226.75799561 187.50000000 -0.959170 -0.179098 0.218898 0.000000
194.00399780 168.80900574 166.25000000 -0.635920 -0.009698 0.771694 0.000000
112.53900146 268.32998657 207.50000000 -0.012470 0.622109 0.782832 0.000000
168.80900574 266.23098755 148.75000000 0.702951 -0.001381 -0.711237 0.000000
94.48249817 275.46899414 102.50000000 0.656645 0.334026 -0.676198 0.000000
164.60899353 145.71299744 170.00000000 -0.131478 -0.868335 0.478234 0.000000
98.26170349 251.95300293 213.75000000 -0.064791 0.692544 0.718460 0.000000
74.74610138 219.61900330 115.00000000 -0.980726 -0.190927 -0.041506 0.000000
93.22270203 233.47700500 221.25000000 -0.001355 0.830587 0.556887 0.000000
157.89100647 221.29899597 160.00000000 -0.114087 -0.718599 -0.686003 0.000000
158.73100281 230.53700256 147.50000000 -0.178576 -0.889978 -0.419582 0.000000
95.74220276 291.84600830 160.00000000 -0.554658 0.792146 0.254674 0.000000
165.44900513 220.87899780 156.25000000 -0.357753 -0.797324 -0.486095 0.000000
191.48399353 165.44900513 163.75000000 -0.664837 0.055761 0.744904 0.000000
173.84800720 162.92999268 191.25000000 -0.064482 -0.631920 0.772347 0.000000
85.24420166 203.24200439 87.50000000 0.957527 -0.239713 0.160250 0.000000
98.26170349 203.24200439 86.25000000 0.937821 -0.331390 -0.103308 0.000000
175.52699280 140.25399780 168.75000000 -0.269797 -0.780991 0.563260 0.000000
94.48249817 267.07000732 97.50000000 0.516215 0.502850 -0.693299 0.000000
199.88299561 197.36300659 193.75000000 0.534962 -0.185353 0.824294 0.000000
113.37899780 219.61900330 120.00000000 0.513657 -0.856095 -0.057073 0.000000
189.38499451 238.51600647 192.50000000 0.852769 -0.086554 -0.515067 0.000000
126.81600189 246.91400146 226.25000000 0.377737 0.301886 0.875317 0.000000
94.90239716 297.30499268 116.25000000 -0.587875 0.784345 -0.198005 0.000000
155.37100220 236.83599854 216.25000000 0.758808 -0.092110 0.644768 0.000000
162.08999634 209.96099854 156.25000000 0.572765 -0.817221 -0.063956 0.000000
76.00589752 213.32000732 120.00000000 -0.939967 -0.171527 -0.295026 0.000000
121.77700043 161.25000000 183.75000000 0.245854 -0.867276 0.432884 0.000000
195.68400574 219.61900330 147.50000000 -0.216402 -0.973191 -0.077905 0.000000
183.92599487 163.77000427 158.75000000 -0.803949 -0.037882 0.593491 0.000000
158.73100281 215.00000000 211.25000000 0.575098 0.072779 0.814841 0.000000
144.03300476 187.28500366 140.00000000 0.376247 -0.885904 0.271317 0.000000
148.65199280 146.97300720 173.75000000 -0.227432 -0.685432 0.691706 0.000000
147.81300354 141.93400574 158.75000000 0.054461 -0.956230 0.287502 0.000000
204.50199890 235.99600220 160.00000000 0.900275 0.414098 0.134264 0.000000
199.88299561 226.75799561 178.75000000 0.271122 0.835055 -0.478724 0.000000
167.12899780 137.31399536 155.00000000 -0.145592 -0.973568 0.175977 0.000000
83.14459991 275.46899414 168.75000000 -0.821578 0.492947 0.286379 0.000000
171.32800293 242.71499634 203.75000000 0.254750 0.492517 0.832184 0.000000
99.52149963 207.44099426 87.50000000 0.938552 -0.299069 -0.172275 0.000000
131.01600647 288.06600952 183.75000000 0.087461 0.833029 0.546272 0.000000
135.21499634 252.79299927 218.75000000 0.358286 0.714936 0.600415 0.000000
102.46099854 229.27699280 226.25000000 -0.380132 -0.082520 0.921244 0.000000
176.36700439 207.44099426 206.25000000 0.231452 0.022785 0.972579 0.000000
194.84399414 233.47700500 141.25000000 -0.000978 -0.000978 -0.999999 0.000000
172.16799927 159.57000732 188.75000000 0.023843 -0.699858 0.713884 0.000000
131.85499573 314.94100952 143.75000000 -0.126747 0.846436 0.517186 0.000000
100.36100006 209.12100220 87.50000000 0.902546 -0.364236 -0.229659 0.000000
103.30100250 269.58999634 106.25000000 0.608602 0.406287 -0.681568 0.000000
175.52699280 267.07000732 153.75000000 0.819423 0.090727 -0.565963 0.000000
192.32400513 231.79699707 181.25000000 -0.109022 -0.285033 -0.952298 0.000000
78.52539825 258.67199707 92.50000000 -0.724887 0.386278 -0.570376 0.000000
148.65199280 271.69000244 135.00000000 0.943164 0.315275 -0.105092 0.000000
89.86329651 220.87899780 221.25000000 -0.790999 -0.167879 0.588334 0.000000
144.45300293 198.20300293 148.75000000 0.627822 -0.421323 0.654467 0.000000
84.40429688 279.66799927 162.50000000 -0.943164 0.315275 0.105092 0.000000
86.92389679 173.00799561 120.00000000 -0.548770 -0.698890 -0.458699 0.000000
136.05499268 157.89100647 133.75000000 0.000978 0.000978 0.999999 0.000000
95.74220276 240.19500732 221.25000000 -0.744401 0.149484 0.650785 0.000000
75.58599854 206.60200500 181.25000000 -0.688082 -0.688082 0.230406 0.000000
133.53500366 203.24200439 141.25000000 -0.068201 -0.229404 0.970939 0.000000
131.01600647 162.50999451 180.00000000 0.169981 -0.858773 0.483337 0.000000
125.97699738 195.68400574 228.75000000 0.000978 0.000978 0.999999 0.000000
169.64799500 273.78900146 148.75000000 0.733521 -0.073786 -0.675650 0.000000
151.17199707 134.79499817 140.00000000 0.046892 -0.977512 0.205602 0.000000
141.09399414 253.21299744 125.00000000 0.110885 0.428099 -0.896903 0.000000
115.89800262 220.87899780 228.75000000 -0.062383 -0.105485 0.992462 0.000000
148.23199463 201.56300354 165.00000000 0.943164 -0.315275 0.105092 0.000000
178.88699341 199.04299927 151.25000000 -0.595411 -0.049500 0.801895 0.000000
71.80670166 235.15600586 172.50000000 -0.997753 0.062426 0.024335 0.000000
131.85499573 157.89100647 173.75000000 -0.352119 -0.646916 0.676396 0.000000
96.58209991 284.70700073 106.25000000 0.748008 0.092220 -0.657252 0.000000
80.20510101 270.42999268 140.00000000 -0.792315 0.565939 -0.227926 0.000000
168.80900574 208.28100586 151.25000000 0.608602 -0.406287 0.681568 0.000000
184.76600647 237.67599487 146.25000000 0.097110 0.984289 -0.147463 0.000000
73.48639679 226.75799561 127.50000000 -0.995906 -0.069175 0.058195 0.000000
89.44339752 197.36300659 210.00000000 -0.614207 -0.314358 0.723829 0.000000
124.29699707 165.02900696 192.50000000 -0.290210 -0.873667 0.390491 0.000000
110.01999664 309.06298828 118.75000000 -0.163456 0.908247 -0.385188 0.000000
104.56099701 153.69099426 150.00000000 -0.638842 -0.638842 0.428675 0.000000
175.52699280 266.23098755 181.25000000 0.694276 0.526981 0.490176 0.000000
162.08999634 271.26998901 186.25000000 0.498387 0.662838 0.558798 0.000000
133.95500183 214.16000366 157.50000000 0.356203 0.299091 -0.885248 0.000000
198.20300293 241.03500366 156.25000000 0.297327 0.721620 -0.625189 0.000000
104.14099884 262.03100586 103.75000000 0.760200 0.351734 -0.546241 0.000000
199.88299561 151.17199707 178.75000000 0.000978 0.000978 0.999999 0.000000
167.12899780 272.94900513 146.25000000 0.632504 -0.104194 -0.767517 0.000000
77.68560028 258.67199707 100.00000000 -0.998563 -0.009313 0.052774 0.000000
129.33599854 230.95700073 226.25000000 0.000978 0.000978 0.999999 0.000000
110.85900116 209.96099854 141.25000000 0.976657 -0.191380 0.097542 0.000000
202.40199280 230.11700439 168.75000000 0.328188 -0.813336 0.480392 0.000000
140.67399597 254.47300720 125.00000000 0.165502 0.467212 -0.868517 0.000000
134.37500000 298.14498901 171.25000000 -0.283127 0.140893 0.948677 0.000000
195.68400574 226.33799744 200.00000000 0.383289 0.238261 0.892368 0.000000
101.62100220 302.34399414 113.75000000 -0.497198 0.608435 -0.618548 0.000000
202.40199280 157.47099304 170.00000000 -0.797273 -0.388167 0.462257 0.000000
165.44900513 172.16799927 196.25000000 -0.011956 -0.458306 0.888714 0.000000
78.94529724 251.11300659 193.75000000 0.000000 0.000000 0.000000 0.000000
144.45300293 204.92199707 168.75000000 0.000978 0.000978 0.999999 0.000000
164.60899353 136.89500427 151.25000000 -0.189576 -0.953258 0.235289 0.000000
204.50199890 156.21099854 172.50000000 -0.788731 -0.303114 0.534814 0.000000
181.40600586 171.32800293 153.75000000 -0.735885 0.233789 0.635466 0.000000
138.57400513 272.10900879 201.25000000 0.723027 0.241009 0.647416 0.000000
191.48399353 171.32800293 163.75000000 -0.702951 -0.001381 0.711237 0.000000
76.84570313 263.71099854 142.50000000 -0.939499 0.341287 -0.029399 0.000000
167.54899597 251.11300659 142.50000000 0.480797 0.374668 -0.792753 0.000000
105.81999969 173.84800720 206.25000000 -0.837527 -0.280208 0.469077 0.000000
156.63099670 258.67199707 137.50000000 0.589606 0.207824 -0.780496 0.000000
95.32230377 161.25000000 160.00000000 -0.577252 -0.789680 0.207811 0.000000
173.84800720 142.77299500 141.25000000 0.000978 0.000978 0.999999 0.000000
127.23600006 152.85200500 165.00000000 -0.449196 -0.717719 0.532073 0.000000
194.84399414 200.72300720 198.75000000 0.608602 0.406287 0.681568 0.000000
115.05899811 230.95700073 98.75000000 0.897060 -0.155948 -0.413477 0.000000
157.89100647 204.92199707 211.25000000 0.000978 0.000978 0.999999 0.000000
194.84399414 144.45300293 166.25000000 -0.618211 -0.058537 0.783829 0.000000
169.64799500 157.89100647 143.75000000 -0.614225 -0.018025 0.788925 0.000000
145.29299927 137.31399536 147.50000000 -0.001236 -0.948187 0.317711 0.000000
203.24200439 223.81799316 145.00000000 0.258260 -0.456922 -0.851189 0.000000
167.96899414 215.83999634 208.75000000 0.302045 -0.903188 0.304992 0.000000
107.91999817 222.55900574 87.50000000 0.680647 -0.607780 -0.409051 0.000000
76.42579651 218.35899353 191.25000000 -0.970072 0.242814 0.001184 0.000000
72.64649963 236.83599854 130.00000000 -0.999999 0.000978 0.000978 0.000000
168.80900574 262.87100220 191.25000000 0.545703 0.394938 0.739075 0.000000
150.33200073 215.00000000 166.25000000 0.038078 0.624758 0.779890 0.000000
151.17199707 288.06600952 136.25000000 0.636522 0.254293 -0.728131 0.000000
215.00000000 171.32800293 183.75000000 -0.908737 -0.069276 0.411580 0.000000
174.26800537 228.43800354 207.50000000 0.299009 0.073782 0.951394 0.000000
199.88299561 244.39500427 158.75000000 -0.948732 0.060503 0.310237 0.000000
211.64100647 202.40199280 191.25000000 0.437408 -0.398955 0.805921 0.000000
113.37899780 173.00799561 211.25000000 -0.317162 -0.442151 0.838994 0.000000
148.65199280 282.18798828 183.75000000 0.388577 0.643220 0.659755 0.000000
126.81600189 171.74800110 205.00000000 0.829738 0.004074 0.558138 0.000000
152.01199341 143.19299316 132.50000000 -0.266330 -0.263482 0.927171 0.000000
175.52699280 255.31300354 151.25000000 0.207914 0.420252 -0.883267 0.000000
129.33599854 302.76400757 125.00000000 0.522655 -0.222243 -0.823067 0.000000
150.33200073 250.27400208 128.75000000 0.445155 0.454939 -0.771276 0.000000
94.90239716 267.07000732 98.75000000 0.574648 0.524093 -0.628574 0.000000
178.88699341 229.27699280 206.25000000 0.000978 0.000978 0.999999 0.000000
91.12310028 281.34799194 175.00000000 -0.638842 0.638842 0.428675 0.000000
184.34599304 218.35899353 155.00000000 0.433291 -0.862022 0.263015 0.000000
129.33599854 265.39099121 208.75000000 0.058912 0.728494 0.682514 0.000000
125.97699738 280.50799561 123.75000000 0.639909 -0.158843 -0.751855 0.000000
133.11500549 184.76600647 147.50000000 -0.406108 -0.547506 0.731652 0.000000
163.77000427 251.95300293 201.25000000 0.479050 0.692704 0.539140 0.000000
162.92999268 191.48399353 141.25000000 -0.420538 -0.153575 0.894182 0.000000
168.38900757 250.27400208 142.50000000 0.456353 0.456353 -0.763861 0.000000
188.12500000 235.15600586 141.25000000 -0.000978 -0.000978 -0.999999 0.000000
113.37899780 153.69099426 128.75000000 0.614658 -0.268417 -0.741719 0.000000
109.18000031 207.44099426 143.75000000 0.303384 -0.309303 -0.901271 0.000000
110.85900116 256.99200439 216.25000000 -0.314908 0.634661 0.705718 0.000000
198.62300110 156.21099854 167.50000000 -0.411501 0.071979 0.908562 0.000000
194.00399780 205.76199341 198.75000000 0.721412 -0.061918 0.689733 0.000000
149.49200439 294.78500366 173.75000000 0.000978 0.000978 0.999999 0.000000
135.21499634 308.64300537 155.00000000 -0.012276 0.838848 0.544228 0.000000
76.84570313 210.80099487 192.50000000 -0.688082 0.688082 -0.230406 0.000000
103.30100250 194.84399414 141.25000000 0.301154 0.277876 -0.912190 0.000000
110.85900116 223.39799500 96.25000000 0.688082 -0.688082 -0.230406 0.000000
104.14099884 306.96301270 125.00000000 -0.594517 0.793183 -0.131950 0.000000
155.37100220 174.68800354 196.25000000 -0.461814 -0.279560 0.841768 0.000000
112.11900330 184.76600647 220.00000000 -0.154122 -0.488788 0.858681 0.000000
152.01199341 278.82800293 186.25000000 0.229548 0.607443 0.760474 0.000000
112.53900146 245.23399353 98.75000000 0.759230 0.427989 -0.490302 0.000000
201.56300354 164.18899536 172.50000000 -0.687340 -0.412404 0.597903 0.000000
186.44500732 162.50999451 187.50000000 0.082788 -0.478486 0.874184 0.000000
81.04489899 230.95700073 87.50000000 -0.963153 -0.160743 -0.215631 0.000000
167.12899780 244.39500427 136.25000000 0.534310 0.467729 -0.704090 0.000000
89.02349854 265.39099121 91.25000000 0.571106 0.754504 -0.323359 0.000000
99.10160065 288.90600586 173.75000000 -0.942347 -0.236625 -0.236625 0.000000
137.73399353 187.28500366 221.25000000 0.688082 -0.688082 0.230406 0.000000
178.04699707 178.88699341 148.75000000 -0.989449 -0.021436 0.143284 0.000000
144.45300293 307.38299561 156.25000000 0.137340 0.868857 0.475631 0.000000
97.84179688 281.34799194 187.50000000 -0.374359 0.869430 0.322407 0.000000
213.32000732 167.12899780 186.25000000 -0.639123 0.746410 -0.185453 0.000000
84.40429688 191.48399353 107.50000000 -0.988800 -0.141586 -0.047195 0.000000
203.24200439 155.37100220 183.75000000 -0.068162 -0.231752 0.970384 0.000000
142.77299500 295.62500000 131.25000000 0.548901 -0.121490 -0.827011 0.000000
149.07200623 254.47300720 130.00000000 0.626727 0.319031 -0.710938 0.000000
115.05899811 249.43400574 223.75000000 0.043727 0.393543 0.918266 0.000000
197.78300476 178.88699341 192.50000000 0.353072 -0.567845 0.743567 0.000000
110.01999664 309.48300171 120.00000000 -0.163456 0.908247 -0.385188 0.000000
149.49200439 231.37699890 150.00000000 -0.434424 -0.879156 0.195859 0.000000
77.26560211 224.23800659 193.75000000 -0.948187 -0.001236 0.317711 0.000000
178.04699707 251.95300293 153.75000000 0.864786 0.143889 -0.481083 0.000000
162.92999268 222.13900757 157.50000000 -0.559241 -0.806100 -0.193525 0.000000
102.04100037 206.60200500 222.50000000 -0.372029 -0.102206 0.922577 0.000000
180.98599243 268.75000000 162.50000000 0.843212 0.206655 -0.496273 0.000000
162.50999451 295.62500000 145.00000000 0.712664 0.067942 -0.698208 0.000000
95.74220276 197.36300659 116.25000000 0.764999 -0.457034 0.453758 0.000000
120.93800354 286.38699341 121.25000000 0.431012 0.099035 -0.896895 0.000000
80.20510101 235.99600220 87.50000000 -0.905810 -0.130605 -0.403051 0.000000
148.65199280 211.64100647 168.75000000 -0.064344 0.345354 0.936264 0.000000
152.43200684 179.72700500 197.50000000 -0.192534 -0.725468 0.660777 0.000000
167.54899597 183.08599854 142.50000000 -0.284241 0.149530 0.947021 0.000000
160.83000183 269.58999634 142.50000000 0.573049 0.049279 -0.818038 0.000000
187.70500183 236.83599854 190.00000000 0.113398 0.787894 -0.605280 0.000000
131.01600647 212.48100281 146.25000000 -0.999999 0.000978 0.000978 0.000000
110.85900116 152.85200500 126.25000000 0.736494 -0.123493 -0.665076 0.000000
216.67999268 210.80099487 188.75000000 -0.009010 0.384874 0.922925 0.000000
193.16400146 230.95700073 171.25000000 -0.487287 -0.720121 0.493940 0.000000
99.10160065 299.40399170 112.50000000 -0.537145 0.691093 -0.483598 0.000000
163.77000427 183.92599487 141.25000000 -0.433798 -0.354925 0.828159 0.000000
94.90239716 268.75000000 98.75000000 0.716530 0.357449 -0.599012 0.000000
110.01999664 175.52699280 128.75000000 0.613932 0.328834 -0.717604 0.000000
105.81999969 303.18399048 111.25000000 -0.545692 0.817782 0.182905 0.000000
138.15400696 197.36300659 155.00000000 -0.363101 -0.655553 0.662125 0.000000
105.81999969 165.44900513 123.75000000 0.732883 0.179013 -0.656382 0.000000
123.45700073 182.24600220 138.75000000 0.000978 0.000978 -0.999999 0.000000
110.85900116 217.10000610 110.00000000 0.818202 -0.564428 -0.109385 0.000000
115.05899811 267.91000366 208.75000000 -0.012470 0.622109 0.782832 0.000000
135.63499451 229.27699280 157.50000000 0.083597 -0.905861 0.415243 0.000000
149.49200439 142.35400391 160.00000000 0.104528 -0.927179 0.359740 0.000000
79.78520203 239.77499390 87.50000000 -0.912062 -0.100423 -0.397565 0.000000
112.53900146 178.88699341 133.75000000 0.441389 0.295808 -0.847156 0.000000
191.06500244 239.35600281 165.00000000 -0.314568 0.946315 -0.074400 0.000000
188.96499634 148.65199280 161.25000000 -0.621510 -0.001372 0.783405 0.000000
141.93400574 190.22500610 217.50000000 0.688082 -0.688082 0.230406 0.000000
72.22660065 223.81799316 140.00000000 -0.955429 0.100366 -0.277635 0.000000
141.93400574 170.48800659 188.75000000 0.093379 -0.963213 0.251996 0.000000
118.83799744 251.11300659 110.00000000 0.575668 0.291821 -0.763837 0.000000
102.04100037 155.37100220 155.00000000 -0.562521 -0.826590 0.017880 0.000000
125.13700104 234.31599426 226.25000000 0.372850 0.181425 0.909982 0.000000
115.89800262 251.95300293 106.25000000 0.659689 0.189141 -0.727349 0.000000
117.57800293 220.87899780 228.75000000 0.000978 0.000978 0.999999 0.000000
104.98000336 259.51199341 211.25000000 -0.381500 0.514619 0.767870 0.000000
197.36300659 229.69700623 182.50000000 0.346546 0.720750 -0.600354 0.000000
141.93400574 298.98400879 168.75000000 -0.999999 0.000978 0.000978 0.000000
129.33599854 240.19500732 226.25000000 0.408343 -0.161905 0.898355 0.000000
176.36700439 165.44900513 193.75000000 -0.091421 -0.391611 0.915578 0.000000
154.53100586 244.39500427 128.75000000 0.472398 0.249194 -0.845424 0.000000
192.32400513 166.28900146 163.75000000 -0.638815 0.035255 0.768552 0.000000
167.12899780 138.15400696 160.00000000 -0.277593 -0.895125 0.348846 0.000000
146.97300720 191.06500244 210.00000000 0.526650 -0.530015 0.664623 0.000000
70.96679688 219.19900513 142.50000000 -0.948187 -0.001236 -0.317711 0.000000
178.04699707 188.12500000 148.75000000 -0.820641 -0.029160 0.570700 0.000000
163.77000427 195.68400574 206.25000000 0.380394 -0.195259 0.903977 0.000000
144.45300293 290.58599854 133.75000000 0.442446 0.064381 -0.894481 0.000000
208.28100586 152.85200500 178.75000000 -0.442827 0.884212 0.148571 0.000000
136.89500427 265.81100464 127.50000000 0.867414 0.274959 -0.414718 0.000000
86.50389862 207.02200317 212.50000000 -0.681248 -0.283720 0.674836 0.000000
113.37899780 251.11300659 103.75000000 0.619222 0.195139 -0.760582 0.000000
79.36530304 245.23399353 87.50000000 -0.982315 -0.112924 -0.149351 0.000000
174.68800354 278.82800293 156.25000000 0.786321 0.064453 -0.614447 0.000000
156.21099854 277.98800659 138.75000000 0.436861 -0.151388 -0.886698 0.000000
86.50389862 285.12701416 137.50000000 -0.708486 0.705724 0.001381 0.000000
191.48399353 192.32400513 161.25000000 0.216087 -0.433665 -0.874781 0.000000
77.26560211 234.31599426 101.25000000 -0.787863 0.497852 -0.362513 0.000000
105.40000153 166.28900146 122.50000000 0.745297 0.195968 -0.637283 0.000000
177.20700073 167.12899780 151.25000000 -0.842658 0.048749 0.536237 0.000000
163.77000427 279.66799927 143.75000000 0.459028 -0.329680 -0.824988 0.000000
155.37100220 229.69700623 140.00000000 -0.194751 -0.978594 0.066530 0.000000
81.04489899 272.10900879 130.00000000 -0.941995 0.335625 -0.001248 0.000000
171.32800293 247.75399780 201.25000000 -0.386830 0.581068 0.716047 0.000000
139.41400146 168.80900574 188.75000000 0.311405 -0.834065 0.455371 0.000000
106.66000366 306.54299927 116.25000000 -0.347696 0.680701 -0.644789 0.000000
78.52539825 186.44500732 167.50000000 -0.921426 -0.370498 0.117072 0.000000
104.56099701 168.80900574 122.50000000 0.859562 0.173096 -0.480822 0.000000
220.03900146 200.72300720 191.25000000 0.174658 0.024290 0.984330 0.000000
167.96899414 201.98199463 207.50000000 0.338749 -0.588354 0.734227 0.000000
99.52149963 201.56300354 95.00000000 0.943164 -0.315275 -0.105092 0.000000
84.40429688 280.50799561 150.00000000 -0.853161 0.520689 -0.031599 0.000000
115.89800262 298.98400879 118.75000000 0.269608 -0.080499 -0.959600 0.000000
136.89500427 314.10198975 128.75000000 0.758422 0.483228 -0.437362 0.000000
95.74220276 230.11700439 223.75000000 -0.530856 0.431630 0.729306 0.000000
187.28500366 155.37100220 181.25000000 0.152639 -0.642294 0.751106 0.000000
156.21099854 137.73399353 153.75000000 -0.405996 -0.790965 0.457757 0.000000
120.09799957 156.21099854 138.75000000 0.882248 -0.253141 -0.396937 0.000000
143.61300659 247.75399780 216.25000000 0.723027 0.241009 0.647416 0.000000
185.60600281 227.59800720 141.25000000 -0.000978 -0.000978 -0.999999 0.000000
105.81999969 218.35899353 91.25000000 0.798675 -0.498973 -0.336368 0.000000
186.44500732 239.35600281 156.25000000 0.194951 0.917836 0.345790 0.000000
139.41400146 203.24200439 156.25000000 -0.875670 0.158815 -0.456048 0.000000
158.31100464 265.39099121 195.00000000 0.347733 0.648123 0.677509 0.000000
99.94139862 296.46499634 108.75000000 0.787186 0.383087 -0.483303 0.000000
115.89800262 167.96899414 131.25000000 0.216087 0.433665 -0.874781 0.000000
102.46099854 249.85400391 87.50000000 0.745482 0.495343 -0.445973 0.000000
98.26170349 202.82200623 117.50000000 0.811923 -0.468722 0.347967 0.000000
156.21099854 152.01199341 181.25000000 -0.092220 -0.657252 0.748008 0.000000
131.01600647 242.29499817 120.00000000 -0.456353 -0.456353 -0.763861 0.000000
180.98599243 272.10900879 165.00000000 0.813283 0.570904 -0.112429 0.000000
150.33200073 225.91799927 156.25000000 0.632216 -0.250679 -0.733118 0.000000
124.29699707 288.06600952 123.75000000 0.397641 -0.003861 -0.917533 0.000000
157.89100647 286.38699341 141.25000000 0.397314 0.130566 -0.908347 0.000000
195.26400757 203.24200439 165.00000000 -0.842365 0.120753 0.525205 0.000000
194.00399780 199.88299561 163.75000000 -0.614937 0.076327 0.784873 0.000000
118.41799927 290.58599854 181.25000000 -0.100157 0.817221 0.567555 0.000000
124.29699707 183.08599854 221.25000000 0.067809 -0.748785 0.659335 0.000000
115.05899811 297.30499268 118.75000000 0.381758 0.011568 -0.924190 0.000000
83.98439789 180.14700317 185.00000000 -0.795164 -0.477098 0.374289 0.000000
196.94299316 154.53100586 182.50000000 0.344149 -0.172777 0.922881 0.000000
181.40600586 243.13499451 170.00000000 0.535873 0.829787 -0.155863 0.000000
152.85200500 232.21699524 220.00000000 0.924482 -0.131279 0.357909 0.000000
191.48399353 212.48100281 201.25000000 0.422315 -0.095540 0.901400 0.000000
185.18600464 204.08200073 155.00000000 -0.629618 0.035214 0.776106 0.000000
115.89800262 233.47700500 98.75000000 0.903258 -0.098512 -0.417636 0.000000
194.00399780 159.57000732 186.25000000 0.233557 -0.493064 0.838057 0.000000
82.30470276 271.69000244 172.50000000 -0.863635 0.491255 0.113146 0.000000
172.16799927 213.32000732 208.75000000 0.000978 0.000978 0.999999 0.000000
208.28100586 222.13900757 182.50000000 0.688082 0.688082 -0.230406 0.000000
138.57400513 150.33200073 133.75000000 0.000978 0.000978 0.999999 0.000000
111.69899750 301.50399780 116.25000000 0.805463 -0.240552 -0.541631 0.000000
105.81999969 192.74400330 220.00000000 -0.456353 -0.456353 0.763861 0.000000
198.20300293 219.19900513 201.25000000 0.580326 -0.389624 0.715133 0.000000
146.97300720 181.40600586 201.25000000 0.538210 -0.756096 0.372357 0.000000
95.74220276 159.99000549 142.50000000 -0.708486 -0.705724 -0.001381 0.000000
103.30100250 189.38499451 132.50000000 0.194751 0.978594 0.066530 0.000000
182.24600220 158.31100464 185.00000000 0.268189 -0.607790 0.747439 0.000000
210.80099487 218.35899353 178.75000000 0.317642 0.604648 -0.730414 0.000000
101.62100220 299.40399170 152.50000000 0.000978 0.000978 0.999999 0.000000
187.70500183 243.55499268 182.50000000 0.984979 0.163575 0.055309 0.000000
210.80099487 215.83999634 188.75000000 0.250548 0.290636 0.923448 0.000000
169.64799500 148.23199463 175.00000000 -0.055358 -0.793462 0.606097 0.000000
155.37100220 177.20700073 196.25000000 -0.379040 -0.572662 0.726903 0.000000
152.85200500 211.64100647 218.75000000 0.812127 -0.260317 0.522193 0.000000
81.46489716 179.30700684 152.50000000 -0.896244 -0.442075 -0.036280 0.000000
125.13700104 162.50999451 185.00000000 0.110550 -0.859991 0.498192 0.000000
181.40600586 247.75399780 203.75000000 0.175309 0.891036 0.418714 0.000000
78.94529724 209.96099854 106.25000000 -0.943164 -0.315275 -0.105092 0.000000
208.70100403 158.73100281 182.50000000 0.460451 -0.821216 -0.337031 0.000000
115.89800262 286.38699341 118.75000000 0.132183 -0.592594 -0.794581 0.000000
165.44900513 147.81300354 173.75000000 -0.173835 -0.796619 0.578947 0.000000
146.13299561 151.17199707 133.75000000 0.000978 0.000978 0.999999 0.000000
180.56599426 146.97300720 176.25000000 -0.168133 -0.610430 0.774019 0.000000
217.52000427 199.04299927 191.25000000 0.000978 0.000978 0.999999 0.000000
169.64799500 202.40199280 206.25000000 0.210389 -0.494944 0.843070 0.000000
78.52539825 243.55499268 195.00000000 -0.814983 0.131164 0.564446 0.000000
174.68800354 162.08999634 191.25000000 -0.091631 -0.606513 0.789776 0.000000
157.47099304 277.14898682 140.00000000 0.456353 -0.456353 -0.763861 0.000000
135.21499634 227.59800720 226.25000000 0.000978 0.000978 0.999999 0.000000
196.52299500 212.89999390 167.50000000 -0.697122 0.140027 0.703145 0.000000
173.84800720 227.17799377 145.00000000 -0.136649 -0.731298 -0.668229 0.000000
159.57000732 188.12500000 203.75000000 0.320612 -0.792758 0.518403 0.000000
213.32000732 204.08200073 178.75000000 0.688082 -0.688082 -0.230406 0.000000
147.81300354 226.75799561 226.25000000 -0.155164 0.769792 0.619148 0.000000
116.73799896 200.72300720 138.75000000 -0.307236 -0.542837 0.781622 0.000000
159.57000732 187.28500366 141.25000000 -0.343785 -0.045406 0.937950 0.000000
157.89100647 256.15200806 201.25000000 0.465804 0.436385 0.769802 0.000000
191.48399353 209.96099854 161.25000000 -0.770965 -0.073494 0.632623 0.000000
137.73399353 213.32000732 158.75000000 0.356203 0.299091 -0.885248 0.000000
141.93400574 144.45300293 131.25000000 0.000978 0.000978 0.999999 0.000000
147.39300537 244.39500427 125.00000000 0.382000 -0.138527 -0.913721 0.000000
189.80499268 185.60600281 161.25000000 -0.597153 -0.001366 0.802126 0.000000
187.28500366 244.81500244 195.00000000 0.906415 0.371529 0.200944 0.000000
106.66000366 304.86300659 146.25000000 -0.561570 0.766359 0.311983 0.000000
109.59999847 176.36700439 130.00000000 0.626037 0.300949 -0.719380 0.000000
141.09399414 225.07800293 226.25000000 0.203943 0.565826 0.798904 0.000000
151.17199707 243.55499268 126.25000000 0.412846 -0.162549 -0.896178 0.000000
158.73100281 248.59399414 206.25000000 0.704406 0.340002 0.623066 0.000000
162.92999268 171.32800293 196.25000000 -0.044807 -0.460291 0.886637 0.000000
112.53900146 222.55900574 103.75000000 0.635415 -0.687685 -0.351193 0.000000
194.00399780 150.33200073 166.25000000 -0.516931 -0.171317 0.838709 0.000000
150.33200073 263.71099854 201.25000000 0.324857 0.483325 0.812936 0.000000
143.61300659 157.89100647 133.75000000 0.000978 0.000978 0.999999 0.000000
121.77700043 230.95700073 111.25000000 0.456353 -0.456353 -0.763861 0.000000
121.77700043 266.64999390 120.00000000 0.168191 0.451923 -0.876058 0.000000
169.64799500 252.79299927 196.25000000 0.251864 0.682726 0.685894 0.000000
138.99400330 147.81300354 170.00000000 -0.468741 -0.178920 0.865026 0.000000
195.26400757 232.63699341 185.00000000 0.400171 0.762776 -0.507973 0.000000
125.13700104 317.04098511 135.00000000 -0.175177 0.974183 0.142410 0.000000
168.80900574 156.21099854 186.25000000 0.358286 -0.714936 0.600415 0.000000
178.04699707 272.94900513 158.75000000 0.812088 0.216455 -0.541904 0.000000
187.28500366 191.48399353 198.75000000 0.404800 -0.121860 0.906249 0.000000
171.74800110 143.61300659 170.00000000 -0.340489 -0.711931 0.614183 0.000000
87.34380341 240.19500732 211.25000000 -0.795418 0.377623 0.474037 0.000000
115.89800262 306.96301270 152.50000000 -0.576222 0.576222 -0.579601 0.000000
162.92999268 300.24398804 152.50000000 0.487130 0.815037 0.313718 0.000000
102.46099854 199.88299561 221.25000000 -0.291524 -0.407522 0.865413 0.000000
73.48639679 244.39500427 122.50000000 -0.969271 0.228138 -0.092011 0.000000
171.32800293 278.82800293 151.25000000 0.814384 -0.015158 -0.580128 0.000000
83.14459991 262.03100586 86.25000000 -0.614967 0.598119 -0.513877 0.000000
140.25399780 189.80499268 221.25000000 0.729769 -0.416776 0.541973 0.000000
91.54299927 243.13499451 215.00000000 -0.747416 0.534803 0.394151 0.000000
118.41799927 199.88299561 138.75000000 -0.129035 -0.594747 0.793490 0.000000
177.20700073 195.68400574 203.75000000 0.000978 0.000978 0.999999 0.000000
200.72300720 229.27699280 183.75000000 0.291838 0.850808 -0.436985 0.000000
173.84800720 215.41999817 155.00000000 -0.768201 -0.582066 -0.266583 0.000000
102.46099854 178.04699707 123.75000000 0.740487 0.126643 -0.660031 0.000000
99.10160065 277.14898682 196.25000000 -0.513511 0.513511 0.687469 0.000000
123.45700073 164.18899536 190.00000000 0.001236 -0.948187 0.317711 0.000000
187.28500366 216.67999268 203.75000000 0.000978 0.000978 0.999999 0.000000
158.73100281 291.42599487 141.25000000 0.384451 -0.019417 -0.922941 0.000000
204.92199707 230.53700256 145.00000000 0.616005 0.307198 -0.725374 0.000000
218.35899353 212.48100281 188.75000000 -0.233494 0.403037 0.884897 0.000000
122.61699677 233.89700317 110.00000000 0.456353 -0.456353 -0.763861 0.000000
162.50999451 222.55900574 157.50000000 -0.559241 -0.806100 -0.193525 0.000000
111.69899750 285.54699707 118.75000000 0.173719 -0.799109 -0.575540 0.000000
167.96899414 278.82800293 176.25000000 0.232040 0.580879 0.780216 0.000000
132.69500732 266.64999390 207.50000000 -0.012464 0.619057 0.785247 0.000000
138.57400513 224.23800659 228.75000000 0.170160 0.431944 0.885703 0.000000
144.45300293 258.25201416 210.00000000 0.545083 0.391216 0.741509 0.000000
188.12500000 195.68400574 158.75000000 -0.553915 0.279325 0.784319 0.000000
165.44900513 259.51199341 193.75000000 0.287493 0.573398 0.767178 0.000000
198.20300293 171.32800293 171.25000000 -0.685432 0.227432 0.691706 0.000000
125.97699738 291.42599487 123.75000000 0.416320 -0.175522 -0.892115 0.000000
99.94139862 304.44299316 130.00000000 -0.708486 0.705724 -0.001381 0.000000
141.09399414 148.65199280 171.25000000 -0.420773 -0.119618 0.899245 0.000000
106.66000366 209.12100220 138.75000000 -0.001384 -0.704333 -0.709868 0.000000
79.36530304 265.39099121 170.00000000 -0.954159 0.270543 0.128013 0.000000
113.79900360 232.63699341 95.00000000 0.909570 -0.157507 -0.384545 0.000000
92.80280304 297.30499268 122.50000000 -0.686540 0.549566 -0.476068 0.000000
188.12500000 243.97500610 192.50000000 0.934410 0.316071 0.164246 0.000000
192.74400330 241.03500366 167.50000000 -0.682518 0.688823 -0.244319 0.000000
101.62100220 225.07800293 226.25000000 -0.536735 0.034495 0.843046 0.000000
149.49200439 256.57199097 207.50000000 0.441822 0.601878 0.665234 0.000000
157.89100647 253.63299561 136.25000000 0.697574 0.336592 -0.632532 0.000000
194.00399780 230.11700439 171.25000000 -0.532214 -0.623450 0.572763 0.000000
94.90239716 168.38900757 187.50000000 -0.578232 -0.757629 0.302731 0.000000
178.04699707 173.00799561 196.25000000 0.017812 -0.546683 0.837151 0.000000
199.04299927 167.12899780 188.75000000 0.178223 -0.297038 0.938086 0.000000
194.00399780 162.92999268 166.25000000 -0.653449 0.082954 0.752412 0.000000
96.58209991 254.47300720 211.25000000 -0.385740 0.576148 0.720596 0.000000
124.29699707 172.16799927 141.25000000 0.948187 -0.001236 -0.317711 0.000000
204.92199707 228.01800537 155.00000000 0.770696 -0.625169 0.123252 0.000000
212.48100281 168.80900574 181.25000000 -0.627538 0.104345 0.771563 0.000000
123.45700073 309.48300171 152.50000000 -0.329446 0.766565 0.551220 0.000000
129.33599854 282.18798828 126.25000000 0.438085 0.064143 -0.896642 0.000000
95.74220276 209.96099854 221.25000000 -0.311176 -0.320110 0.894818 0.000000
82.30470276 239.77499390 202.50000000 -0.858275 0.244570 0.451164 0.000000
140.25399780 263.71099854 208.75000000 0.289765 0.635563 0.715609 0.000000
134.37500000 163.35000610 180.00000000 0.093294 -0.833900 0.543973 0.000000
99.10160065 159.57000732 171.25000000 -0.616255 -0.751109 0.236780 0.000000
81.88480377 188.96499634 192.50000000 -0.790634 -0.559838 0.247950 0.000000
79.36530304 209.12100220 105.00000000 -0.828614 -0.551929 0.093669 0.000000
158.73100281 205.76199341 211.25000000 0.000978 0.000978 0.999999 0.000000
169.64799500 251.11300659 143.75000000 0.444618 0.684412 -0.577837 0.000000
120.09799957 210.80099487 228.75000000 0.000978 0.000978 0.999999 0.000000
188.12500000 135.21499634 161.25000000 0.642092 -0.628750 0.438624 0.000000
165.44900513 259.09201050 145.00000000 0.606663 0.401687 -0.686009 0.000000
80.62500000 209.54100037 100.00000000 -0.941628 -0.279052 -0.188326 0.000000
145.29299927 140.25399780 153.75000000 0.139303 -0.980049 0.141768 0.000000
167.96899414 188.12500000 143.75000000 -0.300473 -0.148197 0.942207 0.000000
158.73100281 163.35000610 190.00000000 -0.364239 -0.364239 0.857123 0.000000
113.79900360 157.89100647 127.50000000 0.666146 -0.058735 -0.743505 0.000000
98.68170166 299.82400513 142.50000000 -0.694841 0.652924 0.301474 0.000000
189.38499451 150.33200073 162.50000000 -0.723555 -0.015335 0.690096 0.000000
84.40429688 280.50799561 160.00000000 -0.943164 0.315275 0.105092 0.000000
191.06500244 232.63699341 200.00000000 0.637892 0.149294 0.755517 0.000000
79.36530304 264.55099487 95.00000000 -0.939427 0.232421 -0.251906 0.000000
160.41000366 213.74000549 165.00000000 0.593215 -0.636908 0.492386 0.000000
140.67399597 192.32400513 152.50000000 -0.494348 -0.247944 0.833153 0.000000
71.80670166 218.35899353 165.00000000 -0.978010 -0.207812 -0.017611 0.000000
84.82420349 281.34799194 103.75000000 -0.667845 0.574113 -0.473685 0.000000
208.28100586 178.88699341 191.25000000 0.000978 0.000978 0.999999 0.000000
148.65199280 167.54899597 135.00000000 -0.370012 -0.360723 0.856137 0.000000
95.74220276 196.52299500 88.75000000 0.821670 -0.471553 -0.320151 0.000000
100.78099823 220.03900146 226.25000000 -0.000978 -0.000978 0.999999 0.000000
196.52299500 241.87500000 156.25000000 -0.510390 0.399507 -0.761509 0.000000
192.32400513 221.29899597 145.00000000 -0.023879 -0.729022 -0.684073 0.000000
91.12310028 190.64500427 120.00000000 0.887804 0.188677 -0.419769 0.000000
81.46489716 274.20901489 165.00000000 -0.890998 0.362668 0.273120 0.000000
170.06799316 241.03500366 137.50000000 0.761875 0.527952 -0.375252 0.000000
83.98439789 274.20901489 172.50000000 -0.759713 0.549131 0.348269 0.000000
83.14459991 199.88299561 206.25000000 -0.715133 -0.389624 0.580326 0.000000
187.70500183 237.67599487 160.00000000 0.481338 0.870385 -0.103651 0.000000
92.38279724 233.47700500 221.25000000 -0.409590 0.641747 0.648380 0.000000
165.44900513 222.55900574 208.75000000 -0.000978 -0.000978 0.999999 0.000000
150.75199890 194.00399780 210.00000000 0.352628 -0.340416 0.871648 0.000000
