152.49600220 137.15600586 437.50000000 0.001135 -0.983996 0.178186 0.000000
244.53500366 157.91000366 437.50000000 0.000978 0.000978 -0.999999 0.000000
116.40200043 225.58599854 482.50000000 0.000978 0.000978 0.999999 0.000000
80.30860138 253.55900574 352.50000000 -0.696432 -0.347400 -0.627930 0.000000
122.71900177 290.55499268 382.50000000 -0.000978 -0.000978 -0.999999 0.000000
215.66000366 212.95300293 477.50000000 0.000978 0.000978 0.999999 0.000000
154.30099487 325.29501343 435.00000000 -0.182790 0.729624 0.658966 0.000000
118.20700073 231.00000000 482.50000000 0.000978 0.000978 0.999999 0.000000
138.05900574 236.41400146 487.50000000 0.000978 0.000978 0.999999 0.000000
157.91000366 323.94100952 437.50000000 -0.365186 0.487451 0.793114 0.000000
86.62500000 294.61499023 380.00000000 -0.787188 0.572924 -0.228238 0.000000
173.25000000 259.87500000 472.50000000 -0.085133 0.250316 0.964414 0.000000
245.43800354 222.87899780 437.50000000 0.660054 0.660054 -0.358689 0.000000
75.79689789 258.97299194 367.50000000 0.000000 0.000000 0.000000 0.000000
220.17199707 196.71099854 472.50000000 0.000978 0.000978 0.999999 0.000000
267.09399414 219.72099304 460.00000000 0.906787 0.421243 0.017060 0.000000
175.05499268 217.01400757 410.00000000 0.724786 -0.038296 -0.687909 0.000000
261.67999268 185.88299561 467.50000000 0.000978 0.000978 0.999999 0.000000
208.44099426 217.46499634 437.50000000 -0.001372 -0.621510 -0.783405 0.000000
111.89099884 280.62899780 372.50000000 0.393873 0.167575 -0.903760 0.000000
150.24000549 258.07000732 480.00000000 0.335040 0.832095 0.442001 0.000000
228.74400330 166.93400574 425.00000000 0.947102 -0.034325 -0.319091 0.000000
174.15199280 157.91000366 402.50000000 0.297276 -0.199580 -0.933699 0.000000
162.42199707 166.93400574 472.50000000 0.113542 -0.308567 0.944402 0.000000
175.95700073 193.10200500 397.50000000 0.600891 0.211625 -0.770808 0.000000
212.05099487 132.19299316 430.00000000 -0.702886 -0.699901 -0.126848 0.000000
81.21099854 283.78698730 375.00000000 -0.846180 0.457770 -0.272812 0.000000
133.09599304 178.66400146 355.00000000 0.975280 -0.207847 0.075022 0.000000
162.42199707 238.21899414 377.50000000 -0.000978 -0.000978 -0.999999 0.000000
223.78100586 169.64100647 467.50000000 -0.006541 -0.433019 0.901361 0.000000
148.88699341 261.67999268 387.50000000 0.257905 0.640808 -0.723084 0.000000
201.22300720 135.80299377 385.00000000 0.452825 -0.519173 -0.724851 0.000000
125.42600250 261.67999268 477.50000000 -0.282427 0.889123 0.360132 0.000000
113.69499969 195.80900574 477.50000000 -0.127096 -0.713232 0.689308 0.000000
174.15199280 166.03100586 472.50000000 -0.039830 -0.506798 0.861144 0.000000
217.46499634 231.90199280 397.50000000 -0.000978 -0.000978 -0.999999 0.000000
73.54100037 261.67999268 410.00000000 -0.947087 0.315696 -0.057985 0.000000
117.75599670 161.52000427 345.00000000 -0.773707 -0.618068 -0.139177 0.000000
133.54699707 207.53900146 487.50000000 0.000978 0.000978 0.999999 0.000000
105.57399750 158.81300354 452.50000000 -0.463720 -0.604343 0.647869 0.000000
155.20300293 272.05700684 400.00000000 0.199926 0.683470 -0.702067 0.000000
197.61300659 153.39799500 467.50000000 0.109186 -0.466523 0.877744 0.000000
219.72099304 185.88299561 415.00000000 0.627538 -0.104345 -0.771563 0.000000
156.10600281 266.19100952 477.50000000 0.000978 0.000978 0.999999 0.000000
74.44339752 259.87500000 400.00000000 -0.952846 0.267863 -0.142594 0.000000
132.64500427 170.54299927 477.50000000 0.000978 0.000978 0.999999 0.000000
93.84380341 198.51600647 467.50000000 0.000978 0.000978 0.999999 0.000000
243.63299561 151.59399414 457.50000000 0.513900 -0.611625 0.601516 0.000000
173.25000000 192.19900513 392.50000000 0.725896 0.661166 0.189565 0.000000
143.02200317 185.88299561 385.00000000 0.782029 0.094659 -0.616012 0.000000
155.20300293 222.87899780 367.50000000 0.000978 0.000978 -0.999999 0.000000
202.12500000 150.69099426 387.50000000 -0.215099 -0.858893 0.464795 0.000000
123.62100220 259.87500000 367.50000000 0.364239 0.364239 -0.857123 0.000000
219.27000427 234.60899353 402.50000000 0.546353 -0.686701 -0.479521 0.000000
80.30860138 283.78698730 380.00000000 -0.926742 0.336870 -0.166338 0.000000
163.32400513 198.51600647 487.50000000 0.000978 0.000978 0.999999 0.000000
212.95300293 246.33999634 412.50000000 -0.347879 0.755625 -0.554988 0.000000
98.35549927 232.80499268 472.50000000 -0.334054 0.669737 -0.663219 0.000000
208.44099426 186.78500366 407.50000000 0.526963 -0.457144 -0.716470 0.000000
175.05499268 305.89498901 432.50000000 0.000978 0.000978 -0.999999 0.000000
108.28099823 251.75399780 477.50000000 -0.171631 0.024190 0.984864 0.000000
216.56300354 254.46099854 442.50000000 -0.215923 -0.744080 -0.632235 0.000000
131.74200439 212.95300293 337.50000000 0.822519 0.252487 -0.509621 0.000000
110.98799896 281.53100586 372.50000000 -0.000978 -0.000978 -0.999999 0.000000
82.11329651 230.09800720 357.50000000 -0.879960 0.001323 -0.475046 0.000000
103.76999664 189.49200439 322.50000000 -0.829352 -0.341498 -0.442216 0.000000
161.97099304 295.06600952 415.00000000 0.722184 -0.004158 -0.691689 0.000000
232.80499268 212.05099487 472.50000000 0.000978 0.000978 0.999999 0.000000
129.93800354 200.32000732 487.50000000 0.000978 0.000978 0.999999 0.000000
75.79689789 209.34399414 422.50000000 -0.912121 -0.304040 0.274946 0.000000
189.49200439 267.09399414 422.50000000 0.866639 -0.169208 -0.469368 0.000000
181.37100220 175.05499268 477.50000000 0.000978 0.000978 0.999999 0.000000
150.69099426 212.95300293 487.50000000 0.000978 0.000978 0.999999 0.000000
263.48400879 184.07800293 467.50000000 0.000978 0.000978 0.999999 0.000000
189.49200439 243.18200684 400.00000000 0.712592 0.587518 -0.383450 0.000000
175.95700073 162.42199707 402.50000000 0.832325 -0.405897 -0.377468 0.000000
218.36700439 153.39799500 467.50000000 -0.000978 -0.000978 0.999999 0.000000
140.76600647 276.11700439 392.50000000 0.557751 0.109220 -0.822791 0.000000
226.48800659 190.39500427 417.50000000 -0.000978 -0.000978 -0.999999 0.000000
118.20700073 190.39500427 322.50000000 0.637879 -0.384046 -0.667547 0.000000
101.06300354 287.84799194 457.50000000 -0.969465 0.241447 0.042897 0.000000
179.56599426 176.85899353 397.50000000 0.862769 0.054010 -0.502705 0.000000
112.79299927 259.42401123 360.00000000 0.510791 0.717104 -0.474187 0.000000
212.05099487 252.65600586 422.50000000 -0.000978 -0.000978 -0.999999 0.000000
266.19100952 200.32000732 467.50000000 0.000978 0.000978 0.999999 0.000000
106.47699738 239.12100220 477.50000000 -0.561079 0.131066 0.817320 0.000000
147.08200073 328.45300293 417.50000000 0.677534 0.001380 -0.735490 0.000000
123.62100220 157.91000366 462.50000000 -0.476080 -0.847210 0.235759 0.000000
149.78900146 161.97099304 470.00000000 0.001361 -0.817758 0.575560 0.000000
174.15199280 267.99600220 407.50000000 0.341040 0.142215 -0.929229 0.000000
234.60899353 158.81300354 467.50000000 -0.631142 -0.506597 0.587383 0.000000
156.10600281 262.58200073 477.50000000 0.000978 0.000978 0.999999 0.000000
173.70100403 191.29699707 395.00000000 0.831860 0.241408 -0.499731 0.000000
87.52739716 247.24200439 462.50000000 0.000978 0.000978 0.999999 0.000000
150.69099426 165.12899780 472.50000000 0.073917 -0.671049 0.737719 0.000000
267.99600220 213.85600281 467.50000000 0.913344 0.183809 0.363343 0.000000
154.30099487 176.85899353 377.50000000 0.595846 0.595846 -0.538456 0.000000
129.03500366 139.41200256 410.00000000 -0.708486 -0.705724 0.001381 0.000000
224.68400574 240.02299500 467.50000000 0.592689 -0.295546 0.749248 0.000000
217.46499634 243.63299561 402.50000000 -0.253880 0.935570 -0.245464 0.000000
144.37500000 260.77700806 382.50000000 0.215098 0.239759 -0.946704 0.000000
231.00000000 151.59399414 427.50000000 -0.505350 -0.676598 0.535570 0.000000
171.44500732 160.61700439 392.50000000 0.615711 0.132684 -0.776720 0.000000
75.79689789 266.19100952 432.50000000 -0.983996 0.001135 0.178186 0.000000
148.88699341 306.79699707 407.50000000 0.406960 0.220498 -0.886433 0.000000
267.99600220 202.12500000 467.50000000 0.000978 0.000978 0.999999 0.000000
96.55079651 298.67599487 447.50000000 -0.207958 0.963931 0.166105 0.000000
272.50799561 196.71099854 467.50000000 0.189911 0.005755 0.981784 0.000000
95.64849854 281.53100586 352.50000000 0.000978 0.000978 -0.999999 0.000000
146.17999268 213.85600281 357.50000000 0.565335 -0.072625 -0.821658 0.000000
249.94900513 155.20300293 447.50000000 0.598824 -0.015213 -0.800736 0.000000
206.63699341 239.12100220 452.50000000 0.182073 -0.748183 -0.638021 0.000000
265.28900146 221.07400513 467.50000000 0.838360 0.544728 0.020582 0.000000
199.41799927 246.33999634 457.50000000 -0.434005 -0.869512 0.235774 0.000000
124.97499847 326.64898682 430.00000000 -0.286737 0.872347 0.395970 0.000000
175.95700073 160.61700439 467.50000000 -0.424928 -0.851401 0.307493 0.000000
169.64100647 249.94900513 387.50000000 0.701670 0.139733 -0.698665 0.000000
213.85600281 194.00399780 477.50000000 0.000978 0.000978 0.999999 0.000000
164.22700500 191.29699707 487.50000000 0.000978 0.000978 0.999999 0.000000
98.35549927 291.45700073 452.50000000 0.000978 0.000978 0.999999 0.000000
85.27149963 288.75000000 425.00000000 -0.701371 0.701371 -0.127114 0.000000
160.61700439 312.21099854 447.50000000 0.559669 0.653787 0.509248 0.000000
125.42600250 182.27299500 482.50000000 -0.242046 -0.422452 0.873469 0.000000
100.16000366 163.77499390 450.00000000 -0.616220 -0.622937 0.481894 0.000000
245.43800354 186.78500366 467.50000000 0.000978 0.000978 0.999999 0.000000
236.41400146 229.19500732 437.50000000 -0.063891 0.903984 -0.422766 0.000000
160.61700439 263.48400879 397.50000000 0.000978 0.000978 -0.999999 0.000000
197.61300659 209.34399414 487.50000000 0.000978 0.000978 0.999999 0.000000
117.75599670 321.23400879 395.00000000 -0.440313 0.884956 -0.151583 0.000000
138.96099854 286.04299927 397.50000000 0.166590 0.060256 -0.984183 0.000000
273.41000366 201.22300720 467.50000000 0.831096 0.184855 0.524507 0.000000
166.93400574 223.78100586 487.50000000 0.000978 0.000978 0.999999 0.000000
178.66400146 176.85899353 392.50000000 0.519467 0.068981 -0.851701 0.000000
260.77700806 228.29299927 452.50000000 -0.000978 -0.000978 -0.999999 0.000000
256.26599121 217.46499634 467.50000000 0.000978 0.000978 0.999999 0.000000
223.78100586 184.98100281 472.50000000 0.000978 0.000978 0.999999 0.000000
173.25000000 264.38699341 407.50000000 0.408974 0.281264 -0.868119 0.000000
267.09399414 210.24600220 457.50000000 0.000978 0.000978 -0.999999 0.000000
107.37899780 153.85000610 445.00000000 -0.195493 -0.974977 0.105840 0.000000
191.29699707 255.81500244 470.00000000 -0.050019 0.687399 0.724556 0.000000
128.13299561 306.79699707 387.50000000 -0.000978 -0.000978 -0.999999 0.000000
94.29489899 304.99200439 395.00000000 -0.701371 0.701371 -0.127114 0.000000
98.80670166 197.61300659 470.00000000 -0.800883 -0.569888 0.183884 0.000000
229.19500732 194.90600586 472.50000000 0.000978 0.000978 0.999999 0.000000
154.30099487 275.21499634 402.50000000 0.063038 0.233610 -0.970285 0.000000
157.00799561 225.58599854 487.50000000 0.000978 0.000978 0.999999 0.000000
157.91000366 155.20300293 367.50000000 0.769550 0.212129 -0.602324 0.000000
209.34399414 253.55900574 422.50000000 -0.000978 -0.000978 -0.999999 0.000000
94.74610138 175.95700073 387.50000000 -0.851898 -0.411208 -0.324311 0.000000
166.93400574 171.44500732 477.50000000 -0.000978 -0.999999 -0.000978 0.000000
153.39799500 255.36300659 482.50000000 0.451856 0.733232 0.508131 0.000000
176.85899353 147.98399353 397.50000000 -0.177366 0.848077 -0.499307 0.000000
217.46499634 184.07800293 472.50000000 0.000978 0.000978 0.999999 0.000000
93.39260101 219.27000427 335.00000000 -0.284397 -0.570383 -0.770573 0.000000
136.25399780 284.23800659 392.50000000 0.341863 0.357193 -0.869220 0.000000
134.44900513 265.28900146 477.50000000 0.000978 0.000978 0.999999 0.000000
98.35549927 275.21499634 352.50000000 0.879960 -0.001323 -0.475046 0.000000
124.52300262 238.21899414 487.50000000 -0.804885 0.403246 0.435377 0.000000
194.90600586 261.67999268 462.50000000 0.425588 0.564691 0.707106 0.000000
106.47699738 261.22900391 355.00000000 0.866398 0.369561 -0.335825 0.000000
121.81600189 199.41799927 322.50000000 0.816230 0.289832 -0.499765 0.000000
116.85399628 319.42999268 385.00000000 -0.275700 0.946617 -0.167050 0.000000
123.62100220 198.96699524 325.00000000 0.778120 0.097813 -0.620453 0.000000
143.47300720 268.89801025 392.50000000 0.000978 0.000978 -0.999999 0.000000
164.22700500 315.82000732 427.50000000 0.387373 -0.531208 -0.753498 0.000000
235.96299744 165.12899780 430.00000000 0.646306 0.279268 -0.710139 0.000000
134.44900513 249.94900513 367.50000000 0.748281 0.546131 -0.376586 0.000000
181.37100220 244.53500366 482.50000000 0.000978 0.000978 0.999999 0.000000
164.22700500 172.34800720 382.50000000 0.542218 0.182753 -0.820123 0.000000
98.35549927 292.35900879 452.50000000 0.000978 0.000978 0.999999 0.000000
121.81600189 200.32000732 322.50000000 0.816230 0.289832 -0.499765 0.000000
91.58789825 188.58999634 385.00000000 -0.815862 -0.397553 -0.419906 0.000000
142.57000732 139.86300659 442.50000000 0.185672 -0.942112 0.279195 0.000000
166.03100586 194.90600586 387.50000000 0.583561 0.603859 -0.542965 0.000000
101.51399994 201.22300720 325.00000000 -0.595846 -0.595846 -0.538456 0.000000
90.23439789 214.75799561 347.50000000 -0.773077 -0.346997 -0.530986 0.000000
207.53900146 151.59399414 392.50000000 0.660054 -0.660054 -0.358689 0.000000
231.00000000 142.11900330 455.00000000 0.503143 -0.519858 0.690358 0.000000
110.08599854 232.80499268 482.50000000 0.000978 0.000978 0.999999 0.000000
99.25779724 272.50799561 467.50000000 -0.863474 0.479382 0.156862 0.000000
249.94900513 188.58999634 442.50000000 -0.000978 -0.000978 -0.999999 0.000000
158.81300354 167.83599854 377.50000000 -0.001359 0.569351 -0.822094 0.000000
101.06300354 201.67399597 325.00000000 -0.595846 -0.595846 -0.538456 0.000000
222.42799377 149.78900146 465.00000000 -0.070907 -0.675791 0.733675 0.000000
133.54699707 304.99200439 397.50000000 0.714955 -0.080087 -0.694569 0.000000
120.91400146 202.12500000 322.50000000 0.376733 -0.166331 -0.911266 0.000000
136.25399780 183.62699890 485.00000000 -0.606638 -0.525528 0.596499 0.000000
148.88699341 274.31298828 477.50000000 -0.000978 -0.000978 0.999999 0.000000
127.23000336 161.52000427 352.50000000 0.372357 -0.538210 -0.756096 0.000000
85.27149963 208.44099426 370.00000000 -0.001250 -0.940919 -0.338631 0.000000
107.37899780 265.28900146 472.50000000 0.000978 0.000978 0.999999 0.000000
189.94299316 257.16799927 450.00000000 0.937992 -0.345171 0.032079 0.000000
243.63299561 148.88699341 437.50000000 0.360740 0.904041 -0.229296 0.000000
123.62100220 282.43399048 382.50000000 0.356974 0.572136 -0.738397 0.000000
241.82800293 233.70700073 447.50000000 -0.288455 0.594441 -0.750622 0.000000
130.83999634 142.57000732 382.50000000 -0.511862 -0.854054 -0.092677 0.000000
219.27000427 248.14500427 437.50000000 0.111863 0.987930 0.107153 0.000000
185.43200684 141.66799927 390.00000000 -0.601093 -0.617930 -0.506804 0.000000
164.22700500 192.19900513 387.50000000 -0.000978 -0.000978 -0.999999 0.000000
115.50000000 226.48800659 482.50000000 0.000978 0.000978 0.999999 0.000000
249.94900513 162.42199707 442.50000000 0.578717 -0.115743 -0.807273 0.000000
120.01200104 305.89498901 382.50000000 -0.000978 -0.000978 -0.999999 0.000000
218.36700439 139.86300659 452.50000000 0.111351 -0.840197 0.530727 0.000000
173.25000000 282.43399048 462.50000000 0.369948 0.462835 0.805557 0.000000
166.93400574 173.25000000 387.50000000 0.924164 0.368849 -0.099358 0.000000
206.63699341 245.88900757 420.00000000 0.595846 0.595846 -0.538456 0.000000
172.34800720 249.04699707 477.50000000 0.446915 0.227219 0.865239 0.000000
184.98100281 290.55499268 432.50000000 -0.000978 -0.000978 -0.999999 0.000000
197.61300659 241.82800293 452.50000000 -0.536066 0.146200 -0.831420 0.000000
201.22300720 266.64300537 445.00000000 0.732175 -0.627352 0.265235 0.000000
201.22300720 210.24600220 482.50000000 0.000978 0.000978 0.999999 0.000000
96.55079651 239.12100220 472.50000000 -0.222907 0.844619 0.486755 0.000000
117.30500031 221.97700500 482.50000000 -0.405353 -0.115616 0.906820 0.000000
90.23439789 294.16400146 442.50000000 -0.853842 0.268263 0.446082 0.000000
169.64100647 295.06600952 457.50000000 -0.076018 0.996802 -0.024626 0.000000
215.66000366 154.30099487 407.50000000 -0.409841 0.409841 -0.814899 0.000000
120.91400146 205.73399353 322.50000000 -0.000978 -0.000978 -0.999999 0.000000
219.27000427 253.55900574 452.50000000 -0.724010 0.686437 -0.067921 0.000000
180.91999817 133.54699707 425.00000000 0.110889 -0.993614 -0.020860 0.000000
123.62100220 215.66000366 487.50000000 0.000978 0.000978 0.999999 0.000000
112.79299927 317.62500000 432.50000000 -0.660054 0.660054 0.358689 0.000000
124.52300262 205.73399353 322.50000000 0.000978 0.000978 -0.999999 0.000000
231.00000000 231.90199280 462.50000000 0.559893 0.373806 0.739451 0.000000
169.64100647 165.12899780 472.50000000 -0.285611 -0.614302 0.735567 0.000000
161.52000427 249.04699707 382.50000000 0.040322 0.552001 -0.832868 0.000000
132.64500427 202.12500000 487.50000000 0.000978 0.000978 0.999999 0.000000
78.50389862 214.75799561 447.50000000 -0.947087 -0.315696 0.057985 0.000000
82.56449890 213.85600281 370.00000000 -0.880971 -0.294665 -0.370219 0.000000
256.26599121 216.56300354 447.50000000 0.000978 0.000978 -0.999999 0.000000
238.21899414 231.90199280 462.50000000 -0.000978 -0.000978 0.999999 0.000000
73.54100037 225.58599854 425.00000000 -0.991791 -0.112729 0.060350 0.000000
157.91000366 191.29699707 387.50000000 0.000978 0.000978 -0.999999 0.000000
143.47300720 205.73399353 487.50000000 0.000978 0.000978 0.999999 0.000000
177.76199341 278.82400513 417.50000000 -0.000978 -0.000978 -0.999999 0.000000
99.25779724 296.87100220 362.50000000 -0.000978 -0.000978 -0.999999 0.000000
191.29699707 284.23800659 432.50000000 0.229331 0.481443 -0.845943 0.000000
212.50199890 251.75399780 445.00000000 -0.362371 0.008900 -0.931992 0.000000
102.86699677 267.54501343 470.00000000 0.442174 0.882899 0.158023 0.000000
131.74200439 175.05499268 362.50000000 0.947603 -0.236559 -0.214681 0.000000
215.66000366 255.36300659 437.50000000 -0.904041 0.360740 0.229296 0.000000
144.37500000 318.52700806 447.50000000 0.001376 0.777500 0.628881 0.000000
105.57399750 203.92999268 477.50000000 0.000978 0.000978 0.999999 0.000000
246.33999634 228.29299927 442.50000000 0.318994 0.546618 -0.774242 0.000000
95.64849854 268.89801025 462.50000000 0.000978 0.000978 0.999999 0.000000
255.81500244 163.32400513 460.00000000 0.526406 -0.526406 0.667678 0.000000
109.18399811 237.31599426 482.50000000 -0.445374 0.075838 0.892127 0.000000
262.58200073 224.68400574 457.50000000 0.983996 0.001135 -0.178186 0.000000
184.07800293 261.67999268 467.50000000 0.000978 0.000978 0.999999 0.000000
226.48800659 220.17199707 472.50000000 0.000978 0.000978 0.999999 0.000000
78.50389862 272.50799561 407.50000000 -0.887434 0.428466 -0.169934 0.000000
126.32800293 231.00000000 337.50000000 0.000978 0.999999 0.000978 0.000000
265.28900146 184.07800293 457.50000000 -0.000978 -0.000978 -0.999999 0.000000
203.92999268 262.58200073 452.50000000 -0.140019 -0.987191 0.076481 0.000000
154.30099487 248.14500427 377.50000000 0.413823 0.669761 -0.616579 0.000000
251.75399780 166.03100586 462.50000000 0.482479 0.001329 0.875906 0.000000
143.47300720 323.94100952 437.50000000 -0.141048 0.806200 0.574584 0.000000
75.79689789 256.26599121 367.50000000 0.000000 0.000000 0.000000 0.000000
103.76999664 265.28900146 352.50000000 0.867168 0.386937 -0.313526 0.000000
169.64100647 228.29299927 487.50000000 0.000978 0.000978 0.999999 0.000000
121.36499786 313.11300659 380.00000000 -0.660054 0.660054 0.358689 0.000000
198.51600647 163.32400513 397.50000000 -0.660054 -0.660054 0.358689 0.000000
124.07199860 324.84399414 400.00000000 -0.218740 0.949684 -0.224174 0.000000
212.95300293 254.46099854 452.50000000 -0.482400 -0.357392 -0.799726 0.000000
92.94139862 203.02699280 352.50000000 -0.815237 -0.545010 -0.195839 0.000000
219.27000427 179.56599426 417.50000000 0.262424 -0.217993 -0.940007 0.000000
198.51600647 146.17999268 382.50000000 -0.000978 -0.000978 -0.999999 0.000000
187.68800354 240.92599487 482.50000000 0.000978 0.000978 0.999999 0.000000
127.23000336 157.00799561 462.50000000 0.000978 0.000978 0.999999 0.000000
75.34570313 221.97700500 390.00000000 -0.983996 0.001135 -0.178186 0.000000
174.15199280 281.53100586 417.50000000 -0.000978 -0.000978 -0.999999 0.000000
168.73800659 292.35900879 417.50000000 0.290183 0.062639 -0.954919 0.000000
102.86699677 313.56500244 410.00000000 -0.735815 0.671704 0.085966 0.000000
147.08200073 314.46701050 450.00000000 0.296729 0.627142 0.720170 0.000000
210.24600220 228.29299927 407.50000000 -0.000978 -0.000978 -0.999999 0.000000
228.29299927 239.12100220 417.50000000 0.595846 0.595846 -0.538456 0.000000
106.92800140 168.73800659 375.00000000 -0.735142 -0.434477 -0.520381 0.000000
186.78500366 168.73800659 472.50000000 0.734766 0.146350 0.662345 0.000000
108.73200226 314.91799927 385.00000000 -0.567718 0.814169 -0.121759 0.000000
251.75399780 144.37500000 452.50000000 0.948187 -0.317711 -0.001236 0.000000
153.39799500 238.21899414 487.50000000 0.000978 0.000978 0.999999 0.000000
182.72500610 250.85200500 400.00000000 0.609510 0.514960 -0.602756 0.000000
253.55900574 164.22700500 462.50000000 0.660827 0.660827 0.355830 0.000000
198.51600647 237.31599426 472.50000000 0.000978 0.000978 0.999999 0.000000
124.52300262 212.95300293 322.50000000 0.812488 0.066877 -0.579129 0.000000
124.97499847 212.95300293 325.00000000 0.752629 0.254032 -0.607468 0.000000
147.98399353 308.60198975 407.50000000 0.430028 0.259840 -0.864615 0.000000
149.78900146 237.31599426 372.50000000 -0.000978 -0.000978 -0.999999 0.000000
192.19900513 258.97299194 447.50000000 0.804741 -0.489219 0.336238 0.000000
213.85600281 220.62300110 415.00000000 0.021663 -0.939163 -0.342788 0.000000
83.91799927 271.60598755 357.50000000 -0.743362 0.001379 -0.668888 0.000000
143.47300720 212.05099487 487.50000000 0.000978 0.000978 0.999999 0.000000
96.09960175 302.28500366 435.00000000 -0.701371 0.701371 0.127114 0.000000
208.44099426 220.62300110 435.00000000 0.503223 -0.821049 -0.269528 0.000000
160.61700439 203.02699280 487.50000000 0.000978 0.000978 0.999999 0.000000
207.53900146 144.82600403 460.00000000 -0.107695 -0.756816 0.644695 0.000000
143.47300720 213.85600281 487.50000000 0.000978 0.000978 0.999999 0.000000
151.59399414 328.45300293 427.50000000 0.446689 0.894688 0.001310 0.000000
185.88299561 249.04699707 402.50000000 0.719032 0.611907 -0.329489 0.000000
86.17389679 291.45700073 375.00000000 -0.660054 0.660054 -0.358689 0.000000
208.44099426 245.43800354 442.50000000 -0.805527 0.587273 -0.078973 0.000000
74.44339752 234.60899353 385.00000000 -0.936586 -0.207357 -0.282507 0.000000
245.43800354 153.85000610 460.00000000 0.458077 -0.554690 0.694611 0.000000
113.24400330 167.83599854 340.00000000 -0.701371 -0.701371 -0.127114 0.000000
97.90429688 215.66000366 325.00000000 -0.806479 -0.100265 -0.582699 0.000000
127.23000336 199.41799927 487.50000000 0.000978 0.000978 0.999999 0.000000
147.98399353 161.52000427 467.50000000 0.234359 -0.677912 0.696786 0.000000
112.79299927 308.60198975 452.50000000 0.103877 0.598391 0.794441 0.000000
166.93400574 249.94900513 477.50000000 -0.017748 0.216520 0.976117 0.000000
127.68199921 318.52700806 445.00000000 -0.247433 0.644585 0.723386 0.000000
115.50000000 281.53100586 377.50000000 0.277825 0.324864 -0.904034 0.000000
217.46499634 249.04699707 442.50000000 -0.621510 0.001372 -0.783405 0.000000
240.92599487 207.53900146 472.50000000 0.555442 -0.124571 0.822172 0.000000
215.66000366 141.66799927 457.50000000 -0.001250 -0.940919 0.338631 0.000000
212.95300293 132.19299316 425.00000000 -0.702886 -0.699901 -0.126848 0.000000
159.71499634 217.46499634 397.50000000 0.961976 -0.240819 -0.128871 0.000000
190.39500427 246.33999634 472.50000000 0.000978 0.000978 0.999999 0.000000
98.35549927 177.76199341 382.50000000 -0.817636 -0.219366 -0.532307 0.000000
224.68400574 221.97700500 417.50000000 -0.107794 -0.748649 -0.654145 0.000000
231.90199280 210.24600220 472.50000000 0.000978 0.000978 0.999999 0.000000
268.89801025 180.46899414 457.50000000 -0.000978 -0.000978 -0.999999 0.000000
248.14500427 184.98100281 442.50000000 -0.000978 -0.000978 -0.999999 0.000000
219.27000427 147.08200073 402.50000000 -0.779004 -0.390312 0.490724 0.000000
87.52739716 192.19900513 392.50000000 -0.921406 0.158476 -0.354818 0.000000
169.64100647 230.09800720 387.50000000 0.391667 -0.838387 -0.379083 0.000000
138.05900574 164.22700500 372.50000000 0.001323 0.879960 -0.475046 0.000000
169.64100647 141.66799927 452.50000000 -0.097510 -0.589428 0.801914 0.000000
154.30099487 163.32400513 367.50000000 0.606502 0.336584 -0.720323 0.000000
189.49200439 189.49200439 407.50000000 -0.014988 0.846138 -0.532753 0.000000
133.54699707 138.96099854 432.50000000 -0.209412 -0.938885 0.273206 0.000000
266.64300537 219.27000427 465.00000000 0.899114 0.429531 0.084249 0.000000
184.07800293 240.02299500 392.50000000 0.715214 -0.120441 0.688449 0.000000
214.75799561 242.73100281 472.50000000 0.000978 0.000978 0.999999 0.000000
180.01800537 299.57800293 445.00000000 0.618963 0.531262 0.578486 0.000000
80.30860138 230.09800720 367.50000000 -0.947087 -0.315696 -0.057985 0.000000
99.25779724 219.27000427 322.50000000 -0.945717 0.158750 -0.283579 0.000000
200.32000732 155.20300293 392.50000000 -0.558850 -0.780490 0.280217 0.000000
84.82029724 232.80499268 457.50000000 -0.314179 -0.942538 -0.113639 0.000000
119.10900116 295.06600952 462.50000000 0.000978 0.000978 0.999999 0.000000
213.85600281 258.97299194 447.50000000 -0.294555 -0.571596 -0.765843 0.000000
200.32000732 147.98399353 382.50000000 -0.000978 -0.000978 -0.999999 0.000000
182.27299500 260.77700806 412.50000000 0.000978 0.000978 -0.999999 0.000000
214.75799561 243.63299561 447.50000000 -0.000978 -0.000978 -0.999999 0.000000
147.08200073 151.59399414 457.50000000 0.000978 0.000978 0.999999 0.000000
212.95300293 219.72099304 430.00000000 -0.178794 -0.891061 -0.417185 0.000000
134.44900513 190.39500427 487.50000000 0.000978 0.000978 0.999999 0.000000
117.30500031 258.07000732 477.50000000 0.000978 0.000978 0.999999 0.000000
271.60598755 197.61300659 457.50000000 0.368133 0.269765 -0.889778 0.000000
134.44900513 224.68400574 487.50000000 0.000978 0.000978 0.999999 0.000000
94.29489899 213.85600281 470.00000000 -0.797253 -0.085368 0.597578 0.000000
186.78500366 176.85899353 477.50000000 0.000978 0.000978 0.999999 0.000000
132.64500427 323.03900146 392.50000000 0.396612 -0.027488 -0.917575 0.000000
84.82029724 290.55499268 397.50000000 -0.660827 0.660827 -0.355830 0.000000
259.87500000 223.78100586 467.50000000 0.000978 0.000978 0.999999 0.000000
215.66000366 245.43800354 472.50000000 0.000978 0.000978 0.999999 0.000000
175.95700073 304.08999634 432.50000000 0.000978 0.000978 -0.999999 0.000000
166.03100586 232.80499268 487.50000000 0.000978 0.000978 0.999999 0.000000
119.10900116 147.08200073 447.50000000 -0.561897 -0.711073 0.422666 0.000000
134.44900513 168.73800659 372.50000000 0.794637 0.334163 -0.506841 0.000000
93.84380341 290.10400391 450.00000000 -0.777502 0.174976 0.604048 0.000000
120.91400146 221.97700500 322.50000000 0.983996 -0.001135 0.178186 0.000000
150.69099426 178.66400146 482.50000000 0.000978 0.000978 0.999999 0.000000
144.37500000 228.29299927 362.50000000 0.397703 0.522088 -0.754491 0.000000
155.20300293 194.00399780 487.50000000 0.000978 0.000978 0.999999 0.000000
240.92599487 175.05499268 437.50000000 0.269516 -0.395993 -0.877810 0.000000
179.56599426 284.23800659 457.50000000 0.000978 0.000978 0.999999 0.000000
194.90600586 175.95700073 402.50000000 -0.000978 -0.000978 -0.999999 0.000000
196.71099854 221.07400513 487.50000000 0.188947 0.974766 0.118874 0.000000
83.46679688 238.21899414 350.00000000 -0.701371 -0.701371 -0.127114 0.000000
184.98100281 239.12100220 482.50000000 0.000978 0.000978 0.999999 0.000000
143.47300720 309.50399780 457.50000000 0.000978 0.000978 0.999999 0.000000
113.24400330 157.91000366 380.00000000 -0.612488 -0.605739 -0.507876 0.000000
79.40630341 275.66598511 430.00000000 -0.959055 0.260853 0.110311 0.000000
120.01200104 203.02699280 482.50000000 0.000978 0.000978 0.999999 0.000000
194.45500183 281.53100586 440.00000000 0.796517 0.565420 0.214151 0.000000
108.73200226 314.01599121 380.00000000 -0.498317 0.861761 -0.095120 0.000000
120.91400146 223.78100586 322.50000000 0.983996 -0.001135 0.178186 0.000000
247.24200439 190.39500427 437.50000000 -0.000978 -0.000978 -0.999999 0.000000
208.44099426 186.78500366 477.50000000 0.000978 0.000978 0.999999 0.000000
107.37899780 197.61300659 477.50000000 -0.244052 -0.551837 0.797443 0.000000
171.44500732 220.17199707 487.50000000 0.000978 0.000978 0.999999 0.000000
137.15600586 273.86099243 390.00000000 0.557751 0.109220 -0.822791 0.000000
86.62500000 204.83200073 457.50000000 -0.434092 -0.312733 0.844845 0.000000
256.26599121 198.51600647 467.50000000 0.000978 0.000978 0.999999 0.000000
212.95300293 190.39500427 477.50000000 0.000978 0.000978 0.999999 0.000000
173.25000000 162.87300110 470.00000000 -0.261794 -0.788518 0.556509 0.000000
95.64849854 304.08999634 382.50000000 -0.762476 0.639543 -0.098054 0.000000
230.09800720 229.19500732 417.50000000 -0.000978 -0.000978 -0.999999 0.000000
242.73100281 147.98399353 432.50000000 0.581311 0.775604 -0.246000 0.000000
123.62100220 175.05499268 477.50000000 0.000978 0.000978 0.999999 0.000000
98.35549927 182.27299500 462.50000000 0.000978 0.000978 0.999999 0.000000
136.25399780 231.00000000 487.50000000 0.000978 0.000978 0.999999 0.000000
212.05099487 152.49600220 402.50000000 -0.315696 -0.947087 -0.057985 0.000000
177.76199341 167.83599854 472.50000000 0.000978 0.000978 0.999999 0.000000
189.49200439 180.46899414 477.50000000 0.000978 0.000978 0.999999 0.000000
170.09199524 280.62899780 465.00000000 0.343365 0.613500 0.711139 0.000000
78.50389862 274.76400757 420.00000000 -0.824975 0.560870 -0.069576 0.000000
168.73800659 167.83599854 387.50000000 0.575459 0.190802 -0.795262 0.000000
165.58000183 175.95700073 385.00000000 0.904024 0.158026 -0.397201 0.000000
213.85600281 141.66799927 457.50000000 0.000978 0.000978 0.999999 0.000000
214.75799561 175.05499268 472.50000000 0.000978 0.000978 0.999999 0.000000
86.62500000 246.33999634 462.50000000 0.000978 0.000978 0.999999 0.000000
165.12899780 170.54299927 382.50000000 0.517318 -0.117375 -0.847706 0.000000
161.52000427 304.08999634 452.50000000 0.660054 0.660054 0.358689 0.000000
166.93400574 145.72900391 455.00000000 -0.035151 -0.785979 0.617253 0.000000
122.71900177 147.98399353 382.50000000 -0.730422 -0.639315 -0.240332 0.000000
233.70700073 149.78900146 462.50000000 -0.000978 -0.000978 0.999999 0.000000
164.22700500 207.53900146 487.50000000 0.000978 0.000978 0.999999 0.000000
87.07620239 257.16799927 460.00000000 -0.579071 -0.306378 0.755519 0.000000
220.17199707 203.92999268 417.50000000 -0.000978 -0.000978 -0.999999 0.000000
184.98100281 231.00000000 487.50000000 0.356325 -0.415975 0.836658 0.000000
131.74200439 211.14799500 487.50000000 0.000978 0.000978 0.999999 0.000000
234.60899353 222.87899780 427.50000000 0.182893 0.554726 -0.811683 0.000000
188.13900757 258.07000732 430.00000000 0.896765 -0.234131 0.375493 0.000000
164.22700500 157.91000366 462.50000000 -0.000978 -0.000978 0.999999 0.000000
158.81300354 190.39500427 487.50000000 0.000978 0.000978 0.999999 0.000000
178.66400146 221.97700500 487.50000000 0.000978 0.000978 0.999999 0.000000
184.07800293 213.85600281 417.50000000 0.120641 -0.844488 -0.521810 0.000000
85.27149963 294.16400146 385.00000000 -0.819740 0.545992 -0.172973 0.000000
167.83599854 303.18798828 422.50000000 0.609449 0.351291 -0.710751 0.000000
129.03500366 287.84799194 472.50000000 0.000978 0.000978 0.999999 0.000000
187.68800354 173.25000000 477.50000000 -0.331585 -0.172088 0.927598 0.000000
125.42600250 231.00000000 337.50000000 0.843735 -0.009511 -0.536675 0.000000
242.73100281 231.90199280 447.50000000 0.097567 0.790733 -0.604336 0.000000
202.12500000 208.44099426 412.50000000 0.000978 0.000978 0.999999 0.000000
207.53900146 251.75399780 472.50000000 0.505801 0.842002 0.187612 0.000000
250.85200500 219.27000427 467.50000000 0.000978 0.000978 0.999999 0.000000
196.71099854 259.87500000 457.50000000 0.495991 0.825615 -0.268986 0.000000
101.06300354 175.05499268 462.50000000 0.000978 0.000978 0.999999 0.000000
182.27299500 295.06600952 427.50000000 0.751038 -0.376334 -0.542507 0.000000
202.12500000 245.88900757 465.00000000 -0.664623 -0.530015 0.526650 0.000000
122.71900177 151.59399414 372.50000000 -0.660054 -0.660054 -0.358689 0.000000
99.25779724 168.73800659 387.50000000 -0.395653 -0.556541 -0.730562 0.000000
229.19500732 165.12899780 427.50000000 0.940410 -0.097100 -0.325885 0.000000
190.39500427 156.10600281 467.50000000 -0.000978 -0.000978 0.999999 0.000000
94.74610138 243.63299561 467.50000000 -0.745462 0.206126 0.633875 0.000000
130.83999634 318.52700806 392.50000000 0.400452 -0.011664 -0.916244 0.000000
195.80900574 225.58599854 417.50000000 -0.164525 -0.921061 -0.352956 0.000000
110.08599854 215.66000366 482.50000000 -0.000978 -0.000978 0.999999 0.000000
150.69099426 135.80299377 430.00000000 0.001135 -0.983996 0.178186 0.000000
125.87699890 329.35598755 425.00000000 -0.428426 0.793801 0.431660 0.000000
191.29699707 273.41000366 452.50000000 0.320776 0.357262 0.877193 0.000000
146.17999268 319.42999268 412.50000000 0.520532 0.716771 -0.463989 0.000000
89.33209991 287.39700317 365.00000000 -0.927756 0.230877 -0.293199 0.000000
135.35200500 251.75399780 482.50000000 0.000978 0.000978 0.999999 0.000000
102.41600037 159.71499634 400.00000000 -0.701371 -0.701371 -0.127114 0.000000
81.21099854 187.23599243 435.00000000 -0.935166 0.310801 -0.169905 0.000000
71.73629761 249.94900513 410.00000000 -0.983996 -0.001135 -0.178186 0.000000
203.02699280 244.53500366 457.50000000 -0.445380 -0.836065 0.320361 0.000000
143.47300720 287.84799194 397.50000000 -0.000978 -0.000978 -0.999999 0.000000
117.30500031 232.80499268 322.50000000 0.779004 0.390312 -0.490724 0.000000
141.21699524 154.30099487 460.00000000 -0.796465 -0.603974 -0.029292 0.000000
119.10900116 232.35400391 325.00000000 0.801098 0.346982 -0.487694 0.000000
145.27699280 167.83599854 372.50000000 -0.082664 0.639561 -0.764283 0.000000
260.77700806 186.78500366 467.50000000 0.000978 0.000978 0.999999 0.000000
82.11329651 279.72698975 437.50000000 -0.916166 0.342666 0.207894 0.000000
77.15039825 234.60899353 375.00000000 -0.985853 -0.125472 -0.111133 0.000000
198.51600647 168.73800659 402.50000000 0.000978 0.000978 0.999999 0.000000
153.39799500 249.04699707 482.50000000 0.000978 0.000978 0.999999 0.000000
164.22700500 274.31298828 472.50000000 0.212418 0.104324 0.971594 0.000000
250.85200500 229.64700317 445.00000000 0.456359 0.600120 -0.656956 0.000000
159.71499634 234.60899353 377.50000000 0.482531 -0.103908 -0.869694 0.000000
116.40200043 234.60899353 322.50000000 0.779004 0.390312 -0.490724 0.000000
150.69099426 240.02299500 487.50000000 0.000978 0.000978 0.999999 0.000000
209.34399414 203.92999268 477.50000000 0.000978 0.000978 0.999999 0.000000
257.16799927 217.46499634 467.50000000 0.000978 0.000978 0.999999 0.000000
90.23439789 226.48800659 467.50000000 -0.724477 0.485748 0.489063 0.000000
96.55079651 180.46899414 382.50000000 -0.661550 -0.526883 -0.533616 0.000000
189.94299316 257.16799927 435.00000000 0.821394 0.519343 -0.235785 0.000000
207.53900146 160.61700439 467.50000000 0.000978 0.000978 0.999999 0.000000
131.74200439 173.25000000 367.50000000 0.000978 0.000978 -0.999999 0.000000
257.61898804 172.34800720 465.00000000 0.701371 -0.701371 0.127114 0.000000
120.91400146 164.22700500 467.50000000 -0.265145 -0.885315 0.381989 0.000000
189.49200439 274.31298828 427.50000000 -0.323187 0.677231 -0.660990 0.000000
115.50000000 281.53100586 472.50000000 0.000978 0.000978 0.999999 0.000000
262.58200073 184.98100281 457.50000000 0.270694 0.010925 -0.962603 0.000000
127.23000336 280.62899780 382.50000000 -0.000978 -0.000978 -0.999999 0.000000
95.64849854 163.32400513 407.50000000 -0.869512 -0.434005 0.235774 0.000000
159.71499634 225.58599854 377.50000000 0.846422 0.505481 0.167506 0.000000
129.03500366 305.44299316 460.00000000 0.035039 0.791877 0.609675 0.000000
229.19500732 161.52000427 427.50000000 0.000978 0.000978 0.999999 0.000000
88.42970276 213.85600281 357.50000000 -0.593980 -0.742072 -0.310672 0.000000
116.40200043 158.81300354 457.50000000 -0.164716 -0.778245 0.605973 0.000000
94.29489899 302.28500366 415.00000000 -0.773112 0.570743 0.276676 0.000000
101.51399994 306.79699707 425.00000000 -0.595846 0.595846 0.538456 0.000000
152.49600220 318.52700806 442.50000000 0.912121 0.304040 -0.274946 0.000000
92.03910065 284.23800659 452.50000000 -0.603907 0.358416 0.711923 0.000000
159.71499634 218.81799316 395.00000000 0.935166 -0.310801 -0.169905 0.000000
187.68800354 221.07400513 487.50000000 0.000978 0.000978 0.999999 0.000000
183.62699890 267.99600220 415.00000000 0.458337 0.435501 -0.774768 0.000000
95.19730377 238.21899414 325.00000000 -0.805416 0.173776 -0.566662 0.000000
153.39799500 135.80299377 395.00000000 -0.315696 -0.947087 -0.057985 0.000000
97.45310211 238.21899414 322.50000000 -0.743362 -0.001379 -0.668888 0.000000
235.51199341 215.66000366 422.50000000 -0.000978 -0.000978 -0.999999 0.000000
243.63299561 187.68800354 437.50000000 -0.000978 -0.000978 -0.999999 0.000000
130.83999634 229.19500732 347.50000000 0.553709 0.831264 0.049063 0.000000
143.47300720 263.48400879 477.50000000 0.396723 0.520801 0.755895 0.000000
87.07620239 208.44099426 460.00000000 -0.696432 -0.347400 0.627930 0.000000
167.83599854 202.12500000 392.50000000 0.620472 0.361806 -0.695781 0.000000
230.09800720 133.09599304 420.00000000 0.076164 -0.992402 -0.096626 0.000000
192.64999390 252.65600586 435.00000000 0.881955 0.389142 -0.265939 0.000000
98.35549927 248.14500427 472.50000000 -0.410138 -0.439089 0.799367 0.000000
125.42600250 268.89801025 477.50000000 -0.131896 0.053906 0.989797 0.000000
184.98100281 138.05900574 392.50000000 -0.601093 -0.617930 -0.506804 0.000000
144.37500000 177.76199341 382.50000000 0.431593 0.160224 -0.887725 0.000000
145.27699280 183.17599487 487.50000000 0.000978 0.000978 0.999999 0.000000
83.91799927 279.72698975 367.50000000 -0.811300 0.581124 -0.063938 0.000000
217.46499634 251.30299377 450.00000000 -0.468524 0.305559 -0.828927 0.000000
97.45310211 240.02299500 322.50000000 -0.686785 0.061911 -0.724220 0.000000
106.47699738 279.72698975 367.50000000 0.709862 0.336250 -0.618896 0.000000
147.08200073 136.70500183 380.00000000 -0.102383 -0.994730 -0.005389 0.000000
141.21699524 191.29699707 380.00000000 0.952859 0.021175 -0.302673 0.000000
119.56099701 239.12100220 335.00000000 0.707098 0.615649 -0.347834 0.000000
175.05499268 204.83200073 397.50000000 0.511411 0.259591 -0.819190 0.000000
184.07800293 133.99800110 410.00000000 -0.032612 -0.998346 -0.047340 0.000000
233.25599670 184.07800293 425.00000000 0.983996 -0.001135 0.178186 0.000000
141.66799927 183.17599487 487.50000000 0.000978 0.000978 0.999999 0.000000
138.05900574 314.91799927 397.50000000 0.000978 0.000978 -0.999999 0.000000
115.50000000 256.26599121 357.50000000 0.519356 0.657178 -0.546248 0.000000
78.95510101 195.80900574 425.00000000 -0.983996 -0.001135 0.178186 0.000000
143.47300720 180.46899414 382.50000000 0.431593 0.160224 -0.887725 0.000000
221.07400513 186.78500366 472.50000000 0.000978 0.000978 0.999999 0.000000
209.34399414 258.97299194 427.50000000 0.376334 -0.751038 -0.542507 0.000000
122.71900177 320.78298950 385.00000000 -0.247939 0.949754 -0.191035 0.000000
105.12300110 154.30099487 405.00000000 -0.701371 -0.701371 -0.127114 0.000000
248.14500427 147.08200073 437.50000000 0.169707 0.424992 -0.889147 0.000000
144.37500000 136.70500183 400.00000000 -0.089830 -0.992680 -0.080733 0.000000
173.25000000 218.36700439 407.50000000 0.776517 -0.110510 -0.620330 0.000000
97.45310211 221.07400513 472.50000000 0.000978 0.000978 0.999999 0.000000
119.10900116 148.43600464 390.00000000 -0.701371 -0.701371 -0.127114 0.000000
193.10200500 157.91000366 392.50000000 -0.000978 -0.000978 -0.999999 0.000000
115.50000000 223.78100586 482.50000000 -0.211026 -0.017684 0.977320 0.000000
144.37500000 322.13699341 442.50000000 -0.322291 0.642962 0.694787 0.000000
198.51600647 166.93400574 402.50000000 -0.072149 -0.331884 0.940557 0.000000
174.15199280 198.51600647 397.50000000 0.802088 0.085267 -0.591088 0.000000
133.54699707 291.45700073 467.50000000 0.468509 0.619641 0.629717 0.000000
84.82029724 265.28900146 347.50000000 -0.900018 0.329563 -0.285228 0.000000
184.07800293 137.15600586 442.50000000 0.424928 -0.851401 0.307493 0.000000
217.46499634 224.68400574 477.50000000 0.000978 0.000978 0.999999 0.000000
95.19730377 243.63299561 325.00000000 -0.794258 0.210471 -0.569961 0.000000
231.90199280 191.29699707 422.50000000 0.936657 -0.172433 -0.304862 0.000000
98.35549927 243.63299561 322.50000000 -0.612827 0.152078 -0.775445 0.000000
149.78900146 296.87100220 462.50000000 0.233871 0.412625 0.880366 0.000000
93.39260101 228.29299927 470.00000000 -0.772402 0.171476 0.611548 0.000000
120.91400146 165.58000183 470.00000000 -0.509153 -0.721439 0.469350 0.000000
173.25000000 261.67999268 402.50000000 0.506838 0.611237 -0.607869 0.000000
166.03100586 186.78500366 387.50000000 -0.000978 -0.000978 -0.999999 0.000000
168.73800659 227.39100647 392.50000000 0.660054 -0.660054 -0.358689 0.000000
121.81600189 273.41000366 377.50000000 0.000978 0.000978 -0.999999 0.000000
255.81500244 232.80499268 450.00000000 0.682818 0.098385 -0.723934 0.000000
95.19730377 196.71099854 360.00000000 -0.902210 -0.419923 -0.098398 0.000000
151.59399414 182.27299500 382.50000000 -0.000978 -0.000978 -0.999999 0.000000
166.93400574 205.73399353 397.50000000 0.366509 -0.915565 0.165566 0.000000
181.37100220 157.00799561 467.50000000 -0.466810 -0.020063 0.884130 0.000000
77.60160065 227.39100647 377.50000000 -0.874214 -0.218926 -0.433384 0.000000
231.00000000 143.47300720 457.50000000 -0.051038 -0.489688 0.870403 0.000000
144.37500000 278.37298584 475.00000000 -0.869512 0.434005 0.235774 0.000000
212.95300293 260.77700806 442.50000000 -0.867597 -0.496736 -0.023010 0.000000
192.19900513 260.77700806 427.50000000 0.520649 -0.803782 -0.287852 0.000000
212.05099487 195.80900574 477.50000000 0.000978 0.000978 0.999999 0.000000
174.15199280 286.04299927 417.50000000 0.927815 0.107317 -0.357270 0.000000
210.24600220 233.70700073 472.50000000 0.000978 0.000978 0.999999 0.000000
189.94299316 285.14099121 445.00000000 0.660054 0.660054 0.358689 0.000000
111.89099884 245.43800354 322.50000000 0.735681 0.649312 -0.192789 0.000000
92.94139862 293.26199341 447.50000000 -0.668565 0.258851 0.697150 0.000000
224.68400574 248.59599304 435.00000000 0.980186 0.195091 -0.034289 0.000000
197.61300659 221.97700500 482.50000000 0.713389 0.676569 0.182566 0.000000
175.95700073 303.63900757 445.00000000 -0.338267 0.938461 0.069759 0.000000
235.06100464 155.20300293 465.00000000 0.561897 -0.422666 0.711073 0.000000
232.80499268 140.76600647 452.50000000 0.779995 0.258952 0.569694 0.000000
183.17599487 234.60899353 392.50000000 0.651081 -0.323105 -0.686801 0.000000
95.64849854 167.83599854 397.50000000 -0.797007 -0.528708 -0.291973 0.000000
111.89099884 246.33999634 322.50000000 0.999999 0.000978 0.000978 0.000000
107.37899780 203.92999268 477.50000000 0.000978 0.000978 0.999999 0.000000
178.66400146 263.48400879 407.50000000 0.412959 0.220541 -0.883644 0.000000
239.12100220 136.25399780 442.50000000 -0.031909 -0.943238 0.330580 0.000000
117.30500031 257.16799927 362.50000000 0.189149 0.748906 -0.635109 0.000000
221.97700500 235.51199341 472.50000000 0.396015 -0.106248 0.912076 0.000000
146.63099670 204.83200073 385.00000000 0.803711 -0.318631 -0.502517 0.000000
92.94139862 280.62899780 457.50000000 -0.319877 0.560990 0.763525 0.000000
78.05280304 259.87500000 445.00000000 -0.924797 0.113716 0.363069 0.000000
106.47699738 315.82000732 422.50000000 -0.879960 0.001323 0.475046 0.000000
119.10900116 154.30099487 377.50000000 -0.882899 -0.442174 -0.158023 0.000000
121.81600189 240.92599487 482.50000000 0.000978 0.000978 0.999999 0.000000
110.98799896 295.96899414 372.50000000 -0.000978 -0.000978 -0.999999 0.000000
166.93400574 221.07400513 407.50000000 -0.000978 -0.000978 -0.999999 0.000000
121.81600189 212.05099487 487.50000000 0.000978 0.000978 0.999999 0.000000
231.90199280 171.89700317 425.00000000 0.592984 -0.576090 -0.562575 0.000000
135.35200500 301.38299561 397.50000000 -0.000978 -0.000978 -0.999999 0.000000
92.94139862 222.87899780 332.50000000 -0.284397 -0.570383 -0.770573 0.000000
170.09199524 289.65200806 460.00000000 0.595846 0.595846 0.538456 0.000000
214.75799561 256.26599121 452.50000000 -0.611218 0.789904 0.049635 0.000000
96.55079651 226.48800659 472.50000000 -0.683008 -0.012519 0.730304 0.000000
134.44900513 263.93600464 380.00000000 0.370874 0.879501 -0.298213 0.000000
182.27299500 158.81300354 467.50000000 0.000978 0.000978 0.999999 0.000000
184.07800293 286.94500732 427.50000000 0.241649 0.301704 -0.922269 0.000000
103.76999664 203.02699280 472.50000000 -0.899782 -0.385206 0.204959 0.000000
82.11329651 272.95901489 445.00000000 -0.794197 0.351372 0.495771 0.000000
220.62300110 249.04699707 440.00000000 -0.314819 0.864601 -0.391604 0.000000
261.67999268 194.00399780 467.50000000 0.000978 0.000978 0.999999 0.000000
255.36300659 151.59399414 447.50000000 0.850454 -0.511431 0.123149 0.000000
198.51600647 207.53900146 482.50000000 0.000978 0.000978 0.999999 0.000000
192.19900513 185.88299561 402.50000000 -0.294334 0.372823 -0.879983 0.000000
111.89099884 157.45899963 455.00000000 -0.319434 -0.646975 0.692377 0.000000
80.75980377 188.58999634 440.00000000 -0.699901 -0.702886 0.126848 0.000000
87.07620239 255.36300659 460.00000000 -0.657965 0.199712 0.726084 0.000000
200.32000732 156.10600281 392.50000000 -0.558850 -0.780490 0.280217 0.000000
207.53900146 244.53500366 447.50000000 -0.449888 -0.815521 -0.364043 0.000000
174.15199280 247.24200439 387.50000000 0.001372 0.621510 -0.783405 0.000000
263.48400879 173.25000000 462.50000000 -0.060265 0.531176 -0.845116 0.000000
171.44500732 207.53900146 397.50000000 0.178425 0.520281 -0.835148 0.000000
169.64100647 247.24200439 387.50000000 0.283630 0.556169 -0.781172 0.000000
223.78100586 133.09599304 415.00000000 0.000000 0.000000 0.000000 0.000000
162.42199707 276.11700439 472.50000000 0.282951 0.033655 0.958544 0.000000
196.71099854 183.17599487 402.50000000 0.467082 0.719739 -0.513624 0.000000
241.82800293 187.68800354 437.50000000 -0.000978 -0.000978 -0.999999 0.000000
187.68800354 222.87899780 487.50000000 0.000978 0.000978 0.999999 0.000000
267.99600220 203.92999268 467.50000000 0.000978 0.000978 0.999999 0.000000
82.11329651 246.33999634 457.50000000 0.000978 0.000978 0.999999 0.000000
169.64100647 199.41799927 487.50000000 0.000978 0.000978 0.999999 0.000000
142.57000732 187.68800354 487.50000000 0.000978 0.000978 0.999999 0.000000
85.72270203 178.21299744 425.00000000 -0.888203 -0.443393 -0.120410 0.000000
197.61300659 272.50799561 442.50000000 0.933723 0.187858 0.304747 0.000000
153.39799500 284.23800659 472.50000000 0.697411 0.503407 0.510097 0.000000
221.97700500 142.57000732 457.50000000 0.218569 -0.826893 0.518146 0.000000
256.26599121 182.27299500 467.50000000 0.000978 0.000978 0.999999 0.000000
179.11500549 193.10200500 400.00000000 0.578892 0.125206 -0.805735 0.000000
90.23439789 201.67399597 365.00000000 -0.803792 -0.267931 -0.531161 0.000000
220.17199707 221.97700500 417.50000000 -0.001250 -0.940919 -0.338631 0.000000
244.53500366 198.96699524 435.00000000 0.782358 0.046687 -0.621076 0.000000
168.73800659 296.87100220 417.50000000 0.670862 0.127001 -0.730627 0.000000
