37.42200089 166.32000732 352.00000000 -0.373039 -0.899682 -0.226749 0.000000
145.52999878 125.49600220 410.39999390 0.834474 0.337875 -0.435309 0.000000
234.36000061 155.73599243 426.00000000 0.194236 -0.955106 -0.223706 0.000000
40.82400131 166.69799805 348.79998779 -0.059494 -0.958229 -0.279747 0.000000
179.92799377 141.75000000 388.79998779 -0.243113 -0.259976 0.934510 0.000000
90.72000122 89.58599854 433.60000610 -0.825010 -0.546550 0.143673 0.000000
86.18399811 108.10800171 371.60000610 -0.089998 -0.532847 0.841412 0.000000
229.82400513 123.98400116 418.00000000 -0.644430 -0.043906 0.763402 0.000000
169.72200012 142.12800598 436.00000000 0.494867 0.031355 0.868403 0.000000
80.89199829 95.63400269 418.39999390 -0.492818 -0.809742 0.318509 0.000000
39.31200027 173.50199890 428.79998779 -0.867973 0.495791 -0.028525 0.000000
133.81199646 119.44799805 404.39999390 -0.047631 0.461343 -0.885942 0.000000
67.28399658 190.13400269 349.60000610 0.506047 0.411061 -0.758252 0.000000
86.94000244 247.21200562 383.60000610 0.644111 0.506207 -0.573477 0.000000
164.80799866 178.41600037 385.20001221 0.333214 0.495835 -0.801945 0.000000
114.91200256 190.13400269 458.39999390 0.287638 0.132447 0.948537 0.000000
129.27600098 234.73800659 424.79998779 0.481264 0.732646 0.481264 0.000000
181.44000244 68.41799927 404.79998779 -0.229169 -0.971823 0.055148 0.000000
178.41600037 103.57199860 394.79998779 -0.310951 0.275914 0.909495 0.000000
79.00199890 96.01200104 418.39999390 -0.492818 -0.809742 0.318509 0.000000
36.66600037 201.85200500 429.60000610 -0.901541 0.033390 0.431404 0.000000
86.18399811 184.46400452 356.39999390 0.309568 0.145920 -0.939614 0.000000
81.64800262 94.87799835 383.20001221 -0.632550 -0.759362 -0.152476 0.000000
127.76399994 142.88400269 405.20001221 -0.172691 -0.655615 -0.735083 0.000000
147.04200745 124.73999786 412.79998779 0.934570 0.355111 0.021794 0.000000
58.21200180 227.55599976 433.20001221 -0.627617 0.279473 0.726630 0.000000
58.59000015 165.56399536 469.60000610 -0.121550 -0.097948 0.987741 0.000000
127.76399994 235.11599731 425.20001221 -0.151842 0.783266 -0.602859 0.000000
201.09599304 83.91600037 412.39999390 -0.231214 0.323125 0.917676 0.000000
177.66000366 116.42400360 438.79998779 0.211680 0.463893 0.860229 0.000000
94.12200165 157.24800110 393.60000610 -0.777862 -0.502942 -0.376802 0.000000
39.68999863 213.19200134 348.00000000 -0.638915 0.648873 -0.413221 0.000000
136.08000183 198.82800293 390.00000000 0.862980 -0.095255 -0.496178 0.000000
108.10800171 81.64800262 378.79998779 0.952700 -0.044400 -0.300652 0.000000
146.28599548 201.09599304 408.00000000 0.522478 -0.696081 0.492431 0.000000
34.39799881 210.16799927 360.00000000 -0.961650 0.240738 0.131430 0.000000
44.22600174 226.80000305 366.39999390 -0.510902 0.639049 0.574975 0.000000
110.75399780 180.68400574 387.20001221 0.314455 0.314455 -0.895676 0.000000
228.69000244 100.54799652 420.00000000 -0.555305 0.060759 0.829425 0.000000
183.70799255 124.73999786 435.60000610 0.000978 0.000978 0.999999 0.000000
76.73400116 252.50399780 415.20001221 0.369392 0.929231 0.008947 0.000000
129.65400696 207.89999390 438.39999390 0.614940 0.368964 0.696932 0.000000
129.27600098 69.93000031 395.20001221 -0.389284 -0.767167 0.509816 0.000000
175.39199829 156.11399841 401.60000610 -0.316613 -0.760192 -0.567331 0.000000
89.96399689 88.07399750 412.79998779 -0.591296 -0.781739 0.198123 0.000000
147.41999817 84.29399872 422.39999390 0.131332 -0.899557 0.416592 0.000000
33.64199829 212.43600464 392.79998779 -0.883684 0.449694 -0.129912 0.000000
137.59199524 159.51600647 448.39999390 0.270261 0.250451 0.929641 0.000000
168.58799744 159.51600647 406.00000000 -0.814210 -0.522645 -0.252793 0.000000
219.61799622 145.90800476 413.60000610 -0.584844 -0.375152 0.719178 0.000000
38.93399811 207.14399719 432.79998779 -0.754403 0.101469 0.648522 0.000000
40.06800079 147.04200745 417.60000610 -0.920338 -0.272213 -0.280854 0.000000
86.18399811 117.55799866 471.20001221 0.406583 -0.725923 0.554730 0.000000
223.77600098 142.88400269 415.60000610 -0.555255 -0.265830 0.788052 0.000000
126.25199890 153.84599304 415.20001221 0.267809 0.755888 0.597421 0.000000
184.46400452 134.19000244 433.60000610 0.162892 0.372528 0.913613 0.000000
154.22399902 134.56799316 442.00000000 0.371158 -0.184863 0.909982 0.000000
150.44400024 141.37199402 445.20001221 0.300370 -0.054961 0.952238 0.000000
111.88800049 92.98799896 451.60000610 0.054651 -0.836582 0.545109 0.000000
89.96399689 87.69599915 382.00000000 -0.640981 -0.763073 0.082848 0.000000
118.31400299 149.68800354 416.79998779 -0.798986 0.282088 0.531081 0.000000
70.68599701 209.41200256 360.00000000 0.546843 0.325540 -0.771354 0.000000
100.54799652 225.28799438 443.60000610 0.139689 0.524935 0.839602 0.000000
133.05599976 196.55999756 386.00000000 0.768085 0.142238 -0.624350 0.000000
129.65400696 166.32000732 384.79998779 0.560696 0.823027 -0.090807 0.000000
144.39599609 145.52999878 397.60000610 0.570081 -0.759572 0.313143 0.000000
181.44000244 84.67199707 430.79998779 0.111459 -0.441603 0.890260 0.000000
46.11600113 235.49400330 392.79998779 -0.808153 0.588380 -0.026428 0.000000
117.55799866 219.24000549 443.20001221 0.411385 0.395502 0.821182 0.000000
169.34399414 167.07600403 422.79998779 0.905810 0.166897 0.389427 0.000000
66.52799988 237.00599670 432.79998779 -0.363089 0.652245 0.665389 0.000000
68.41799927 209.41200256 450.39999390 -0.411336 0.824259 0.389101 0.000000
101.30400085 142.12800598 467.60000610 0.577670 -0.305637 0.756891 0.000000
97.52400208 108.10800171 461.20001221 -0.800074 0.176954 0.573210 0.000000
142.88400269 129.27600098 410.79998779 0.844778 0.028846 -0.534339 0.000000
211.67999268 150.06599426 415.20001221 -0.075524 -0.830768 0.551471 0.000000
35.90999985 186.73199463 340.79998779 -0.968161 0.025510 -0.249025 0.000000
149.68800354 91.09799957 428.79998779 -0.006580 -0.443515 0.896243 0.000000
215.46000671 125.49600220 431.60000610 0.135260 -0.001100 0.990809 0.000000
104.32800293 84.67199707 439.60000610 -0.139817 -0.837429 0.528360 0.000000
45.73799896 162.53999329 356.79998779 -0.273640 -0.814664 -0.511315 0.000000
148.17599487 170.47799683 404.79998779 -0.123972 0.980733 0.150976 0.000000
165.94200134 184.46400452 408.79998779 0.637023 0.739819 0.216494 0.000000
129.65400696 238.13999939 416.79998779 0.664083 0.728202 0.169456 0.000000
151.19999695 177.28199768 384.00000000 -0.794745 0.446540 0.411075 0.000000
202.22999573 103.57199860 431.20001221 0.036242 -0.178871 0.983205 0.000000
168.58799744 168.58799744 385.20001221 0.668063 0.570951 -0.477187 0.000000
89.96399689 201.09599304 458.79998779 -0.089094 0.336431 0.937484 0.000000
55.18799973 228.69000244 359.20001221 0.070753 0.473077 -0.878175 0.000000
164.05200195 73.33200073 414.79998779 -0.087415 -0.951128 0.296167 0.000000
72.57599640 224.91000366 442.39999390 -0.185990 0.647124 0.739350 0.000000
102.05999756 79.00199890 394.39999390 -0.434873 -0.654808 0.618152 0.000000
182.95199585 154.60200500 422.39999390 0.432111 0.747568 0.504403 0.000000
61.23600006 139.10400391 375.60000610 0.150135 -0.001112 -0.988665 0.000000
118.69200134 96.38999939 452.00000000 0.286211 0.143777 0.947318 0.000000
230.20199585 92.98799896 424.00000000 0.646536 -0.449401 0.616465 0.000000
216.21600342 87.69599915 424.39999390 0.219218 -0.272278 0.936914 0.000000
127.76399994 191.26800537 377.20001221 0.660486 0.311672 -0.683095 0.000000
88.45200348 88.83000183 411.20001221 -0.560430 -0.824162 0.081700 0.000000
80.89199829 97.14600372 435.20001221 0.152283 -0.985710 0.072010 0.000000
32.88600159 163.29600525 380.79998779 -0.883963 -0.460774 0.079348 0.000000
47.25000000 236.62800598 388.00000000 -0.770765 0.630890 -0.088878 0.000000
45.36000061 142.50599670 387.20001221 -0.848663 -0.492434 -0.193082 0.000000
145.15199280 190.88999939 417.60000610 0.817133 -0.569255 -0.090793 0.000000
35.15399933 213.19200134 354.39999390 -0.830280 0.543270 -0.124469 0.000000
84.67199707 216.21600342 450.00000000 -0.017618 0.513619 0.857838 0.000000
118.69200134 89.96399689 396.39999390 0.373334 0.845078 -0.382706 0.000000
145.90800476 117.93599701 405.20001221 0.369551 0.538860 -0.757009 0.000000
200.33999634 125.49600220 392.39999390 -0.468131 0.094189 0.878625 0.000000
144.39599609 191.26800537 418.79998779 0.817133 -0.569255 -0.090793 0.000000
40.44599915 159.51600647 448.79998779 -0.921058 -0.134755 0.365367 0.000000
136.83599854 186.73199463 438.79998779 0.656152 0.315925 0.685314 0.000000
96.76799774 165.94200134 380.79998779 -0.751038 0.376334 -0.542507 0.000000
171.61199951 126.25199890 386.00000000 -0.113428 0.362151 0.925192 0.000000
40.06800079 215.08200073 422.39999390 -0.835545 0.547233 -0.048985 0.000000
67.28399658 207.14399719 356.39999390 0.553470 0.352208 -0.754732 0.000000
133.05599976 120.95999908 386.00000000 -0.019602 -0.406424 0.913474 0.000000
99.41400146 114.15599823 374.39999390 0.290544 -0.270307 0.917888 0.000000
40.06800079 164.42999268 356.00000000 -0.386735 -0.921608 -0.032774 0.000000
129.27600098 78.24600220 418.39999390 -0.001129 -0.985368 0.170436 0.000000
31.37400055 200.33999634 364.79998779 -0.983815 -0.017260 -0.178352 0.000000
184.46400452 99.03600311 437.20001221 0.277144 -0.248719 0.928078 0.000000
155.73599243 117.93599701 440.39999390 -0.242814 -0.970072 0.001184 0.000000
230.20199585 98.27999878 420.79998779 -0.437430 -0.081414 0.895559 0.000000
66.52799988 105.46199799 417.60000610 -0.773357 -0.627715 -0.088841 0.000000
49.51800156 176.90400696 461.60000610 -0.624564 0.365559 0.690135 0.000000
149.68800354 111.88800049 386.00000000 -0.247877 -0.087710 0.964813 0.000000
119.44799805 175.39199829 362.79998779 0.457154 0.408693 -0.789924 0.000000
32.88600159 193.53599548 357.60000610 -0.882138 0.440342 -0.167127 0.000000
220.37399292 120.20400238 407.20001221 -0.762424 0.348028 0.545514 0.000000
115.66799927 111.13200378 458.79998779 0.532243 -0.236038 0.813021 0.000000
87.31800079 110.37599945 464.00000000 0.508600 -0.730594 0.455586 0.000000
100.54799652 188.62199402 362.39999390 0.341103 0.551261 -0.761420 0.000000
77.86799622 167.45399475 470.39999390 0.200809 -0.918596 0.340379 0.000000
137.59199524 133.05599976 448.39999390 0.271133 -0.231798 0.934215 0.000000
105.46199799 154.22399902 366.39999390 -0.085828 -0.769543 -0.632800 0.000000
72.57599640 176.90400696 471.60000610 0.431037 -0.493316 0.755544 0.000000
228.31199646 152.71200562 419.60000610 -0.367252 -0.040515 0.929239 0.000000
173.12399292 81.64800262 428.39999390 -0.175130 -0.528385 0.830746 0.000000
86.18399811 213.19200134 372.39999390 0.636904 0.319263 -0.701729 0.000000
136.08000183 157.24800110 389.20001221 0.530328 0.427897 0.731886 0.000000
62.74800110 193.91400146 461.60000610 -0.407622 0.572652 0.711276 0.000000
126.25199890 106.21800232 406.39999390 0.651911 -0.755526 0.064759 0.000000
80.13600159 210.16799927 453.20001221 -0.023732 0.635186 0.771995 0.000000
51.40800095 195.80400085 445.20001221 -0.729201 0.665528 0.159181 0.000000
108.10800171 251.74800110 409.20001221 0.623546 0.742915 -0.243450 0.000000
212.05799866 82.40399933 424.00000000 0.330334 -0.213072 0.919500 0.000000
135.32400513 192.02400208 387.60000610 0.822008 0.156644 -0.547508 0.000000
136.83599854 123.60600281 406.39999390 0.050030 0.314292 -0.948007 0.000000
115.29000092 247.21200562 416.00000000 0.312114 0.933568 0.176171 0.000000
81.26999664 186.73199463 468.79998779 0.147999 0.341642 0.928104 0.000000
117.55799866 113.40000153 411.20001221 -0.919790 -0.348983 0.179437 0.000000
139.48199463 68.04000092 395.20001221 -0.155693 -0.901308 0.404232 0.000000
106.21800232 122.47200012 379.20001221 -0.314455 -0.314455 0.895676 0.000000
119.44799805 211.30200195 386.39999390 0.307580 0.629654 -0.713393 0.000000
117.55799866 184.46400452 365.60000610 0.465445 0.279886 -0.839657 0.000000
32.13000107 188.24400330 416.79998779 -0.990633 -0.124543 0.055987 0.000000
140.99400330 201.85200500 398.39999390 0.988731 0.042489 -0.143544 0.000000
131.92199707 210.16799927 435.20001221 0.703148 0.213595 0.678203 0.000000
210.54600525 105.08399963 405.60000610 -0.443399 0.407927 0.798118 0.000000
158.75999451 156.49200439 383.60000610 0.032063 0.105034 0.993952 0.000000
151.57800293 153.46800232 397.60000610 0.578328 -0.763139 0.288368 0.000000
130.03199768 82.02600098 427.20001221 0.317711 -0.948187 0.001236 0.000000
165.18600464 181.44000244 396.00000000 0.078605 0.555949 -0.827492 0.000000
207.14399719 150.06599426 415.20001221 0.023307 -0.962957 0.268647 0.000000
235.87199402 142.12800598 424.39999390 -0.541657 -0.087180 0.836067 0.000000
50.65200043 204.11999512 340.39999390 0.534699 0.416243 -0.735417 0.000000
87.69599915 162.91799927 393.60000610 -0.657312 -0.573257 -0.489201 0.000000
79.37999725 96.76799774 433.20001221 0.152283 -0.985710 0.072010 0.000000
83.53800201 169.34399414 398.39999390 -0.527547 0.571369 -0.628674 0.000000
66.52799988 149.30999756 373.60000610 -0.006898 -0.785005 -0.619451 0.000000
118.69200134 120.20400238 383.60000610 -0.204158 -0.281933 0.937461 0.000000
105.83999634 253.63800049 405.60000610 0.772299 0.158692 -0.615119 0.000000
72.57599640 192.77999878 466.00000000 -0.138321 0.581545 0.801669 0.000000
89.20800018 176.90400696 468.39999390 0.097047 0.052428 0.993898 0.000000
186.73199463 94.87799835 400.79998779 -0.520970 0.477695 0.707388 0.000000
70.30799866 210.16799927 450.79998779 -0.432692 0.717837 0.545424 0.000000
150.44400024 109.62000275 386.00000000 -0.247877 -0.087710 0.964813 0.000000
210.16799927 132.30000305 398.00000000 -0.597226 -0.246101 0.763384 0.000000
125.11799622 197.31599426 378.39999390 0.637225 0.479180 -0.603598 0.000000
132.30000305 140.61599731 405.20001221 -0.322965 -0.563983 -0.760011 0.000000
56.32199860 210.92399597 444.00000000 -0.329286 0.394216 0.858000 0.000000
120.95999908 77.11199951 412.39999390 0.008568 -0.958429 0.285203 0.000000
66.52799988 150.82200623 471.20001221 -0.593279 0.376346 0.711606 0.000000
176.90400696 115.66799927 390.00000000 0.050594 0.243096 0.968682 0.000000
111.13200378 102.43800354 397.60000610 -0.509852 0.740852 0.437251 0.000000
149.68800354 82.78199768 379.20001221 -0.323415 -0.403882 0.855735 0.000000
32.13000107 189.75599670 421.60000610 -0.999342 0.013297 0.033755 0.000000
124.36199951 170.10000610 385.60000610 0.370367 0.927881 0.043188 0.000000
32.13000107 170.85600281 365.60000610 -0.936171 -0.329218 -0.123287 0.000000
131.92199707 148.17599487 451.20001221 0.379077 0.003829 0.925357 0.000000
234.36000061 105.83999634 423.60000610 -0.619971 0.058434 0.782446 0.000000
97.52400208 170.47799683 401.60000610 0.382656 -0.423938 0.820884 0.000000
46.11600113 207.14399719 340.39999390 0.251597 0.504738 -0.825795 0.000000
37.42200089 211.67999268 423.20001221 -0.808379 0.587785 -0.032112 0.000000
109.62000275 153.46800232 410.00000000 -0.779029 0.362902 0.511288 0.000000
33.64199829 163.29600525 391.20001221 -0.977249 -0.211835 0.010533 0.000000
136.08000183 190.88999939 388.00000000 0.899646 -0.044377 -0.434358 0.000000
195.42599487 92.23200226 407.20001221 -0.001320 0.468736 0.883337 0.000000
107.73000336 176.90400696 384.79998779 -0.548258 0.435625 -0.713894 0.000000
120.20400238 123.22799683 409.20001221 -0.728049 0.462701 -0.505820 0.000000
57.45600128 244.56599426 409.60000610 -0.590420 0.785701 0.184602 0.000000
99.79199982 254.01600647 400.39999390 0.506900 0.734757 -0.450761 0.000000
149.68800354 114.91200256 405.20001221 0.577642 0.772813 0.262851 0.000000
123.22799683 77.48999786 412.79998779 0.048615 -0.963566 0.263017 0.000000
104.70600128 80.13600159 412.79998779 -0.275574 -0.946184 0.169689 0.000000
168.58799744 172.74600220 419.20001221 0.764098 0.420499 0.489219 0.000000
122.47200012 210.92399597 387.60000610 0.382754 0.573310 -0.724441 0.000000
136.83599854 171.23399353 443.20001221 0.665421 0.304514 0.681532 0.000000
75.59999847 219.99600220 368.39999390 0.552997 0.199566 -0.808930 0.000000
91.47599792 225.66600037 444.00000000 -0.043938 0.633552 0.772452 0.000000
76.35600281 103.94999695 380.00000000 -0.742336 -0.508607 -0.436184 0.000000
198.07200623 147.04200745 397.60000610 -0.521732 -0.815884 0.249255 0.000000
75.59999847 118.69200134 375.60000610 -0.276947 -0.471893 0.837029 0.000000
86.18399811 180.68400574 355.60000610 0.231674 0.186143 -0.954818 0.000000
125.87400055 226.04400635 433.60000610 0.484777 0.518095 0.704676 0.000000
155.73599243 105.08399963 437.20001221 -0.047631 -0.461343 0.885942 0.000000
60.47999954 248.34599304 384.79998779 -0.537498 0.841848 0.048863 0.000000
98.27999878 82.02600098 420.79998779 -0.453523 -0.876422 0.161868 0.000000
31.75200081 167.45399475 374.39999390 -0.901032 -0.367738 -0.230020 0.000000
38.55599976 167.83200073 341.20001221 -0.264182 -0.962826 -0.056342 0.000000
220.75199890 140.61599731 429.20001221 0.113959 0.130753 0.984844 0.000000
122.84999847 134.56799316 456.00000000 0.463753 0.091069 0.881271 0.000000
65.39399719 106.59600067 418.39999390 -0.774266 -0.536030 -0.336427 0.000000
36.28799820 218.10600281 382.39999390 -0.979245 0.195370 -0.053936 0.000000
229.82400513 86.94000244 418.79998779 0.808671 0.328870 0.487745 0.000000
136.83599854 145.52999878 419.20001221 0.432251 0.625846 0.649211 0.000000
67.28399658 121.33799744 464.79998779 -0.741128 -0.387742 0.548075 0.000000
173.12399292 132.30000305 385.20001221 -0.041367 0.045609 0.998102 0.000000
96.76799774 132.30000305 382.00000000 -0.082848 -0.763073 0.640981 0.000000
118.69200134 156.49200439 459.60000610 0.405452 -0.080544 0.910561 0.000000
30.23999977 199.58399963 398.00000000 -0.712712 0.230261 0.662587 0.000000
40.06800079 140.23800659 428.79998779 -0.880162 -0.472249 0.047909 0.000000
55.18799973 126.25199890 433.20001221 -0.879534 -0.288149 -0.378668 0.000000
177.28199768 165.56399536 400.00000000 0.968566 0.058288 0.241831 0.000000
141.37199402 179.92799377 437.20001221 0.830626 0.090379 0.549447 0.000000
76.35600281 154.22399902 474.79998779 -0.237253 0.125757 0.963274 0.000000
61.99200058 237.00599670 429.60000610 -0.479266 0.630614 0.610434 0.000000
81.64800262 255.90600586 410.39999390 -0.368225 0.877374 0.307611 0.000000
185.97599792 94.50000000 400.39999390 -0.520970 0.477695 0.707388 0.000000
101.30400085 179.17199707 466.79998779 0.357076 0.369442 0.857910 0.000000
37.42200089 216.21600342 412.79998779 -0.832869 0.271419 0.482350 0.000000
103.94999695 173.88000488 389.60000610 -0.818670 0.131282 -0.559056 0.000000
80.89199829 106.21800232 460.00000000 -0.179205 -0.715287 0.675463 0.000000
95.25599670 123.98400116 469.20001221 0.482683 -0.229922 0.845076 0.000000
139.86000061 121.71600342 386.79998779 0.111107 -0.273193 0.955521 0.000000
122.84999847 133.05599976 456.00000000 0.463513 -0.001321 0.886089 0.000000
113.02200317 96.76799774 384.79998779 0.442760 -0.783345 0.436273 0.000000
77.11199951 148.55400085 374.39999390 -0.080091 -0.712079 -0.697517 0.000000
204.87600708 99.03600311 430.00000000 0.117470 -0.171877 0.978090 0.000000
218.10600281 88.45200348 424.00000000 0.200988 -0.310618 0.929043 0.000000
97.52400208 153.46800232 389.20001221 -0.583926 -0.235127 -0.777011 0.000000
94.50000000 151.95599365 472.39999390 0.491272 0.017497 0.870830 0.000000
170.85600281 117.93599701 438.79998779 0.048702 0.063854 0.996770 0.000000
81.26999664 207.89999390 366.39999390 0.423672 0.423672 -0.800627 0.000000
136.45799255 226.80000305 409.60000610 0.806186 0.424730 -0.411908 0.000000
116.04599762 73.33200073 385.60000610 -0.319705 -0.918973 0.230818 0.000000
61.23600006 247.58999634 404.79998779 -0.626773 0.777426 -0.052586 0.000000
213.94799805 111.13200378 404.39999390 -0.542496 0.446273 0.711715 0.000000
43.84799957 194.29200745 441.20001221 -0.257403 -0.410942 0.874569 0.000000
150.44400024 91.85399628 429.60000610 -0.109304 -0.561092 0.820505 0.000000
170.10000610 147.04200745 388.00000000 -0.278874 -0.239237 0.930051 0.000000
85.42800140 171.61199951 354.79998779 -0.000978 -0.000978 -0.999999 0.000000
61.23600006 129.65400696 461.60000610 -0.549194 -0.304046 0.778423 0.000000
179.55000305 77.11199951 391.20001221 -0.422853 -0.104667 0.900133 0.000000
133.81199646 79.00199890 417.60000610 0.188954 -0.965621 0.178529 0.000000
123.60600281 102.81600189 452.79998779 -0.012717 0.190761 0.981554 0.000000
66.15000153 124.73999786 465.60000610 -0.787204 -0.317756 0.528528 0.000000
159.13800049 173.88000488 423.20001221 -0.798134 0.577855 0.170490 0.000000
29.10600090 194.29200745 399.20001221 -0.968737 0.232447 -0.086696 0.000000
72.57599640 216.21600342 448.39999390 -0.250546 0.533772 0.807660 0.000000
81.64800262 97.14600372 433.60000610 0.152283 -0.985710 0.072010 0.000000
68.41799927 232.84800720 366.39999390 0.427317 0.252163 -0.868225 0.000000
125.11799622 174.63600159 454.39999390 0.744283 0.133282 0.654430 0.000000
84.29399872 92.98799896 386.39999390 -0.607985 -0.791096 -0.067236 0.000000
88.45200348 108.10800171 460.39999390 0.508600 -0.730594 0.455586 0.000000
55.56600189 162.53999329 468.79998779 -0.387120 -0.198634 0.900379 0.000000
29.86199951 203.36399841 388.00000000 -0.977778 0.196043 -0.074277 0.000000
149.30999756 150.44400024 393.60000610 0.688693 0.117509 -0.715467 0.000000
41.95800018 151.95599365 384.00000000 -0.474476 -0.316843 0.821269 0.000000
167.83200073 161.02799988 434.00000000 0.192540 0.977418 0.087072 0.000000
126.25199890 240.40800476 410.00000000 0.484848 0.827827 -0.282178 0.000000
62.74800110 111.51000214 385.60000610 -0.777088 -0.428458 -0.461040 0.000000
211.67999268 121.71600342 432.39999390 0.166590 0.060256 0.984183 0.000000
154.97999573 128.52000427 385.20001221 0.091927 -0.275780 0.956815 0.000000
94.50000000 257.04000854 400.39999390 0.465033 0.814205 -0.347584 0.000000
206.76600647 142.88400269 400.00000000 -0.698751 -0.433192 0.569291 0.000000
104.70600128 151.95599365 467.20001221 0.493008 -0.059717 0.867973 0.000000
33.26399994 214.32600403 407.20001221 -0.818204 0.354290 0.452792 0.000000
188.24400330 66.90599823 412.00000000 -0.161631 -0.902561 0.399072 0.000000
107.35199738 179.17199707 399.60000610 -0.315555 -0.549418 0.773670 0.000000
143.26199341 152.71200562 399.20001221 0.656312 -0.738161 0.156120 0.000000
47.25000000 231.33599854 372.00000000 -0.774524 0.626303 -0.088642 0.000000
106.59600067 108.10800171 374.00000000 -0.471540 0.378197 0.796629 0.000000
92.23200226 234.73800659 384.00000000 0.462870 0.194971 -0.864718 0.000000
185.97599792 100.54799652 437.20001221 0.277144 -0.248719 0.928078 0.000000
171.61199951 76.35600281 383.60000610 -0.382754 -0.573310 0.724441 0.000000
226.80000305 93.36599731 416.00000000 -0.717770 -0.346678 0.603838 0.000000
123.22799683 225.28799438 397.20001221 0.381183 0.412816 -0.827214 0.000000
45.73799896 234.36000061 411.20001221 -0.719439 0.431663 0.544127 0.000000
223.02000427 137.59199524 413.20001221 -0.697586 -0.272968 0.662467 0.000000
44.98199844 132.30000305 416.79998779 -0.832674 -0.553762 0.001354 0.000000
105.46199799 178.41600037 396.00000000 -0.468827 -0.535563 0.702406 0.000000
130.03199768 91.47599792 374.79998779 -0.079895 -0.391352 0.916766 0.000000
159.51600647 170.85600281 430.00000000 -0.073964 0.683080 0.726588 0.000000
138.72599792 172.36799622 409.60000610 0.507367 0.765128 0.396431 0.000000
33.64199829 174.63600159 359.20001221 -0.928213 0.372047 -0.001270 0.000000
79.37999725 139.86000061 378.79998779 0.212287 -0.196266 -0.957295 0.000000
229.06799316 136.83599854 418.79998779 -0.563567 -0.144237 0.813380 0.000000
55.56600189 244.18800354 381.60000610 -0.630224 0.776403 0.004137 0.000000
116.42400360 125.11799622 385.60000610 -0.214866 -0.582766 0.783720 0.000000
55.94400024 130.78799438 442.00000000 -0.863816 -0.469690 0.182246 0.000000
218.48399353 84.67199707 414.00000000 -0.021641 0.156043 0.987513 0.000000
119.44799805 238.13999939 426.00000000 0.412472 0.578123 -0.704018 0.000000
58.21200180 114.53399658 396.79998779 -0.724856 -0.642737 -0.247936 0.000000
37.42200089 162.53999329 424.79998779 -0.940290 0.226392 -0.254170 0.000000
71.06400299 235.11599731 368.39999390 0.427317 0.252163 -0.868225 0.000000
159.51600647 158.38200378 425.60000610 0.233610 0.970285 0.063038 0.000000
113.40000153 96.01200104 384.39999390 -0.898432 -0.437835 -0.033474 0.000000
92.23200226 214.70399475 377.20001221 0.489083 0.426925 -0.760614 0.000000
127.76399994 241.16400146 414.00000000 0.638927 0.769207 0.009702 0.000000
155.73599243 168.58799744 384.39999390 0.244477 0.149329 -0.958087 0.000000
102.05999756 239.65199280 433.20001221 0.237144 0.629766 0.739701 0.000000
56.32199860 130.03199768 442.39999390 -0.863816 -0.469690 0.182246 0.000000
148.17599487 119.44799805 385.20001221 0.110525 -0.149391 0.982581 0.000000
137.97000122 84.67199707 428.00000000 0.372991 -0.786349 0.492477 0.000000
38.17800140 158.00399780 416.79998779 -0.974679 0.145004 -0.170222 0.000000
75.59999847 122.47200012 377.20001221 -0.196898 -0.297441 0.934216 0.000000
225.28799438 103.57199860 417.20001221 -0.653561 0.064638 0.754109 0.000000
38.17800140 165.56399536 356.79998779 -0.309190 -0.907056 -0.285745 0.000000
32.13000107 210.92399597 400.79998779 -0.973326 0.210617 0.090977 0.000000
117.18000031 121.71600342 415.60000610 -0.442827 0.148571 0.884212 0.000000
66.52799988 208.65600586 450.00000000 -0.429240 0.160423 0.888829 0.000000
85.80599976 104.32800293 451.20001221 0.368812 -0.888433 0.273249 0.000000
215.46000671 70.68599701 416.00000000 0.025203 0.900677 0.433758 0.000000
169.34399414 169.34399414 386.79998779 0.676971 0.566650 -0.469701 0.000000
128.14199829 200.33999634 382.39999390 0.312789 0.355099 -0.880947 0.000000
119.44799805 222.26400757 440.39999390 0.441797 0.481214 0.757132 0.000000
167.07600403 70.68599701 406.39999390 -0.284745 -0.901448 0.326056 0.000000
133.81199646 232.09199524 410.00000000 0.779518 0.568497 -0.262989 0.000000
58.21200180 246.83399963 384.00000000 -0.602395 0.798139 -0.009649 0.000000
158.38200378 106.59600067 438.39999390 -0.202009 -0.423186 0.883236 0.000000
160.27200317 181.81799316 414.39999390 -0.672241 0.501247 0.544834 0.000000
189.75599670 69.93000031 419.20001221 -0.182525 -0.904002 0.386608 0.000000
30.23999977 171.61199951 390.79998779 -0.815686 -0.502563 0.286508 0.000000
43.47000122 144.39599609 401.60000610 -0.941119 -0.086038 -0.326943 0.000000
87.69599915 138.34800720 379.60000610 0.112738 -0.407806 -0.906082 0.000000
197.31599426 77.86799622 425.20001221 0.186948 -0.501019 0.845003 0.000000
153.46800232 170.47799683 412.79998779 -0.479317 0.877641 -0.001328 0.000000
111.88800049 190.13400269 366.39999390 0.185146 0.522323 -0.832406 0.000000
88.83000183 247.21200562 385.60000610 0.641473 0.300640 -0.705781 0.000000
88.45200348 244.56599426 384.00000000 0.625935 0.354642 -0.694575 0.000000
100.54799652 246.07800293 426.39999390 0.150305 0.814029 0.561040 0.000000
97.52400208 166.32000732 384.39999390 -0.841675 0.432549 -0.323241 0.000000
126.25199890 196.18200684 445.60000610 -0.010196 0.162002 0.986738 0.000000
136.45799255 219.24000549 428.00000000 0.712527 0.258668 0.652224 0.000000
114.15599823 149.68800354 462.00000000 0.505198 -0.020316 0.862764 0.000000
149.68800354 151.57800293 388.00000000 0.484165 0.353137 0.800549 0.000000
44.98199844 231.33599854 380.79998779 -0.676518 0.660294 -0.326091 0.000000
108.86399841 96.76799774 457.20001221 0.274714 -0.608182 0.744746 0.000000
41.58000183 150.82200623 376.79998779 -0.674493 -0.735154 0.067883 0.000000
77.11199951 119.06999969 376.00000000 -0.124121 -0.457965 0.880263 0.000000
121.71600342 138.34800720 406.79998779 -0.507018 -0.290397 -0.811543 0.000000
38.55599976 147.04200745 424.79998779 -0.977014 -0.211983 -0.022501 0.000000
83.91600037 221.88600159 446.39999390 -0.057386 0.533271 0.843996 0.000000
32.88600159 201.85200500 357.60000610 -0.990143 -0.037428 -0.134968 0.000000
53.67599869 160.27200317 358.00000000 -0.095409 -0.855834 -0.508374 0.000000
226.80000305 94.50000000 425.20001221 0.126461 -0.436219 0.890910 0.000000
55.18799973 203.36399841 445.20001221 -0.280574 0.131644 0.950762 0.000000
175.01400757 165.56399536 412.00000000 0.903843 0.001300 0.427862 0.000000
74.08799744 97.14600372 412.00000000 -0.626974 -0.769265 -0.123023 0.000000
98.27999878 125.49600220 379.60000610 0.165629 -0.297038 0.940391 0.000000
28.35000038 192.77999878 399.20001221 -0.916134 0.354770 -0.186646 0.000000
128.89799500 71.06400299 396.00000000 -0.370572 -0.797291 0.476449 0.000000
36.66600037 168.58799744 346.39999390 -0.581957 -0.811342 0.055222 0.000000
35.90999985 208.65600586 346.39999390 -0.531069 0.778152 -0.335328 0.000000
32.13000107 193.53599548 361.60000610 -0.982208 0.036378 -0.184237 0.000000
182.57400513 153.46800232 399.20001221 -0.268065 -0.896019 0.353965 0.000000
89.58599854 111.13200378 462.39999390 0.799798 -0.455418 0.391048 0.000000
41.95800018 230.58000183 403.20001221 0.863789 -0.503765 -0.009404 0.000000
28.35000038 190.51199341 395.20001221 -0.885969 0.326410 -0.329418 0.000000
189.00000000 150.06599426 423.20001221 0.208740 0.880853 0.424882 0.000000
92.98799896 133.81199646 472.39999390 0.580920 -0.190591 0.791332 0.000000
61.23600006 155.73599243 466.00000000 -0.065192 -0.368535 0.927325 0.000000
88.83000183 111.13200378 464.00000000 0.728796 -0.537095 0.424718 0.000000
40.06800079 179.55000305 441.60000610 -0.788097 0.583039 -0.197407 0.000000
65.01599884 229.44599915 436.79998779 -0.231911 0.520648 0.821671 0.000000
151.57800293 151.95599365 385.60000610 0.493454 0.244421 0.834722 0.000000
35.53200150 199.20599365 341.60000610 -0.840806 0.136466 -0.523853 0.000000
106.97399902 242.67599487 428.00000000 0.253863 0.742667 0.619677 0.000000
149.68800354 172.74600220 391.20001221 -0.421933 0.793752 0.438099 0.000000
88.45200348 207.89999390 370.79998779 0.575355 0.538235 -0.615849 0.000000
175.39199829 69.17400360 398.39999390 -0.237361 -0.945328 0.223641 0.000000
99.03600311 250.61399841 394.39999390 0.587327 0.587327 -0.556861 0.000000
49.89599991 121.33799744 408.00000000 -0.510408 -0.834524 0.207495 0.000000
53.67599869 199.96200562 341.60000610 0.700768 0.354468 -0.619093 0.000000
189.75599670 108.48600006 394.39999390 -0.282554 0.538274 0.793993 0.000000
49.89599991 127.76399994 430.00000000 -0.647695 -0.742182 0.172211 0.000000
138.72599792 135.32400513 448.79998779 0.271133 -0.231798 0.934215 0.000000
158.00399780 154.60200500 409.60000610 0.451119 -0.871177 0.193759 0.000000
106.59600067 163.29600525 358.79998779 0.203768 -0.203768 -0.957579 0.000000
110.75399780 108.10800171 460.79998779 0.438095 -0.253155 0.862546 0.000000
97.14600372 232.09199524 386.39999390 0.482279 0.219218 -0.848145 0.000000
105.83999634 106.59600067 462.79998779 0.438160 -0.061424 0.896796 0.000000
71.81999969 235.87199402 434.79998779 -0.247768 0.670708 0.699115 0.000000
115.66799927 190.13400269 367.20001221 0.275588 0.616490 -0.737558 0.000000
118.69200134 78.24600220 416.79998779 0.075893 -0.955734 0.284276 0.000000
46.11600113 148.17599487 455.60000610 -0.666826 -0.326112 0.670071 0.000000
97.90200043 161.02799988 406.39999390 0.303703 0.095975 0.947921 0.000000
73.33200073 193.53599548 465.20001221 0.235267 0.587388 0.774355 0.000000
74.08799744 243.80999756 427.20001221 -0.347780 0.765117 0.541890 0.000000
58.96799850 240.40800476 367.60000610 -0.272237 0.708452 -0.651139 0.000000
70.30799866 123.98400116 376.39999390 -0.174658 -0.075886 0.981700 0.000000
171.99000549 75.59999847 383.20001221 -0.382754 -0.573310 0.724441 0.000000
82.02600098 154.22399902 475.20001221 -0.094759 0.001065 0.995500 0.000000
52.91999817 206.38800049 344.39999390 0.626629 0.528666 -0.572580 0.000000
42.71400070 229.06799316 380.00000000 -0.796307 0.553207 -0.244658 0.000000
76.35600281 206.38800049 362.79998779 0.466056 0.252129 -0.848070 0.000000
93.36599731 89.20800018 444.00000000 -0.561483 -0.822839 -0.087597 0.000000
63.12599945 113.40000153 411.20001221 -0.824259 0.411336 -0.389101 0.000000
45.36000061 134.56799316 404.39999390 -0.830827 -0.548605 -0.093594 0.000000
160.27200317 136.83599854 440.39999390 0.354659 -0.161209 0.920993 0.000000
99.79199982 114.15599823 374.00000000 0.290544 -0.270307 0.917888 0.000000
72.57599640 198.07200623 462.00000000 -0.199579 0.543892 0.815076 0.000000
52.16400146 135.70199585 381.60000610 -0.783320 -0.433016 -0.445990 0.000000
107.35199738 98.27999878 373.20001221 -0.529572 -0.014975 0.848133 0.000000
221.50799561 113.77799988 430.39999390 -0.009776 -0.109711 0.993915 0.000000
33.26399994 182.95199585 429.20001221 -0.621362 -0.463928 0.631411 0.000000
29.10600090 193.53599548 385.60000610 -0.992292 0.048542 0.114018 0.000000
131.92199707 233.60400391 408.00000000 0.763032 0.582188 -0.280783 0.000000
83.16000366 168.58799744 398.79998779 -0.774976 0.373736 -0.509640 0.000000
96.76799774 82.02600098 392.79998779 -0.594517 -0.793183 0.131950 0.000000
100.16999817 169.34399414 402.39999390 0.095508 0.712635 0.695003 0.000000
187.11000061 108.10800171 393.60000610 -0.282554 0.538274 0.793993 0.000000
235.49400330 112.64399719 424.00000000 -0.581550 0.167668 0.796044 0.000000
123.60600281 149.68800354 420.00000000 -0.073657 0.769792 0.634031 0.000000
114.91200256 151.19999695 461.20001221 0.486974 -0.012074 0.873333 0.000000
94.50000000 83.53800201 417.60000610 -0.440143 -0.897572 0.025265 0.000000
29.48399925 201.47399902 388.00000000 -0.964327 0.192342 0.181874 0.000000
187.48800659 84.67199707 403.60000610 -0.706920 0.114115 0.698028 0.000000
140.61599731 112.64399719 444.39999390 0.418570 -0.150000 0.895712 0.000000
55.94400024 124.73999786 433.20001221 -0.867605 -0.490752 0.080151 0.000000
218.48399353 96.01200104 426.79998779 0.099821 -0.323419 0.940976 0.000000
148.17599487 150.06599426 412.79998779 -0.791951 -0.609733 0.032239 0.000000
144.01800537 143.63999939 415.20001221 0.659215 0.488121 0.571991 0.000000
207.89999390 121.71600342 433.20001221 0.045086 -0.086874 0.995199 0.000000
92.98799896 173.12399292 414.00000000 0.717159 0.694164 0.061799 0.000000
90.34200287 252.50399780 389.60000610 0.321180 0.744041 -0.585872 0.000000
91.85399628 142.88400269 474.39999390 0.289468 -0.013550 0.957092 0.000000
183.70799255 88.45200348 432.39999390 0.074117 -0.485257 0.871225 0.000000
137.21400452 185.22000122 396.79998779 0.924432 -0.371122 0.087720 0.000000
121.71600342 143.63999939 418.79998779 -0.476518 -0.025648 0.878791 0.000000
175.39199829 89.20800018 433.20001221 -0.126304 -0.438516 0.889804 0.000000
151.95599365 122.47200012 385.20001221 0.000978 0.000978 0.999999 0.000000
116.42400360 121.71600342 458.79998779 0.475402 -0.059253 0.877771 0.000000
139.10400391 173.50199890 404.79998779 0.832867 0.505833 0.224645 0.000000
171.61199951 114.15599823 438.79998779 0.044197 0.061445 0.997131 0.000000
204.87600708 149.30999756 412.79998779 -0.083738 -0.937073 0.338941 0.000000
132.67799377 74.08799744 401.60000610 0.066674 -0.904861 0.420454 0.000000
227.17799377 133.81199646 416.79998779 -0.707872 -0.120711 0.695950 0.000000
141.37199402 171.61199951 438.00000000 0.894688 -0.446689 -0.001310 0.000000
71.44200134 241.16400146 429.60000610 -0.313687 0.751240 0.580723 0.000000
109.62000275 179.92799377 398.79998779 0.228833 -0.946846 0.226092 0.000000
45.36000061 209.03399658 341.60000610 0.246691 0.598658 -0.762071 0.000000
170.10000610 159.13800049 428.79998779 0.773939 0.633223 0.006898 0.000000
122.09400177 191.26800537 450.39999390 0.763119 0.256471 0.593188 0.000000
106.59600067 148.55400085 374.39999390 0.434815 -0.658053 -0.614738 0.000000
217.72799683 116.42400360 430.79998779 0.098948 -0.018485 0.994921 0.000000
42.71400070 167.07600403 342.39999390 -0.140841 -0.980991 -0.133493 0.000000
140.61599731 123.22799683 420.39999390 0.539194 -0.569619 0.620326 0.000000
223.39799500 113.40000153 413.60000610 -0.682289 0.186359 0.706931 0.000000
119.44799805 207.14399719 382.79998779 0.300650 0.615769 -0.728312 0.000000
67.66200256 102.81600189 419.20001221 -0.773357 -0.627715 -0.088841 0.000000
102.05999756 88.07399750 448.79998779 -0.359901 -0.909147 0.209581 0.000000
132.30000305 103.57199860 380.39999390 -0.253888 -0.320624 0.912546 0.000000
226.80000305 122.47200012 430.79998779 0.137249 -0.125103 0.982605 0.000000
213.57000732 84.67199707 424.00000000 0.288496 -0.324003 0.900995 0.000000
33.64199829 163.29600525 395.20001221 -0.967901 -0.241039 -0.071188 0.000000
83.16000366 155.35800171 408.79998779 0.180276 -0.901379 -0.393722 0.000000
48.00600052 159.51600647 361.60000610 -0.219497 -0.873509 -0.434515 0.000000
99.79199982 85.42800140 439.60000610 -0.046304 -0.276575 0.959876 0.000000
189.75599670 105.08399963 436.39999390 0.497887 -0.200057 0.843851 0.000000
204.87600708 133.81199646 433.20001221 0.103925 0.206598 0.972891 0.000000
125.87400055 209.41200256 442.39999390 0.351640 0.351640 0.867582 0.000000
71.06400299 147.79800415 375.20001221 0.191968 -0.280356 -0.940505 0.000000
213.19200134 83.16000366 423.60000610 0.288496 -0.324003 0.900995 0.000000
118.69200134 212.43600464 444.39999390 0.001246 0.332624 0.943059 0.000000
187.48800659 147.41999817 393.20001221 -0.371920 -0.712710 0.594744 0.000000
109.62000275 171.99000549 382.39999390 -0.496044 0.596934 -0.630564 0.000000
45.36000061 147.41999817 370.79998779 -0.236459 -0.606024 -0.759488 0.000000
100.54799652 215.08200073 381.60000610 0.248127 0.563357 -0.788075 0.000000
107.35199738 199.20599365 395.20001221 -0.078601 0.992193 -0.096827 0.000000
153.46800232 68.41799927 396.79998779 0.104523 -0.970929 0.215342 0.000000
184.46400452 132.30000305 434.00000000 0.127405 0.258750 0.957505 0.000000
92.98799896 256.66198730 408.79998779 0.175825 0.983919 -0.031439 0.000000
140.61599731 69.93000031 398.39999390 0.056811 -0.868795 0.491902 0.000000
177.66000366 120.95999908 436.39999390 0.221368 0.385561 0.895734 0.000000
124.73999786 153.08999634 416.00000000 -0.070470 0.772289 0.631350 0.000000
109.24199677 102.81600189 460.00000000 0.288696 -0.223915 0.930869 0.000000
179.92799377 87.69599915 394.79998779 -0.431414 -0.322393 0.842582 0.000000
201.09599304 94.50000000 430.79998779 0.276063 -0.140032 0.950884 0.000000
181.44000244 77.86799622 426.00000000 -0.075210 -0.534988 0.841506 0.000000
164.80799866 125.49600220 385.20001221 -0.063770 0.133338 0.989017 0.000000
121.71600342 133.81199646 456.39999390 0.463753 0.091069 0.881271 0.000000
133.43400574 185.97599792 383.20001221 0.923875 0.113602 -0.365444 0.000000
142.88400269 192.02400208 402.00000000 0.839908 -0.184151 -0.510532 0.000000
36.28799820 166.69799805 356.79998779 -0.425518 -0.876417 -0.225450 0.000000
136.08000183 206.00999451 392.79998779 0.423930 0.495950 -0.757837 0.000000
213.94799805 72.19799805 418.39999390 0.237116 -0.654817 0.717629 0.000000
114.91200256 180.68400574 362.79998779 0.448281 0.299371 -0.842272 0.000000
229.82400513 145.15199280 428.39999390 -0.206434 0.069626 0.975980 0.000000
96.76799774 158.75999451 358.79998779 -0.086052 -0.710294 -0.698626 0.000000
144.01800537 145.90800476 407.20001221 0.489635 -0.869691 -0.062418 0.000000
147.41999817 130.78799438 444.39999390 0.252976 -0.284420 0.924721 0.000000
133.81199646 147.41999817 450.79998779 0.362589 0.048433 0.930690 0.000000
45.36000061 186.73199463 446.00000000 -0.763123 0.575130 -0.294734 0.000000
33.64199829 177.66000366 348.00000000 -0.956389 -0.250704 -0.149892 0.000000
86.94000244 122.09400177 380.00000000 -0.071961 -0.405967 0.911050 0.000000
37.79999924 192.40199280 436.79998779 -0.703716 0.073999 0.706618 0.000000
55.94400024 220.37399292 438.39999390 -0.789109 0.375997 0.485730 0.000000
150.82200623 151.19999695 387.20001221 0.467753 0.301927 0.830691 0.000000
40.44599915 142.88400269 433.60000610 -0.521395 -0.729953 0.441945 0.000000
223.39799500 87.69599915 422.39999390 0.188934 -0.423270 0.886085 0.000000
73.33200073 242.67599487 428.39999390 -0.306770 0.793152 0.526119 0.000000
84.67199707 92.23200226 414.79998779 -0.335538 -0.879080 0.338575 0.000000
232.09199524 140.61599731 429.20001221 0.637927 0.431392 0.637927 0.000000
57.45600128 229.44599915 360.00000000 0.303677 0.248986 -0.919666 0.000000
86.18399811 194.29200745 463.60000610 0.142258 0.392971 0.908480 0.000000
46.49399948 189.75599670 449.60000610 -0.611129 0.721359 -0.325827 0.000000
57.83399963 127.76399994 449.60000610 -0.988649 0.083070 0.125190 0.000000
69.17400360 243.43200684 424.79998779 -0.347265 0.770443 0.534626 0.000000
144.77400208 185.97599792 424.00000000 0.788444 0.006880 -0.615069 0.000000
125.11799622 241.91999817 411.20001221 0.531358 0.825043 -0.192258 0.000000
132.67799377 86.94000244 434.39999390 0.388594 -0.646555 0.656476 0.000000
194.29200745 133.81199646 389.20001221 -0.001246 -0.332624 0.943059 0.000000
85.42800140 166.32000732 394.79998779 -0.620705 0.165420 -0.766396 0.000000
37.04399872 168.58799744 427.60000610 -0.805888 0.359059 -0.470766 0.000000
170.85600281 157.24800110 403.60000610 -0.574480 -0.664923 -0.477337 0.000000
176.90400696 69.17400360 400.00000000 -0.276506 -0.933382 0.228784 0.000000
87.69599915 174.25799561 403.20001221 -0.038157 0.966243 -0.254793 0.000000
29.48399925 177.66000366 398.00000000 -0.805098 -0.518351 0.288323 0.000000
139.10400391 79.75800323 416.00000000 0.287599 -0.892600 0.347205 0.000000
195.80400085 133.05599976 433.20001221 0.157545 0.052515 0.986114 0.000000
232.09199524 104.32800293 422.00000000 -0.553126 0.004077 0.833087 0.000000
129.65400696 151.95599365 452.79998779 0.595693 0.017968 0.803011 0.000000
120.20400238 205.25399780 446.39999390 0.441631 0.180467 0.878860 0.000000
31.37400055 183.70799255 422.39999390 -0.992111 0.099325 0.076492 0.000000
121.71600342 75.97799683 409.60000610 -0.126680 -0.968653 0.213692 0.000000
88.45200348 167.07600403 414.00000000 0.201151 -0.255886 0.945548 0.000000
229.82400513 131.54400635 418.79998779 -0.604917 -0.103993 0.789468 0.000000
141.37199402 75.59999847 409.20001221 -0.515834 -0.751644 0.411030 0.000000
168.96600342 113.40000153 390.39999390 -0.195685 0.290058 0.936789 0.000000
96.76799774 167.83200073 470.79998779 0.203768 0.203768 0.957579 0.000000
205.63200378 150.44400024 426.00000000 0.194017 0.448758 0.872338 0.000000
86.18399811 142.88400269 476.39999390 0.299429 -0.104206 0.948411 0.000000
72.57599640 218.86199951 365.60000610 0.535634 0.306758 -0.786763 0.000000
56.70000076 180.68400574 342.00000000 0.699576 -0.130328 -0.702572 0.000000
54.05400085 145.15199280 372.79998779 0.235402 -0.590842 -0.771681 0.000000
112.64399719 196.18200684 455.20001221 0.573310 0.382754 0.724441 0.000000
143.63999939 130.78799438 388.39999390 0.328686 -0.225343 0.917162 0.000000
224.91000366 113.40000153 415.20001221 -0.626303 0.229593 0.745004 0.000000
32.13000107 192.02400208 357.60000610 -0.970309 0.073489 -0.230433 0.000000
182.57400513 136.08000183 388.00000000 -0.277536 -0.072901 0.957945 0.000000
179.92799377 118.31400299 437.60000610 0.041380 0.420476 0.906359 0.000000
195.80400085 68.41799927 416.00000000 0.026298 -0.953007 0.301806 0.000000
161.02799988 183.70799255 413.20001221 -0.780077 0.623206 -0.055618 0.000000
136.08000183 147.79800415 417.60000610 0.387832 0.694796 0.605677 0.000000
133.43400574 161.78399658 392.79998779 0.522478 0.696081 -0.492431 0.000000
233.60400391 113.40000153 422.00000000 -0.634549 0.162045 0.755704 0.000000
31.37400055 205.63200378 397.60000610 -0.955037 0.296049 0.016103 0.000000
137.21400452 200.33999634 432.00000000 0.734925 0.431046 0.523531 0.000000
32.13000107 205.63200378 412.00000000 -0.528385 -0.175130 -0.830746 0.000000
227.55599976 152.71200562 426.00000000 0.139835 -0.990033 0.016780 0.000000
125.49600220 241.54200745 415.20001221 0.638927 0.769207 0.009702 0.000000
38.17800140 151.95599365 420.79998779 -0.963156 -0.197873 -0.182148 0.000000
235.87199402 100.54799652 425.20001221 0.567036 -0.674087 0.473367 0.000000
165.18600464 173.88000488 424.79998779 0.489899 0.791869 0.364613 0.000000
77.11199951 157.24800110 410.00000000 -0.546934 -0.661370 -0.513277 0.000000
48.00600052 238.13999939 404.00000000 -0.708486 0.705724 -0.001381 0.000000
114.15599823 128.52000427 460.39999390 0.536374 -0.023321 0.843658 0.000000
29.48399925 186.35400391 386.39999390 -0.797446 0.575680 0.180754 0.000000
46.11600113 167.45399475 347.20001221 0.250794 -0.875526 0.412984 0.000000
53.67599869 229.82400513 428.39999390 -0.668638 0.391277 0.632317 0.000000
115.66799927 155.35800171 413.60000610 -0.416201 0.422629 0.805085 0.000000
207.89999390 128.52000427 433.20001221 0.000978 0.000978 0.999999 0.000000
228.69000244 119.44799805 416.79998779 -0.611797 -0.061322 0.788634 0.000000
29.10600090 187.48800659 392.79998779 -0.942926 0.207857 -0.260165 0.000000
103.19400024 182.95199585 398.39999390 -0.841784 -0.252995 0.476858 0.000000
78.24600220 153.46800232 412.79998779 -0.494934 -0.815462 -0.300103 0.000000
167.45399475 152.71200562 386.39999390 0.052895 0.234953 0.970566 0.000000
61.61399841 244.18800354 417.60000610 -0.488001 0.714513 0.501325 0.000000
191.26800537 132.67799377 388.79998779 -0.087550 -0.244887 0.965591 0.000000
159.51600647 69.93000031 385.60000610 0.071609 -0.992290 0.101161 0.000000
50.65200043 125.87400055 424.79998779 -0.716204 -0.683033 0.143241 0.000000
128.52000427 238.89599609 418.00000000 0.647253 0.749372 0.139662 0.000000
109.62000275 168.58799744 466.00000000 0.465682 -0.006634 0.884928 0.000000
203.74200439 86.94000244 412.00000000 -0.238450 0.358407 0.902600 0.000000
55.18799973 142.88400269 454.79998779 -0.553154 -0.476280 0.683504 0.000000
80.51399994 148.17599487 476.00000000 -0.161394 0.283456 0.945307 0.000000
58.96799850 143.63999939 458.00000000 -0.732630 -0.388442 0.558897 0.000000
75.22200012 253.25999451 410.39999390 0.816928 0.553113 -0.163386 0.000000
106.59600067 202.60800171 375.60000610 0.279450 0.697828 -0.659503 0.000000
103.94999695 246.45599365 395.20001221 0.615547 0.461241 -0.639029 0.000000
170.10000610 69.93000031 407.20001221 -0.225981 -0.951284 0.209743 0.000000
89.96399689 164.80799866 355.60000610 0.001340 -0.507781 -0.861485 0.000000
104.32800293 198.44999695 395.20001221 -0.069474 0.423653 -0.903157 0.000000
84.29399872 173.12399292 403.20001221 -0.317490 0.853351 -0.413511 0.000000
118.31400299 187.48800659 456.79998779 0.401405 0.174086 0.899204 0.000000
40.44599915 150.44400024 440.00000000 -0.945173 0.115980 0.305282 0.000000
168.58799744 161.78399658 430.79998779 0.430520 0.896099 -0.107981 0.000000
71.81999969 145.15199280 375.60000610 0.672185 0.079849 -0.736065 0.000000
127.38600159 164.05200195 368.00000000 -0.272014 0.927126 0.257772 0.000000
210.16799927 138.34800720 400.39999390 -0.616128 -0.333262 0.713668 0.000000
158.75999451 71.81999969 406.00000000 -0.100389 -0.914502 0.391929 0.000000
142.88400269 124.73999786 408.39999390 0.421015 0.405006 -0.811614 0.000000
68.41799927 149.68800354 473.60000610 -0.438516 0.126304 0.889804 0.000000
90.34200287 115.66799927 466.39999390 0.467460 -0.530675 0.707012 0.000000
57.83399963 114.91200256 396.79998779 -0.683296 -0.647419 -0.337571 0.000000
126.25199890 229.82400513 401.20001221 0.511089 0.308552 -0.802236 0.000000
94.12200165 173.12399292 406.39999390 0.421479 0.902379 -0.089823 0.000000
89.20800018 172.74600220 398.39999390 -0.330546 0.838114 -0.433940 0.000000
163.29600525 105.83999634 390.79998779 -0.349202 0.195268 0.916476 0.000000
114.91200256 188.24400330 458.00000000 0.410177 0.253919 0.875945 0.000000
34.39799881 199.58399963 425.60000610 -0.828497 -0.069634 0.555647 0.000000
143.63999939 114.15599823 414.00000000 0.587085 -0.546480 0.597236 0.000000
229.44599915 140.61599731 420.00000000 -0.506719 -0.135807 0.851347 0.000000
99.79199982 149.68800354 469.20001221 0.412022 -0.009098 0.911128 0.000000
121.71600342 179.92799377 457.20001221 0.435085 0.287494 0.853258 0.000000
34.77600098 196.55999756 342.00000000 -0.852746 0.225682 -0.471055 0.000000
80.13600159 124.36199951 378.39999390 -0.255384 -0.278212 0.925947 0.000000
38.17800140 174.63600159 442.39999390 -0.902472 0.400624 0.158253 0.000000
108.10800171 117.55799866 464.00000000 0.566589 -0.106326 0.817112 0.000000
99.79199982 248.72399902 422.79998779 0.100299 0.812566 0.574175 0.000000
