152.34399414 249.51199341 392.50000000 0.148950 0.354975 -0.922934 0.000000
192.38299561 362.79299927 275.50000000 -0.085196 -0.884082 0.459499 0.000000
234.37500000 172.36300659 357.00000000 0.394614 0.615861 -0.681905 0.000000
156.73800659 271.48400879 237.00000000 0.018111 0.773209 0.633892 0.000000
243.16400146 282.22698975 380.75000000 -0.930319 0.127422 0.343903 0.000000
122.06999969 290.52700806 288.00000000 0.919404 0.030166 0.392157 0.000000
250.97700500 156.73800659 319.50000000 0.268346 0.896956 -0.351370 0.000000
322.26599121 177.73399353 361.75000000 -0.502806 -0.177549 0.845968 0.000000
211.91400146 262.69500732 311.75000000 0.517335 -0.834070 -0.191550 0.000000
176.75799561 219.23800659 384.50000000 0.505807 0.542776 -0.670488 0.000000
244.14100647 160.64500427 320.00000000 0.512332 0.549287 -0.660152 0.000000
198.24200439 354.00399780 377.00000000 -0.126868 -0.844326 -0.520595 0.000000
293.94500732 152.83200073 337.00000000 -0.000978 0.999999 -0.000978 0.000000
114.74600220 317.38299561 324.50000000 0.999999 0.000978 0.000978 0.000000
308.59399414 157.71499634 346.00000000 -0.508800 0.833824 0.214151 0.000000
140.13699341 296.87500000 257.50000000 0.926688 -0.338624 0.163041 0.000000
259.76599121 161.62100220 356.00000000 0.183777 0.877718 -0.442535 0.000000
156.25000000 221.19099426 374.50000000 0.455151 0.788820 -0.413037 0.000000
259.76599121 271.48400879 375.25000000 -0.449150 -0.860492 0.240454 0.000000
198.72999573 260.74200439 246.00000000 -0.372841 0.456050 0.808089 0.000000
192.38299561 169.43400574 320.50000000 0.304368 0.952535 -0.006161 0.000000
244.14100647 300.29299927 277.50000000 -0.433370 -0.309106 0.846548 0.000000
136.71899414 359.86300659 315.50000000 0.925227 -0.363823 -0.107648 0.000000
249.51199341 308.59399414 326.50000000 -0.966178 -0.164704 0.198423 0.000000
118.16400146 245.60499573 318.00000000 0.949387 0.312248 0.034132 0.000000
173.82800293 324.70700073 241.50000000 0.001127 -0.167869 0.985809 0.000000
250.48800659 323.24200439 277.50000000 -0.968153 0.227129 0.105317 0.000000
167.96899414 372.55899048 305.00000000 0.474764 -0.768432 0.429082 0.000000
164.06199646 201.66000366 271.50000000 -0.373945 0.670465 0.640813 0.000000
113.76999664 315.42999268 342.00000000 0.963199 -0.255750 0.082705 0.000000
190.91799927 242.18800354 251.00000000 -0.332967 0.456054 0.825316 0.000000
227.05099487 352.53900146 261.50000000 -0.070965 -0.699507 0.711093 0.000000
170.89799500 274.90200806 220.00000000 -0.800910 -0.064244 -0.595329 0.000000
302.24600220 214.84399414 343.00000000 -0.813504 -0.049346 0.579463 0.000000
166.01600647 383.30099487 344.00000000 0.635398 -0.678086 -0.369417 0.000000
198.24200439 192.38299561 376.75000000 0.170894 0.848528 -0.500795 0.000000
264.64801025 274.90200806 346.50000000 -0.578220 -0.800496 0.157696 0.000000
174.80499268 231.93400574 393.50000000 0.280941 0.585691 -0.760288 0.000000
122.55899811 328.12500000 303.50000000 0.811065 -0.439927 0.385536 0.000000
169.92199707 387.20700073 343.50000000 0.605251 -0.716186 -0.347489 0.000000
166.01600647 187.01199341 333.00000000 0.741736 0.632427 -0.223302 0.000000
178.71099854 191.89500427 357.00000000 0.593889 0.791353 -0.145106 0.000000
239.74600220 362.30499268 330.50000000 -0.767212 -0.631213 -0.113825 0.000000
224.12100220 371.09399414 341.00000000 -0.674661 -0.738126 0.001380 0.000000
183.59399414 196.28900146 291.75000000 -0.291208 -0.517878 0.804363 0.000000
150.39100647 374.51199341 343.50000000 0.968409 -0.227189 -0.102806 0.000000
134.27699280 225.58599854 312.00000000 0.867287 0.479252 0.134654 0.000000
217.28500366 375.97698975 317.50000000 0.975629 0.025016 -0.217998 0.000000
281.25000000 238.28100586 389.25000000 -0.009331 0.054951 -0.998446 0.000000
234.37500000 164.55099487 342.50000000 0.353575 0.886193 -0.299410 0.000000
250.97700500 350.09799194 300.00000000 -0.612798 -0.784556 -0.094612 0.000000
158.20300293 214.35499573 258.50000000 0.237435 0.643118 0.728028 0.000000
210.93800354 348.14498901 253.00000000 -0.123764 -0.666536 0.735128 0.000000
121.58200073 313.47698975 298.00000000 0.878249 -0.001325 0.478202 0.000000
159.66799927 320.31201172 244.50000000 0.353137 -0.484165 0.800549 0.000000
150.39100647 269.04299927 237.00000000 0.425318 -0.747181 0.510710 0.000000
239.74600220 328.12500000 365.50000000 -0.751459 -0.394557 -0.528804 0.000000
322.75399780 235.35200500 388.00000000 -0.709612 -0.703969 -0.029626 0.000000
156.25000000 239.25799561 244.25000000 0.171665 0.292518 0.940726 0.000000
131.34800720 225.58599854 337.50000000 0.848719 0.523918 0.072021 0.000000
254.88299561 293.45700073 319.50000000 -0.811218 -0.536177 0.233322 0.000000
208.98399353 171.38699341 310.50000000 0.052755 0.993370 0.102143 0.000000
218.26199341 277.34399414 250.00000000 -0.241654 0.328476 0.913076 0.000000
289.06201172 249.51199341 388.00000000 0.394201 -0.694388 -0.602023 0.000000
120.11699677 327.14801025 321.75000000 0.937621 -0.180896 0.296890 0.000000
208.98399353 221.67999268 399.25000000 -0.000978 -0.000978 -0.999999 0.000000
201.17199707 363.76998901 278.50000000 0.159543 -0.827534 0.538270 0.000000
167.47999573 365.23400879 371.50000000 0.964929 -0.262509 -0.001199 0.000000
218.26199341 378.90600586 349.50000000 -0.538503 -0.736119 -0.410053 0.000000
221.19099426 243.16400146 270.00000000 -0.539172 0.718343 0.439633 0.000000
211.91400146 341.79699707 379.25000000 -0.411433 -0.473230 -0.778959 0.000000
327.63699341 210.93800354 374.00000000 -0.685845 -0.370060 0.626635 0.000000
172.36300659 248.04699707 243.50000000 -0.225143 0.094333 0.969748 0.000000
167.96899414 192.87100220 346.50000000 0.455246 0.733360 -0.504909 0.000000
228.51600647 268.55499268 399.25000000 -0.484924 -0.257087 -0.835916 0.000000
253.90600586 277.34399414 365.75000000 -0.699074 -0.576197 -0.423430 0.000000
302.24600220 169.92199707 347.00000000 -0.653486 -0.216789 0.725230 0.000000
249.02299500 312.98800659 328.00000000 -0.978248 -0.147918 0.145432 0.000000
138.18400574 235.35200500 258.00000000 0.829903 0.467309 0.304767 0.000000
244.14100647 312.50000000 371.75000000 -0.373404 -0.818311 -0.436962 0.000000
248.53500366 278.32000732 291.00000000 -0.351983 -0.636844 0.685958 0.000000
113.28099823 262.69500732 324.25000000 0.994786 0.022931 0.099369 0.000000
142.57800293 326.66000366 385.00000000 -0.707106 -0.707106 -0.001384 0.000000
240.23399353 205.07800293 329.25000000 0.701913 -0.491840 -0.515181 0.000000
130.37100220 324.21899414 374.50000000 0.787863 -0.362513 -0.497852 0.000000
275.39099121 154.78500366 340.00000000 0.190177 0.977877 -0.087113 0.000000
143.55499268 340.33200073 292.50000000 0.699061 -0.495516 0.515537 0.000000
112.79299927 310.54699707 357.50000000 0.496701 0.644870 -0.580888 0.000000
250.00000000 312.01199341 331.50000000 -0.977783 -0.148224 0.148224 0.000000
111.81600189 285.15600586 322.00000000 0.995054 0.047489 -0.087247 0.000000
245.11700439 266.60198975 326.75000000 -0.001349 0.538096 0.842882 0.000000
155.27299500 338.86700439 384.25000000 0.612356 -0.585365 -0.531383 0.000000
229.49200439 348.14498901 256.00000000 -0.875855 0.388765 -0.285901 0.000000
210.93800354 257.32400513 308.50000000 -0.507486 -0.710481 0.487519 0.000000
269.53100586 167.96899414 311.75000000 -0.474489 -0.334840 0.814090 0.000000
112.79299927 305.66400146 336.00000000 0.985783 -0.045390 -0.161776 0.000000
217.77299500 242.67599487 282.50000000 0.055415 0.788598 -0.612407 0.000000
170.89799500 384.27700806 358.50000000 0.387370 -0.878743 -0.278846 0.000000
150.39100647 373.53500366 341.50000000 0.968409 -0.227189 -0.102806 0.000000
318.35900879 218.75000000 366.75000000 -0.909186 -0.221859 0.352364 0.000000
192.38299561 224.60899353 289.25000000 -0.573589 0.604045 0.553285 0.000000
117.18800354 325.19500732 331.25000000 0.996756 0.035560 0.072197 0.000000
232.91000366 274.41400146 272.00000000 -0.832253 0.281566 0.477573 0.000000
250.00000000 221.19099426 340.00000000 -0.695802 -0.532280 0.482222 0.000000
147.46099854 284.66799927 231.50000000 0.851185 -0.523912 0.031627 0.000000
300.78100586 194.33599854 349.25000000 -0.742182 -0.172211 0.647695 0.000000
185.54699707 281.73800659 240.00000000 -0.248324 -0.050653 0.967352 0.000000
253.90600586 273.43798828 371.75000000 -0.763508 -0.205145 -0.612349 0.000000
213.86700439 326.66000366 386.50000000 -0.355276 -0.275005 -0.893393 0.000000
125.00000000 344.23800659 331.00000000 0.772208 -0.530389 0.349831 0.000000
291.50399780 184.57000732 338.50000000 -0.734748 -0.107921 0.669700 0.000000
130.37100220 343.75000000 359.00000000 0.803878 -0.539547 -0.250337 0.000000
171.38699341 224.60899353 253.50000000 -0.418177 0.749439 0.513292 0.000000
130.37100220 254.88299561 263.00000000 0.965970 0.242445 0.090123 0.000000
284.17999268 188.47700500 329.25000000 -0.726775 0.120386 0.676243 0.000000
285.15600586 231.93400574 390.00000000 0.625741 0.384690 -0.678574 0.000000
211.91400146 251.95300293 301.75000000 0.122674 -0.784821 0.607460 0.000000
129.88299561 231.93400574 352.50000000 0.581735 0.746104 -0.323903 0.000000
274.41400146 216.79699707 324.25000000 -0.497305 -0.850614 0.170717 0.000000
113.76999664 312.50000000 338.00000000 0.978107 -0.199490 -0.059243 0.000000
196.77699280 357.42199707 266.00000000 0.279525 -0.781723 0.557471 0.000000
199.21899414 387.69500732 341.75000000 0.133164 -0.728661 0.671804 0.000000
238.28100586 277.34399414 391.75000000 -0.492029 -0.157155 -0.856277 0.000000
249.02299500 268.06600952 314.50000000 -0.049856 0.744985 -0.665216 0.000000
195.31199646 338.37899780 244.50000000 0.023774 -0.773365 0.633516 0.000000
148.43800354 372.55899048 328.50000000 0.607361 -0.793374 0.040867 0.000000
109.86299896 293.94500732 338.50000000 0.583227 0.771872 0.253099 0.000000
250.00000000 262.20700073 331.50000000 -0.029605 -0.351393 0.935760 0.000000
160.15600586 357.42199707 294.25000000 0.383864 -0.798244 0.464170 0.000000
196.28900146 386.71899414 359.25000000 -0.001340 -0.856545 -0.516071 0.000000
180.17599487 304.68798828 235.50000000 -0.442535 0.772394 0.455598 0.000000
329.58999634 213.86700439 378.00000000 -0.613187 -0.592916 0.521969 0.000000
120.11699677 243.16400146 339.25000000 0.810995 0.567845 -0.140849 0.000000
250.00000000 282.22698975 375.75000000 -0.673620 0.535873 0.508995 0.000000
219.72700500 251.46499634 304.50000000 -0.277694 -0.766436 0.579191 0.000000
249.02299500 219.23800659 387.00000000 -0.576208 0.582967 -0.572829 0.000000
129.39500427 246.09399414 372.00000000 0.590787 0.577244 -0.563702 0.000000
258.30099487 153.32000732 324.00000000 0.351776 0.924629 -0.145994 0.000000
267.57800293 215.82000732 321.75000000 -0.083188 0.056568 0.994927 0.000000
207.03100586 366.21099854 279.25000000 0.025757 -0.871684 0.489390 0.000000
133.30099487 350.58599854 358.50000000 0.735860 -0.646007 -0.202942 0.000000
139.16000366 293.94500732 257.50000000 0.953713 -0.219260 -0.205808 0.000000
139.64799500 350.09799194 364.50000000 0.530255 -0.694183 -0.486764 0.000000
166.01600647 343.26199341 385.50000000 0.310721 -0.613391 -0.726088 0.000000
241.69900513 279.29699707 391.50000000 -0.441970 -0.160848 -0.882491 0.000000
247.55900574 324.21899414 334.50000000 -0.999999 -0.000978 -0.000978 0.000000
202.14799500 382.32400513 361.00000000 -0.503088 -0.590582 -0.630964 0.000000
306.15200806 155.27299500 337.50000000 -0.864265 0.472622 0.172264 0.000000
287.10900879 265.13699341 345.00000000 -0.539172 -0.439633 0.718343 0.000000
109.86299896 286.13299561 350.50000000 0.807967 0.270364 -0.523538 0.000000
167.96899414 195.80099487 356.50000000 0.596737 0.747122 -0.292769 0.000000
258.78900146 285.64498901 343.50000000 -0.839004 0.152412 0.522343 0.000000
264.64801025 249.51199341 335.00000000 0.430646 0.891337 0.141641 0.000000
226.07400513 272.46099854 260.00000000 -0.847235 0.288585 0.445995 0.000000
302.73400879 254.39500427 372.00000000 -0.514490 -0.856563 -0.040001 0.000000
212.89100647 245.11700439 401.25000000 0.212882 0.107071 -0.971194 0.000000
185.54699707 235.83999634 250.50000000 -0.579360 0.397794 0.711408 0.000000
251.46499634 313.47698975 292.50000000 -0.986971 0.157410 0.033320 0.000000
157.22700500 348.14498901 283.50000000 0.877652 -0.476597 -0.050819 0.000000
147.46099854 240.23399353 246.75000000 0.275577 0.328629 0.903361 0.000000
223.63299561 371.09399414 316.75000000 0.401852 -0.842794 0.358070 0.000000
282.71499634 237.30499268 391.50000000 0.383969 0.006421 -0.923324 0.000000
144.04299927 273.43798828 220.50000000 0.802353 -0.336574 0.492897 0.000000
165.03900146 187.98800659 330.00000000 0.712942 0.685811 -0.146206 0.000000
179.68800354 208.49600220 379.00000000 0.570091 0.802966 -0.173900 0.000000
246.09399414 219.23800659 391.50000000 -0.083297 0.981458 -0.172630 0.000000
265.13699341 237.30499268 354.00000000 -0.784741 -0.619822 -0.001374 0.000000
178.22300720 272.46099854 240.50000000 -0.195341 0.427400 0.882707 0.000000
215.33200073 319.33599854 388.50000000 -0.326994 -0.475484 -0.816695 0.000000
205.07800293 340.82000732 246.75000000 -0.506028 -0.252240 0.824810 0.000000
163.57400513 329.10198975 393.00000000 0.278297 -0.328361 -0.902624 0.000000
186.52299500 187.50000000 359.25000000 0.464233 0.735174 -0.493971 0.000000
178.71099854 229.97999573 393.00000000 0.121096 0.544204 -0.830167 0.000000
300.29299927 189.45300293 347.50000000 -0.742182 -0.172211 0.647695 0.000000
269.53100586 271.48400879 341.75000000 -0.157035 -0.912501 0.377733 0.000000
330.07800293 202.14799500 379.25000000 0.149003 -0.028436 0.988428 0.000000
250.97700500 342.77301025 306.75000000 -0.965561 0.154646 -0.209227 0.000000
209.96099854 166.50399780 344.00000000 0.195878 0.952373 -0.233703 0.000000
169.92199707 344.23800659 264.50000000 0.491631 -0.676202 0.548680 0.000000
238.28100586 241.69900513 308.00000000 -0.369417 -0.678086 0.635398 0.000000
159.17999268 198.72999573 284.50000000 0.683041 0.689351 0.241352 0.000000
172.36300659 194.33599854 351.00000000 0.202433 0.943312 -0.263026 0.000000
186.52299500 329.58999634 239.50000000 0.147920 -0.578231 0.802352 0.000000
175.78100586 316.40600586 236.75000000 0.218460 -0.140900 0.965620 0.000000
120.11699677 291.99200439 294.25000000 0.954360 0.147746 0.259554 0.000000
128.90600586 335.44900513 303.50000000 -0.100435 -0.807845 0.580775 0.000000
180.66400146 286.13299561 404.25000000 -0.393609 -0.001282 -0.919277 0.000000
198.24200439 185.05900574 359.50000000 -0.065670 0.920727 -0.384641 0.000000
263.18399048 268.55499268 321.50000000 -0.485535 0.796406 0.360546 0.000000
186.03500366 332.03100586 241.00000000 0.203353 -0.690778 0.693883 0.000000
206.05499268 165.52699280 331.00000000 0.253053 0.962116 0.101478 0.000000
193.35899353 221.67999268 291.75000000 -0.486400 0.539887 0.686977 0.000000
185.54699707 227.53900146 271.75000000 -0.344530 0.912499 -0.220557 0.000000
125.48799896 294.92199707 385.50000000 0.740783 -0.219895 -0.634734 0.000000
291.01599121 207.03100586 384.25000000 0.158728 0.318836 -0.934424 0.000000
113.28099823 312.98800659 333.50000000 0.916368 -0.384461 -0.111618 0.000000
113.76999664 301.75799561 359.50000000 0.850032 0.399375 -0.343432 0.000000
297.85198975 189.94099426 378.50000000 -0.274052 0.758791 -0.590874 0.000000
301.26998901 154.29699707 328.50000000 -0.841585 -0.335697 0.423134 0.000000
117.18800354 322.75399780 355.50000000 0.861520 -0.389918 -0.325189 0.000000
237.30499268 363.28100586 309.25000000 -0.237835 -0.675703 0.697754 0.000000
136.22999573 220.70300293 319.00000000 0.808022 0.535062 0.246594 0.000000
117.67600250 326.17199707 345.00000000 0.975961 -0.217012 -0.020160 0.000000
150.39100647 210.44900513 278.50000000 0.753028 0.645666 0.126747 0.000000
163.08599854 283.69100952 220.50000000 -0.163135 0.982432 0.090630 0.000000
291.01599121 269.04299927 366.00000000 -0.471979 -0.804765 -0.359984 0.000000
133.30099487 295.89801025 274.00000000 0.344957 0.898666 0.270932 0.000000
142.08999634 238.28100586 378.50000000 0.458323 0.409738 -0.788705 0.000000
115.72299957 249.02299500 327.50000000 0.878855 0.453182 0.149130 0.000000
315.42999268 236.32800293 369.25000000 -0.891104 -0.400777 0.212867 0.000000
324.21899414 233.88699341 390.50000000 -0.289794 0.539999 0.790203 0.000000
246.09399414 261.71899414 331.75000000 -0.460308 0.405394 0.789792 0.000000
172.85200500 227.53900146 251.75000000 -0.652824 0.721707 0.230132 0.000000
183.59399414 201.66000366 293.50000000 0.824052 -0.221684 0.521339 0.000000
136.71899414 357.91000366 334.00000000 0.815954 -0.570445 0.093871 0.000000
216.30900574 385.74200439 340.00000000 -0.607527 -0.654389 -0.450206 0.000000
251.95300293 307.12899780 350.50000000 -0.862259 -0.481635 0.156641 0.000000
208.00799561 361.81600952 273.00000000 0.289900 -0.884721 0.365004 0.000000
232.42199707 362.30499268 356.75000000 -0.732797 -0.367214 -0.572855 0.000000
187.50000000 329.10198975 394.25000000 -0.111038 -0.437124 -0.892521 0.000000
119.62899780 324.21899414 362.00000000 0.886561 -0.391875 -0.245853 0.000000
303.71099854 154.78500366 344.50000000 -0.591421 0.792056 -0.151224 0.000000
175.78100586 224.12100220 388.00000000 0.122615 0.592395 -0.796262 0.000000
117.67600250 328.12500000 341.00000000 0.999999 -0.000978 -0.000978 0.000000
123.04699707 243.65199280 313.00000000 0.697895 0.315753 0.642840 0.000000
269.53100586 151.85499573 324.50000000 -0.097536 0.983784 -0.150518 0.000000
166.01600647 376.46499634 313.50000000 0.373511 -0.799923 0.469694 0.000000
311.52301025 156.73800659 353.00000000 -0.866555 0.229780 0.443039 0.000000
159.17999268 379.39498901 333.00000000 0.484905 -0.864145 0.134615 0.000000
172.85200500 201.66000366 282.00000000 -0.691799 0.413089 0.592260 0.000000
226.56199646 280.27301025 396.75000000 -0.621098 0.431272 -0.654401 0.000000
211.91400146 366.69900513 299.00000000 -0.618912 -0.777683 0.110258 0.000000
243.16400146 246.58200073 320.50000000 -0.705352 -0.702419 0.095318 0.000000
163.57400513 273.43798828 405.50000000 0.441620 -0.055712 -0.895470 0.000000
301.75799561 152.83200073 329.50000000 -0.825851 -0.115066 0.552024 0.000000
238.77000427 316.40600586 254.50000000 0.436341 0.369700 0.820322 0.000000
122.06999969 336.42599487 343.50000000 0.605177 0.778085 -0.168358 0.000000
215.82000732 254.39500427 306.50000000 -0.276803 -0.779795 0.561516 0.000000
306.15200806 236.32800293 347.00000000 -0.876330 -0.136702 0.461908 0.000000
233.39799500 354.98001099 264.50000000 -0.454539 -0.738833 0.497514 0.000000
203.12500000 271.97299194 406.00000000 -0.203653 -0.156956 -0.966380 0.000000
167.96899414 187.01199341 310.50000000 0.055642 0.626334 0.777567 0.000000
215.82000732 318.84799194 389.00000000 -0.326994 -0.475484 -0.816695 0.000000
181.64100647 375.48800659 307.00000000 0.110615 -0.854755 0.507107 0.000000
280.76199341 243.16400146 390.00000000 -0.039899 -0.226093 -0.973288 0.000000
144.53100586 366.69900513 326.50000000 0.700075 -0.708844 0.086230 0.000000
200.19500732 344.72698975 249.25000000 0.778085 -0.605177 -0.168358 0.000000
260.74200439 155.76199341 341.50000000 0.163422 0.976790 -0.138472 0.000000
238.28100586 358.39801025 351.75000000 -0.776077 -0.542454 -0.321632 0.000000
146.97300720 314.45300293 259.00000000 0.981085 0.186703 0.051135 0.000000
113.28099823 282.22698975 361.75000000 0.962826 -0.264182 0.056342 0.000000
171.87500000 386.23001099 351.50000000 0.381990 -0.917051 -0.114459 0.000000
307.61700439 158.69099426 343.00000000 -0.758856 0.640053 0.120288 0.000000
119.62899780 291.01599121 299.00000000 0.969364 0.198483 0.144700 0.000000
232.91000366 255.85899353 322.00000000 -0.472756 -0.246323 -0.846065 0.000000
114.74600220 268.55499268 319.00000000 0.923416 0.372892 0.090850 0.000000
121.58200073 313.47698975 370.00000000 0.700590 -0.457630 -0.547492 0.000000
258.30099487 284.17999268 307.50000000 -0.709306 -0.681731 0.179242 0.000000
189.94099426 281.25000000 406.00000000 0.067087 -0.595217 -0.800760 0.000000
236.81599426 264.64801025 280.50000000 -0.825096 0.242131 0.510480 0.000000
257.32400513 286.13299561 315.00000000 -0.801669 -0.581545 0.138321 0.000000
175.78100586 222.16799927 268.50000000 -0.790591 0.566927 0.231430 0.000000
126.46499634 317.38299561 376.50000000 0.753914 -0.205894 -0.623876 0.000000
250.48800659 328.12500000 311.00000000 -0.950641 0.240033 -0.196638 0.000000
157.22700500 202.63699341 278.00000000 0.675060 0.709201 0.203294 0.000000
306.15200806 227.53900146 346.00000000 -0.838065 0.120973 0.531989 0.000000
203.12500000 373.53500366 301.00000000 -0.600477 -0.798281 -0.046625 0.000000
167.96899414 347.16799927 383.00000000 -0.788169 -0.001371 -0.615457 0.000000
221.19099426 175.78100586 314.00000000 -0.275947 0.665145 0.693856 0.000000
129.88299561 229.97999573 348.00000000 0.790030 0.586836 -0.177416 0.000000
260.25399780 276.36700439 342.00000000 -0.659982 -0.738157 0.139814 0.000000
248.04699707 351.07400513 295.00000000 -0.298469 -0.946268 -0.124474 0.000000
253.41799927 327.14801025 284.50000000 -0.983689 0.105007 0.146045 0.000000
245.60499573 259.76599121 330.00000000 -0.460308 0.405394 0.789792 0.000000
202.14799500 374.51199341 308.00000000 -0.309310 -0.946358 0.093451 0.000000
237.30499268 171.87500000 359.25000000 0.499672 -0.600616 -0.624170 0.000000
250.00000000 304.19900513 303.50000000 -0.992313 0.123629 0.005470 0.000000
186.03500366 221.67999268 284.00000000 -0.783741 0.486404 0.386214 0.000000
210.93800354 208.00799561 296.75000000 -0.259659 -0.520873 0.813184 0.000000
245.11700439 346.19100952 271.50000000 -0.773444 -0.467323 0.428244 0.000000
170.89799500 342.28500366 263.00000000 0.483598 -0.691093 0.537145 0.000000
144.53100586 239.74600220 247.50000000 0.274845 0.327756 0.903901 0.000000
154.29699707 333.00799561 389.25000000 0.500443 -0.196871 -0.843089 0.000000
174.80499268 316.89498901 400.50000000 0.000000 0.000000 0.000000 0.000000
251.95300293 280.27301025 368.75000000 -0.809721 -0.294015 -0.507845 0.000000
131.34800720 304.68798828 388.50000000 0.444897 -0.223197 -0.867324 0.000000
133.78900146 245.60499573 374.50000000 0.670488 0.505807 -0.542776 0.000000
288.08599854 196.77699280 384.00000000 0.316001 -0.079984 -0.945381 0.000000
311.52301025 206.05499268 354.25000000 -0.666146 0.058735 0.743505 0.000000
150.39100647 202.63699341 332.00000000 0.522820 0.844333 0.117309 0.000000
127.93000031 264.64801025 381.75000000 0.708592 0.322677 -0.627517 0.000000
114.74600220 271.48400879 359.50000000 0.986243 -0.124916 -0.108261 0.000000
127.44100189 339.84399414 315.00000000 0.929239 -0.365105 0.056677 0.000000
304.68798828 155.76199341 348.50000000 -0.364316 0.929862 -0.051294 0.000000
216.30900574 318.35900879 388.50000000 -0.326994 -0.475484 -0.816695 0.000000
130.85899353 296.38699341 275.50000000 0.700305 -0.166303 0.694202 0.000000
227.05099487 248.04699707 272.50000000 -0.734157 0.052951 0.676912 0.000000
168.45700073 385.74200439 333.50000000 0.661078 -0.502957 0.556786 0.000000
180.66400146 291.99200439 239.25000000 0.273223 0.341160 0.899421 0.000000
123.53500366 260.74200439 375.50000000 0.806878 0.271048 -0.524862 0.000000
150.39100647 205.56599426 300.00000000 0.771371 0.617999 0.151868 0.000000
160.15600586 378.90600586 329.75000000 0.442489 -0.868478 0.223494 0.000000
187.50000000 389.64801025 346.75000000 -0.240718 -0.944992 -0.221461 0.000000
264.64801025 235.83999634 334.50000000 0.397181 -0.802401 0.445421 0.000000
290.52700806 174.80499268 336.50000000 -0.662813 -0.237731 0.710044 0.000000
254.88299561 289.55099487 316.00000000 -0.858203 -0.460021 0.227748 0.000000
220.70300293 194.33599854 384.25000000 -0.588384 0.504088 -0.632218 0.000000
186.52299500 182.12899780 351.50000000 0.817556 0.431886 -0.380889 0.000000
125.00000000 332.51998901 313.00000000 0.937401 0.313379 0.151900 0.000000
248.04699707 244.14100647 329.25000000 -0.514820 -0.834884 -0.194756 0.000000
312.98800659 169.92199707 354.50000000 -0.409582 -0.544465 0.731984 0.000000
166.01600647 359.86300659 374.00000000 0.347265 -0.534626 -0.770443 0.000000
238.28100586 172.85200500 329.25000000 0.887655 -0.395666 0.235621 0.000000
217.77299500 362.79299927 273.50000000 -0.205943 -0.911620 0.355719 0.000000
252.44099426 348.63299561 300.50000000 -0.832052 -0.504135 -0.231381 0.000000
157.22700500 199.70700073 287.50000000 0.683041 0.689351 0.241352 0.000000
114.25800323 306.64099121 316.75000000 0.957327 -0.011060 0.288796 0.000000
142.57800293 212.40199280 320.00000000 0.887054 0.459197 -0.047691 0.000000
141.60200500 215.33200073 308.00000000 0.629885 0.569092 -0.528563 0.000000
235.83999634 250.00000000 315.00000000 -0.344054 -0.683216 0.644082 0.000000
269.53100586 274.90200806 349.00000000 -0.097257 -0.811442 0.576284 0.000000
186.52299500 357.42199707 271.75000000 0.654401 -0.621098 0.431272 0.000000
294.43399048 176.75799561 340.50000000 -0.667034 -0.241268 0.704880 0.000000
312.98800659 177.73399353 371.00000000 0.028692 0.856657 -0.515087 0.000000
146.48399353 280.76199341 222.00000000 0.703373 -0.560371 0.437322 0.000000
146.97300720 281.25000000 222.00000000 0.703373 -0.560371 0.437322 0.000000
207.03100586 369.62899780 290.50000000 -0.103526 -0.974143 -0.200816 0.000000
120.11699677 263.18399048 302.00000000 0.989986 0.100972 0.098650 0.000000
145.50799561 339.35501099 377.00000000 0.776735 -0.194567 -0.599021 0.000000
114.74600220 302.73400879 364.00000000 0.119750 0.964435 -0.235636 0.000000
244.14100647 318.35900879 259.25000000 -0.739217 0.258014 0.622082 0.000000
211.42599487 368.16400146 289.50000000 -0.480867 -0.847964 -0.222989 0.000000
209.96099854 193.84800720 382.50000000 -0.001352 0.836802 -0.547504 0.000000
208.49600220 259.76599121 249.50000000 -0.735527 0.514043 0.441316 0.000000
140.62500000 216.30900574 324.50000000 0.705724 0.708486 -0.001381 0.000000
203.12500000 233.88699341 274.50000000 -0.499259 0.780395 -0.376464 0.000000
249.51199341 183.59399414 371.00000000 0.180276 0.393722 -0.901379 0.000000
112.79299927 278.32000732 356.00000000 0.970072 -0.242814 0.001184 0.000000
144.53100586 229.00399780 372.50000000 0.521808 0.623130 -0.582602 0.000000
280.27301025 205.56599426 329.00000000 -0.665988 -0.001379 0.745961 0.000000
134.27699280 295.89801025 393.50000000 0.700928 -0.279413 -0.656222 0.000000
336.91400146 169.92199707 365.25000000 -0.749750 -0.365930 0.551335 0.000000
148.92599487 321.28900146 261.50000000 0.804363 -0.517878 0.291208 0.000000
272.94900513 273.43798828 347.00000000 -0.106005 -0.883372 0.456527 0.000000
118.65200043 294.92199707 300.50000000 0.959265 0.181769 0.216266 0.000000
300.78100586 257.81201172 366.75000000 0.297613 -0.561804 -0.771883 0.000000
302.73400879 154.78500366 345.00000000 -0.248537 0.952500 -0.175991 0.000000
261.23001099 280.27301025 309.00000000 -0.768525 -0.638314 0.043875 0.000000
161.13299561 195.80099487 290.50000000 0.806878 0.271048 0.524862 0.000000
133.30099487 235.35200500 284.50000000 0.909612 0.411010 0.060641 0.000000
130.85899353 309.57000732 284.25000000 0.702918 -0.269372 0.658289 0.000000
224.60899353 296.87500000 251.75000000 -0.597482 0.211512 0.773484 0.000000
261.71899414 280.27301025 319.25000000 -0.484924 -0.835916 -0.257087 0.000000
292.96899414 259.76599121 346.75000000 -0.586722 -0.535997 0.607012 0.000000
157.22700500 259.27700806 399.50000000 0.424190 0.401780 -0.811564 0.000000
130.37100220 255.85899353 260.00000000 0.999999 0.000978 0.000978 0.000000
338.37899780 175.78100586 372.00000000 -0.974910 -0.179424 -0.131745 0.000000
249.02299500 158.20300293 321.75000000 0.484526 0.862835 -0.144048 0.000000
243.16400146 165.03900146 354.25000000 0.135675 0.773794 -0.618737 0.000000
161.62100220 202.14799500 358.50000000 0.538343 0.705013 -0.461675 0.000000
149.41400146 289.06201172 401.75000000 -0.899746 -0.089836 -0.427068 0.000000
325.19500732 211.91400146 386.75000000 -0.252309 0.283670 -0.925133 0.000000
256.83599854 281.73800659 300.00000000 -0.824833 -0.540408 0.166164 0.000000
145.02000427 267.57800293 242.00000000 0.928779 -0.043229 0.368105 0.000000
312.01199341 240.23399353 359.50000000 -0.433756 0.129416 0.891688 0.000000
325.19500732 208.98399353 384.25000000 -0.355828 0.405989 -0.841760 0.000000
251.46499634 308.59399414 343.50000000 -0.668277 -0.668277 -0.326821 0.000000
117.67600250 264.64801025 364.50000000 0.790573 0.574822 -0.211128 0.000000
158.20300293 291.50399780 222.00000000 -0.827460 -0.034767 0.560448 0.000000
176.75799561 388.18399048 350.50000000 0.305541 -0.933365 -0.188347 0.000000
286.13299561 178.71099854 374.25000000 -0.148530 0.394665 -0.906740 0.000000
130.85899353 350.09799194 330.50000000 0.686591 -0.634154 0.355585 0.000000
205.56599426 328.12500000 240.50000000 -0.026574 -0.325213 0.945267 0.000000
254.39500427 282.22698975 358.50000000 -0.928571 -0.295390 -0.224723 0.000000
273.43798828 155.27299500 344.25000000 -0.025863 0.990669 -0.133813 0.000000
312.01199341 245.11700439 367.50000000 -0.926290 -0.330316 0.181322 0.000000
294.92199707 219.23800659 388.00000000 0.190598 0.499757 -0.844935 0.000000
157.22700500 196.28900146 309.25000000 0.761815 0.647613 -0.015320 0.000000
249.51199341 295.89801025 303.50000000 -0.911542 -0.260233 0.318386 0.000000
163.08599854 300.29299927 403.50000000 0.014154 -0.107791 -0.994073 0.000000
292.48001099 261.71899414 349.00000000 -0.601311 -0.510356 0.614786 0.000000
145.02000427 367.18798828 336.00000000 0.640198 -0.762696 0.091874 0.000000
222.16799927 285.15600586 397.00000000 -0.766925 -0.537654 -0.350363 0.000000
166.50399780 219.72700500 255.50000000 -0.246101 0.597226 0.763384 0.000000
208.98399353 272.46099854 404.25000000 -0.272313 -0.136821 -0.952431 0.000000
184.57000732 252.44099426 406.00000000 -0.247681 0.058497 -0.967074 0.000000
140.62500000 248.04699707 384.25000000 0.491697 0.501698 -0.711711 0.000000
244.14100647 218.26199341 390.00000000 -0.482825 0.486143 -0.728385 0.000000
184.57000732 175.29299927 310.50000000 0.517403 0.848887 0.108093 0.000000
201.17199707 231.93400574 274.50000000 -0.499259 0.780395 -0.376464 0.000000
293.94500732 246.09399414 341.75000000 -0.407507 -0.274196 0.871065 0.000000
245.11700439 280.27301025 388.75000000 -0.823734 0.029073 -0.566231 0.000000
186.52299500 307.61700439 236.75000000 -0.157026 0.177453 0.971521 0.000000
261.71899414 278.80899048 324.00000000 -0.812738 -0.557349 -0.169759 0.000000
139.64799500 261.71899414 244.25000000 0.676903 0.337636 0.654068 0.000000
167.96899414 253.90600586 241.75000000 0.000978 0.000978 0.999999 0.000000
246.58200073 260.74200439 331.00000000 -0.025810 0.495827 0.868038 0.000000
154.78500366 324.21899414 254.50000000 0.778572 -0.446988 0.440486 0.000000
150.87899780 375.00000000 343.50000000 0.968409 -0.227189 -0.102806 0.000000
283.69100952 263.67199707 341.00000000 -0.534699 -0.416243 0.735417 0.000000
252.44099426 346.67999268 303.00000000 -0.853379 -0.355963 -0.380834 0.000000
119.62899780 331.05499268 325.00000000 0.847376 -0.348002 0.401060 0.000000
321.77700806 235.35200500 390.00000000 -0.709612 -0.703969 -0.029626 0.000000
333.98400879 190.42999268 371.25000000 -0.993598 0.112339 0.011997 0.000000
130.85899353 291.01599121 391.75000000 0.044796 0.141279 -0.988956 0.000000
196.77699280 376.95300293 311.50000000 -0.300363 -0.360738 0.882978 0.000000
183.59399414 197.75399780 294.00000000 -0.147644 -0.262034 0.953698 0.000000
292.96899414 262.69500732 349.25000000 -0.569397 -0.589673 0.572776 0.000000
153.32000732 373.53500366 323.50000000 0.675650 -0.733521 0.073786 0.000000
179.68800354 240.23399353 246.75000000 -0.309220 0.034077 0.950380 0.000000
294.92199707 238.77000427 337.00000000 -0.883861 -0.448377 -0.133224 0.000000
291.01599121 201.17199707 336.75000000 -0.225334 0.359080 0.905696 0.000000
243.65199280 227.53900146 396.50000000 -0.052887 -0.704686 -0.707545 0.000000
241.21099854 356.44500732 344.25000000 -0.851658 -0.435839 -0.291073 0.000000
234.86300659 267.57800293 396.00000000 -0.859981 0.086423 -0.502954 0.000000
207.03100586 255.85899353 251.75000000 0.148946 0.449729 0.880658 0.000000
304.19900513 191.40600586 377.00000000 0.012399 0.599292 -0.800434 0.000000
213.86700439 366.21099854 291.75000000 -0.461101 -0.853721 -0.241964 0.000000
187.98800659 188.47700500 361.00000000 0.330058 0.822775 -0.462712 0.000000
227.53900146 269.53100586 399.75000000 -0.672240 -0.336934 -0.659218 0.000000
240.23399353 227.53900146 396.75000000 -0.052887 -0.704686 -0.707545 0.000000
199.70700073 309.57000732 398.50000000 0.309337 -0.512389 -0.801104 0.000000
137.20700073 344.72698975 303.50000000 0.288286 -0.949882 0.120894 0.000000
127.44100189 259.76599121 279.00000000 0.977399 0.205578 0.049291 0.000000
131.83599854 262.69500732 251.75000000 0.930130 -0.035124 0.365548 0.000000
140.62500000 222.16799927 294.00000000 0.935944 0.331847 0.117840 0.000000
245.11700439 266.11300659 313.50000000 -0.049856 0.744985 -0.665216 0.000000
107.91000366 292.96899414 347.50000000 0.794735 -0.602159 -0.076168 0.000000
111.32800293 275.87899780 347.00000000 0.999735 0.001001 -0.023017 0.000000
219.72700500 234.37500000 399.75000000 -0.271048 -0.806878 -0.524862 0.000000
130.85899353 321.77700806 378.50000000 0.880184 -0.297421 -0.369889 0.000000
134.27699280 233.39799500 286.50000000 0.882559 0.468986 -0.033789 0.000000
218.75000000 355.46899414 369.25000000 -0.322393 -0.431414 -0.842582 0.000000
196.28900146 331.54299927 390.00000000 -0.082048 0.580095 -0.810406 0.000000
211.91400146 204.10200500 394.25000000 0.332475 0.531639 -0.778987 0.000000
262.69500732 200.19500732 314.25000000 -0.644613 -0.136101 0.752297 0.000000
264.64801025 268.06600952 323.00000000 -0.683981 0.341174 0.644803 0.000000
207.03100586 374.02301025 366.75000000 -0.450408 0.621195 -0.641287 0.000000
123.53500366 239.25799561 346.00000000 0.948187 0.317711 -0.001236 0.000000
193.35899353 291.99200439 241.75000000 -0.688710 0.694928 0.206768 0.000000
123.04699707 336.42599487 347.00000000 0.882608 -0.418389 -0.214369 0.000000
126.46499634 237.30499268 316.00000000 0.885953 0.332420 0.323395 0.000000
211.91400146 352.53900146 374.25000000 -0.442258 -0.432538 -0.785696 0.000000
324.70700073 229.49200439 381.50000000 -0.418405 -0.224837 0.879992 0.000000
204.10200500 359.86300659 271.50000000 0.190903 -0.957186 0.217603 0.000000
196.28900146 214.35499573 296.50000000 -0.568582 0.345037 0.746769 0.000000
245.11700439 244.14100647 396.75000000 -0.637617 -0.113913 -0.761885 0.000000
164.06199646 346.19100952 272.50000000 0.375314 -0.716210 0.588374 0.000000
309.57000732 224.12100220 392.00000000 0.322825 0.428874 -0.843713 0.000000
310.54699707 245.11700439 394.75000000 -0.273193 -0.934461 -0.228361 0.000000
120.60500336 328.12500000 320.00000000 0.937621 -0.180896 0.296890 0.000000
213.86700439 254.39500427 259.00000000 -0.390178 0.006439 0.920717 0.000000
145.50799561 258.30099487 231.50000000 0.426522 0.891819 -0.150791 0.000000
168.45700073 338.86700439 260.00000000 0.452935 -0.610041 0.650154 0.000000
190.42999268 225.58599854 394.25000000 -0.673684 0.337657 -0.657372 0.000000
239.25799561 212.40199280 390.00000000 -0.330482 0.762527 -0.556177 0.000000
332.51998901 206.05499268 379.00000000 -0.850937 0.340686 0.399800 0.000000
176.75799561 198.72999573 367.50000000 0.647167 0.502605 -0.573205 0.000000
157.22700500 260.74200439 401.75000000 0.416885 0.335694 -0.844699 0.000000
141.60200500 267.57800293 244.25000000 0.547156 0.051777 0.835428 0.000000
256.34799194 154.29699707 314.00000000 0.537628 0.836148 0.108685 0.000000
219.72700500 379.39498901 347.50000000 -0.528118 -0.741998 -0.412952 0.000000
167.96899414 255.85899353 241.75000000 -0.060887 0.076385 0.995218 0.000000
250.48800659 330.07800293 311.00000000 -0.950641 0.240033 -0.196638 0.000000
234.37500000 365.72299194 350.00000000 -0.520631 -0.728884 -0.444603 0.000000
194.33599854 258.78900146 244.25000000 -0.274076 0.271206 0.922675 0.000000
328.61300659 208.00799561 373.00000000 -0.606764 0.015204 0.794737 0.000000
213.86700439 361.81600952 270.00000000 -0.016349 -0.944455 0.328233 0.000000
162.10899353 219.72700500 254.25000000 -0.384812 0.048928 0.921697 0.000000
265.62500000 157.71499634 349.50000000 0.113253 0.926494 -0.358863 0.000000
123.53500366 291.01599121 285.00000000 0.877893 0.189695 0.439682 0.000000
233.39799500 324.21899414 249.25000000 -0.569836 -0.049245 0.820282 0.000000
167.96899414 282.71499634 221.50000000 0.398792 0.913275 0.083025 0.000000
159.17999268 327.63699341 393.00000000 0.175207 -0.185589 -0.966881 0.000000
167.96899414 197.75399780 280.00000000 -0.652101 0.751748 0.098181 0.000000
211.91400146 351.07400513 255.50000000 0.038188 -0.739720 0.671830 0.000000
143.55499268 313.96499634 393.00000000 0.333016 -0.635166 -0.696896 0.000000
242.67599487 361.32800293 314.00000000 -0.708247 -0.693273 0.133264 0.000000
253.41799927 213.86700439 305.00000000 -0.557846 -0.362681 0.746505 0.000000
111.81600189 285.15600586 324.50000000 0.999999 0.000978 0.000978 0.000000
251.95300293 262.20700073 381.00000000 -0.747018 0.586369 -0.313266 0.000000
223.63299561 371.58200073 354.00000000 -0.732958 -0.649280 -0.202997 0.000000
222.65600586 354.00399780 368.50000000 -0.322393 -0.431414 -0.842582 0.000000
139.16000366 242.18800354 379.00000000 0.599012 0.357449 -0.716530 0.000000
270.50799561 270.99600220 341.50000000 -0.141074 -0.896318 0.420372 0.000000
201.17199707 370.60501099 292.50000000 0.175536 -0.945717 0.273509 0.000000
222.65600586 235.35200500 299.25000000 -0.152643 0.001114 0.988281 0.000000
243.16400146 353.02700806 335.50000000 -0.898432 -0.437835 0.033474 0.000000
240.72300720 332.03100586 256.00000000 -0.839567 -0.514477 -0.174475 0.000000
250.48800659 330.07800293 274.00000000 -0.980131 0.027062 0.196497 0.000000
219.72700500 196.28900146 386.75000000 -0.610041 0.452935 -0.650154 0.000000
214.35499573 281.25000000 247.50000000 -0.438359 0.055643 0.897076 0.000000
172.36300659 381.83599854 317.00000000 0.223856 -0.938526 0.262787 0.000000
150.39100647 203.61300659 340.00000000 0.238465 0.938522 -0.249622 0.000000
169.43400574 183.59399414 321.50000000 0.678470 0.720592 0.142915 0.000000
117.18800354 249.51199341 346.00000000 0.806716 0.548567 -0.219734 0.000000
266.60198975 270.50799561 324.25000000 -0.781840 0.287045 0.553473 0.000000
163.57400513 190.42999268 333.00000000 0.707148 0.669517 -0.227353 0.000000
229.00399780 274.41400146 266.00000000 -0.845288 0.226118 0.484106 0.000000
130.37100220 343.75000000 361.50000000 0.760392 -0.581852 -0.288535 0.000000
247.07000732 253.90600586 331.75000000 -0.879295 -0.079429 0.469608 0.000000
142.08999634 212.89100647 316.00000000 0.813639 0.580774 -0.026336 0.000000
253.41799927 286.13299561 356.00000000 -0.919346 -0.091254 -0.382721 0.000000
118.16400146 261.23001099 313.00000000 0.855705 0.260830 0.446919 0.000000
161.62100220 344.72698975 382.50000000 0.406124 -0.409309 -0.817025 0.000000
116.69899750 313.47698975 363.00000000 0.931403 -0.084187 -0.354120 0.000000
226.56199646 254.88299561 271.75000000 -0.852837 0.215851 0.475476 0.000000
126.95300293 244.62899780 364.50000000 0.764951 0.610415 -0.205532 0.000000
159.66799927 377.92999268 321.00000000 0.274076 -0.961125 0.033484 0.000000
166.50399780 273.43798828 237.00000000 -0.376415 0.294783 0.878302 0.000000
231.93400574 238.28100586 304.00000000 -0.215166 -0.526471 0.822515 0.000000
146.48399353 258.30099487 221.00000000 0.415981 0.771605 0.481233 0.000000
168.94500732 349.12100220 273.00000000 0.329600 -0.615361 0.716027 0.000000
110.83999634 264.64801025 338.50000000 0.999999 -0.000978 -0.000978 0.000000
253.41799927 214.84399414 305.50000000 -0.557846 -0.362681 0.746505 0.000000
167.96899414 323.73001099 243.50000000 0.315627 -0.704091 0.636110 0.000000
221.67999268 359.86300659 272.00000000 -0.309882 -0.822682 0.476621 0.000000
276.85501099 249.02299500 366.50000000 0.368964 -0.614940 -0.696932 0.000000
249.51199341 345.70300293 280.50000000 -0.843001 -0.483239 0.236284 0.000000
118.65200043 297.85198975 376.00000000 0.806343 -0.106443 -0.581792 0.000000
296.87500000 156.73800659 356.50000000 0.186503 0.953983 -0.234806 0.000000
149.41400146 308.10501099 247.00000000 0.711691 -0.386253 0.586775 0.000000
240.72300720 211.91400146 296.50000000 -0.748935 -0.015341 0.662466 0.000000
281.25000000 253.41799927 379.00000000 0.424050 0.248997 -0.870736 0.000000
229.49200439 246.58200073 308.50000000 -0.409307 -0.671131 0.618103 0.000000
246.58200073 319.33599854 364.50000000 -0.766996 -0.499932 -0.402225 0.000000
119.62899780 249.02299500 315.00000000 0.991452 0.099949 -0.083866 0.000000
247.07000732 269.04299927 317.00000000 0.112195 0.963331 -0.243734 0.000000
300.29299927 219.72700500 339.50000000 -0.652763 0.120441 0.747927 0.000000
258.30099487 287.10900879 336.00000000 -0.981537 0.001145 -0.191268 0.000000
240.23399353 246.58200073 314.50000000 -0.443306 -0.739942 0.505930 0.000000
245.60499573 322.26599121 363.00000000 -0.715958 -0.601796 -0.353902 0.000000
269.04299927 248.04699707 339.50000000 0.382977 0.754545 0.532908 0.000000
243.65199280 322.26599121 258.50000000 -0.709835 0.012551 0.704256 0.000000
330.07800293 211.42599487 384.00000000 -0.328532 0.484069 -0.811014 0.000000
168.94500732 388.67199707 334.25000000 0.396332 -0.850172 0.346596 0.000000
257.32400513 286.13299561 342.00000000 -0.001145 -0.981537 -0.191268 0.000000
212.40199280 239.25799561 265.50000000 -0.340210 0.888742 0.307238 0.000000
194.33599854 169.43400574 328.00000000 0.334363 0.942066 -0.026698 0.000000
131.34800720 225.58599854 341.50000000 0.909395 0.409160 -0.074763 0.000000
161.13299561 203.61300659 268.00000000 0.001329 0.873026 0.487672 0.000000
128.41799927 242.18800354 366.00000000 0.733212 -0.083088 -0.674905 0.000000
251.95300293 277.34399414 379.25000000 -0.553917 0.715959 -0.424946 0.000000
317.87100220 195.31199646 366.00000000 -0.688710 -0.376407 0.619675 0.000000
131.34800720 231.44500732 312.00000000 0.885833 0.440763 0.145007 0.000000
188.47700500 299.31600952 237.50000000 -0.041796 0.204205 0.978035 0.000000
144.53100586 316.40600586 391.75000000 0.333016 -0.635166 -0.696896 0.000000
230.46899414 256.34799194 299.50000000 0.552317 0.391703 -0.735877 0.000000
120.11699677 261.71899414 301.75000000 0.989986 0.100972 0.098650 0.000000
144.53100586 208.98399353 335.75000000 0.389186 0.479620 0.786447 0.000000
271.48400879 278.80899048 354.50000000 -0.806878 -0.271048 -0.524862 0.000000
260.74200439 276.85501099 303.50000000 -0.981696 -0.055927 0.182060 0.000000
179.68800354 184.57000732 349.25000000 0.148946 0.449729 -0.880658 0.000000
177.24600220 208.00799561 286.50000000 -0.728569 0.233455 0.643961 0.000000
159.17999268 210.44900513 366.00000000 0.556344 0.617221 -0.556344 0.000000
229.00399780 263.67199707 315.00000000 0.427752 -0.644125 -0.634138 0.000000
134.76600647 224.12100220 316.00000000 0.775999 0.597750 0.201299 0.000000
192.38299561 387.20700073 350.50000000 0.003588 -0.967624 -0.252372 0.000000
129.39500427 252.92999268 272.50000000 0.996089 0.066698 0.057950 0.000000
173.82800293 378.90600586 364.25000000 0.363563 -0.559203 -0.745060 0.000000
260.25399780 278.32000732 331.00000000 -0.769190 -0.622249 0.145441 0.000000
175.29299927 222.65600586 259.50000000 -0.593678 0.787039 0.167680 0.000000
178.22300720 203.12500000 373.00000000 0.651675 0.409577 -0.638409 0.000000
149.90199280 311.52301025 249.50000000 0.664208 -0.466786 0.583900 0.000000
324.21899414 171.38699341 369.50000000 -0.018549 0.293079 0.955908 0.000000
294.43399048 216.79699707 334.50000000 -0.598824 0.015213 0.800736 0.000000
158.69099426 332.03100586 391.50000000 0.253006 -0.261487 -0.931457 0.000000
139.64799500 304.68798828 394.25000000 0.753685 -0.657235 -0.001378 0.000000
139.16000366 259.76599121 246.50000000 0.710357 0.307660 0.633039 0.000000
229.00399780 263.67199707 303.50000000 0.316024 -0.473250 -0.822291 0.000000
178.71099854 244.62899780 400.00000000 0.142923 0.526014 -0.838381 0.000000
198.24200439 342.28500366 249.00000000 0.778085 -0.605177 -0.168358 0.000000
138.67199707 327.63699341 285.50000000 0.896065 -0.328409 0.298688 0.000000
128.41799927 229.49200439 326.00000000 0.669003 0.726650 0.156252 0.000000
251.46499634 316.40600586 300.50000000 -0.999999 -0.000978 -0.000978 0.000000
128.41799927 313.47698975 288.00000000 0.861926 0.056907 0.503831 0.000000
172.36300659 212.89100647 379.00000000 0.626691 0.619970 -0.472118 0.000000
232.91000366 317.38299561 377.00000000 -0.517223 -0.356095 -0.778252 0.000000
317.87100220 215.82000732 365.00000000 -0.897720 -0.101918 0.428616 0.000000
273.43798828 248.53500366 383.50000000 -0.015370 0.708419 -0.705625 0.000000
146.97300720 352.53900146 302.00000000 -0.573880 -0.651295 0.496465 0.000000
117.67600250 272.46099854 373.50000000 0.874577 0.162067 -0.457000 0.000000
146.48399353 305.17599487 398.50000000 0.540913 -0.099528 -0.835169 0.000000
320.31201172 188.47700500 376.75000000 0.405708 0.278070 0.870677 0.000000
147.46099854 312.98800659 255.00000000 0.823128 -0.345998 0.450272 0.000000
259.76599121 280.76199341 346.50000000 -0.912969 -0.405021 0.049458 0.000000
130.37100220 245.11700439 281.00000000 0.937523 0.344582 0.048111 0.000000
114.74600220 263.67199707 351.00000000 0.955744 -0.044073 -0.290879 0.000000
142.08999634 228.51600647 262.00000000 0.901146 0.413201 0.131153 0.000000
143.06599426 226.56199646 367.00000000 0.620171 0.743258 -0.250909 0.000000
245.60499573 279.29699707 291.50000000 -0.822515 -0.215166 0.526471 0.000000
130.37100220 342.77301025 362.50000000 0.760392 -0.581852 -0.288535 0.000000
250.00000000 261.71899414 385.75000000 -0.806235 0.512772 -0.295041 0.000000
131.83599854 326.66000366 376.50000000 0.787863 -0.362513 -0.497852 0.000000
178.71099854 351.07400513 268.00000000 0.346780 -0.797435 0.493802 0.000000
137.69500732 229.00399780 278.50000000 0.824298 0.550024 0.134188 0.000000
169.92199707 385.25399780 347.00000000 0.631806 -0.751711 -0.189081 0.000000
142.08999634 208.98399353 343.00000000 0.558729 0.672824 -0.484903 0.000000
169.43400574 384.76599121 352.00000000 0.482826 -0.875542 -0.017484 0.000000
236.81599426 266.60198975 281.50000000 -0.851834 0.163871 0.497518 0.000000
240.23399353 325.19500732 366.75000000 -0.723076 -0.382033 -0.575510 0.000000
233.39799500 337.40200806 368.00000000 -0.375808 -0.535241 -0.756496 0.000000
243.65199280 352.53900146 335.00000000 -0.771371 -0.617999 -0.151868 0.000000
318.35900879 216.79699707 366.75000000 -0.843750 -0.093113 0.528597 0.000000
161.13299561 190.91799927 324.00000000 0.779945 0.622525 -0.064399 0.000000
140.13699341 258.78900146 246.50000000 0.852983 0.343369 0.393087 0.000000
245.60499573 358.39801025 316.50000000 -0.770557 -0.567194 0.290746 0.000000
208.49600220 231.44500732 295.50000000 -0.271607 0.145838 0.951294 0.000000
268.06600952 260.74200439 330.00000000 -0.500606 0.258827 0.826077 0.000000
254.39500427 303.71099854 352.50000000 -0.861549 -0.477325 0.172901 0.000000
236.81599426 366.21099854 318.50000000 -0.527363 -0.843493 0.102024 0.000000
178.71099854 234.37500000 246.75000000 -0.590031 0.116240 0.798969 0.000000
197.26600647 168.45700073 332.50000000 0.349755 0.936525 -0.024342 0.000000
250.97700500 319.33599854 309.25000000 -0.938618 0.284220 -0.195488 0.000000
319.33599854 161.62100220 363.00000000 0.098625 -0.696261 0.710981 0.000000
316.40600586 243.65199280 380.00000000 -0.880653 -0.459533 0.115239 0.000000
239.25799561 363.76998901 311.50000000 -0.459124 -0.876246 0.146282 0.000000
258.30099487 264.64801025 381.50000000 -0.217178 0.864219 -0.453827 0.000000
166.99200439 231.93400574 246.00000000 0.026596 0.322947 0.946043 0.000000
226.56199646 302.73400879 389.25000000 -0.415165 -0.415165 -0.809491 0.000000
314.94100952 227.53900146 361.00000000 -0.887196 -0.307742 0.343770 0.000000
193.35899353 355.95700073 266.00000000 0.431088 -0.806087 0.405447 0.000000
144.04299927 260.74200439 225.50000000 0.829425 0.555305 -0.060759 0.000000
154.29699707 375.00000000 319.75000000 0.709343 -0.703657 0.041224 0.000000
126.46499634 263.67199707 286.50000000 0.972528 0.198037 0.122354 0.000000
136.22999573 221.67999268 350.50000000 0.840345 0.378548 -0.387972 0.000000
246.09399414 288.08599854 381.25000000 -0.434474 -0.380364 -0.816429 0.000000
