242.44400024 178.13900757 175.00000000 0.127351 -0.829974 -0.543070 0.000000
141.39300537 206.09800720 198.75000000 -0.156073 0.364171 0.918161 0.000000
98.65529633 155.77099609 187.50000000 -0.665421 -0.304514 0.681532 0.000000
199.70700073 170.94900513 198.75000000 0.722131 0.001381 0.691755 0.000000
209.29299927 158.16799927 151.25000000 0.750210 -0.233364 -0.618649 0.000000
79.48339844 164.55900574 127.50000000 -0.845976 -0.508178 0.161491 0.000000
123.81800079 257.22299194 113.75000000 0.592063 0.211782 -0.777566 0.000000
190.12100220 184.52900696 193.75000000 0.459918 0.597058 0.657265 0.000000
190.12100220 164.95799255 140.00000000 -0.241081 0.450321 -0.859704 0.000000
139.79499817 184.52900696 108.75000000 0.834271 -0.500563 -0.231147 0.000000
169.35200500 210.89100647 151.25000000 0.575459 0.190802 0.795262 0.000000
140.59399414 163.36000061 125.00000000 -0.176274 0.709693 -0.682102 0.000000
91.86519623 261.21701050 153.75000000 -0.319228 0.798865 0.509812 0.000000
132.60499573 166.95500183 126.25000000 0.596254 0.242571 -0.765271 0.000000
93.46289825 182.13299561 181.25000000 0.822212 -0.411901 0.392817 0.000000
122.22100067 202.90199280 93.75000000 0.436540 -0.075740 -0.896491 0.000000
206.89599609 137.79800415 200.00000000 0.330305 0.472541 0.817070 0.000000
189.32200623 206.09800720 131.25000000 0.224489 -0.577478 0.784936 0.000000
123.81800079 230.46200562 102.50000000 0.383568 0.496858 -0.778465 0.000000
141.39300537 266.01000977 128.75000000 0.777463 0.387920 -0.495044 0.000000
182.93200684 119.42500305 200.00000000 -0.196120 -0.690279 0.696456 0.000000
111.83599854 194.11500549 196.25000000 -0.399581 0.269906 0.876063 0.000000
226.06799316 186.92599487 183.75000000 -0.090989 0.168633 0.981470 0.000000
74.69039917 185.32800293 150.00000000 0.000978 0.000978 -0.999999 0.000000
232.05999756 122.22100067 192.50000000 0.617644 -0.229857 0.752118 0.000000
172.14700317 206.89599609 177.50000000 0.488121 0.659215 0.571991 0.000000
162.16200256 141.39300537 141.25000000 0.051542 -0.522390 -0.851147 0.000000
100.25299835 279.58999634 132.50000000 -0.437198 0.899341 0.006565 0.000000
179.73599243 184.52900696 148.75000000 -0.303619 -0.907922 -0.288951 0.000000
130.20899963 158.16799927 121.25000000 0.569924 0.072847 -0.818462 0.000000
117.42800140 130.20899963 181.25000000 -0.382137 -0.769152 0.512226 0.000000
115.03099823 146.98399353 108.75000000 0.882062 -0.151582 -0.446083 0.000000
206.09800720 171.74800110 196.25000000 0.282120 0.056930 0.957689 0.000000
197.31100464 145.78599548 145.00000000 0.230461 -0.289843 -0.928913 0.000000
132.20599365 107.84200287 142.50000000 -0.400803 -0.861497 0.311736 0.000000
116.62899780 254.02699280 168.75000000 -0.161508 0.786407 0.596220 0.000000
202.10299683 166.15600586 143.75000000 0.635653 -0.474643 0.608818 0.000000
83.07810211 229.26400757 168.75000000 -0.533956 0.146431 0.832735 0.000000
210.09199524 177.33999634 193.75000000 0.644768 0.092110 0.758808 0.000000
88.66989899 160.56399536 56.25000000 0.768959 -0.270004 -0.579482 0.000000
202.50300598 134.20300293 152.50000000 0.486095 0.357753 -0.797324 0.000000
131.00799561 256.02398682 167.50000000 -0.465656 0.685966 0.559121 0.000000
163.36000061 158.96699524 132.50000000 0.805549 0.446815 -0.389162 0.000000
158.96699524 159.36599731 205.00000000 0.001346 -0.531813 0.846861 0.000000
123.01999664 249.23399353 111.25000000 0.504281 0.399834 -0.765397 0.000000
85.87400055 267.60699463 122.50000000 -0.736695 0.590975 -0.328679 0.000000
133.80400085 270.00399780 125.00000000 0.444961 0.425545 -0.787986 0.000000
131.00799561 106.64399719 135.00000000 0.000978 0.000978 0.999999 0.000000
90.66699982 254.02699280 92.50000000 -0.974783 0.044693 -0.218632 0.000000
184.13000488 214.88499451 172.50000000 0.943968 -0.314656 0.099575 0.000000
175.74200439 117.42800140 196.25000000 -0.485368 -0.602931 0.633161 0.000000
150.97900391 202.10299683 118.75000000 0.224738 -0.954127 -0.197823 0.000000
197.31100464 191.71899414 133.75000000 -0.206260 0.551555 0.808235 0.000000
72.69339752 239.64799500 153.75000000 -0.793801 0.431660 0.428426 0.000000
159.76600647 188.52299500 206.25000000 -0.160273 0.384372 0.909159 0.000000
217.28100586 150.97900391 161.25000000 0.670708 -0.247768 -0.699115 0.000000
89.86810303 147.78300476 145.00000000 0.000978 0.000978 0.999999 0.000000
129.41000366 270.80300903 121.25000000 0.504650 0.341240 -0.793022 0.000000
67.10160065 231.66000366 131.25000000 -0.980924 0.164503 -0.103576 0.000000
98.25579834 240.44700623 173.75000000 -0.000978 -0.000978 0.999999 0.000000
78.68460083 231.66000366 165.00000000 -0.446469 0.660506 0.603653 0.000000
103.84799957 132.60499573 158.75000000 -0.679356 -0.340492 0.650031 0.000000
103.84799957 188.52299500 71.25000000 0.864773 -0.191348 -0.464278 0.000000
126.21499634 231.66000366 103.75000000 0.174563 0.602621 -0.778701 0.000000
79.88279724 174.14500427 168.75000000 -0.817686 -0.307223 0.486830 0.000000
100.65200043 269.20498657 153.75000000 -0.302356 0.796258 0.523979 0.000000
237.65100098 146.18600464 175.00000000 0.805157 -0.137900 -0.576807 0.000000
113.43399811 193.31599426 198.75000000 -0.689700 -0.689700 0.220516 0.000000
107.84200287 200.50599670 193.75000000 -0.151641 0.045145 0.987404 0.000000
166.15600586 135.00199890 196.25000000 -0.576284 -0.097257 0.811442 0.000000
89.86810303 144.58799744 135.00000000 -0.854634 -0.515025 0.065957 0.000000
166.15600586 136.60000610 128.75000000 0.237653 -0.835619 -0.495239 0.000000
164.55900574 151.37800598 200.00000000 0.146086 -0.667179 0.730432 0.000000
131.80700684 232.85800171 185.00000000 0.028407 0.482918 0.875205 0.000000
136.60000610 271.60198975 153.75000000 0.456808 0.761347 0.460083 0.000000
148.98100281 261.21701050 132.50000000 0.722131 -0.001381 -0.691755 0.000000
239.64799500 119.02500153 186.25000000 0.673712 -0.515784 0.529225 0.000000
134.20300293 268.80599976 125.00000000 0.447630 0.418542 -0.790221 0.000000
91.06639862 166.15600586 56.25000000 0.812103 -0.242857 -0.530574 0.000000
172.54699707 129.41000366 141.25000000 0.092470 -0.239410 -0.966505 0.000000
119.02500153 190.12100220 88.75000000 0.525254 0.093029 -0.845845 0.000000
138.99600220 107.44200134 152.50000000 -0.459256 -0.822242 0.336157 0.000000
150.17999268 130.20899963 151.25000000 0.842882 -0.001349 -0.538096 0.000000
158.96699524 163.75999451 151.25000000 0.944429 0.133379 0.300439 0.000000
168.55299377 131.80700684 198.75000000 -0.857820 -0.326126 0.397225 0.000000
145.38699341 220.47700500 191.25000000 -0.586978 0.343081 0.733316 0.000000
87.47170258 270.00399780 127.50000000 -0.727221 0.676863 -0.114045 0.000000
154.17399597 236.45300293 123.75000000 0.863875 0.086246 -0.496268 0.000000
167.35400391 142.19099426 152.50000000 -0.809441 0.253241 0.529787 0.000000
240.44700623 134.20300293 178.75000000 0.515646 -0.342158 -0.785517 0.000000
198.90800476 138.19700623 148.75000000 0.363513 -0.572166 -0.735176 0.000000
181.33399963 155.77099609 201.25000000 0.262167 0.713412 0.649856 0.000000
152.57600403 142.19099426 196.25000000 0.018104 -0.761780 0.647583 0.000000
201.30499268 192.91700745 175.00000000 -0.000978 0.999999 -0.000978 0.000000
106.64399719 120.62300110 120.00000000 -0.789761 -0.613339 0.009648 0.000000
101.05200195 135.80099487 157.50000000 -0.758619 -0.615893 0.212538 0.000000
142.99000549 251.23100281 122.50000000 0.416974 0.168810 -0.893104 0.000000
138.99600220 271.60198975 133.75000000 0.561939 0.672649 -0.481422 0.000000
206.09800720 151.77699280 151.25000000 0.722131 0.001381 -0.691755 0.000000
108.64099884 255.62500000 98.75000000 0.399978 0.239392 -0.884709 0.000000
132.60499573 176.14199829 107.50000000 0.662002 -0.662002 -0.351433 0.000000
170.14999390 200.10600281 140.00000000 -0.124660 -0.989124 -0.078058 0.000000
123.81800079 113.43399811 141.25000000 -0.842882 -0.001349 0.538096 0.000000
176.54100037 105.44499969 136.25000000 0.073943 0.677085 -0.732180 0.000000
153.77400208 233.25799561 122.50000000 0.863875 0.086246 -0.496268 0.000000
103.04900360 267.60699463 156.25000000 -0.378844 0.569086 0.729807 0.000000
164.55900574 133.40400696 196.25000000 -0.504844 -0.051176 0.861692 0.000000
213.28700256 146.98399353 198.75000000 0.000978 0.000978 0.999999 0.000000
198.10899353 192.91700745 132.50000000 -0.215734 0.537040 0.815504 0.000000
146.18600464 203.30200195 145.00000000 0.318844 -0.619885 -0.716995 0.000000
134.20300293 151.77699280 208.75000000 0.263596 -0.595064 0.759220 0.000000
129.80999756 173.34599304 107.50000000 0.827667 -0.496600 -0.261450 0.000000
147.38400269 210.89100647 107.50000000 0.512807 0.255629 -0.819562 0.000000
90.26760101 171.74800110 176.25000000 -0.639790 -0.410463 0.649761 0.000000
95.06050110 158.16799927 186.25000000 -0.586220 -0.586220 0.559189 0.000000
136.60000610 191.71899414 136.25000000 -0.758248 -0.058768 -0.649312 0.000000
134.20300293 157.36900330 211.25000000 0.140893 -0.283127 0.948677 0.000000
214.88499451 186.52600098 167.50000000 -0.001227 0.953006 -0.302950 0.000000
148.58200073 220.87600708 110.00000000 0.671049 0.073917 -0.737719 0.000000
185.72799683 211.68899536 165.00000000 -0.652378 0.058786 -0.755611 0.000000
119.02500153 264.41198730 111.25000000 0.259284 0.774710 -0.576711 0.000000
214.08599854 120.62300110 161.25000000 0.776261 0.113420 -0.620125 0.000000
147.78300476 266.01000977 151.25000000 0.645070 0.645070 0.409595 0.000000
190.91999817 188.92300415 157.50000000 -0.311671 0.864389 -0.394579 0.000000
156.57000732 183.72999573 148.75000000 -0.000978 -0.000978 -0.999999 0.000000
208.49400330 196.51199341 141.25000000 -0.689700 0.689700 -0.220516 0.000000
198.10899353 223.27200317 152.50000000 -0.634852 -0.762715 0.123402 0.000000
234.05700684 109.83899689 172.50000000 0.918278 0.161718 -0.361405 0.000000
198.90800476 217.28100586 171.25000000 -0.609689 -0.413658 -0.676140 0.000000
83.07810211 214.88499451 176.25000000 -0.690389 0.516538 0.506508 0.000000
193.31599426 198.10899353 128.75000000 -0.442029 0.861274 0.250635 0.000000
91.06639862 135.40100098 102.50000000 -0.920694 -0.346498 0.179613 0.000000
93.86229706 174.14500427 57.50000000 0.788782 -0.190711 -0.584339 0.000000
98.25579834 234.85499573 81.25000000 0.642205 0.006905 -0.766502 0.000000
172.54699707 217.68099976 175.00000000 0.761378 -0.212441 0.612514 0.000000
186.92599487 191.31900024 185.00000000 -0.001381 0.722131 0.691755 0.000000
93.46289825 174.94299316 56.25000000 0.583995 -0.587381 -0.560297 0.000000
181.33399963 123.81800079 141.25000000 0.496560 -0.447069 -0.744015 0.000000
182.13299561 202.50300598 140.00000000 0.792403 -0.450265 0.411533 0.000000
111.83599854 270.80300903 156.25000000 -0.281874 0.830050 0.481211 0.000000
116.62899780 178.93699646 86.25000000 0.728647 -0.052966 -0.682838 0.000000
159.76600647 145.78599548 197.50000000 -0.227790 -0.222334 0.947987 0.000000
176.54100037 96.25879669 140.00000000 -0.374963 -0.524299 -0.764535 0.000000
155.37199402 161.36300659 127.50000000 0.480838 0.571310 -0.665132 0.000000
93.46289825 146.98399353 158.75000000 -0.449623 0.224060 0.864660 0.000000
125.41600037 253.22799683 113.75000000 -0.000978 -0.000978 -0.999999 0.000000
115.83000183 181.33399963 203.75000000 -0.116406 -0.189003 0.975053 0.000000
135.00199890 184.92900085 145.00000000 0.179098 0.959170 -0.218898 0.000000
142.19099426 178.93699646 136.25000000 0.600281 0.405148 -0.689578 0.000000
136.60000610 185.32800293 141.25000000 -0.908327 -0.326179 -0.261820 0.000000
218.87899780 116.62899780 196.25000000 0.000978 0.000978 0.999999 0.000000
190.12100220 102.64900208 172.50000000 -0.272734 -0.911545 0.307737 0.000000
155.37199402 171.74800110 150.00000000 0.952780 -0.001229 -0.303660 0.000000
109.43900299 227.66600037 183.75000000 -0.550405 0.380547 0.743128 0.000000
185.32800293 206.49699402 147.50000000 0.689700 -0.689700 -0.220516 0.000000
162.16200256 191.71899414 203.75000000 -0.038230 0.715034 0.698043 0.000000
229.26400757 137.39799500 193.75000000 0.568677 0.521428 0.636176 0.000000
238.05099487 121.02200317 180.00000000 0.835959 0.204077 -0.509436 0.000000
199.70700073 188.92300415 140.00000000 -0.384838 0.840361 0.381697 0.000000
168.95199585 183.72999573 152.50000000 -0.072949 -0.813878 -0.576438 0.000000
116.62899780 201.30499268 88.75000000 0.455612 0.064694 -0.887824 0.000000
111.43699646 125.41600037 157.50000000 -0.619491 -0.782590 0.061520 0.000000
99.05470276 246.03900146 171.25000000 0.339199 0.725463 0.598872 0.000000
198.10899353 221.67500305 160.00000000 -0.661307 -0.648113 -0.377654 0.000000
146.98399353 244.44099426 171.25000000 0.643128 -0.646451 0.410472 0.000000
101.85099792 245.24000549 87.50000000 0.774710 0.259284 -0.576711 0.000000
115.83000183 236.45300293 98.75000000 0.410889 0.038562 -0.910870 0.000000
201.30499268 95.85939789 151.25000000 0.038665 -0.983040 0.179267 0.000000
85.87400055 148.58200073 117.50000000 -0.895997 -0.443339 0.025296 0.000000
152.57600403 170.94900513 141.25000000 0.729586 0.624219 -0.279382 0.000000
144.58799744 141.79200745 197.50000000 0.107809 -0.698541 0.707402 0.000000
77.08689880 194.11500549 172.50000000 -0.835326 0.043231 0.548052 0.000000
182.93200684 142.99000549 138.75000000 0.190148 -0.211424 -0.958720 0.000000
162.16200256 171.74800110 161.25000000 0.388518 -0.636508 -0.666267 0.000000
143.78900146 272.00100708 142.50000000 0.612448 0.786192 -0.082528 0.000000
238.05099487 180.53500366 183.75000000 0.427649 0.383135 0.818733 0.000000
76.28810120 254.02699280 142.50000000 -0.831211 0.529766 0.168630 0.000000
240.44700623 163.75999451 183.75000000 0.502778 -0.051247 0.862895 0.000000
71.49510193 246.83799744 135.00000000 -0.924226 0.380869 0.027298 0.000000
183.72999573 202.10299683 131.25000000 0.364752 -0.727868 0.580659 0.000000
218.87899780 159.76600647 161.25000000 0.701483 -0.233828 -0.673235 0.000000
81.48049927 190.12100220 178.75000000 -0.815149 -0.263404 0.515897 0.000000
69.09860229 197.31100464 107.50000000 -0.953006 0.001227 -0.302950 0.000000
110.63800049 245.24000549 175.00000000 -0.175245 0.522739 0.834286 0.000000
192.51800537 150.97900391 201.25000000 0.000978 0.000978 0.999999 0.000000
187.72500610 222.07400513 171.25000000 0.263010 -0.581141 -0.770130 0.000000
110.23799896 127.41300201 165.00000000 -0.689700 -0.689700 0.220516 0.000000
73.49220276 251.23100281 137.50000000 -0.805804 0.555041 0.206420 0.000000
72.69339752 241.24600220 151.25000000 -0.780077 0.502286 0.373080 0.000000
68.29979706 206.89599609 107.50000000 -0.991608 -0.007721 -0.129052 0.000000
102.25000000 145.38699341 183.75000000 -0.721653 -0.499351 0.479443 0.000000
186.92599487 115.03099823 196.25000000 -0.326601 -0.693823 0.641827 0.000000
148.18299866 177.33999634 142.50000000 0.698284 0.358136 -0.619788 0.000000
88.66989899 178.93699646 178.75000000 -0.581163 0.331862 0.743046 0.000000
179.33700562 190.91999817 140.00000000 -0.539136 -0.391652 -0.745614 0.000000
107.04299927 129.01100159 152.50000000 -0.398594 -0.663221 0.633451 0.000000
133.00500488 104.64600372 130.00000000 -0.309982 -0.929945 0.197771 0.000000
107.04299927 238.05099487 178.75000000 -0.514872 0.478214 0.711490 0.000000
234.85499573 131.80700684 188.75000000 0.607917 0.311215 0.730467 0.000000
116.62899780 279.19000244 147.50000000 0.999999 -0.000978 -0.000978 0.000000
94.66110229 180.53500366 187.50000000 0.138298 -0.426300 0.893947 0.000000
71.09570313 224.47099304 101.25000000 -0.943968 0.314656 -0.099575 0.000000
115.03099823 273.19900513 153.75000000 -0.152769 0.700318 0.697293 0.000000
175.74200439 171.74800110 163.75000000 -0.420538 -0.153575 -0.894182 0.000000
192.11799622 218.08000183 135.00000000 0.265050 -0.853369 0.448899 0.000000
161.76300049 154.17399597 152.50000000 0.952066 0.001228 0.305890 0.000000
135.00199890 120.62300110 113.75000000 0.426001 -0.471702 -0.772024 0.000000
154.97300720 123.81800079 136.25000000 0.462680 0.479146 0.745886 0.000000
88.66989899 156.57000732 161.25000000 -0.832436 -0.466976 0.298302 0.000000
173.74499512 166.95500183 165.00000000 -0.271826 -0.385963 -0.881557 0.000000
131.00799561 194.91400146 141.25000000 -0.763838 -0.145564 -0.628778 0.000000
120.62300110 202.90199280 198.75000000 0.000978 0.000978 0.999999 0.000000
114.23200226 148.58200073 106.25000000 0.888829 -0.160423 -0.429240 0.000000
161.36300659 198.90800476 201.25000000 0.085868 0.749527 0.656381 0.000000
67.50099945 228.46499634 122.50000000 -0.952780 0.001229 -0.303660 0.000000
199.70700073 150.57899475 145.00000000 0.653708 -0.326043 -0.682906 0.000000
190.91999817 154.17399597 201.25000000 0.000978 0.000978 0.999999 0.000000
197.31100464 121.82099915 150.00000000 0.498072 -0.406622 -0.765887 0.000000
196.91099548 214.08599854 175.00000000 -0.616052 -0.445762 -0.649443 0.000000
204.50000000 169.35200500 143.75000000 0.789152 -0.429415 -0.439138 0.000000
172.54699707 126.21499634 198.75000000 0.000978 0.000978 0.999999 0.000000
178.93699646 194.11500549 183.75000000 0.543396 0.651066 0.529937 0.000000
245.63999939 169.35200500 180.00000000 0.927347 -0.363110 0.090440 0.000000
126.21499634 191.71899414 203.75000000 0.000978 0.000978 0.999999 0.000000
186.12699890 203.30200195 162.50000000 -0.799801 0.325963 -0.504050 0.000000
104.64600372 133.80400085 167.50000000 -0.787659 -0.562167 0.252114 0.000000
162.96099854 198.10899353 201.25000000 0.085868 0.749527 0.656381 0.000000
211.68899536 142.19099426 198.75000000 0.000978 0.000978 0.999999 0.000000
75.48930359 198.10899353 67.50000000 0.039247 0.978806 -0.200994 0.000000
195.71299744 146.18600464 201.25000000 0.360674 0.001266 0.932691 0.000000
138.19700623 143.78900146 118.75000000 -0.092210 0.495094 -0.863932 0.000000
128.61099243 222.87300110 101.25000000 0.405986 0.383870 -0.829349 0.000000
82.67870331 146.18600464 90.00000000 -0.860600 -0.429536 0.273619 0.000000
159.76600647 111.83599854 181.25000000 -0.291573 -0.880762 0.373153 0.000000
114.23200226 258.82000732 166.25000000 -0.280411 0.562406 0.777862 0.000000
91.86519623 202.90199280 188.75000000 -0.380203 0.278014 0.882130 0.000000
215.68400574 152.57600403 158.75000000 0.735002 -0.220033 -0.641371 0.000000
166.95500183 231.66000366 143.75000000 0.912378 0.211879 -0.350249 0.000000
73.49220276 222.07400513 161.25000000 -0.722131 -0.001381 0.691755 0.000000
72.29389954 197.31100464 155.00000000 -0.988956 -0.141279 0.044796 0.000000
79.48339844 218.08000183 70.00000000 -0.826257 0.231475 -0.513536 0.000000
151.77699280 130.20899963 191.25000000 -0.245203 -0.870998 0.425721 0.000000
131.00799561 253.22799683 171.25000000 0.893789 0.384315 0.231178 0.000000
162.16200256 245.63999939 160.00000000 0.803989 0.415635 0.425264 0.000000
135.00199890 188.52299500 141.25000000 -0.535491 -0.391383 -0.748377 0.000000
144.58799744 194.11500549 151.25000000 -0.001381 0.722131 -0.691755 0.000000
187.72500610 107.04299927 183.75000000 -0.164503 -0.980924 0.103576 0.000000
220.47700500 182.93200684 166.25000000 0.457177 0.594498 -0.661484 0.000000
80.28220367 170.94900513 140.00000000 -0.937161 -0.337271 0.089317 0.000000
77.88569641 194.11500549 57.50000000 -0.878904 0.097342 -0.466962 0.000000
122.22100067 278.39199829 147.50000000 0.072821 0.897213 0.435553 0.000000
67.50099945 206.89599609 115.00000000 -0.995722 -0.081975 -0.042627 0.000000
147.78300476 168.55299377 131.25000000 0.265173 0.709775 -0.652612 0.000000
142.99000549 148.18299866 205.00000000 0.386692 -0.702627 0.597315 0.000000
152.97599792 250.03300476 130.00000000 0.711792 0.108027 -0.694034 0.000000
242.84399414 161.36300659 176.25000000 0.876642 -0.124417 -0.464778 0.000000
166.55599976 152.57600403 132.50000000 0.794398 0.456013 -0.401227 0.000000
154.97300720 246.83799744 131.25000000 0.725363 0.293027 -0.622883 0.000000
175.34300232 222.87300110 170.00000000 0.818964 0.326639 0.471811 0.000000
205.29899597 106.24400330 186.25000000 0.001227 -0.953006 0.302950 0.000000
89.06929779 271.60198975 127.50000000 -0.706618 0.703716 -0.073999 0.000000
82.27929688 173.74499512 172.50000000 -0.797802 -0.350137 0.490832 0.000000
196.51199341 198.90800476 178.75000000 -0.935644 0.187685 -0.298906 0.000000
175.74200439 170.14999390 163.75000000 -0.765689 -0.018131 -0.642955 0.000000
89.46869659 263.21398926 150.00000000 -0.430171 0.689271 0.582974 0.000000
241.24600220 178.13900757 173.75000000 0.538096 0.296826 -0.788890 0.000000
154.57299805 170.94900513 147.50000000 0.838378 0.430942 -0.333784 0.000000
96.65820313 274.79699707 118.75000000 -0.221150 0.880149 -0.420037 0.000000
114.63200378 133.40400696 185.00000000 -0.686800 -0.563143 0.459538 0.000000
146.18600464 182.93200684 141.25000000 0.970454 0.229877 -0.073312 0.000000
199.70700073 221.67500305 155.00000000 -0.716557 -0.696771 -0.032507 0.000000
209.29299927 154.97300720 198.75000000 0.087532 0.549587 0.830838 0.000000
171.74800110 116.62899780 141.25000000 -0.000978 -0.000978 -0.999999 0.000000
150.97900391 113.03399658 177.50000000 -0.524749 -0.639485 0.561870 0.000000
119.02500153 119.02500153 146.25000000 -0.567491 -0.788268 0.237880 0.000000
130.20899963 161.36300659 121.25000000 0.608552 0.335921 -0.718903 0.000000
69.09860229 190.91999817 125.00000000 -0.935723 -0.350734 -0.037532 0.000000
142.19099426 213.28700256 193.75000000 0.200145 0.333574 0.921233 0.000000
151.77699280 205.69799805 112.50000000 0.590138 -0.603665 -0.536028 0.000000
137.79800415 142.99000549 117.50000000 -0.092210 0.495094 -0.863932 0.000000
159.76600647 149.38099670 153.75000000 0.768432 -0.474764 0.429082 0.000000
168.55299377 171.74800110 206.25000000 0.150906 -0.023827 0.988261 0.000000
230.06199646 158.96699524 188.75000000 0.000978 0.000978 0.999999 0.000000
119.82399750 268.40600586 158.75000000 -0.039724 0.491759 0.869825 0.000000
203.30200195 105.44499969 150.00000000 0.383255 0.699071 -0.603668 0.000000
149.77999878 174.94299316 142.50000000 0.667489 0.509444 -0.543070 0.000000
162.96099854 154.17399597 128.75000000 0.632317 0.391277 -0.668638 0.000000
142.99000549 148.58200073 206.25000000 0.386692 -0.702627 0.597315 0.000000
91.86519623 259.61898804 156.25000000 -0.452854 0.680116 0.576511 0.000000
146.58500671 228.46499634 112.50000000 0.507027 0.424984 -0.749875 0.000000
97.45700073 151.77699280 68.75000000 0.621529 0.181725 -0.762022 0.000000
178.93699646 162.96099854 138.75000000 -0.657743 0.247639 -0.711372 0.000000
135.80099487 219.67799377 191.25000000 -0.468870 0.468870 0.748547 0.000000
186.12699890 216.48199463 161.25000000 -0.597349 -0.680546 -0.424301 0.000000
103.04900360 199.30799866 72.50000000 0.825304 0.137305 -0.547742 0.000000
98.25579834 251.63099670 88.75000000 0.234943 0.567909 -0.788848 0.000000
162.56100464 127.81199646 195.00000000 -0.530876 -0.117811 0.839221 0.000000
109.43900299 268.40600586 106.25000000 0.478304 0.625991 -0.615922 0.000000
241.24600220 126.21499634 183.75000000 0.952500 -0.175991 0.248537 0.000000
184.52900696 202.90199280 166.25000000 -0.638747 0.403157 -0.655337 0.000000
193.31599426 192.51800537 131.25000000 -0.064613 0.457790 0.886710 0.000000
122.22100067 183.72999573 203.75000000 -0.095228 0.733987 0.672455 0.000000
93.46289825 154.97300720 181.25000000 -0.582974 -0.616770 0.528901 0.000000
82.67870331 224.47099304 70.00000000 -0.629426 0.514678 -0.582177 0.000000
160.16499329 210.09199524 120.00000000 0.917622 0.049135 -0.394405 0.000000
154.17399597 171.74800110 208.75000000 0.465519 -0.134035 0.874830 0.000000
229.66299438 123.81800079 195.00000000 0.684575 0.095283 0.722688 0.000000
81.48049927 202.10299683 56.25000000 -0.823498 0.165895 -0.542522 0.000000
142.99000549 177.73899841 137.50000000 0.665607 0.406668 -0.625770 0.000000
227.66600037 125.41600037 196.25000000 0.463144 -0.109058 0.879548 0.000000
153.37500000 213.28700256 111.25000000 0.409130 0.001291 -0.912475 0.000000
124.61699677 264.01300049 162.50000000 -0.106914 0.345103 0.932455 0.000000
99.85350037 270.00399780 151.25000000 0.306598 0.838865 0.449781 0.000000
133.40400696 189.32200623 141.25000000 -0.469448 -0.499307 -0.728225 0.000000
125.81500244 203.70100403 95.00000000 0.388431 0.057397 -0.919688 0.000000
69.49800110 241.64500427 137.50000000 -0.943968 0.314656 0.099575 0.000000
115.03099823 279.98901367 120.00000000 -0.113255 0.783957 -0.610398 0.000000
74.29100037 246.83799744 148.75000000 -0.777463 0.387920 0.495044 0.000000
168.15299988 138.19700623 162.50000000 -0.326414 0.108805 -0.938944 0.000000
111.83599854 145.38699341 193.75000000 -0.573421 -0.404865 0.712231 0.000000
186.12699890 107.44200134 185.00000000 -0.164503 -0.980924 0.103576 0.000000
151.77699280 210.09199524 196.25000000 -0.340626 0.766813 0.544033 0.000000
192.51800537 150.17999268 141.25000000 0.699346 -0.255317 -0.667629 0.000000
149.38099670 146.98399353 201.25000000 0.860600 -0.429536 0.273619 0.000000
120.62300110 111.83599854 131.25000000 -0.689700 -0.689700 0.220516 0.000000
137.79800415 195.71299744 135.00000000 -0.722131 -0.001381 -0.691755 0.000000
103.84799957 164.55900574 193.75000000 -0.547051 -0.202668 0.812195 0.000000
216.48199463 150.17999268 161.25000000 0.707312 -0.143272 -0.692231 0.000000
136.60000610 140.19400024 197.50000000 0.176274 -0.709693 0.682102 0.000000
137.39799500 144.58799744 203.75000000 0.310354 -0.734880 0.603019 0.000000
218.08000183 145.38699341 198.75000000 0.000978 0.000978 0.999999 0.000000
236.45300293 155.77099609 186.25000000 0.305078 0.008646 0.952288 0.000000
90.26760101 229.66299438 70.00000000 -0.283020 0.660379 -0.695557 0.000000
187.72500610 217.28100586 138.75000000 -0.484633 -0.110079 0.867764 0.000000
194.91400146 190.12100220 133.75000000 -0.294310 0.654558 0.696373 0.000000
126.21499634 230.06199646 186.25000000 -0.041132 0.721938 0.690734 0.000000
135.80099487 204.50000000 198.75000000 0.001371 0.615457 0.788169 0.000000
217.28100586 186.92599487 183.75000000 0.071214 0.306866 0.949085 0.000000
82.27929688 206.09800720 56.25000000 -0.704552 0.233805 -0.670031 0.000000
190.12100220 135.00199890 203.75000000 0.105092 0.315275 0.943164 0.000000
141.39300537 130.20899963 188.75000000 0.000978 0.000978 0.999999 0.000000
113.83300018 260.41799927 105.00000000 0.684719 0.240832 -0.687867 0.000000
73.09279633 247.63699341 142.50000000 -0.860702 0.401866 0.312563 0.000000
135.80099487 256.42401123 166.25000000 0.215249 0.593096 0.775825 0.000000
162.16200256 129.80999756 135.00000000 0.488001 -0.501325 0.714513 0.000000
133.40400696 158.96699524 123.75000000 0.656090 0.230179 -0.718724 0.000000
138.19700623 139.79499817 116.25000000 0.713576 0.369091 -0.595467 0.000000
234.85499573 186.12699890 171.25000000 -0.701483 -0.233828 -0.673235 0.000000
226.06799316 138.99600220 171.25000000 -0.000978 -0.000978 -0.999999 0.000000
219.67799377 185.72799683 167.50000000 0.245530 0.570818 -0.783506 0.000000
198.10899353 105.04599762 182.50000000 0.001320 -0.883337 0.468736 0.000000
98.25579834 164.55900574 191.25000000 -0.528261 -0.701570 0.478268 0.000000
131.80700684 175.74200439 208.75000000 0.000978 0.000978 0.999999 0.000000
83.07810211 207.69500732 56.25000000 -0.462694 0.676502 -0.572939 0.000000
115.03099823 186.12699890 201.25000000 -0.019949 0.450845 0.892380 0.000000
158.96699524 178.13900757 208.75000000 0.000978 0.000978 0.999999 0.000000
190.12100220 212.88800049 180.00000000 0.091984 -0.493883 -0.864649 0.000000
243.64300537 167.75399780 178.75000000 0.742137 -0.296534 -0.601083 0.000000
199.70700073 127.01399994 201.25000000 0.000978 0.000978 0.999999 0.000000
202.10299683 119.82399750 151.25000000 0.278565 -0.325730 -0.903494 0.000000
178.93699646 123.01999664 198.75000000 -0.000978 -0.000978 0.999999 0.000000
150.97900391 203.70100403 143.75000000 -0.535239 -0.515104 -0.669468 0.000000
183.72999573 213.28700256 171.25000000 0.958806 0.171073 -0.226772 0.000000
237.25199890 182.13299561 183.75000000 0.000978 0.000978 0.999999 0.000000
202.10299683 113.43399811 196.25000000 0.094659 -0.616012 0.782029 0.000000
201.30499268 145.38699341 201.25000000 0.167526 0.356169 0.919282 0.000000
203.70100403 151.77699280 148.75000000 0.722131 0.001381 -0.691755 0.000000
209.29299927 185.32800293 188.75000000 0.000978 0.000978 0.999999 0.000000
205.29899597 140.59399414 198.75000000 0.462870 0.194971 0.864718 0.000000
104.64600372 201.30499268 193.75000000 -0.323552 -0.050273 0.944874 0.000000
126.21499634 155.77099609 118.75000000 0.001227 -0.953006 -0.302950 0.000000
163.36000061 146.18600464 145.00000000 0.670256 -0.182518 0.719336 0.000000
91.86519623 208.49400330 56.25000000 0.626077 0.321936 -0.710201 0.000000
113.03399658 237.25199890 97.50000000 0.585548 0.309618 -0.749180 0.000000
164.55900574 179.33700562 155.00000000 0.188981 -0.904511 -0.382290 0.000000
151.77699280 127.01399994 126.25000000 0.200298 -0.200298 -0.959042 0.000000
171.34899902 230.06199646 160.00000000 0.846549 0.466903 -0.255649 0.000000
112.63500214 263.61300659 161.25000000 0.001381 0.724826 0.688930 0.000000
73.89160156 170.14999390 92.50000000 -0.936420 -0.350361 0.019111 0.000000
86.27339935 209.29299927 56.25000000 -0.427705 0.650710 -0.627411 0.000000
128.61099243 187.32499695 145.00000000 0.201163 0.308075 -0.929851 0.000000
181.33399963 108.64099884 141.25000000 0.293523 0.293523 -0.909774 0.000000
128.61099243 132.20599365 190.00000000 -0.999999 -0.000978 -0.000978 0.000000
174.94299316 104.64600372 176.25000000 0.001228 -0.952066 -0.305890 0.000000
118.62599945 155.77099609 110.00000000 0.825017 -0.438637 -0.356293 0.000000
157.36900330 157.36900330 203.75000000 0.069735 -0.427984 0.901092 0.000000
108.64099884 194.11500549 196.25000000 0.000978 0.000978 0.999999 0.000000
93.46289825 184.52900696 183.75000000 -0.362039 -0.630701 0.686399 0.000000
139.79499817 198.10899353 203.75000000 -0.195968 0.637283 0.745297 0.000000
172.54699707 152.57600403 201.25000000 0.000978 0.000978 0.999999 0.000000
75.08979797 212.48800659 78.75000000 -0.993320 0.110122 -0.034483 0.000000
199.70700073 198.10899353 131.25000000 -0.529766 0.168630 0.831211 0.000000
87.87110138 234.85499573 168.75000000 -0.555457 0.160199 0.815968 0.000000
142.59100342 265.21099854 130.00000000 0.777463 0.387920 -0.495044 0.000000
83.47750092 154.97300720 117.50000000 -0.870342 -0.483837 0.091689 0.000000
146.18600464 215.68400574 106.25000000 0.842882 -0.001349 -0.538096 0.000000
151.77699280 156.57000732 123.75000000 0.522262 0.430001 -0.736439 0.000000
148.58200073 141.39300537 196.25000000 0.142946 -0.714730 0.684636 0.000000
134.20300293 170.94900513 128.75000000 0.902238 -0.152511 -0.403370 0.000000
242.04499817 182.93200684 176.25000000 0.759618 -0.049881 -0.648454 0.000000
104.64600372 168.55299377 196.25000000 -0.512796 -0.158124 0.843823 0.000000
139.39500427 262.01599121 125.00000000 0.468870 0.468870 -0.748547 0.000000
75.48930359 207.69500732 72.50000000 -0.930695 0.186139 -0.314897 0.000000
66.70210266 204.50000000 140.00000000 -0.916105 0.228667 0.329338 0.000000
191.71899414 224.86999512 160.00000000 -0.086246 -0.863875 -0.496268 0.000000
144.58799744 214.08599854 136.25000000 -0.165901 -0.911747 0.375759 0.000000
214.88499451 155.37199402 157.50000000 0.687578 -0.095293 -0.719831 0.000000
122.62000275 240.44700623 107.50000000 0.748922 0.578200 -0.323728 0.000000
204.50000000 210.09199524 141.25000000 -0.085879 -0.871459 0.482892 0.000000
101.85099792 142.99000549 177.50000000 -0.846381 -0.282127 0.451712 0.000000
182.13299561 110.63800049 190.00000000 -0.152122 -0.843315 0.515441 0.000000
166.95500183 190.12100220 146.25000000 -0.263284 -0.401695 -0.877110 0.000000
183.72999573 116.62899780 196.25000000 -0.234359 -0.677912 0.696786 0.000000
124.61699677 153.37500000 206.25000000 -0.842882 -0.001349 0.538096 0.000000
101.45099640 186.12699890 66.25000000 0.783364 0.129322 -0.607962 0.000000
125.41600037 142.19099426 198.75000000 -0.001244 -0.329630 0.944109 0.000000
232.45899963 190.91999817 181.25000000 0.256860 0.603543 0.754823 0.000000
81.08100128 167.75399780 137.50000000 -0.939613 -0.319496 0.122675 0.000000
170.14999390 195.31300354 200.00000000 0.141279 0.988956 -0.044796 0.000000
131.40699768 240.44700623 112.50000000 0.000978 0.000978 -0.999999 0.000000
182.93200684 125.41600037 143.75000000 0.481479 -0.451900 -0.750976 0.000000
220.47700500 184.52900696 183.75000000 0.071214 0.306866 0.949085 0.000000
234.85499573 132.60499573 173.75000000 0.741180 -0.117341 -0.660972 0.000000
85.07520294 156.57000732 140.00000000 -0.928606 -0.351475 0.118982 0.000000
129.41000366 131.00799561 113.75000000 -0.000978 -0.000978 -0.999999 0.000000
150.97900391 207.69500732 111.25000000 0.656157 -0.435769 -0.616087 0.000000
130.20899963 246.83799744 173.75000000 0.202954 -0.295333 0.933589 0.000000
163.36000061 180.53500366 152.50000000 0.586220 -0.586220 -0.559189 0.000000
115.83000183 162.56100464 95.00000000 0.659839 -0.559100 -0.502015 0.000000
121.42199707 173.34599304 206.25000000 0.000978 0.000978 0.999999 0.000000
116.22899628 127.81199646 177.50000000 -0.587381 -0.583995 0.560297 0.000000
93.46289825 162.16200256 183.75000000 -0.842882 0.001349 0.538096 0.000000
107.04299927 118.62599945 110.00000000 -0.552899 -0.828631 0.087602 0.000000
167.75399780 195.71299744 201.25000000 0.326564 0.511352 0.794906 0.000000
88.66989899 212.88800049 57.50000000 0.218402 0.265700 -0.938991 0.000000
111.03700256 216.88200378 87.50000000 0.669919 0.251813 -0.698426 0.000000
158.96699524 216.48199463 121.25000000 0.895507 0.208903 -0.392971 0.000000
141.39300537 239.64799500 176.25000000 0.468870 0.468870 0.748547 0.000000
86.67279816 149.38099670 130.00000000 -0.689700 -0.689700 0.220516 0.000000
223.67199707 167.75399780 191.25000000 0.721750 0.146158 0.676546 0.000000
198.10899353 218.87899780 136.25000000 -0.351660 -0.469410 0.809932 0.000000
113.03399658 190.12100220 82.50000000 0.568199 0.063763 -0.820417 0.000000
115.03099823 150.17999268 108.75000000 0.913459 -0.117821 -0.389502 0.000000
224.47099304 162.16200256 191.25000000 0.001264 -0.362873 0.931838 0.000000
145.38699341 199.30799866 150.00000000 0.082057 -0.246171 -0.965747 0.000000
155.77099609 164.55900574 208.75000000 0.227117 -0.121899 0.966208 0.000000
127.81199646 224.47099304 101.25000000 0.405986 0.383870 -0.829349 0.000000
132.60499573 174.94299316 208.75000000 -0.412118 0.334360 0.847563 0.000000
185.32800293 125.41600037 143.75000000 0.369203 -0.253549 -0.894093 0.000000
69.49800110 230.86099243 113.75000000 -0.978998 0.194351 -0.061565 0.000000
132.60499573 190.91999817 141.25000000 -0.563114 -0.392374 -0.727287 0.000000
117.42800140 200.50599670 88.75000000 0.407397 0.913040 0.019649 0.000000
166.15600586 213.28700256 176.25000000 0.525602 -0.375895 0.763181 0.000000
99.85350037 142.99000549 73.75000000 0.413951 -0.623420 -0.663319 0.000000
119.82399750 199.70700073 88.75000000 0.606002 0.229003 -0.761787 0.000000
153.37500000 200.10600281 145.00000000 -0.586220 -0.586220 -0.559189 0.000000
144.58799744 224.47099304 188.75000000 -0.000978 -0.000978 0.999999 0.000000
124.61699677 219.67799377 98.75000000 -0.776213 0.387296 -0.497489 0.000000
140.19400024 189.32200623 125.00000000 0.791216 -0.058450 0.608737 0.000000
98.25579834 245.24000549 171.25000000 0.339199 0.725463 0.598872 0.000000
144.58799744 262.01599121 161.25000000 0.327237 0.066490 0.942600 0.000000
87.87110138 148.18299866 60.00000000 -0.179454 -0.728552 -0.661065 0.000000
123.01999664 233.25799561 183.75000000 -0.615457 0.001371 0.788169 0.000000
161.36300659 188.52299500 146.25000000 0.234845 -0.382546 -0.893592 0.000000
77.48629761 215.68400574 166.25000000 -0.842331 0.075031 0.533712 0.000000
91.86519623 200.50599670 188.75000000 -0.392328 0.252104 0.884603 0.000000
103.04900360 277.59298706 145.00000000 -0.297069 0.812617 0.501402 0.000000
138.99600220 197.31100464 121.25000000 0.569086 -0.378844 0.729807 0.000000
231.66000366 115.03099823 191.25000000 0.793176 -0.545014 0.271722 0.000000
210.09199524 122.22100067 156.25000000 0.663279 -0.186210 -0.724836 0.000000
100.65200043 254.82600403 166.25000000 -0.384273 0.467880 0.795879 0.000000
102.25000000 127.81199646 126.25000000 -0.732936 -0.674419 0.089240 0.000000
206.89599609 158.96699524 148.75000000 0.772813 -0.262851 -0.577642 0.000000
170.94900513 166.15600586 203.75000000 -0.001349 -0.842882 0.538096 0.000000
184.52900696 154.97300720 201.25000000 0.241770 0.390095 0.888467 0.000000
88.66989899 149.38099670 58.75000000 -0.165712 -0.658287 -0.734301 0.000000
106.64399719 168.55299377 77.50000000 0.790040 -0.453990 -0.411984 0.000000
183.72999573 104.64600372 178.75000000 -0.368868 -0.859663 0.353434 0.000000
116.22899628 182.13299561 85.00000000 0.705190 -0.117284 -0.699251 0.000000
87.07230377 262.41500854 107.50000000 -0.586220 0.586220 -0.559189 0.000000
125.41600037 180.53500366 93.75000000 0.634516 -0.212540 -0.743113 0.000000
151.77699280 137.39799500 153.75000000 0.810785 -0.040609 -0.583933 0.000000
228.46499634 146.98399353 171.25000000 0.205044 0.824734 -0.527040 0.000000
81.87989807 217.28100586 172.50000000 -0.688055 0.451484 0.568104 0.000000
85.47460175 150.17999268 58.75000000 -0.265390 -0.681751 -0.681751 0.000000
237.25199890 183.72999573 183.75000000 0.000978 0.000978 0.999999 0.000000
127.01399994 115.43099976 152.50000000 -0.496858 -0.778465 0.383568 0.000000
207.69500732 97.45700073 158.75000000 -0.001227 -0.953006 0.302950 0.000000
144.58799744 243.64300537 173.75000000 0.643128 -0.646451 0.410472 0.000000
185.72799683 182.93200684 165.00000000 0.116070 0.904787 -0.409741 0.000000
81.08100128 150.97900391 60.00000000 -0.235234 -0.945063 -0.226980 0.000000
172.54699707 106.64399719 137.50000000 -0.174685 0.593929 -0.785323 0.000000
146.98399353 106.64399719 160.00000000 -0.297443 -0.901208 0.315201 0.000000
66.70210266 228.46499634 130.00000000 -0.980924 0.164503 -0.103576 0.000000
157.36900330 106.64399719 172.50000000 -0.470881 -0.707153 0.527453 0.000000
126.21499634 274.79699707 151.25000000 0.107614 0.744450 0.658949 0.000000
219.67799377 150.17999268 198.75000000 -0.000978 -0.000978 0.999999 0.000000
182.13299561 174.14500427 153.75000000 -0.661490 0.520103 -0.540301 0.000000
238.05099487 139.79499817 186.25000000 0.490449 -0.206743 0.846591 0.000000
112.23500061 190.91999817 82.50000000 0.568199 0.063763 -0.820417 0.000000
133.40400696 176.14199829 112.50000000 0.316601 -0.947241 -0.049990 0.000000
99.85350037 154.97300720 71.25000000 0.723718 -0.226650 -0.651815 0.000000
124.21800232 135.00199890 192.50000000 0.004095 -0.820314 0.571899 0.000000
105.84500122 142.19099426 87.50000000 0.883337 0.001320 -0.468736 0.000000
207.29600525 206.09800720 140.00000000 -0.768760 -0.461909 0.442322 0.000000
189.32200623 222.07400513 171.25000000 -0.043012 -0.847759 -0.528635 0.000000
170.94900513 173.34599304 161.25000000 0.712785 -0.114105 -0.692039 0.000000
78.28510284 242.84399414 158.75000000 -0.790405 0.330533 0.515759 0.000000
146.98399353 268.00698853 137.50000000 0.689700 0.689700 -0.220516 0.000000
112.23500061 246.03900146 100.00000000 0.787659 0.562167 -0.252114 0.000000
133.40400696 227.66600037 188.75000000 -0.190403 0.802739 0.565116 0.000000
213.28700256 106.24400330 156.25000000 0.000978 0.000978 -0.999999 0.000000
158.96699524 114.23200226 186.25000000 -0.370189 -0.679502 0.633434 0.000000
220.47700500 122.22100067 166.25000000 0.160591 0.496507 -0.853048 0.000000
91.86519623 262.81399536 101.25000000 -0.586220 0.586220 -0.559189 0.000000
91.06639862 199.70700073 188.75000000 -0.392328 0.252104 0.884603 0.000000
201.30499268 158.96699524 198.75000000 0.000978 0.000978 0.999999 0.000000
72.29389954 198.10899353 157.50000000 -0.988956 -0.141279 0.044796 0.000000
81.48049927 241.24600220 163.75000000 -0.627038 0.492552 0.603503 0.000000
100.25299835 252.42999268 90.00000000 0.234943 0.567909 -0.788848 0.000000
100.65200043 152.17700195 72.50000000 0.668660 -0.193031 -0.718076 0.000000
149.38099670 174.14500427 141.25000000 0.589632 0.562600 -0.579495 0.000000
186.92599487 158.16799927 198.75000000 -0.036103 0.434578 0.899910 0.000000
89.46869659 167.75399780 173.75000000 -0.885921 -0.320375 0.335416 0.000000
115.03099823 130.20899963 103.75000000 0.560964 0.265554 -0.784092 0.000000
142.99000549 158.16799927 121.25000000 -0.000978 -0.000978 -0.999999 0.000000
166.15600586 111.83599854 183.75000000 -0.237781 -0.797266 0.554822 0.000000
235.65400696 165.35699463 186.25000000 0.000978 0.000978 0.999999 0.000000
122.22100067 270.80300903 158.75000000 -0.004038 0.523567 0.851975 0.000000
106.24400330 222.87300110 186.25000000 -0.338753 0.518565 0.785072 0.000000
93.06349945 170.14999390 185.00000000 -0.902002 -0.128053 0.412304 0.000000
100.25299835 162.96099854 70.00000000 0.736922 -0.117137 -0.665751 0.000000
166.55599976 238.05099487 147.50000000 0.895124 0.445579 0.014544 0.000000
210.89100647 144.58799744 198.75000000 0.000978 0.000978 0.999999 0.000000
91.06639862 272.39999390 121.25000000 -0.689700 0.689700 -0.220516 0.000000
166.55599976 223.67199707 140.00000000 0.952780 -0.001229 -0.303660 0.000000
74.29100037 184.52900696 141.25000000 -0.881725 -0.378313 0.281851 0.000000
135.40100098 273.99798584 132.50000000 0.624942 0.648273 -0.434960 0.000000
170.94900513 151.77699280 168.75000000 -0.177168 -0.440725 -0.879985 0.000000
193.71600342 120.62300110 147.50000000 0.546437 0.096600 -0.831911 0.000000
192.51800537 185.32800293 191.25000000 0.030726 0.896397 0.442187 0.000000
240.44700623 149.38099670 181.25000000 0.957538 -0.286889 0.028565 0.000000
189.32200623 163.75999451 198.75000000 0.000978 0.000978 0.999999 0.000000
72.69339752 181.33399963 78.75000000 -0.994374 -0.059017 -0.087968 0.000000
89.06929779 225.27000427 175.00000000 -0.620454 0.549448 0.559592 0.000000
200.50599670 136.60000610 201.25000000 0.000978 0.000978 0.999999 0.000000
238.85000610 131.80700684 178.75000000 0.651280 -0.255124 -0.714665 0.000000
204.50000000 141.39300537 198.75000000 0.448682 0.075931 0.890460 0.000000
102.64900208 207.69500732 75.00000000 0.782140 0.262812 -0.564966 0.000000
77.08689880 207.69500732 170.00000000 -0.917435 0.348483 0.192021 0.000000
103.04900360 155.77099609 73.75000000 0.672837 -0.186301 -0.715948 0.000000
79.88279724 162.16200256 116.25000000 -0.908257 -0.411106 0.077851 0.000000
206.89599609 157.76899719 197.50000000 0.186616 0.442294 0.877240 0.000000
175.74200439 129.41000366 141.25000000 -0.000978 -0.000978 -0.999999 0.000000
140.59399414 128.61099243 118.75000000 0.169728 -0.098906 -0.980515 0.000000
209.29299927 157.36900330 198.75000000 0.105489 0.541897 0.833798 0.000000
192.51800537 214.88499451 178.75000000 -0.079290 -0.609810 -0.788572 0.000000
203.70100403 107.04299927 153.75000000 0.397617 0.714390 -0.575802 0.000000
126.21499634 218.87899780 191.25000000 0.000978 0.000978 0.999999 0.000000
150.17999268 206.49699402 142.50000000 -0.554419 -0.477370 -0.681717 0.000000
135.80099487 242.84399414 176.25000000 -0.001381 0.722131 0.691755 0.000000
164.55900574 170.14999390 166.25000000 0.395502 -0.821182 -0.411385 0.000000
173.74499512 227.66600037 165.00000000 0.713356 0.695851 0.083152 0.000000
112.23500061 141.39300537 192.50000000 -0.383312 -0.313064 0.868943 0.000000
118.22699738 271.20199585 157.50000000 -0.116298 0.486730 0.865776 0.000000
197.31100464 132.60499573 148.75000000 0.462838 0.085297 -0.882329 0.000000
215.68400574 139.79499817 163.75000000 0.699492 0.705432 0.114354 0.000000
197.31100464 141.39300537 146.25000000 0.443130 -0.327259 -0.834588 0.000000
191.71899414 178.93699646 148.75000000 -0.296820 0.884434 -0.360102 0.000000
109.43900299 137.39799500 93.75000000 0.842882 -0.001349 -0.538096 0.000000
202.10299683 218.87899780 156.25000000 -0.753134 -0.633977 -0.175680 0.000000
166.95500183 161.36300659 166.25000000 -0.000978 -0.000978 -0.999999 0.000000
220.87600708 144.58799744 170.00000000 0.461208 0.168377 -0.871170 0.000000
77.88569641 158.96699524 60.00000000 -0.941044 -0.276940 -0.194271 0.000000
123.81800079 247.23699951 175.00000000 0.155926 0.467779 0.869982 0.000000
70.69629669 185.32800293 112.50000000 -0.974073 -0.226229 -0.001172 0.000000
131.00799561 190.12100220 96.25000000 0.842882 0.001349 -0.538096 0.000000
144.58799744 232.45899963 113.75000000 0.517740 0.400146 -0.756194 0.000000
99.05470276 272.39999390 148.75000000 -0.023750 0.766973 0.641240 0.000000
217.28100586 170.14999390 156.25000000 0.592238 -0.252919 -0.765040 0.000000
140.59399414 215.68400574 193.75000000 0.145896 0.520215 0.841481 0.000000
82.27929688 200.50599670 178.75000000 -0.694504 0.006931 0.719456 0.000000
92.66400146 251.63099670 163.75000000 -0.325310 0.161963 0.931634 0.000000
211.68899536 160.56399536 153.75000000 0.775574 -0.101162 -0.623098 0.000000
126.21499634 252.42999268 171.25000000 0.000978 0.000978 0.999999 0.000000
168.15299988 225.27000427 145.00000000 0.952780 -0.001229 -0.303660 0.000000
126.21499634 247.23699951 175.00000000 0.263110 0.364192 0.893385 0.000000
135.00199890 249.23399353 118.75000000 0.535215 0.114585 -0.836908 0.000000
129.41000366 206.09800720 96.25000000 0.396313 0.266720 -0.878519 0.000000
83.47750092 245.24000549 162.50000000 -0.468870 0.468870 0.748547 0.000000
93.06349945 138.19700623 125.00000000 -0.852996 -0.510647 0.107883 0.000000
106.24400330 202.10299683 193.75000000 0.000978 0.000978 0.999999 0.000000
130.20899963 121.42199707 176.25000000 -0.278908 -0.789452 0.546786 0.000000
120.22399902 168.55299377 92.50000000 0.669260 -0.646239 -0.366695 0.000000
171.74800110 199.30799866 187.50000000 0.000978 0.000978 0.999999 0.000000
202.10299683 135.80099487 201.25000000 0.000978 0.000978 0.999999 0.000000
136.60000610 186.92599487 148.75000000 0.204994 0.778362 -0.593405 0.000000
99.85350037 125.01699829 105.00000000 -0.000978 -0.000978 0.999999 0.000000
164.55900574 215.68400574 133.75000000 0.953006 -0.001227 -0.302950 0.000000
112.63500214 163.75999451 201.25000000 -0.701483 0.233828 0.673235 0.000000
197.31100464 138.59700012 147.50000000 0.306433 -0.485578 -0.818726 0.000000
137.39799500 240.44700623 116.25000000 0.443026 0.613549 -0.653672 0.000000
126.21499634 189.32200623 203.75000000 -0.894384 0.178297 0.410228 0.000000
67.10160065 216.48199463 151.25000000 -0.907025 -0.063722 0.416228 0.000000
87.87110138 152.17700195 152.50000000 -0.826013 -0.497468 0.265006 0.000000
177.33999634 197.31100464 141.25000000 -0.631744 0.135907 -0.763170 0.000000
79.48339844 172.54699707 140.00000000 -0.944468 -0.310382 0.107901 0.000000
182.93200684 133.40400696 203.75000000 -0.619073 -0.205328 0.758017 0.000000
153.77400208 170.94900513 145.00000000 0.848720 0.466414 -0.249264 0.000000
202.10299683 98.65529633 162.50000000 0.001227 -0.953006 0.302950 0.000000
182.13299561 205.29899597 143.75000000 0.904646 -0.335760 0.262450 0.000000
71.09570313 194.91400146 148.75000000 -0.946521 -0.189851 0.260874 0.000000
182.13299561 126.21499634 141.25000000 0.608473 -0.158535 -0.777578 0.000000
115.03099823 186.92599487 201.25000000 -0.300017 0.001225 0.953933 0.000000
196.51199341 216.48199463 133.75000000 -0.322020 -0.629477 0.707150 0.000000
119.42500305 155.77099609 205.00000000 -0.295808 -0.441389 0.847156 0.000000
178.13900757 99.85350037 163.75000000 -0.446689 -0.894688 0.001310 0.000000
79.88279724 224.47099304 166.25000000 0.239511 0.480548 0.843628 0.000000
236.45300293 117.42800140 176.25000000 0.634516 0.212540 -0.743113 0.000000
144.58799744 203.30200195 127.50000000 -0.262413 -0.893983 0.363227 0.000000
108.64099884 280.38900757 141.25000000 -0.170354 0.854730 0.490322 0.000000
242.04499817 154.17399597 178.75000000 0.927096 -0.370042 -0.059684 0.000000
84.67579651 217.28100586 176.25000000 -0.736439 0.430001 0.522262 0.000000
143.78900146 124.61699677 121.25000000 0.611196 -0.219284 -0.760496 0.000000
126.21499634 258.02099609 166.25000000 -0.107658 0.641527 0.759509 0.000000
163.75999451 201.30499268 198.75000000 0.371873 0.521272 0.768105 0.000000
165.75700378 154.97300720 147.50000000 0.675060 -0.203294 0.709201 0.000000
155.77099609 196.51199341 203.75000000 0.000978 0.000978 0.999999 0.000000
96.25879669 263.61300659 155.00000000 -0.522507 0.718240 0.459475 0.000000
115.43099976 242.84399414 102.50000000 0.625226 0.402997 -0.668345 0.000000
