118.16600037 166.45300293 197.50000000 0.357695 0.143356 -0.922769 0.000000
150.75000000 210.42199707 186.25000000 -0.584958 -0.356841 -0.728346 0.000000
246.93200684 141.32800293 155.00000000 -0.283670 -0.252309 0.925133 0.000000
130.72799683 245.75399780 170.00000000 -0.011928 -0.451947 -0.891965 0.000000
258.31600952 140.54299927 166.25000000 -0.206362 -0.082792 -0.974967 0.000000
94.21869659 222.59199524 97.50000000 0.692088 -0.639978 0.333831 0.000000
128.37300110 226.12500000 122.50000000 -0.538096 0.001349 0.842882 0.000000
146.03900146 159.38699341 128.75000000 0.441778 0.575145 0.688506 0.000000
114.63300323 153.89100647 191.25000000 0.291457 0.221057 -0.930691 0.000000
226.12500000 151.53500366 151.25000000 -0.239633 -0.753357 0.612396 0.000000
239.08000183 109.13700104 170.00000000 0.073621 0.465341 -0.882064 0.000000
85.58200073 175.87500000 96.25000000 0.975940 0.159107 0.149085 0.000000
196.28900146 151.14300537 190.00000000 -0.433738 0.176708 -0.883541 0.000000
127.98000336 142.89799500 106.25000000 -0.895921 -0.240585 0.373423 0.000000
147.60899353 163.31199646 123.75000000 -0.182894 0.720816 0.668561 0.000000
182.54899597 136.61700439 150.00000000 -0.655400 -0.297909 0.694047 0.000000
159.38699341 133.47700500 191.25000000 -0.155720 0.760458 -0.630440 0.000000
146.03900146 165.66799927 198.75000000 -0.000978 -0.000978 -0.999999 0.000000
261.45700073 135.04699707 163.75000000 -0.629367 0.129444 -0.766251 0.000000
189.22300720 166.84599304 190.00000000 -0.166280 -0.684952 -0.709360 0.000000
131.90600586 207.28100586 118.75000000 -0.546923 -0.443855 0.709836 0.000000
152.32000732 168.80900574 121.25000000 0.860973 0.431249 0.269721 0.000000
182.94099426 179.01600647 141.25000000 -0.422882 -0.895598 0.138113 0.000000
107.56600189 227.69500732 96.25000000 -0.656364 -0.420406 0.626454 0.000000
158.20899963 169.59399414 132.50000000 0.470333 -0.377229 0.797800 0.000000
138.97300720 133.47700500 191.25000000 0.054313 0.380188 -0.923313 0.000000
200.21499634 123.66200256 122.50000000 -0.125155 -0.566876 0.814241 0.000000
180.58599854 181.37100220 143.75000000 -0.498192 -0.859991 0.110550 0.000000
246.53900146 116.98799896 168.75000000 -0.953933 -0.001225 -0.300017 0.000000
134.26199341 137.40199280 111.25000000 -0.699950 -0.604427 0.380443 0.000000
130.33599854 242.61300659 171.25000000 -0.172254 -0.629565 -0.757612 0.000000
135.04699707 144.07600403 122.50000000 -0.822064 -0.542532 0.172829 0.000000
232.40600586 138.97300720 176.25000000 -0.000978 -0.000978 -0.999999 0.000000
161.74200439 194.71899414 128.75000000 -0.453524 -0.463348 0.761331 0.000000
172.34199524 127.98000336 147.50000000 0.087710 -0.964813 -0.247877 0.000000
201.78500366 168.80900574 181.25000000 0.258278 -0.632226 -0.730467 0.000000
226.12500000 99.32219696 162.50000000 -0.001225 0.953933 -0.300017 0.000000
265.38299561 146.82400513 161.25000000 -0.389376 0.105943 -0.914966 0.000000
127.19499969 244.18400574 123.75000000 -0.809857 0.017936 0.586353 0.000000
215.91799927 105.99600220 116.25000000 0.001380 0.727510 0.686096 0.000000
210.42199707 138.97300720 138.75000000 -0.427934 -0.337018 0.838625 0.000000
117.77300262 247.71699524 112.50000000 -0.236038 -0.532243 0.813021 0.000000
99.71479797 213.56199646 181.25000000 0.472082 -0.403947 -0.783559 0.000000
102.85500336 194.71899414 78.75000000 -0.604262 -0.503271 0.617727 0.000000
113.84799957 206.49600220 98.75000000 -0.806450 -0.157101 0.570051 0.000000
96.57420349 147.60899353 106.25000000 0.885432 0.443434 0.139201 0.000000
184.90400696 136.61700439 152.50000000 -0.683981 -0.341174 0.644803 0.000000
100.50000000 195.50399780 78.75000000 -0.581764 -0.302902 0.754851 0.000000
247.32400513 151.53500366 171.25000000 -0.992801 0.096224 0.071319 0.000000
102.06999969 195.50399780 78.75000000 -0.604262 -0.503271 0.617727 0.000000
88.72260284 153.10499573 168.75000000 0.794933 0.244236 -0.555364 0.000000
263.81201172 122.48400116 161.25000000 -0.827271 0.473843 -0.301821 0.000000
82.04879761 174.30499268 122.50000000 0.955094 0.006146 0.296239 0.000000
123.26899719 259.10101318 126.25000000 -0.571369 -0.628674 0.527547 0.000000
101.28500366 232.01400757 100.00000000 0.531637 -0.682576 0.501450 0.000000
174.30499268 178.22999573 126.25000000 -0.507180 -0.418547 0.753384 0.000000
154.67599487 127.98000336 188.75000000 -0.049537 0.413698 -0.909065 0.000000
247.32400513 139.75799561 153.75000000 -0.447771 -0.230670 0.863882 0.000000
104.42600250 123.26899719 141.25000000 0.703145 0.697122 0.140027 0.000000
175.87500000 186.86700439 176.25000000 -0.786527 -0.617292 0.018033 0.000000
120.91400146 124.83999634 176.25000000 0.283711 0.671610 -0.684433 0.000000
146.82400513 181.37100220 198.75000000 -0.000978 -0.000978 -0.999999 0.000000
116.20300293 226.91000366 108.75000000 -0.859475 -0.071506 0.506151 0.000000
177.83799744 137.40199280 160.00000000 -0.558352 -0.283130 0.779795 0.000000
211.60000610 169.59399414 155.00000000 -0.716530 -0.357449 -0.599012 0.000000
128.76600647 117.38099670 100.00000000 0.322085 0.930003 0.177077 0.000000
255.96099854 132.69099426 168.75000000 -0.772929 0.335847 -0.538319 0.000000
175.87500000 127.98000336 148.75000000 0.087415 -0.951128 -0.296167 0.000000
183.33399963 161.74200439 155.00000000 -0.518584 -0.854220 -0.037140 0.000000
89.50779724 197.85899353 78.75000000 0.859467 -0.344095 0.378042 0.000000
177.44500732 195.11099243 177.50000000 -0.909199 -0.303066 -0.285497 0.000000
105.99600220 232.01400757 97.50000000 -0.627328 -0.417664 0.657280 0.000000
255.17599487 131.90600586 168.75000000 -0.772929 0.335847 -0.538319 0.000000
237.11700439 163.31199646 163.75000000 -0.014848 -0.985692 0.167899 0.000000
263.81201172 125.62500000 158.75000000 -0.860831 -0.034214 0.507740 0.000000
141.72099304 233.19099426 135.00000000 -0.661003 -0.247679 0.708330 0.000000
207.28100586 177.44500732 166.25000000 -0.916961 -0.391435 0.077204 0.000000
200.21499634 138.18699646 136.25000000 -0.372045 -0.491229 0.787576 0.000000
208.45899963 145.25399780 140.00000000 -0.279835 -0.314998 0.906901 0.000000
135.83200073 179.80099487 113.75000000 -0.420388 0.194814 0.886184 0.000000
175.08999634 130.33599854 156.25000000 0.006739 -0.521602 0.853162 0.000000
113.06199646 151.53500366 191.25000000 0.319178 0.371102 -0.872014 0.000000
123.26899719 175.87500000 198.75000000 -0.000978 -0.000978 -0.999999 0.000000
107.56600189 212.77699280 91.25000000 -0.758656 -0.222768 0.612222 0.000000
113.45500183 165.66799927 85.00000000 -0.768617 -0.041050 0.638391 0.000000
232.40600586 98.53710175 137.50000000 0.001116 0.987889 0.155160 0.000000
219.84399414 104.42600250 176.25000000 -0.164178 0.395455 -0.903693 0.000000
187.65199280 100.89299774 142.50000000 0.118005 0.991012 0.063012 0.000000
150.75000000 223.76899719 178.75000000 -0.493475 -0.424618 -0.759066 0.000000
169.98599243 219.84399414 170.00000000 -0.447200 -0.556922 -0.699893 0.000000
131.12100220 214.34800720 188.75000000 -0.112534 -0.565594 -0.816969 0.000000
182.94099426 179.01600647 178.75000000 -0.480478 -0.802926 -0.352776 0.000000
197.07400513 122.48400116 121.25000000 0.334053 -0.933986 0.126804 0.000000
118.55899811 116.20300293 123.75000000 0.628626 0.665116 0.403050 0.000000
220.23599243 138.18699646 142.50000000 -0.548901 -0.121490 0.827011 0.000000
124.05500031 261.45700073 153.75000000 0.240889 -0.794157 -0.557931 0.000000
168.80900574 180.19299316 192.50000000 -0.894193 0.033515 -0.446426 0.000000
262.24200439 124.05500031 163.75000000 -0.535203 0.140067 -0.833030 0.000000
176.66000366 102.85500336 168.75000000 0.056506 0.877911 -0.475478 0.000000
183.72700500 101.28500366 136.25000000 -0.001073 0.994569 0.104070 0.000000
149.17999268 233.97599792 141.25000000 -0.556773 -0.144019 0.818085 0.000000
158.60200500 224.55499268 146.25000000 -0.739351 -0.352613 0.573606 0.000000
99.32219696 193.93400574 187.50000000 0.438103 -0.019854 -0.898706 0.000000
155.46099854 175.08999634 136.25000000 0.173835 -0.578947 0.796619 0.000000
185.29699707 137.40199280 158.75000000 0.599154 -0.511390 0.616031 0.000000
195.50399780 114.63300323 183.75000000 0.500262 0.447429 -0.741313 0.000000
187.65199280 101.28500366 136.25000000 -0.032632 0.991346 0.127153 0.000000
138.97300720 255.96099854 158.75000000 -0.343087 -0.799472 -0.493088 0.000000
186.86700439 137.40199280 133.75000000 0.944898 0.281430 -0.167227 0.000000
220.62899780 157.81599426 151.25000000 -0.347967 -0.468722 0.811923 0.000000
112.27700043 116.98799896 133.75000000 0.634511 0.714829 0.293963 0.000000
133.47700500 110.70700073 163.75000000 -0.183808 0.898778 -0.398010 0.000000
118.55899811 261.45700073 133.75000000 0.200509 -0.800504 0.564792 0.000000
98.92970276 201.78500366 78.75000000 -0.381148 -0.381148 0.842290 0.000000
197.07400513 179.01600647 151.25000000 -0.297156 -0.947435 -0.118596 0.000000
79.69329834 179.80099487 130.00000000 0.976845 0.140975 0.160936 0.000000
189.22300720 116.98799896 183.75000000 -0.282170 0.849594 -0.445613 0.000000
151.53500366 170.37899780 121.25000000 0.860973 0.431249 0.269721 0.000000
121.69899750 160.95700073 198.75000000 0.422781 0.228570 -0.876933 0.000000
91.47070313 154.67599487 110.00000000 0.851742 0.512769 0.107724 0.000000
114.63300323 171.16400146 196.25000000 0.647190 0.282846 -0.707914 0.000000
78.90820313 218.27299500 147.50000000 0.953933 -0.001225 -0.300017 0.000000
93.04100037 138.97300720 147.50000000 0.929223 0.327387 0.171356 0.000000
157.42399597 196.28900146 127.50000000 -0.225568 -0.906640 -0.356544 0.000000
141.32800293 155.46099854 198.75000000 -0.000978 -0.000978 -0.999999 0.000000
111.49199677 239.47300720 103.75000000 -0.435516 -0.344325 0.831725 0.000000
184.11900330 164.88299561 195.00000000 -0.665066 -0.234267 -0.709089 0.000000
127.19499969 241.04299927 173.75000000 -0.195678 -0.624012 -0.756518 0.000000
114.23999786 116.20300293 157.50000000 0.690320 0.690320 -0.216602 0.000000
155.85299683 105.21099854 115.00000000 0.073055 0.931125 0.357308 0.000000
105.99600220 172.73399353 191.25000000 0.365783 -0.019252 -0.930501 0.000000
92.64839935 203.35499573 78.75000000 0.342451 -0.519304 0.782975 0.000000
225.33999634 106.38899994 175.00000000 -0.349585 0.343479 -0.871672 0.000000
160.95700073 134.26199341 191.25000000 -0.170464 0.499535 -0.849357 0.000000
87.15229797 165.27499390 105.00000000 0.947041 0.286941 0.144144 0.000000
102.06999969 209.63699341 186.25000000 0.808671 -0.328870 -0.487745 0.000000
216.70300293 113.06199646 181.25000000 -0.497635 0.487649 -0.717327 0.000000
185.29699707 153.10499573 161.25000000 -0.120205 0.039319 -0.991970 0.000000
208.85200500 112.27700043 181.25000000 -0.224315 0.376791 -0.898727 0.000000
149.17999268 109.92199707 168.75000000 0.482019 0.777398 -0.404117 0.000000
94.21869659 243.39799500 158.75000000 0.632050 -0.471103 -0.615284 0.000000
164.49000549 226.91000366 160.00000000 -0.866268 -0.438407 0.239542 0.000000
125.62500000 143.68400574 191.25000000 0.000978 0.000978 -0.999999 0.000000
208.85200500 157.81599426 138.75000000 -0.640367 0.088980 0.762897 0.000000
112.27700043 260.27899170 137.50000000 0.399821 -0.899235 0.177538 0.000000
259.88699341 145.25399780 158.75000000 0.081902 -0.300306 0.950320 0.000000
96.18160248 131.90600586 147.50000000 0.830717 0.533502 -0.159010 0.000000
192.36300659 138.18699646 188.75000000 -0.511587 0.305685 -0.803017 0.000000
183.72700500 199.42999268 166.25000000 -0.359529 -0.836807 -0.412908 0.000000
218.27299500 105.99600220 176.25000000 -0.148567 0.448586 -0.881305 0.000000
186.86700439 171.16400146 136.25000000 -0.207306 -0.790835 -0.575851 0.000000
180.58599854 119.73600006 117.50000000 0.000000 0.000000 0.000000 0.000000
182.94099426 112.27700043 181.25000000 -0.032509 0.710961 -0.702480 0.000000
118.95099640 182.15600586 197.50000000 0.431249 -0.269721 -0.860973 0.000000
149.17999268 230.05099487 141.25000000 -0.766396 -0.165420 0.620705 0.000000
256.74600220 104.42600250 148.75000000 -0.452678 -0.047579 0.890404 0.000000
109.92199707 186.08200073 191.25000000 -0.000978 -0.000978 -0.999999 0.000000
172.73399353 195.50399780 136.25000000 -0.288368 -0.578328 0.763139 0.000000
120.52100372 142.11300659 190.00000000 0.272521 0.418677 -0.866281 0.000000
131.90600586 262.24200439 141.25000000 -0.662761 -0.662761 0.348563 0.000000
146.03900146 142.11300659 196.25000000 -0.742271 -0.525021 -0.416396 0.000000
226.91000366 145.25399780 178.75000000 -0.554401 -0.276411 -0.785007 0.000000
88.72260284 167.23800659 88.75000000 0.933570 0.350916 0.072832 0.000000
113.45500183 238.68699646 105.00000000 -0.565639 -0.341976 0.750403 0.000000
89.50779724 206.49600220 176.25000000 -0.000978 -0.000978 -0.999999 0.000000
226.51800537 132.69099426 145.00000000 -0.507452 -0.308265 0.804652 0.000000
137.40199280 103.64099884 151.25000000 0.308898 0.940301 -0.142882 0.000000
153.10499573 190.79299927 123.75000000 -0.379590 -0.376466 0.845095 0.000000
82.83399963 208.85200500 115.00000000 0.959274 -0.220964 0.175977 0.000000
80.08589935 210.42199707 131.25000000 0.953933 -0.001225 0.300017 0.000000
205.71099854 149.17999268 186.25000000 -0.310153 0.930458 -0.195073 0.000000
215.91799927 142.89799500 186.25000000 -0.451119 0.193759 -0.871177 0.000000
100.50000000 224.55499268 176.25000000 0.486983 -0.343283 -0.803122 0.000000
138.97300720 107.56600189 161.25000000 0.103695 0.793051 -0.600265 0.000000
100.89299774 253.60499573 140.00000000 0.690320 -0.690320 0.216602 0.000000
91.86329651 240.64999390 132.50000000 0.751368 -0.587958 0.299586 0.000000
177.44500732 152.32000732 163.75000000 0.313897 -0.384332 -0.868192 0.000000
198.64399719 185.29699707 153.75000000 0.143264 -0.689177 0.710289 0.000000
234.76199341 98.53710175 157.50000000 -0.001073 0.994569 -0.104070 0.000000
84.01170349 212.38499451 112.50000000 0.964593 -0.209581 0.160115 0.000000
181.37100220 163.70500183 152.50000000 -0.592554 -0.790572 -0.154514 0.000000
222.98399353 149.96499634 148.75000000 -0.534699 -0.416243 0.735417 0.000000
171.94900513 112.27700043 178.75000000 -0.001380 0.727510 -0.686096 0.000000
172.73399353 133.47700500 191.25000000 0.085862 0.635957 -0.766933 0.000000
99.32219696 206.49600220 80.00000000 -0.601424 -0.668063 0.438156 0.000000
117.77300262 255.17599487 161.25000000 0.223813 -0.715262 -0.662048 0.000000
182.15600586 113.06199646 181.25000000 -0.032509 0.710961 -0.702480 0.000000
244.57600403 103.64099884 137.50000000 -0.729090 0.107959 0.675850 0.000000
184.51199341 197.85899353 168.75000000 -0.325824 -0.933479 -0.149852 0.000000
84.79689789 168.02299500 171.25000000 0.846861 0.001346 -0.531813 0.000000
102.85500336 172.73399353 191.25000000 0.409241 -0.072059 -0.909576 0.000000
125.23200226 179.80099487 102.50000000 -0.806710 -0.075943 0.586047 0.000000
136.61700439 201.78500366 118.75000000 -0.569418 -0.266570 0.777627 0.000000
115.02500153 131.90600586 87.50000000 0.496219 0.780696 0.379842 0.000000
204.14100647 180.58599854 176.25000000 -0.200866 -0.511982 0.835181 0.000000
94.21869659 207.67399597 80.00000000 0.700660 -0.441033 0.560861 0.000000
94.61129761 208.06599426 80.00000000 0.668452 -0.564583 0.484167 0.000000
157.81599426 169.59399414 123.75000000 0.846861 -0.001346 -0.531813 0.000000
125.62500000 255.17599487 161.25000000 -0.303628 -0.532542 -0.790069 0.000000
86.36720276 155.46099854 166.25000000 0.727510 -0.001380 -0.686096 0.000000
78.51560211 215.13299561 146.25000000 0.953933 -0.001225 -0.300017 0.000000
157.81599426 156.24600220 143.75000000 0.608080 0.362226 -0.706422 0.000000
116.20300293 260.27899170 152.50000000 0.144443 -0.890972 -0.430470 0.000000
169.59399414 208.45899963 147.50000000 -0.648789 -0.561161 0.513976 0.000000
138.97300720 235.54699707 133.75000000 -0.677385 -0.308784 0.667684 0.000000
106.78099823 240.64999390 105.00000000 0.320884 -0.783850 0.531613 0.000000
95.78900146 208.85200500 78.75000000 -0.362413 -0.908198 -0.209362 0.000000
201.78500366 169.59399414 181.25000000 -0.139993 -0.078820 -0.987010 0.000000
82.83399963 228.47999573 142.50000000 0.953933 0.001225 0.300017 0.000000
171.16400146 146.03900146 136.25000000 -0.133051 -0.524893 0.840705 0.000000
137.00999451 130.33599854 102.50000000 -0.708486 -0.705724 -0.001381 0.000000
256.74600220 152.32000732 161.25000000 -0.179995 -0.154464 0.971464 0.000000
165.66799927 127.19499969 128.75000000 0.294707 -0.562334 0.772611 0.000000
135.83200073 135.04699707 191.25000000 0.327597 0.361118 -0.873083 0.000000
137.79499817 189.22300720 115.00000000 -0.588374 -0.375314 0.716210 0.000000
129.15800476 110.70700073 120.00000000 0.387580 0.851431 0.353336 0.000000
86.36720276 178.22999573 88.75000000 0.971708 0.174474 0.159192 0.000000
102.85500336 228.47999573 93.75000000 -0.485748 -0.324359 0.811690 0.000000
159.38699341 164.09800720 198.75000000 -0.242065 -0.106304 -0.964419 0.000000
105.21099854 122.09200287 147.50000000 0.707106 0.707106 -0.001384 0.000000
259.10101318 129.55099487 163.75000000 -0.520595 0.126868 -0.844326 0.000000
121.69899750 172.73399353 96.25000000 -0.810494 -0.219925 0.542893 0.000000
131.90600586 171.94900513 111.25000000 -0.646258 0.230024 0.727627 0.000000
200.21499634 99.32219696 150.00000000 0.000000 0.000000 0.000000 0.000000
128.76600647 135.83200073 191.25000000 0.145744 0.448776 -0.881679 0.000000
166.84599304 186.86700439 127.50000000 -0.317408 -0.250738 0.914540 0.000000
196.28900146 123.26899719 186.25000000 0.000978 0.000978 -0.999999 0.000000
254.39100647 123.26899719 156.25000000 -0.719141 -0.143225 0.679943 0.000000
82.83399963 204.92599487 110.00000000 0.999999 0.000978 0.000978 0.000000
171.55700684 211.99200439 155.00000000 -0.805482 -0.512293 0.297918 0.000000
240.64999390 112.27700043 145.00000000 -0.949333 -0.188780 0.251254 0.000000
150.75000000 191.97099304 122.50000000 -0.264454 -0.347189 0.899736 0.000000
213.56199646 100.50000000 168.75000000 -0.121677 0.928300 -0.351360 0.000000
263.02700806 133.47700500 163.75000000 -0.629367 0.129444 -0.766251 0.000000
156.24600220 236.33200073 168.75000000 -0.415362 0.001294 -0.909655 0.000000
211.99200439 154.67599487 186.25000000 -0.000978 -0.000978 -0.999999 0.000000
248.10899353 98.14450073 146.25000000 -0.522524 0.818468 0.238912 0.000000
211.99200439 164.49000549 165.00000000 -0.169342 -0.736867 0.654485 0.000000
109.92199707 230.05099487 178.75000000 0.373736 -0.509640 -0.774976 0.000000
101.28500366 234.76199341 103.75000000 0.590428 -0.644256 0.486136 0.000000
220.62899780 115.02500153 117.50000000 -0.617093 -0.779099 -0.110458 0.000000
121.69899750 226.91000366 116.25000000 -0.746084 -0.189213 0.638402 0.000000
200.21499634 130.72799683 130.00000000 0.082979 -0.694404 0.714785 0.000000
123.26899719 250.46499634 118.75000000 -0.717683 -0.255071 0.647974 0.000000
116.20300293 242.61300659 171.25000000 -0.034596 -0.334430 -0.941785 0.000000
135.04699707 112.66999817 167.50000000 0.163364 0.810823 -0.562031 0.000000
209.63699341 162.52699280 183.75000000 0.678474 -0.507599 -0.531052 0.000000
233.97599792 114.63300323 138.75000000 -0.500555 -0.534037 0.681358 0.000000
226.12500000 161.74200439 178.75000000 0.184063 -0.163468 -0.969226 0.000000
208.85200500 160.17199707 138.75000000 -0.731682 0.026683 0.681124 0.000000
131.90600586 104.81800079 150.00000000 0.159568 0.966491 -0.201082 0.000000
180.58599854 128.76600647 126.25000000 0.023598 -0.598277 0.800942 0.000000
168.80900574 127.98000336 126.25000000 0.637652 -0.395841 0.660840 0.000000
117.38099670 201.00000000 192.50000000 0.227708 -0.316500 -0.920857 0.000000
144.46899414 171.16400146 146.25000000 0.792753 0.374668 -0.480797 0.000000
86.75969696 226.12500000 165.00000000 0.876246 -0.146282 -0.459124 0.000000
142.89799500 140.93600464 127.50000000 -0.393543 -0.043727 0.918266 0.000000
98.14450073 249.67999268 156.25000000 0.576229 -0.723980 -0.379228 0.000000
135.83200073 166.45300293 201.25000000 0.016052 0.084540 -0.996291 0.000000
157.03100586 218.27299500 178.75000000 -0.832692 -0.479147 -0.277564 0.000000
115.41799927 190.79299927 196.25000000 0.277052 0.232049 -0.932414 0.000000
157.03100586 125.62500000 186.25000000 0.029532 0.648304 -0.760808 0.000000
107.95899963 251.25000000 122.50000000 0.541015 -0.719699 0.435128 0.000000
152.71299744 158.60200500 137.50000000 0.747761 0.662302 -0.047002 0.000000
217.48800659 153.89100647 183.75000000 -0.594110 -0.296254 -0.747842 0.000000
208.06599426 174.30499268 146.25000000 -0.853492 -0.491315 0.173667 0.000000
91.86329651 149.96499634 133.75000000 0.777566 0.592063 0.211782 0.000000
150.75000000 212.77699280 133.75000000 -0.299798 -0.491292 0.817773 0.000000
204.92599487 171.16400146 181.25000000 0.401060 -0.348002 -0.847376 0.000000
143.68400574 208.06599426 188.75000000 -0.288706 -0.330161 -0.898689 0.000000
215.91799927 156.63900757 147.50000000 -0.766804 -0.371243 0.523632 0.000000
158.60200500 169.59399414 148.75000000 -0.953933 -0.001225 -0.300017 0.000000
110.70700073 186.08200073 86.25000000 -0.729461 -0.328338 0.600067 0.000000
129.55099487 121.69899750 176.25000000 -0.100915 0.606952 -0.788306 0.000000
134.26199341 135.04699707 106.25000000 -0.772334 -0.584342 0.249089 0.000000
174.69700623 188.43699646 175.00000000 -0.814384 -0.580128 0.015158 0.000000
170.37899780 118.55899811 181.25000000 0.258405 0.909526 -0.325561 0.000000
139.36500549 127.98000336 105.00000000 -0.667748 -0.733477 0.126977 0.000000
141.32800293 102.85500336 153.75000000 0.356876 0.891443 -0.279229 0.000000
121.69899750 142.11300659 191.25000000 0.155732 0.410046 -0.898671 0.000000
136.61700439 243.39799500 133.75000000 -0.583578 -0.147760 0.798501 0.000000
155.46099854 166.45300293 133.75000000 0.810592 -0.414090 0.414090 0.000000
137.40199280 257.53100586 143.75000000 -0.535713 -0.714836 0.449468 0.000000
133.47700500 222.19900513 126.25000000 -0.371566 -0.162472 0.914080 0.000000
181.37100220 178.22999573 131.25000000 -0.405868 -0.631166 0.660985 0.000000
116.59600067 254.39100647 120.00000000 0.690320 -0.690320 0.216602 0.000000
208.85200500 133.47700500 136.25000000 -0.580888 -0.496701 0.644870 0.000000
127.98000336 250.07200623 125.00000000 -0.832768 -0.191251 0.519539 0.000000
138.97300720 109.92199707 166.25000000 0.341975 0.884314 -0.317871 0.000000
125.62500000 247.32400513 121.25000000 -0.844562 -0.098938 0.526238 0.000000
121.69899750 254.78300476 120.00000000 -0.627822 -0.421323 0.654467 0.000000
126.41000366 207.28100586 191.25000000 0.016637 -0.359615 -0.932952 0.000000
197.46699524 183.72700500 160.00000000 0.914246 -0.345892 0.210980 0.000000
126.41000366 170.37899780 103.75000000 -0.847881 0.105085 0.519669 0.000000
210.42199707 165.66799927 166.25000000 -0.051135 -0.186703 -0.981085 0.000000
104.42600250 142.50599670 82.50000000 0.702740 0.702740 0.110959 0.000000
108.74400330 118.55899811 145.00000000 0.705724 0.708486 -0.001381 0.000000
120.91400146 170.37899780 198.75000000 0.096626 0.076164 -0.992402 0.000000
121.69899750 138.18699646 86.25000000 -0.824777 -0.425845 0.372020 0.000000
136.61700439 132.69099426 108.75000000 -0.787454 -0.570011 0.234528 0.000000
98.14450073 231.62100220 171.25000000 0.638360 -0.199391 -0.743465 0.000000
82.83399963 202.57000732 110.00000000 0.985228 -0.040712 0.166337 0.000000
207.28100586 170.37899780 138.75000000 -0.675027 -0.318898 0.665314 0.000000
102.06999969 212.77699280 183.75000000 0.508811 -0.429772 -0.745927 0.000000
158.60200500 148.39399719 198.75000000 0.645945 -0.645945 -0.406829 0.000000
100.50000000 239.47300720 111.25000000 0.516247 -0.775179 0.364124 0.000000
164.88299561 204.14100647 136.25000000 -0.597644 -0.489900 0.634681 0.000000
138.18699646 113.06199646 103.75000000 0.246498 0.908690 0.336930 0.000000
186.86700439 116.20300293 183.75000000 0.130326 0.696568 -0.705556 0.000000
212.77699280 106.78099823 178.75000000 -0.201554 0.592353 -0.780060 0.000000
191.57800293 107.56600189 176.25000000 0.341174 0.683981 -0.644803 0.000000
155.85299683 99.71479797 152.50000000 0.296926 0.902596 -0.311698 0.000000
117.77300262 246.14599609 170.00000000 -0.003735 -0.327408 -0.944876 0.000000
142.89799500 102.85500336 138.75000000 0.165502 0.984794 0.052820 0.000000
182.94099426 152.32000732 161.25000000 -0.199819 -0.150831 -0.968154 0.000000
111.88500214 129.55099487 102.50000000 0.705176 0.705176 0.073848 0.000000
165.66799927 163.31199646 153.75000000 -0.000978 -0.000978 -0.999999 0.000000
208.45899963 175.87500000 165.00000000 -0.907609 -0.348184 -0.234551 0.000000
223.76899719 113.45500183 177.50000000 -0.597343 0.164836 -0.784863 0.000000
85.97460175 151.53500366 157.50000000 0.788075 0.563357 -0.248127 0.000000
233.19099426 108.74400330 172.50000000 -0.317684 0.317684 -0.893394 0.000000
251.25000000 128.76600647 153.75000000 -0.040476 -0.369510 0.928345 0.000000
138.18699646 139.75799561 121.25000000 -0.764098 -0.489219 0.420499 0.000000
185.29699707 177.05299377 180.00000000 -0.480478 -0.802926 -0.352776 0.000000
119.73600006 117.77300262 120.00000000 0.612011 0.715906 0.336038 0.000000
115.41799927 245.75399780 171.25000000 -0.112225 -0.205535 -0.972194 0.000000
161.35000610 147.60899353 130.00000000 -0.567215 0.197226 0.799605 0.000000
153.10499573 227.69500732 176.25000000 -0.244106 -0.628376 -0.738617 0.000000
248.89399719 107.56600189 161.25000000 -0.317756 0.528528 -0.787204 0.000000
241.82800293 103.64099884 163.75000000 -0.141655 0.857232 -0.495063 0.000000
102.06999969 202.57000732 186.25000000 0.292041 -0.354942 -0.888104 0.000000
230.83599854 117.77300262 138.75000000 -0.429433 -0.366048 0.825588 0.000000
112.27700043 143.68400574 186.25000000 0.526608 0.367816 -0.766417 0.000000
170.37899780 106.38899994 172.50000000 0.175210 0.757211 -0.629232 0.000000
148.39399719 183.72700500 121.25000000 -0.295541 -0.038986 0.954534 0.000000
116.20300293 148.39399719 81.25000000 -0.827557 -0.231839 0.511274 0.000000
176.66000366 128.37300110 147.50000000 0.156132 -0.898120 -0.411101 0.000000
263.81201172 136.61700439 158.75000000 -0.336664 -0.066809 0.939252 0.000000
219.05900574 98.92970276 141.25000000 0.059779 0.996671 0.055431 0.000000
113.45500183 127.98000336 102.50000000 0.717284 0.694284 0.058935 0.000000
97.35929871 219.05900574 176.25000000 0.547885 -0.547885 -0.632175 0.000000
201.78500366 148.39399719 188.75000000 -0.021109 0.992142 0.123323 0.000000
156.24600220 164.88299561 148.75000000 0.000978 0.000978 -0.999999 0.000000
135.83200073 181.37100220 198.75000000 -0.000978 -0.000978 -0.999999 0.000000
91.07810211 232.01400757 117.50000000 0.999999 0.000978 0.000978 0.000000
213.95500183 137.40199280 140.00000000 -0.380473 -0.337342 0.861070 0.000000
252.03500366 150.75000000 166.25000000 -0.000978 -0.000978 -0.999999 0.000000
107.56600189 124.05500031 166.25000000 0.738392 0.673447 -0.035296 0.000000
153.49800110 189.22300720 122.50000000 -0.262055 -0.384847 0.884997 0.000000
146.03900146 133.47700500 128.75000000 -0.294939 -0.260410 0.919346 0.000000
260.67199707 146.03900146 163.75000000 -0.616347 -0.369808 -0.695240 0.000000
170.37899780 210.02900696 175.00000000 -0.640381 -0.325865 -0.695503 0.000000
179.80099487 202.57000732 158.75000000 -0.757017 -0.606554 0.242935 0.000000
197.46699524 157.03100586 137.50000000 -0.185507 0.383956 0.904525 0.000000
90.68550110 155.46099854 112.50000000 0.851742 0.512769 0.107724 0.000000
119.34400177 247.32400513 113.75000000 -0.509049 -0.414114 0.754572 0.000000
210.42199707 161.74200439 141.25000000 -0.825025 0.029119 0.564345 0.000000
160.95700073 200.60699463 132.50000000 -0.311680 -0.465171 0.828536 0.000000
143.68400574 182.94099426 198.75000000 -0.000978 -0.000978 -0.999999 0.000000
78.90820313 217.48800659 155.00000000 0.774768 -0.458337 -0.435501 0.000000
175.08999634 191.97099304 170.00000000 -0.995188 -0.007515 0.097694 0.000000
157.81599426 186.86700439 193.75000000 -0.337977 -0.406507 -0.848837 0.000000
120.52100372 115.41799927 122.50000000 0.642093 0.652048 0.403175 0.000000
79.69329834 215.91799927 157.50000000 0.953933 -0.001225 -0.300017 0.000000
259.88699341 113.84799957 158.75000000 -0.846816 0.285357 -0.448859 0.000000
182.15600586 150.75000000 151.25000000 -0.443369 0.070006 0.893601 0.000000
115.41799927 261.45700073 148.75000000 0.281066 -0.905004 -0.319327 0.000000
149.96499634 223.76899719 178.75000000 -0.492787 -0.427300 -0.758008 0.000000
114.63300323 153.89100647 81.25000000 -0.683981 -0.341174 0.644803 0.000000
185.68899536 147.60899353 152.50000000 -0.442723 -0.087434 0.892385 0.000000
168.02299500 219.84399414 171.25000000 -0.585199 -0.467824 -0.662331 0.000000
226.91000366 131.51400757 145.00000000 -0.507452 -0.308265 0.804652 0.000000
211.99200439 100.10700226 135.00000000 -0.001174 0.973432 0.228974 0.000000
168.80900574 136.61700439 131.25000000 0.179343 -0.224511 0.957826 0.000000
137.40199280 111.88500214 107.50000000 0.246498 0.908690 0.336930 0.000000
211.20700073 103.24800110 175.00000000 0.048333 0.933994 -0.354003 0.000000
208.85200500 115.41799927 183.75000000 -0.292900 0.383957 -0.875664 0.000000
103.64099884 214.34800720 183.75000000 0.530568 -0.383641 -0.755855 0.000000
138.97300720 257.13900757 145.00000000 -0.606663 -0.686009 0.401687 0.000000
109.52899933 222.98399353 182.50000000 -0.000978 -0.999999 -0.000978 0.000000
252.82000732 119.34400177 153.75000000 -0.662947 -0.688630 0.293751 0.000000
145.25399780 230.83599854 176.25000000 -0.467493 -0.614946 -0.635053 0.000000
179.80099487 148.00199890 195.00000000 -0.206461 0.438172 -0.874859 0.000000
153.10499573 195.11099243 125.00000000 -0.244007 -0.374145 0.894693 0.000000
85.18939972 162.52699280 122.50000000 0.894686 0.368226 0.252878 0.000000
195.50399780 129.55099487 128.75000000 -0.046625 -0.600477 0.798281 0.000000
87.54489899 230.05099487 125.00000000 0.860796 -0.469932 0.195432 0.000000
241.04299927 98.53710175 157.50000000 -0.001225 0.953933 -0.300017 0.000000
129.55099487 182.15600586 106.25000000 -0.732797 0.367214 0.572855 0.000000
78.12300110 209.63699341 137.50000000 0.958981 -0.208244 0.192327 0.000000
114.23999786 157.03100586 82.50000000 -0.700860 -0.366023 0.612227 0.000000
112.27700043 122.48400116 123.75000000 0.695895 0.552377 0.458923 0.000000
83.22650146 202.57000732 168.75000000 0.080643 0.510738 -0.855946 0.000000
107.17400360 120.12899780 147.50000000 0.645419 0.752740 -0.129680 0.000000
248.89399719 112.27700043 166.25000000 -0.402571 0.503621 -0.764396 0.000000
152.32000732 106.38899994 112.50000000 -0.001299 0.905318 0.424733 0.000000
143.68400574 128.37300110 120.00000000 -0.724602 -0.621776 0.297231 0.000000
127.19499969 215.13299561 188.75000000 -0.003458 -0.194785 -0.980840 0.000000
112.27700043 229.26600647 103.75000000 -0.803547 -0.026460 0.594653 0.000000
166.45300293 197.85899353 133.75000000 -0.596065 -0.485247 0.639720 0.000000
183.72700500 180.58599854 156.25000000 0.645945 -0.645945 0.406829 0.000000
156.24600220 208.85200500 133.75000000 -0.521610 -0.672558 0.524965 0.000000
127.98000336 120.12899780 176.25000000 0.233138 0.307514 -0.922541 0.000000
154.67599487 107.17400360 107.50000000 0.103518 0.912341 0.396130 0.000000
241.82800293 108.35199738 138.75000000 0.000978 0.000978 0.999999 0.000000
116.98799896 190.79299927 96.25000000 -0.815840 -0.310871 0.487610 0.000000
90.29290009 210.42199707 91.25000000 0.812514 -0.462703 0.354580 0.000000
92.64839935 154.28300476 102.50000000 0.831055 0.554502 0.043299 0.000000
135.83200073 143.68400574 123.75000000 -0.545668 -0.552426 0.630137 0.000000
131.12100220 193.14799500 196.25000000 -0.061806 -0.143436 -0.987728 0.000000
176.66000366 175.48199463 190.00000000 -0.886050 -0.442309 -0.138848 0.000000
204.92599487 113.06199646 183.75000000 -0.076229 0.367772 -0.926786 0.000000
188.43699646 178.22999573 151.25000000 -0.129542 -0.988486 -0.078192 0.000000
80.08589935 198.64399719 121.25000000 0.986381 -0.064508 0.151300 0.000000
81.26360321 184.51199341 167.50000000 0.930416 -0.070345 -0.359690 0.000000
78.12300110 177.44500732 145.00000000 0.940069 0.267207 0.211827 0.000000
235.54699707 159.38699341 173.75000000 -0.317871 -0.341975 -0.884314 0.000000
79.69329834 220.62899780 152.50000000 0.973408 -0.228828 -0.010671 0.000000
82.44139862 184.51199341 108.75000000 0.977871 0.027262 0.207427 0.000000
114.63300323 204.92599487 98.75000000 -0.805022 -0.233317 0.545437 0.000000
233.58399963 128.76600647 175.00000000 -0.322089 0.257963 -0.910886 0.000000
203.35499573 102.46299744 172.50000000 0.156641 0.862259 -0.481635 0.000000
246.14599609 98.14450073 145.00000000 -0.678190 0.298017 0.671747 0.000000
128.76600647 149.96499634 196.25000000 -0.000978 -0.000978 -0.999999 0.000000
217.48800659 141.32800293 183.75000000 -0.660485 0.136291 -0.738366 0.000000
254.39100647 109.92199707 161.25000000 -0.465711 0.417030 -0.780512 0.000000
257.53100586 108.35199738 148.75000000 -0.220434 -0.282211 0.933684 0.000000
263.02700806 133.47700500 158.75000000 0.000978 0.000978 0.999999 0.000000
236.72500610 108.35199738 130.00000000 -0.691807 -0.688683 0.217068 0.000000
116.20300293 219.05900574 106.25000000 -0.800504 -0.200509 0.564792 0.000000
118.16600037 112.27700043 135.00000000 0.539368 0.812893 0.219742 0.000000
157.81599426 122.87699890 185.00000000 -0.051681 0.532175 -0.845055 0.000000
78.90820313 216.70300293 147.50000000 0.953933 -0.001225 -0.300017 0.000000
169.59399414 186.08200073 128.75000000 -0.550281 -0.526722 0.647885 0.000000
155.46099854 146.82400513 196.25000000 0.248258 0.273794 -0.929196 0.000000
88.72260284 234.36900330 160.00000000 0.661616 -0.641817 -0.387730 0.000000
116.98799896 171.94900513 198.75000000 0.383484 0.096895 -0.918451 0.000000
111.09999847 164.88299561 82.50000000 -0.703381 -0.297770 0.645437 0.000000
88.72260284 171.94900513 178.75000000 0.892258 0.025417 -0.450811 0.000000
226.12500000 129.55099487 143.75000000 -0.507452 -0.308265 0.804652 0.000000
227.69500732 111.88500214 120.00000000 -0.474432 -0.879135 -0.045119 0.000000
91.07810211 243.00599670 152.50000000 0.814097 -0.579503 0.037703 0.000000
106.78099823 124.83999634 166.25000000 0.892718 0.309535 -0.327479 0.000000
255.17599487 101.28500366 153.75000000 0.053746 0.875095 -0.480958 0.000000
138.18699646 154.67599487 198.75000000 -0.000978 -0.000978 -0.999999 0.000000
173.91200256 201.00000000 177.50000000 -0.643608 -0.583113 -0.495730 0.000000
193.93400574 105.99600220 118.75000000 0.111038 0.892521 0.437124 0.000000
151.53500366 160.17199707 198.75000000 -0.000978 -0.000978 -0.999999 0.000000
124.83999634 108.74400330 135.00000000 0.303066 0.909199 0.285497 0.000000
210.42199707 116.20300293 113.75000000 -0.183302 -0.881316 0.435526 0.000000
137.40199280 137.00999451 117.50000000 -0.753059 -0.434773 0.493836 0.000000
236.33200073 103.24800110 125.00000000 -0.486051 0.764261 0.423862 0.000000
131.90600586 118.55899811 173.75000000 0.158944 0.646374 -0.746282 0.000000
241.04299927 98.92970276 136.25000000 -0.277047 0.888048 0.366900 0.000000
257.53100586 117.77300262 163.75000000 0.314656 0.943968 0.099575 0.000000
176.66000366 172.34199524 127.50000000 -0.489392 0.219696 0.843937 0.000000
142.11300659 106.78099823 161.25000000 0.103695 0.793051 -0.600265 0.000000
184.51199341 142.11300659 191.25000000 -0.261126 0.325314 -0.908837 0.000000
103.64099884 138.58000183 102.50000000 0.753421 0.646427 0.120369 0.000000
119.73600006 125.62500000 92.50000000 0.589059 0.746356 0.309778 0.000000
192.36300659 155.06799316 145.00000000 0.445762 -0.616052 0.649443 0.000000
219.05900574 102.06999969 126.25000000 0.089378 0.935133 0.342838 0.000000
193.14799500 157.42399597 142.50000000 0.648918 -0.756345 -0.082748 0.000000
78.12300110 177.44500732 152.50000000 0.992502 0.117225 -0.034609 0.000000
175.48199463 208.85200500 160.00000000 0.000978 0.000978 0.999999 0.000000
250.07200623 118.55899811 152.50000000 -0.967901 0.192546 0.161532 0.000000
109.13700104 170.37899780 81.25000000 -0.749078 0.026703 0.661943 0.000000
171.94900513 157.03100586 198.75000000 -0.242717 0.305910 -0.920602 0.000000
136.61700439 245.75399780 133.75000000 -0.727510 -0.001380 0.686096 0.000000
149.17999268 239.47300720 143.75000000 -0.750057 -0.243729 0.614826 0.000000
120.12899780 257.53100586 158.75000000 0.461560 -0.774702 -0.432202 0.000000
123.26899719 237.90199280 176.25000000 -0.166082 -0.732895 -0.659758 0.000000
179.01600647 182.94099426 176.25000000 -0.705176 -0.705176 -0.073848 0.000000
113.84799957 127.98000336 98.75000000 0.717284 0.694284 0.058935 0.000000
102.06999969 146.82400513 181.25000000 -0.554033 0.473690 -0.684591 0.000000
100.50000000 227.69500732 176.25000000 0.288727 -0.407884 -0.866180 0.000000
109.92199707 171.94900513 81.25000000 -0.717063 0.064925 0.693978 0.000000
245.75399780 107.56600189 163.75000000 -0.637534 0.355643 -0.683424 0.000000
173.91200256 164.09800720 197.50000000 -0.208650 -0.005828 -0.977973 0.000000
218.27299500 111.49199677 178.75000000 -0.502015 0.559100 -0.659839 0.000000
109.13700104 172.73399353 81.25000000 -0.737090 -0.018182 0.675550 0.000000
235.93899536 131.90600586 147.50000000 -0.382387 -0.271420 0.883239 0.000000
218.27299500 136.61700439 141.25000000 -0.350896 -0.329629 0.876480 0.000000
230.05099487 139.36500549 147.50000000 -0.489716 -0.216809 0.844495 0.000000
169.59399414 144.46899414 133.75000000 -0.366606 -0.562129 0.741358 0.000000
194.71899414 178.22999573 168.75000000 0.854037 -0.509551 0.104781 0.000000
160.95700073 221.41400146 148.75000000 -0.760451 -0.423563 0.492249 0.000000
86.75969696 163.31199646 115.00000000 0.887778 0.438885 0.138671 0.000000
161.74200439 138.18699646 193.75000000 -0.435381 0.544640 -0.716806 0.000000
138.97300720 204.92599487 191.25000000 -0.188663 -0.341863 -0.920617 0.000000
252.03500366 149.96499634 158.75000000 -0.505545 -0.269105 0.819760 0.000000
266.16799927 138.18699646 163.75000000 0.342561 -0.414515 0.843107 0.000000
110.70700073 215.91799927 186.25000000 0.171645 -0.134058 -0.975995 0.000000
237.11700439 102.06999969 126.25000000 -0.655928 0.675460 0.336916 0.000000
94.21869659 175.48199463 185.00000000 0.383405 0.255106 -0.887649 0.000000
110.70700073 154.67599487 191.25000000 0.298618 0.402752 -0.865227 0.000000
109.92199707 175.08999634 81.25000000 -0.800766 -0.052440 0.596677 0.000000
124.05500031 230.83599854 121.25000000 -0.487420 0.080066 0.869489 0.000000
120.12899780 239.47300720 116.25000000 -0.772967 0.097899 0.626848 0.000000
130.33599854 116.59600067 102.50000000 0.359901 0.909147 0.209581 0.000000
123.26899719 209.63699341 191.25000000 -0.045218 -0.480952 -0.875580 0.000000
255.17599487 149.96499634 161.25000000 -0.275227 -0.184854 0.943440 0.000000
87.15229797 158.60200500 123.75000000 0.834952 0.497907 0.234399 0.000000
108.35199738 176.66000366 81.25000000 -0.832537 -0.114783 0.541948 0.000000
87.15229797 213.56199646 103.75000000 0.899028 -0.276966 0.339172 0.000000
171.94900513 140.93600464 132.50000000 -0.244676 -0.497046 0.832514 0.000000
110.70700073 191.57800293 88.75000000 -0.724525 -0.240461 0.645943 0.000000
185.29699707 172.73399353 186.25000000 -0.379162 -0.592543 -0.710724 0.000000
241.04299927 150.75000000 156.25000000 -0.479310 -0.623944 0.617217 0.000000
98.92970276 243.39799500 121.25000000 0.364385 -0.733673 0.573539 0.000000
94.21869659 197.85899353 183.75000000 0.799835 -0.600218 -0.001367 0.000000
209.63699341 159.38699341 138.75000000 -0.682818 -0.098385 0.723934 0.000000
115.41799927 206.49600220 101.25000000 -0.802346 -0.227254 0.551903 0.000000
119.73600006 161.74200439 92.50000000 -0.701803 -0.241294 0.670261 0.000000
154.67599487 154.67599487 198.75000000 -0.000978 -0.000978 -0.999999 0.000000
271.27099609 143.68400574 162.50000000 -0.347839 -0.267910 -0.898461 0.000000
255.17599487 153.89100647 166.25000000 -0.000978 -0.000978 -0.999999 0.000000
135.04699707 131.12100220 188.75000000 0.120116 0.513747 -0.849492 0.000000
138.97300720 188.43699646 198.75000000 -0.000978 -0.000978 -0.999999 0.000000
167.23800659 222.59199524 162.50000000 -0.827377 -0.560391 0.037545 0.000000
195.50399780 167.23800659 181.25000000 0.332485 0.086102 -0.939170 0.000000
211.20700073 127.98000336 186.25000000 -0.001372 0.621510 -0.783405 0.000000
188.43699646 175.08999634 131.25000000 0.518602 -0.260079 -0.814500 0.000000
86.36720276 180.58599854 81.25000000 0.989542 0.019138 0.142971 0.000000
124.05500031 204.14100647 193.75000000 -0.017387 -0.472113 -0.881367 0.000000
85.97460175 180.58599854 82.50000000 0.989542 0.019138 0.142971 0.000000
203.74800110 102.85500336 125.00000000 -0.690320 0.690320 -0.216602 0.000000
201.00000000 177.44500732 141.25000000 -0.497697 -0.822215 0.276152 0.000000
144.46899414 187.65199280 198.75000000 0.162146 -0.172360 -0.971597 0.000000
79.69329834 182.94099426 130.00000000 0.975787 0.129019 0.176619 0.000000
128.37300110 225.33999634 122.50000000 -0.790629 -0.221252 0.570924 0.000000
123.26899719 114.23999786 120.00000000 0.313869 0.944257 -0.099326 0.000000
207.28100586 144.46899414 186.25000000 -0.000978 -0.000978 -0.999999 0.000000
109.13700104 180.97799683 82.50000000 0.314999 -0.317984 0.894238 0.000000
78.51560211 188.43699646 131.25000000 0.971343 0.136217 0.194778 0.000000
101.67800140 142.11300659 95.00000000 0.690320 0.690320 0.216602 0.000000
108.74400330 245.75399780 167.50000000 0.163364 -0.810823 -0.562031 0.000000
152.32000732 247.32400513 161.25000000 -0.801027 -0.570864 -0.180193 0.000000
122.48400116 117.38099670 170.00000000 0.580392 0.667367 -0.466655 0.000000
231.62100220 98.53710175 137.50000000 0.001116 0.987889 0.155160 0.000000
213.56199646 104.42600250 121.25000000 0.705176 0.705176 0.073848 0.000000
222.98399353 149.57200623 147.50000000 -0.455466 -0.237568 0.857970 0.000000
99.71479797 159.38699341 186.25000000 0.647506 0.446729 -0.617389 0.000000
162.52699280 133.47700500 191.25000000 -0.060663 0.557255 -0.828123 0.000000
98.14450073 246.53900146 128.75000000 0.404459 -0.810518 0.423643 0.000000
99.71479797 207.28100586 183.75000000 0.813040 -0.361174 -0.456639 0.000000
206.88900757 177.44500732 175.00000000 -0.786820 -0.433157 -0.439646 0.000000
237.90199280 102.06999969 128.75000000 -0.724477 0.485748 0.489063 0.000000
153.10499573 100.10700226 140.00000000 0.153696 0.979968 0.126646 0.000000
147.60899353 177.44500732 121.25000000 -0.526740 0.057285 0.848094 0.000000
244.96899414 144.86099243 155.00000000 -0.230877 -0.293199 0.927756 0.000000
148.39399719 106.38899994 117.50000000 0.238796 0.959144 0.151722 0.000000
98.92970276 216.30999756 180.00000000 0.426536 -0.192015 -0.883854 0.000000
159.38699341 228.47999573 151.25000000 -0.838346 -0.394793 0.375919 0.000000
233.97599792 120.12899780 173.75000000 -0.158997 -0.322142 -0.933244 0.000000
102.46299744 137.40199280 122.50000000 0.888397 0.417122 0.191730 0.000000
114.23999786 183.72700500 90.00000000 -0.803923 -0.177136 0.567742 0.000000
102.06999969 190.79299927 188.75000000 0.556473 -0.199720 -0.806505 0.000000
173.51899719 140.54299927 191.25000000 -0.125206 0.578892 -0.805735 0.000000
208.06599426 103.24800110 122.50000000 -0.078050 0.972534 0.219285 0.000000
118.55899811 216.70300293 108.75000000 -0.781781 -0.300930 0.546132 0.000000
118.55899811 242.61300659 171.25000000 -0.003735 -0.327408 -0.944876 0.000000
86.36720276 216.70300293 168.75000000 0.749730 -0.079758 -0.656920 0.000000
116.98799896 124.44699860 102.50000000 0.707106 0.707106 -0.001384 0.000000
153.89100647 148.39399719 128.75000000 0.000978 0.000978 0.999999 0.000000
233.19099426 142.89799500 148.75000000 0.222137 -0.607381 0.762721 0.000000
151.53500366 217.88099670 182.50000000 -0.531639 -0.332475 -0.778987 0.000000
120.12899780 231.62100220 178.75000000 -0.063996 -0.330429 -0.941659 0.000000
127.19499969 114.63300323 168.75000000 -0.001225 0.953933 -0.300017 0.000000
84.01170349 166.45300293 123.75000000 0.953510 0.211741 0.214439 0.000000
176.26800537 151.53500366 145.00000000 -0.690320 -0.690320 0.216602 0.000000
127.98000336 231.22799683 180.00000000 -0.009549 -0.552469 -0.833478 0.000000
87.54489899 156.24600220 127.50000000 0.882685 0.447822 0.142554 0.000000
111.49199677 128.76600647 176.25000000 0.499503 0.590321 -0.634049 0.000000
76.94529724 203.35499573 146.25000000 0.994569 -0.001073 0.104070 0.000000
253.60499573 99.71479797 146.25000000 -0.489413 0.342748 0.801872 0.000000
263.02700806 122.48400116 158.75000000 -0.928523 0.231068 0.290607 0.000000
82.44139862 196.28900146 108.75000000 0.953933 0.001225 0.300017 0.000000
119.34400177 129.55099487 181.25000000 0.261573 0.714967 -0.648384 0.000000
193.93400574 178.22999573 158.75000000 -0.690320 -0.690320 -0.216602 0.000000
169.20100403 204.14100647 142.50000000 -0.615765 -0.534788 0.578650 0.000000
83.61910248 213.56199646 115.00000000 0.961307 -0.159122 0.224875 0.000000
258.31600952 110.70700073 153.75000000 -0.707465 0.619642 0.339908 0.000000
77.73040009 210.81399536 155.00000000 0.957246 -0.185059 -0.222337 0.000000
232.40600586 155.46099854 176.25000000 -0.398582 -0.003870 -0.917125 0.000000
123.26899719 166.45300293 98.75000000 -0.814839 -0.189674 0.547778 0.000000
176.26800537 135.04699707 157.50000000 -0.874665 -0.130697 0.466775 0.000000
180.58599854 171.94900513 143.75000000 -0.354559 -0.622520 -0.697680 0.000000
84.40429688 230.83599854 137.50000000 0.909800 -0.380151 0.166583 0.000000
105.99600220 190.79299927 81.25000000 -0.732797 -0.367214 0.572855 0.000000
162.13499451 233.19099426 167.50000000 -0.860973 -0.431249 -0.269721 0.000000
146.03900146 129.55099487 188.75000000 0.085891 0.659465 -0.746812 0.000000
267.73800659 134.65400696 160.00000000 -0.436415 -0.047290 0.898502 0.000000
190.00799561 169.20100403 137.50000000 -0.499627 -0.597197 -0.627478 0.000000
238.68699646 124.05500031 173.75000000 -0.454851 0.090970 -0.885909 0.000000
156.24600220 239.86500549 155.00000000 -0.777725 -0.391298 0.491964 0.000000
149.17999268 101.67800140 135.00000000 0.229763 0.957569 0.173983 0.000000
252.03500366 157.03100586 161.25000000 0.001225 -0.953933 0.300017 0.000000
129.55099487 142.89799500 108.75000000 -0.868681 -0.323266 0.375356 0.000000
119.34400177 174.30499268 198.75000000 -0.000978 -0.000978 -0.999999 0.000000
131.12100220 114.23999786 107.50000000 0.311426 0.780960 0.541402 0.000000
268.52301025 146.03900146 161.25000000 -0.028057 -0.447572 -0.893808 0.000000
110.31400299 178.22999573 195.00000000 0.362912 0.196517 -0.910865 0.000000
234.76199341 121.30699921 145.00000000 -0.276302 0.122948 0.953174 0.000000
148.39399719 239.47300720 171.25000000 -0.320965 -0.312007 -0.894222 0.000000
82.44139862 174.30499268 168.75000000 0.831211 0.168630 -0.529766 0.000000
84.01170349 163.31199646 166.25000000 0.909199 0.303066 -0.285497 0.000000
178.22999573 133.47700500 128.75000000 0.000978 0.000978 0.999999 0.000000
80.47850037 179.01600647 127.50000000 0.976730 0.141319 0.161329 0.000000
76.94529724 204.92599487 146.25000000 0.994569 -0.001073 0.104070 0.000000
104.42600250 193.93400574 81.25000000 -0.779986 -0.348983 0.519454 0.000000
82.44139862 179.80099487 111.25000000 0.988448 0.071019 0.133889 0.000000
198.64399719 109.13700104 181.25000000 0.123896 0.691132 -0.712030 0.000000
251.25000000 120.52100372 150.00000000 -0.967901 0.192546 0.161532 0.000000
212.77699280 138.97300720 186.25000000 -0.000978 -0.000978 -0.999999 0.000000
120.12899780 118.55899811 116.25000000 0.668685 0.715229 0.203243 0.000000
159.38699341 127.19499969 128.75000000 0.173777 -0.500539 0.848093 0.000000
133.47700500 185.29699707 111.25000000 -0.830410 0.384361 0.403342 0.000000
150.75000000 170.37899780 198.75000000 -0.000978 -0.000978 -0.999999 0.000000
100.89299774 134.26199341 130.00000000 0.862866 0.336841 0.376831 0.000000
82.44139862 190.79299927 108.75000000 0.953933 -0.001225 0.300017 0.000000
119.34400177 150.75000000 193.75000000 0.598191 0.249639 -0.761477 0.000000
87.93750000 223.76899719 113.75000000 0.860973 -0.431249 0.269721 0.000000
185.29699707 164.09800720 193.75000000 -0.563646 -0.290556 -0.773227 0.000000
199.42999268 153.89100647 188.75000000 -0.368984 0.001268 -0.929435 0.000000
129.55099487 146.43200684 112.50000000 -0.946800 -0.085120 0.310362 0.000000
149.96499634 153.89100647 198.75000000 -0.040569 0.249561 -0.967509 0.000000
231.62100220 160.17199707 158.75000000 -0.219146 -0.623246 0.750693 0.000000
