100.00000000 267.96899414 387.50000000 -0.721653 0.662932 0.199343 0.000000
160.93800354 270.31201172 357.50000000 0.865373 0.390567 -0.313985 0.000000
92.96880341 284.37500000 367.50000000 0.001299 0.905318 0.424733 0.000000
72.26560211 207.03100586 345.00000000 -0.987889 -0.001116 -0.155160 0.000000
155.46899414 206.25000000 417.50000000 0.702740 -0.702740 0.110959 0.000000
81.25000000 253.12500000 382.50000000 -0.517100 0.349566 0.781288 0.000000
82.81250000 263.67199707 330.00000000 -0.702488 0.146541 -0.696445 0.000000
122.65599823 294.53100586 342.50000000 -0.169001 0.984865 -0.038462 0.000000
107.03099823 182.81199646 292.50000000 0.364464 -0.453590 -0.813279 0.000000
162.50000000 219.53100586 347.50000000 0.894688 -0.446689 -0.001310 0.000000
225.78100586 184.37500000 412.50000000 0.000978 0.000978 0.999999 0.000000
200.78100586 120.70300293 360.00000000 -0.044465 -0.996672 -0.068325 0.000000
167.96899414 242.96899414 377.50000000 0.708210 0.175905 0.683736 0.000000
198.43800354 187.50000000 407.50000000 0.136382 0.392274 0.909682 0.000000
142.18800354 187.50000000 427.50000000 0.000978 0.000978 0.999999 0.000000
138.28100586 146.48399353 425.00000000 0.079779 -0.747024 0.659992 0.000000
153.51600647 114.06199646 370.00000000 -0.076069 -0.995516 0.056225 0.000000
75.78119659 239.06199646 387.50000000 0.748282 0.236878 0.619647 0.000000
96.09380341 235.15600586 402.50000000 -0.000978 -0.000978 0.999999 0.000000
200.00000000 156.25000000 417.50000000 0.000978 0.000978 0.999999 0.000000
213.67199707 143.75000000 415.00000000 0.274651 0.535178 0.798844 0.000000
97.26560211 219.53100586 410.00000000 -0.276529 0.510876 0.813964 0.000000
100.00000000 277.34399414 322.50000000 0.175773 0.242862 -0.954003 0.000000
235.15600586 189.06199646 397.50000000 -0.488699 -0.589462 0.643202 0.000000
80.46880341 239.84399414 312.50000000 -0.599020 -0.800090 0.032115 0.000000
157.81199646 233.59399414 337.50000000 0.760654 -0.407318 -0.505467 0.000000
151.95300293 178.12500000 335.00000000 0.959128 -0.240769 -0.148671 0.000000
217.18800354 120.70300293 390.00000000 -0.248526 -0.901460 0.354408 0.000000
80.46880341 226.56199646 397.50000000 0.000978 0.000978 0.999999 0.000000
115.62500000 145.31199646 417.50000000 0.000978 0.000978 0.999999 0.000000
151.95300293 247.65600586 330.00000000 0.821525 0.215708 -0.527795 0.000000
200.00000000 152.34399414 327.50000000 0.272386 -0.629196 0.727955 0.000000
184.37500000 165.23399353 345.00000000 0.322423 -0.685350 0.652946 0.000000
207.03100586 152.34399414 327.50000000 -0.048790 -0.539479 0.840584 0.000000
105.46900177 286.71899414 332.50000000 -0.258195 0.628855 -0.733401 0.000000
90.62500000 242.96899414 297.50000000 -0.776029 0.582412 -0.242021 0.000000
252.34399414 196.87500000 417.50000000 0.535660 0.569456 0.623529 0.000000
82.81250000 233.59399414 397.50000000 -0.361479 -0.539786 0.760240 0.000000
174.21899414 189.06199646 352.50000000 -0.278995 -0.632921 -0.722200 0.000000
130.46899414 288.28100586 372.50000000 0.230403 0.691210 0.684940 0.000000
85.15619659 232.03100586 397.50000000 -0.361479 -0.539786 0.760240 0.000000
152.34399414 135.93800354 412.50000000 0.000978 0.000978 0.999999 0.000000
117.18800354 240.62500000 292.50000000 -0.000978 -0.000978 -0.999999 0.000000
242.96899414 171.87500000 392.50000000 0.000978 0.000978 0.999999 0.000000
142.18800354 166.79699707 320.00000000 0.852880 -0.451705 -0.261836 0.000000
152.34399414 213.28100586 412.50000000 0.564798 0.381443 0.731782 0.000000
107.03099823 185.15600586 292.50000000 0.372172 -0.305333 -0.876504 0.000000
114.84400177 161.71899414 427.50000000 0.000978 0.000978 0.999999 0.000000
178.51600647 150.00000000 365.00000000 0.539344 0.711934 -0.449730 0.000000
244.53100586 167.96899414 412.50000000 0.000978 0.000978 0.999999 0.000000
137.50000000 194.53100586 307.50000000 0.580160 -0.137992 -0.802728 0.000000
228.12500000 143.75000000 332.50000000 -0.538895 -0.730063 0.420239 0.000000
159.37500000 269.53100586 377.50000000 0.000978 0.000978 0.999999 0.000000
84.37500000 222.65600586 297.50000000 -0.788169 0.001371 -0.615457 0.000000
110.93800354 254.68800354 397.50000000 0.000978 0.000978 0.999999 0.000000
123.43800354 286.32800293 375.00000000 0.044807 0.886637 0.460291 0.000000
140.62500000 116.79699707 360.00000000 -0.316601 -0.947241 -0.049990 0.000000
96.87500000 289.45300293 350.00000000 -0.442309 0.886050 0.138848 0.000000
108.59400177 293.75000000 337.50000000 0.058509 0.615060 -0.786306 0.000000
220.31199646 123.43800354 332.50000000 0.118233 -0.970023 -0.212312 0.000000
139.06199646 239.06199646 312.50000000 -0.000978 -0.000978 -0.999999 0.000000
167.18800354 182.03100586 422.50000000 0.263158 0.153620 0.952444 0.000000
164.06199646 120.31199646 397.50000000 0.000978 0.000978 0.999999 0.000000
110.93800354 185.93800354 292.50000000 -0.000978 -0.000978 -0.999999 0.000000
275.00000000 182.81199646 392.50000000 0.998461 -0.015650 -0.053210 0.000000
103.90599823 204.68800354 417.50000000 0.000978 0.000978 0.999999 0.000000
166.79699707 223.43800354 370.00000000 0.979418 -0.158924 -0.124429 0.000000
197.65600586 121.87500000 387.50000000 -0.115378 -0.969936 0.214273 0.000000
95.31250000 286.71899414 362.50000000 -0.702740 0.702740 0.110959 0.000000
172.65600586 174.21899414 372.50000000 0.000978 0.000978 -0.999999 0.000000
234.37500000 162.50000000 377.50000000 -0.905318 -0.001299 -0.424733 0.000000
142.18800354 203.12500000 312.50000000 0.794751 0.070167 -0.602865 0.000000
128.90600586 183.59399414 302.50000000 0.281985 -0.018471 -0.959241 0.000000
241.40600586 187.89100647 400.00000000 -0.219388 -0.742185 0.633269 0.000000
226.56199646 122.26599884 335.00000000 -0.317582 -0.863762 -0.391224 0.000000
159.37500000 257.81201172 382.50000000 0.461610 0.248325 0.851617 0.000000
234.37500000 164.84399414 377.50000000 -0.905318 -0.001299 -0.424733 0.000000
164.84399414 118.75000000 397.50000000 0.000978 0.000978 0.999999 0.000000
217.96899414 122.26599884 395.00000000 -0.038661 -0.959044 0.280605 0.000000
222.65600586 171.87500000 412.50000000 0.000978 0.000978 0.999999 0.000000
116.40599823 196.87500000 422.50000000 0.000978 0.000978 0.999999 0.000000
125.00000000 166.40600586 432.50000000 0.000978 0.000978 0.999999 0.000000
90.62500000 152.34399414 387.50000000 -0.736390 -0.643372 0.209290 0.000000
205.46899414 192.18800354 407.50000000 0.000978 0.000978 0.999999 0.000000
85.15619659 180.46899414 322.50000000 -0.788169 0.001371 -0.615457 0.000000
239.84399414 189.06199646 402.50000000 -0.328720 -0.610481 0.720594 0.000000
74.21880341 250.78100586 372.50000000 -0.772853 0.603839 0.195134 0.000000
155.46899414 156.25000000 342.50000000 0.047931 0.239653 -0.969675 0.000000
96.09380341 146.87500000 387.50000000 -0.658032 -0.736693 0.155810 0.000000
113.28099823 277.73400879 315.00000000 0.602581 0.782905 0.154778 0.000000
150.00000000 192.96899414 427.50000000 0.000978 0.000978 0.999999 0.000000
75.78119659 224.21899414 392.50000000 -0.529077 0.232917 0.815982 0.000000
257.81201172 173.43800354 412.50000000 0.330430 -0.662488 0.672254 0.000000
157.03100586 114.84400177 382.50000000 -0.285940 -0.926104 -0.246108 0.000000
109.37500000 188.28100586 292.50000000 0.242065 -0.106304 -0.964419 0.000000
226.56199646 158.59399414 347.50000000 -0.615289 -0.591689 0.520888 0.000000
161.71899414 135.93800354 332.50000000 -0.000978 -0.000978 -0.999999 0.000000
144.53100586 198.43800354 312.50000000 0.235981 0.060540 -0.969870 0.000000
116.40599823 160.15600586 427.50000000 0.000978 0.000978 0.999999 0.000000
203.12500000 163.28100586 337.50000000 0.092208 -0.715706 0.692288 0.000000
265.23400879 123.43800354 365.00000000 -0.686401 -0.676845 0.265960 0.000000
246.09399414 192.57800293 405.00000000 0.061627 -0.632034 0.772486 0.000000
240.23399353 146.09399414 410.00000000 0.658287 -0.165712 0.734301 0.000000
75.78119659 264.06201172 362.50000000 -0.905185 0.422419 -0.046935 0.000000
79.29689789 191.40600586 330.00000000 -0.911689 -0.263183 -0.315529 0.000000
84.37500000 192.96899414 407.50000000 -0.697710 0.047085 0.714832 0.000000
119.53099823 247.65600586 402.50000000 0.000978 0.000978 0.999999 0.000000
151.95300293 176.56199646 345.00000000 0.934590 -0.349318 0.067227 0.000000
97.65619659 274.21899414 377.50000000 -0.017839 0.827458 0.561244 0.000000
175.00000000 146.87500000 342.50000000 -0.000978 -0.000978 -0.999999 0.000000
86.71880341 178.12500000 407.50000000 0.000978 0.000978 0.999999 0.000000
189.06199646 157.81199646 417.50000000 0.000978 0.000978 0.999999 0.000000
256.25000000 137.50000000 407.50000000 0.000978 0.000978 0.999999 0.000000
201.56199646 171.87500000 347.50000000 0.040752 -0.591603 0.805199 0.000000
153.90600586 262.50000000 382.50000000 0.000978 0.000978 0.999999 0.000000
84.37500000 224.21899414 397.50000000 -0.500086 -0.648259 0.574173 0.000000
260.15600586 146.87500000 407.50000000 0.000978 0.000978 0.999999 0.000000
264.84399414 171.87500000 382.50000000 0.000978 0.000978 0.999999 0.000000
153.90600586 218.75000000 407.50000000 0.906333 -0.253305 0.338228 0.000000
184.37500000 196.87500000 402.50000000 -0.775179 0.516247 -0.364124 0.000000
111.71900177 253.90600586 297.50000000 0.000978 0.000978 -0.999999 0.000000
82.03119659 266.40600586 337.50000000 -0.000978 -0.000978 -0.999999 0.000000
185.15600586 176.56199646 352.50000000 -0.000978 -0.000978 0.999999 0.000000
190.62500000 173.43800354 352.50000000 0.000978 0.000978 0.999999 0.000000
168.75000000 137.50000000 412.50000000 0.000978 0.000978 0.999999 0.000000
106.25000000 190.62500000 292.50000000 0.360947 -0.202763 -0.910277 0.000000
81.64060211 197.65600586 300.00000000 -0.999999 0.000978 0.000978 0.000000
205.46899414 120.31199646 382.50000000 0.001116 -0.987889 0.155160 0.000000
210.93800354 148.43800354 417.50000000 -0.327544 0.909843 0.254756 0.000000
161.71899414 135.15600586 332.50000000 -0.000978 -0.000978 -0.999999 0.000000
239.06199646 154.68800354 412.50000000 0.460352 0.003957 0.887728 0.000000
72.26560211 212.50000000 340.00000000 -0.983938 -0.140907 -0.109594 0.000000
105.07800293 198.43800354 420.00000000 -0.810759 0.166965 0.561063 0.000000
185.15600586 160.15600586 417.50000000 0.000978 0.000978 0.999999 0.000000
201.56199646 153.12500000 327.50000000 0.058722 -0.746199 0.663128 0.000000
156.25000000 231.25000000 337.50000000 0.760654 -0.407318 -0.505467 0.000000
260.15600586 121.48400116 390.00000000 -0.001232 -0.950151 0.311788 0.000000
85.54689789 277.34399414 365.00000000 -0.776196 0.629157 -0.041001 0.000000
100.78099823 189.84399414 417.50000000 0.000978 0.000978 0.999999 0.000000
103.90599823 197.65600586 417.50000000 -0.436163 0.055709 0.898142 0.000000
166.40600586 114.84400177 342.50000000 0.479792 -0.718858 -0.503034 0.000000
111.71900177 171.09399414 302.50000000 0.246630 0.405070 -0.880393 0.000000
165.62500000 235.15600586 357.50000000 0.958214 0.118960 -0.260143 0.000000
87.50000000 270.31201172 327.50000000 -0.686383 0.344007 -0.640733 0.000000
78.51560211 253.90600586 380.00000000 -0.679939 0.076838 0.729231 0.000000
128.90600586 152.34399414 427.50000000 0.000978 0.000978 0.999999 0.000000
220.31199646 166.40600586 412.50000000 0.000978 0.000978 0.999999 0.000000
89.06250000 171.87500000 407.50000000 -0.844778 0.028846 0.534339 0.000000
160.93800354 210.93800354 407.50000000 0.906082 0.112738 0.407806 0.000000
172.65600586 171.87500000 417.50000000 0.000978 0.000978 0.999999 0.000000
135.54699707 221.09399414 415.00000000 0.213471 0.560553 0.800132 0.000000
133.59399414 215.62500000 302.50000000 0.551178 -0.066595 -0.831726 0.000000
220.31199646 119.14099884 360.00000000 -0.207320 -0.970462 -0.123375 0.000000
121.87500000 274.21899414 312.50000000 0.183932 0.582197 -0.791970 0.000000
222.65600586 184.37500000 412.50000000 0.000978 0.000978 0.999999 0.000000
77.34380341 222.65600586 317.50000000 -0.957915 0.096955 -0.270181 0.000000
151.56199646 213.28100586 412.50000000 0.564798 0.381443 0.731782 0.000000
135.15600586 248.43800354 312.50000000 -0.000978 -0.000978 -0.999999 0.000000
111.71900177 288.28100586 372.50000000 -0.091810 0.401497 0.911247 0.000000
146.09399414 267.18798828 327.50000000 0.828845 0.152721 -0.538230 0.000000
125.00000000 148.43800354 422.50000000 0.000978 0.000978 0.999999 0.000000
165.62500000 257.03100586 377.50000000 0.516850 0.687461 0.510160 0.000000
132.03100586 239.06199646 307.50000000 -0.000978 -0.000978 -0.999999 0.000000
214.06199646 193.75000000 392.50000000 -0.549194 -0.778423 0.304046 0.000000
110.15599823 141.40600586 347.50000000 -0.857738 -0.378641 -0.347731 0.000000
118.75000000 167.57800293 430.00000000 -0.506047 -0.411061 0.758252 0.000000
110.93800354 192.96899414 292.50000000 -0.000978 -0.000978 -0.999999 0.000000
127.34400177 142.96899414 422.50000000 -0.231815 -0.251249 0.939753 0.000000
197.65600586 126.56199646 327.50000000 -0.209583 -0.946548 -0.245198 0.000000
141.01600647 119.53099823 395.00000000 -0.430583 -0.831198 0.351721 0.000000
250.78100586 132.42199707 360.00000000 -0.708880 -0.661516 0.244714 0.000000
137.10899353 249.21899414 400.00000000 -0.029073 0.566231 0.823734 0.000000
150.00000000 122.65599823 402.50000000 0.393062 0.289864 0.872629 0.000000
128.90600586 167.18800354 307.50000000 0.933250 0.225945 -0.279273 0.000000
117.18800354 130.46899414 392.50000000 -0.504806 -0.843341 0.184247 0.000000
182.03100586 126.56199646 402.50000000 0.248196 -0.659220 0.709808 0.000000
130.46899414 153.90600586 317.50000000 0.618972 -0.771842 -0.145376 0.000000
126.56199646 231.25000000 412.50000000 0.247164 0.377406 0.892454 0.000000
153.90600586 125.78099823 407.50000000 0.153990 -0.427429 0.890837 0.000000
224.21899414 154.68800354 337.50000000 -0.338486 -0.568462 0.749852 0.000000
212.50000000 197.65600586 407.50000000 0.000978 0.000978 0.999999 0.000000
233.59399414 172.65600586 412.50000000 0.000978 0.000978 0.999999 0.000000
165.62500000 182.81199646 422.50000000 0.167010 0.141896 0.975691 0.000000
125.00000000 292.18798828 367.50000000 0.079063 0.889117 0.450800 0.000000
142.96899414 246.09399414 317.50000000 -0.000978 -0.000978 -0.999999 0.000000
112.50000000 132.03100586 362.50000000 -0.702740 -0.702740 -0.110959 0.000000
77.34380341 205.46899414 322.50000000 -0.977395 -0.168087 -0.128244 0.000000
268.75000000 163.28100586 402.50000000 0.938494 0.312831 0.146170 0.000000
77.34380341 185.54699707 350.00000000 -0.913864 -0.406019 0.001289 0.000000
109.37500000 142.57800293 335.00000000 -0.859824 -0.442847 0.254143 0.000000
196.87500000 145.31199646 322.50000000 0.111584 -0.276991 0.954372 0.000000
94.14060211 169.53100586 415.00000000 -0.672263 -0.055902 0.738199 0.000000
85.93750000 249.21899414 392.50000000 -0.925575 -0.024665 0.377759 0.000000
168.75000000 157.81199646 352.50000000 0.541164 0.755680 -0.368902 0.000000
157.03100586 253.12500000 342.50000000 -0.000978 -0.000978 -0.999999 0.000000
114.84400177 194.53100586 292.50000000 0.279643 0.158059 -0.947004 0.000000
125.78099823 212.50000000 422.50000000 -0.045709 0.361752 0.931153 0.000000
125.78099823 157.81199646 427.50000000 0.000978 0.000978 0.999999 0.000000
135.15600586 132.03100586 332.50000000 -0.000978 -0.000978 -0.999999 0.000000
180.46899414 192.18800354 352.50000000 -0.000978 -0.000978 -0.999999 0.000000
95.31250000 151.95300293 355.00000000 -0.702740 -0.702740 -0.110959 0.000000
146.09399414 230.46899414 317.50000000 0.677930 -0.083101 -0.730415 0.000000
216.40600586 180.46899414 412.50000000 0.000978 0.000978 0.999999 0.000000
251.56199646 118.75000000 382.50000000 0.001116 -0.987889 0.155160 0.000000
217.96899414 141.40600586 322.50000000 0.000978 0.000978 0.999999 0.000000
273.43798828 166.40600586 377.50000000 -0.000978 -0.000978 0.999999 0.000000
150.00000000 240.62500000 327.50000000 0.892279 0.138482 -0.429722 0.000000
83.59380341 249.21899414 387.50000000 0.000978 0.000978 0.999999 0.000000
162.50000000 211.71899414 387.50000000 0.905318 -0.001299 -0.424733 0.000000
158.59399414 131.64100647 410.00000000 0.302498 -0.750644 0.587391 0.000000
246.09399414 186.71899414 397.50000000 0.000978 0.000978 0.999999 0.000000
109.37500000 192.18800354 422.50000000 -0.345034 -0.021644 0.938340 0.000000
81.64060211 196.09399414 295.00000000 -0.999999 0.000978 0.000978 0.000000
105.46900177 186.71899414 422.50000000 0.000978 0.000978 0.999999 0.000000
136.71899414 185.15600586 432.50000000 -0.248011 0.550615 0.797066 0.000000
236.71899414 148.43800354 412.50000000 0.114660 -0.138799 0.983661 0.000000
181.25000000 167.57800293 415.00000000 0.120297 0.663860 0.738118 0.000000
190.62500000 127.73400116 335.00000000 -0.605265 -0.731160 -0.314738 0.000000
79.68750000 193.75000000 322.50000000 -0.947241 -0.316601 -0.049990 0.000000
228.12500000 172.65600586 377.50000000 -0.835866 -0.465408 0.291074 0.000000
234.37500000 167.18800354 382.50000000 -0.518595 -0.429693 0.739204 0.000000
171.87500000 128.12500000 337.50000000 0.415161 0.346229 -0.841289 0.000000
152.34399414 135.93800354 332.50000000 -0.000978 -0.000978 -0.999999 0.000000
206.25000000 193.75000000 387.50000000 0.000978 0.000978 0.999999 0.000000
115.62500000 248.43800354 292.50000000 -0.023087 0.501117 -0.865072 0.000000
75.78119659 189.06199646 352.50000000 -0.935395 -0.334360 -0.115063 0.000000
277.34399414 133.59399414 382.50000000 0.732446 -0.497666 0.464599 0.000000
214.84399414 167.18800354 347.50000000 0.000978 0.000978 0.999999 0.000000
107.03099823 163.28100586 422.50000000 0.000978 0.000978 0.999999 0.000000
269.92199707 135.93800354 395.00000000 0.307964 -0.694934 0.649788 0.000000
129.68800354 148.43800354 317.50000000 -0.478800 -0.695678 -0.535522 0.000000
162.89100647 206.25000000 375.00000000 0.976974 0.186975 -0.102774 0.000000
121.09400177 200.00000000 422.50000000 0.000978 0.000978 0.999999 0.000000
140.23399353 156.25000000 430.00000000 0.091975 -0.632142 0.769374 0.000000
143.75000000 278.90600586 332.50000000 0.690301 0.387161 -0.611221 0.000000
161.71899414 116.79699707 390.00000000 -0.001116 -0.987889 0.155160 0.000000
221.09399414 120.31199646 347.50000000 0.001116 -0.987889 0.155160 0.000000
192.96899414 120.70300293 385.00000000 0.337848 -0.935477 0.103643 0.000000
104.68800354 144.53100586 327.50000000 -0.797924 -0.340597 0.497303 0.000000
120.31199646 230.46899414 412.50000000 0.000978 0.000978 0.999999 0.000000
121.09400177 212.50000000 292.50000000 0.663148 -0.176125 -0.727472 0.000000
111.71900177 197.65600586 292.50000000 -0.000978 -0.000978 -0.999999 0.000000
141.40600586 145.31199646 422.50000000 -0.437719 -0.697355 0.567537 0.000000
205.46899414 150.39100647 325.00000000 -0.061460 -0.787552 0.613176 0.000000
73.82810211 188.28100586 385.00000000 -0.925382 -0.202030 0.320705 0.000000
74.60939789 194.53100586 390.00000000 -0.829637 0.072575 0.553566 0.000000
79.29689789 269.53100586 365.00000000 -0.819750 0.572589 0.012358 0.000000
203.12500000 121.09400177 357.50000000 -0.186292 -0.928660 -0.320759 0.000000
257.81201172 196.09399414 402.50000000 -0.000978 -0.000978 0.999999 0.000000
86.71880341 274.21899414 372.50000000 -0.586976 0.267383 0.764176 0.000000
262.50000000 130.46899414 402.50000000 0.425662 -0.175785 0.887644 0.000000
229.68800354 167.18800354 372.50000000 -0.834746 -0.524143 0.168741 0.000000
160.15600586 204.68800354 337.50000000 -0.000978 -0.000978 -0.999999 0.000000
163.28100586 195.31199646 347.50000000 0.948315 0.143522 -0.283019 0.000000
134.37500000 267.96899414 312.50000000 -0.000978 -0.000978 -0.999999 0.000000
115.62500000 135.15600586 342.50000000 -0.831055 -0.554502 -0.043299 0.000000
87.50000000 159.37500000 362.50000000 -0.773050 -0.600232 -0.205221 0.000000
205.46899414 171.09399414 412.50000000 -0.000978 -0.000978 0.999999 0.000000
127.34400177 274.21899414 382.50000000 -0.401577 0.603192 0.689126 0.000000
99.21880341 185.15600586 417.50000000 0.000978 0.000978 0.999999 0.000000
116.79699707 198.43800354 295.00000000 0.710647 -0.233745 -0.663584 0.000000
136.71899414 167.96899414 312.50000000 0.346145 -0.067123 -0.935777 0.000000
161.71899414 137.50000000 412.50000000 0.000978 0.000978 0.999999 0.000000
73.43750000 237.50000000 382.50000000 -0.842932 0.155005 0.515207 0.000000
214.84399414 189.06199646 382.50000000 -0.157254 -0.810234 0.564617 0.000000
246.87500000 135.15600586 407.50000000 0.000978 0.000978 0.999999 0.000000
160.15600586 125.00000000 327.50000000 0.205921 -0.117488 -0.971490 0.000000
253.12500000 153.12500000 407.50000000 0.000978 0.000978 0.999999 0.000000
139.45300293 157.03100586 325.00000000 0.773429 -0.633061 -0.032285 0.000000
244.53100586 119.53099823 387.50000000 0.278744 -0.924857 0.258731 0.000000
182.03100586 157.03100586 417.50000000 0.000978 0.000978 0.999999 0.000000
117.18800354 198.82800293 295.00000000 0.597588 -0.350085 -0.721339 0.000000
85.54689789 274.21899414 345.00000000 -0.875149 0.476205 -0.085689 0.000000
140.62500000 208.59399414 312.50000000 -0.000978 -0.000978 -0.999999 0.000000
186.71899414 178.12500000 412.50000000 0.000978 0.000978 0.999999 0.000000
70.31250000 213.67199707 385.00000000 -0.619586 0.619586 0.481900 0.000000
114.06199646 277.34399414 312.50000000 0.082664 0.764283 -0.639561 0.000000
120.31199646 184.37500000 427.50000000 0.000978 0.000978 0.999999 0.000000
80.46880341 185.93800354 397.50000000 -0.362413 0.209362 0.908198 0.000000
221.09399414 197.65600586 412.50000000 -0.221890 0.243941 0.944064 0.000000
127.34400177 238.28100586 302.50000000 -0.000978 -0.000978 -0.999999 0.000000
114.84400177 219.53100586 417.50000000 -0.127457 0.546452 0.827735 0.000000
79.68750000 255.85899353 380.00000000 -0.517100 0.349566 0.781288 0.000000
127.34400177 149.21899414 317.50000000 -0.478800 -0.695678 -0.535522 0.000000
117.18800354 200.00000000 292.50000000 0.622887 -0.129334 -0.771547 0.000000
120.31199646 185.15600586 302.50000000 0.662032 0.605334 -0.441910 0.000000
214.45300293 179.68800354 370.00000000 -0.572763 -0.623450 0.532214 0.000000
214.84399414 192.18800354 407.50000000 0.000978 0.000978 0.999999 0.000000
121.87500000 192.18800354 427.50000000 0.000978 0.000978 0.999999 0.000000
233.59399414 147.65600586 342.50000000 -0.915661 -0.380480 0.129614 0.000000
110.93800354 166.40600586 427.50000000 0.000978 0.000978 0.999999 0.000000
145.31199646 150.78100586 427.50000000 -0.000978 -0.000978 0.999999 0.000000
114.06199646 200.78100586 292.50000000 0.373157 -0.243363 -0.895281 0.000000
275.00000000 154.68800354 372.50000000 0.000978 0.000978 0.999999 0.000000
110.93800354 139.84399414 347.50000000 -0.736376 -0.604823 -0.303214 0.000000
144.53100586 223.04699707 410.00000000 0.437549 0.583954 0.683775 0.000000
133.59399414 128.90600586 402.50000000 -0.875554 -0.437036 0.205925 0.000000
117.57800293 200.78100586 295.00000000 0.651911 -0.064759 -0.755526 0.000000
108.59400177 169.53100586 427.50000000 0.000978 0.000978 0.999999 0.000000
177.34399414 158.59399414 377.50000000 -0.068582 0.309265 -0.948500 0.000000
125.00000000 216.40600586 297.50000000 -0.000978 -0.000978 -0.999999 0.000000
112.50000000 179.68800354 427.50000000 0.000978 0.000978 0.999999 0.000000
93.75000000 150.39100647 365.00000000 -0.671037 -0.671037 -0.315307 0.000000
149.60899353 243.75000000 325.00000000 0.885075 0.142014 -0.443255 0.000000
274.60900879 178.12500000 395.00000000 0.987889 -0.001116 0.155160 0.000000
225.00000000 185.15600586 387.50000000 -0.763730 -0.469359 0.443192 0.000000
143.75000000 282.03100586 337.50000000 0.541628 0.541628 -0.642867 0.000000
210.15600586 189.84399414 382.50000000 -0.186284 -0.816319 0.546737 0.000000
113.28099823 176.56199646 302.50000000 0.087496 -0.247270 -0.964988 0.000000
77.73439789 220.31199646 395.00000000 -0.767748 0.101290 0.632695 0.000000
187.50000000 185.15600586 412.50000000 0.000978 0.000978 0.999999 0.000000
134.37500000 257.81201172 312.50000000 -0.000978 -0.000978 -0.999999 0.000000
142.18800354 251.56199646 397.50000000 -0.000978 -0.000978 0.999999 0.000000
252.34399414 158.59399414 382.50000000 0.275200 0.003637 0.961380 0.000000
260.93798828 124.60900116 395.00000000 0.412234 -0.740708 0.530485 0.000000
113.28099823 202.34399414 292.50000000 0.279444 -0.123167 -0.952229 0.000000
175.00000000 143.75000000 342.50000000 -0.000978 -0.000978 -0.999999 0.000000
209.37500000 147.65600586 417.50000000 -0.327544 0.909843 0.254756 0.000000
128.90600586 286.32800293 375.00000000 -0.012550 0.715368 0.698635 0.000000
221.09399414 147.65600586 412.50000000 0.000978 0.000978 0.999999 0.000000
257.81201172 123.43800354 397.50000000 -0.152513 -0.872954 -0.463348 0.000000
228.90600586 117.96900177 357.50000000 -0.196223 -0.976181 -0.092558 0.000000
69.92189789 238.28100586 350.00000000 -0.970460 0.115440 -0.211852 0.000000
134.37500000 272.26599121 385.00000000 0.304993 0.647102 0.698741 0.000000
127.34400177 226.56199646 412.50000000 -0.028336 0.141682 0.989507 0.000000
169.92199707 184.37500000 360.00000000 -0.414454 -0.714974 -0.563063 0.000000
126.56199646 295.70300293 345.00000000 -0.204421 0.964815 -0.165360 0.000000
134.37500000 289.45300293 370.00000000 0.286964 0.710196 0.642864 0.000000
164.06199646 130.46899414 412.50000000 0.000978 0.000978 0.999999 0.000000
116.40599823 203.12500000 292.50000000 0.487607 -0.122261 -0.864460 0.000000
129.68800354 135.93800354 327.50000000 0.792473 0.067353 -0.606177 0.000000
74.21880341 217.18800354 392.50000000 -0.742832 0.595228 0.306438 0.000000
188.28100586 167.57800293 345.00000000 0.359851 -0.558502 0.747384 0.000000
75.00000000 258.20300293 355.00000000 -0.795164 0.477098 -0.374289 0.000000
225.78100586 125.00000000 327.50000000 -0.105429 -0.976151 -0.189773 0.000000
114.84400177 236.71899414 407.50000000 0.000978 0.000978 0.999999 0.000000
114.06199646 203.90600586 292.50000000 0.352001 -0.024320 -0.935683 0.000000
86.71880341 250.78100586 392.50000000 -0.876523 0.001326 0.481358 0.000000
75.00000000 246.87500000 377.50000000 -0.690304 0.341072 0.638083 0.000000
73.82810211 190.62500000 360.00000000 -0.962032 -0.106892 -0.251133 0.000000
250.78100586 189.45300293 400.00000000 -0.061840 -0.665855 0.743514 0.000000
154.68800354 248.43800354 387.50000000 -0.000978 -0.000978 0.999999 0.000000
162.89100647 203.90600586 365.00000000 0.857113 0.489569 0.160249 0.000000
127.34400177 266.40600586 307.50000000 -0.000978 -0.000978 -0.999999 0.000000
83.59380341 176.95300293 335.00000000 -0.803757 -0.402681 -0.437975 0.000000
144.53100586 186.71899414 312.50000000 -0.000978 -0.000978 -0.999999 0.000000
203.90600586 189.84399414 407.50000000 -0.240741 0.053086 0.969137 0.000000
139.06199646 121.87500000 397.50000000 -0.482407 -0.745838 0.459357 0.000000
177.34399414 168.75000000 372.50000000 -0.642041 -0.665148 -0.381263 0.000000
163.28100586 155.46899414 417.50000000 0.000978 0.000978 0.999999 0.000000
171.87500000 115.23400116 375.00000000 0.371474 -0.926702 -0.056845 0.000000
265.62500000 131.25000000 372.50000000 0.000978 0.000978 0.999999 0.000000
262.50000000 191.01600647 395.00000000 0.617158 0.546142 -0.566432 0.000000
152.34399414 209.37500000 322.50000000 0.868146 0.137686 -0.476828 0.000000
132.03100586 217.18800354 417.50000000 0.000978 0.000978 0.999999 0.000000
160.93800354 114.45300293 380.00000000 0.001116 -0.987889 0.155160 0.000000
273.43798828 150.00000000 372.50000000 0.173094 0.145298 0.974129 0.000000
142.96899414 181.25000000 432.50000000 0.000978 0.000978 0.999999 0.000000
175.78100586 116.79699707 375.00000000 0.371474 -0.926702 -0.056845 0.000000
87.50000000 164.06199646 402.50000000 -0.960106 -0.134913 0.244938 0.000000
86.71880341 212.50000000 407.50000000 0.437036 0.875554 0.205925 0.000000
160.93800354 216.40600586 347.50000000 0.894688 -0.446689 -0.001310 0.000000
107.03099823 164.84399414 422.50000000 0.000978 0.000978 0.999999 0.000000
124.21900177 206.25000000 422.50000000 0.000978 0.000978 0.999999 0.000000
154.68800354 221.48399353 330.00000000 0.961730 0.150475 -0.228983 0.000000
147.65600586 172.65600586 322.50000000 0.954632 -0.001225 -0.297786 0.000000
82.81250000 269.53100586 347.50000000 -0.881562 0.462574 -0.094202 0.000000
214.06199646 147.65600586 322.50000000 -0.023713 -0.776961 0.629102 0.000000
118.75000000 259.37500000 397.50000000 -0.278282 0.480387 0.831738 0.000000
94.53119659 283.20300293 370.00000000 -0.401778 0.486363 0.775903 0.000000
97.65619659 242.18800354 402.50000000 -0.128810 0.028002 0.991274 0.000000
103.12500000 213.28100586 412.50000000 -0.627281 0.683258 0.373734 0.000000
225.00000000 164.84399414 357.50000000 -0.505380 -0.708866 0.492036 0.000000
107.81199646 270.31201172 307.50000000 -0.000978 -0.000978 -0.999999 0.000000
190.62500000 137.89100647 415.00000000 -0.702886 0.126848 0.699901 0.000000
260.93798828 185.15600586 412.50000000 -0.000978 -0.000978 0.999999 0.000000
121.87500000 282.81201172 322.50000000 0.140564 0.919929 -0.366023 0.000000
143.75000000 270.31201172 327.50000000 0.698890 0.458699 -0.548770 0.000000
91.40619659 242.96899414 397.50000000 -0.319074 0.227501 0.920019 0.000000
163.28100586 154.68800354 417.50000000 0.000978 0.000978 0.999999 0.000000
100.00000000 149.21899414 402.50000000 -0.558781 -0.558781 0.612802 0.000000
149.21899414 138.28100586 332.50000000 -0.000978 -0.000978 -0.999999 0.000000
242.18800354 147.65600586 357.50000000 0.558781 0.558781 0.612802 0.000000
102.34400177 221.09399414 412.50000000 -0.233232 0.216865 0.947931 0.000000
70.70310211 189.84399414 375.00000000 -0.826585 -0.541658 0.152851 0.000000
118.75000000 296.09399414 347.50000000 -0.000978 -0.000978 -0.999999 0.000000
94.53119659 160.93800354 342.50000000 -0.671037 -0.671037 -0.315307 0.000000
119.53099823 206.64100647 295.00000000 0.825825 -0.299303 -0.477944 0.000000
124.21900177 143.35899353 420.00000000 -0.539598 -0.526150 0.657267 0.000000
231.25000000 134.37500000 322.50000000 0.000978 0.000978 0.999999 0.000000
115.62500000 183.59399414 297.50000000 -0.000978 -0.000978 -0.999999 0.000000
171.87500000 145.31199646 342.50000000 -0.000978 -0.000978 -0.999999 0.000000
68.35939789 223.43800354 365.00000000 -0.987889 -0.001116 0.155160 0.000000
188.28100586 128.51600647 405.00000000 0.001371 -0.788169 0.615457 0.000000
95.31250000 284.37500000 337.50000000 -0.468877 0.780381 -0.413715 0.000000
80.46880341 246.87500000 317.50000000 -0.906660 0.298301 -0.298301 0.000000
101.56199646 161.71899414 417.50000000 -0.690722 -0.275970 0.668389 0.000000
92.96880341 157.42199707 350.00000000 -0.834441 -0.422720 -0.353577 0.000000
257.03100586 125.78099823 357.50000000 -0.296534 -0.742137 0.601083 0.000000
124.21900177 210.15600586 422.50000000 -0.107394 0.146007 0.983437 0.000000
152.34399414 203.12500000 417.50000000 0.665234 -0.601878 0.441822 0.000000
193.75000000 203.12500000 387.50000000 -0.431249 -0.860973 -0.269721 0.000000
266.40600586 164.84399414 377.50000000 0.201213 -0.958095 0.203878 0.000000
82.42189789 208.59399414 295.00000000 -0.978727 0.166618 -0.119718 0.000000
134.76600647 217.96899414 305.00000000 0.611151 0.018016 -0.791309 0.000000
200.00000000 183.59399414 412.50000000 0.070186 0.215483 0.973982 0.000000
114.84400177 208.59399414 292.50000000 0.000978 0.000978 -0.999999 0.000000
228.12500000 156.25000000 347.50000000 -0.574844 -0.625417 0.527643 0.000000
81.64060211 194.53100586 300.00000000 -0.999999 0.000978 0.000978 0.000000
156.25000000 211.71899414 332.50000000 0.920864 0.307909 -0.239167 0.000000
171.09399414 158.59399414 372.50000000 0.758163 0.557710 -0.337859 0.000000
199.21899414 198.43800354 357.50000000 0.942562 0.156414 -0.295146 0.000000
73.43750000 223.43800354 387.50000000 0.000978 0.000978 0.999999 0.000000
152.34399414 217.96899414 407.50000000 0.906333 -0.253305 0.338228 0.000000
201.56199646 196.48399353 395.00000000 0.030859 -0.961577 0.272796 0.000000
203.12500000 196.09399414 392.50000000 0.040757 -0.964586 0.260599 0.000000
148.43800354 246.09399414 397.50000000 0.635851 0.330122 0.697648 0.000000
72.65619659 207.81199646 342.50000000 -0.982808 -0.117840 -0.142137 0.000000
128.12500000 142.18800354 327.50000000 0.619586 -0.619586 -0.481900 0.000000
144.53100586 282.81201172 337.50000000 0.541628 0.541628 -0.642867 0.000000
150.78100586 229.68800354 322.50000000 0.674661 0.001380 -0.738126 0.000000
120.31199646 187.50000000 427.50000000 0.000978 0.000978 0.999999 0.000000
124.21900177 216.40600586 417.50000000 -0.188479 0.344364 0.919722 0.000000
170.31199646 132.81199646 412.50000000 0.484077 -0.073937 0.871896 0.000000
83.59380341 210.15600586 292.50000000 -0.929203 0.207273 -0.305974 0.000000
208.59399414 120.70300293 360.00000000 -0.165140 -0.984984 -0.050362 0.000000
111.71900177 227.34399414 412.50000000 0.000978 0.000978 0.999999 0.000000
174.21899414 149.21899414 417.50000000 0.000978 0.000978 0.999999 0.000000
146.09399414 116.40599823 387.50000000 -0.001116 -0.987889 0.155160 0.000000
252.34399414 135.93800354 367.50000000 -0.597031 -0.299316 0.744288 0.000000
258.59399414 198.43800354 417.50000000 -0.298517 0.924117 -0.238528 0.000000
157.03100586 151.56199646 337.50000000 -0.095409 0.508374 -0.855834 0.000000
163.28100586 267.57800293 360.00000000 -0.186385 -0.697790 -0.691628 0.000000
257.81201172 167.18800354 407.50000000 0.000978 0.000978 0.999999 0.000000
170.31199646 152.34399414 342.50000000 0.567075 -0.057980 -0.821623 0.000000
230.85899353 165.62500000 370.00000000 -0.790005 -0.612911 0.015219 0.000000
78.90619659 181.25000000 397.50000000 -0.781260 -0.201071 0.590934 0.000000
132.03100586 231.25000000 407.50000000 0.000978 0.000978 0.999999 0.000000
130.46899414 166.40600586 312.50000000 0.517878 -0.291208 -0.804363 0.000000
239.84399414 135.15600586 412.50000000 0.001227 -0.300720 0.953712 0.000000
75.00000000 193.75000000 342.50000000 -0.929535 -0.156539 -0.333857 0.000000
96.87500000 153.90600586 347.50000000 -0.740651 -0.470124 -0.480021 0.000000
182.03100586 199.60899353 365.00000000 -0.744311 0.646896 -0.165910 0.000000
119.53099823 210.93800354 292.50000000 0.105674 -0.272666 -0.956288 0.000000
236.71899414 167.96899414 382.50000000 -0.431146 -0.424687 0.796087 0.000000
94.14060211 182.81199646 415.00000000 -0.822365 -0.146692 0.549725 0.000000
271.09399414 174.21899414 377.50000000 0.000978 0.000978 0.999999 0.000000
204.68800354 193.75000000 407.50000000 0.000978 0.000978 0.999999 0.000000
74.21880341 225.78100586 327.50000000 -0.690320 0.690320 0.216602 0.000000
217.96899414 169.14100647 355.00000000 -0.671037 -0.671037 0.315307 0.000000
175.00000000 128.12500000 342.50000000 0.671037 0.671037 0.315307 0.000000
182.03100586 146.87500000 362.50000000 0.367054 0.745528 -0.556291 0.000000
103.51599884 151.56199646 335.00000000 -0.948007 -0.314292 -0.050030 0.000000
247.65600586 152.34399414 382.50000000 -0.689929 -0.721485 0.058809 0.000000
175.00000000 178.12500000 417.50000000 0.000978 0.000978 0.999999 0.000000
170.31199646 150.78100586 417.50000000 0.000978 0.000978 0.999999 0.000000
113.28099823 260.54699707 300.00000000 0.617444 0.307916 -0.723844 0.000000
84.37500000 270.31201172 337.50000000 -0.866412 0.497257 -0.045456 0.000000
155.46899414 246.09399414 337.50000000 0.912311 0.097698 -0.397674 0.000000
166.40600586 157.81199646 417.50000000 0.000978 0.000978 0.999999 0.000000
190.62500000 125.00000000 397.50000000 0.951765 0.204433 -0.228803 2.000000
186.32800293 118.75000000 375.00000000 0.951765 0.204433 -0.228803 2.000000
179.68800354 119.53099823 352.50000000 0.401391 -0.915795 0.014289 2.000000
186.71899414 120.31199646 357.50000000 0.951765 0.204433 -0.228803 2.000000
192.18800354 121.87500000 387.50000000 0.951765 0.204433 -0.228803 2.000000
182.81199646 117.96900177 357.50000000 0.951765 0.204433 -0.228803 2.000000
190.62500000 123.82800293 395.00000000 0.951765 0.204433 -0.228803 2.000000
179.29699707 117.18800354 355.00000000 0.401391 -0.915795 0.014289 2.000000
182.81199646 121.09400177 352.50000000 0.401391 -0.915795 0.014289 2.000000
192.18800354 125.00000000 397.50000000 0.951765 0.204433 -0.228803 2.000000
189.06199646 119.53099823 377.50000000 0.951765 0.204433 -0.228803 2.000000
192.96899414 128.90600586 407.50000000 0.927897 -0.366100 -0.070557 2.000000
185.93800354 118.35900116 370.00000000 0.951765 0.204433 -0.228803 2.000000
185.54699707 120.31199646 385.00000000 0.951765 0.204433 -0.228803 2.000000
191.40600586 131.25000000 407.50000000 0.927897 -0.366100 -0.070557 2.000000
121.09400177 147.65600586 312.50000000 0.009743 0.711236 0.702885 1.000000
159.37500000 120.31199646 327.50000000 0.009743 0.711236 0.702885 1.000000
128.12500000 125.00000000 332.50000000 0.009743 0.711236 0.702885 1.000000
124.21900177 142.96899414 317.50000000 0.009743 0.711236 0.702885 1.000000
227.34399414 126.56199646 322.50000000 0.009743 0.711236 0.702885 1.000000
203.90600586 131.25000000 312.50000000 0.009743 0.711236 0.702885 1.000000
100.78099823 150.00000000 307.50000000 0.020996 0.695664 0.718060 1.000000
100.78099823 163.28100586 297.50000000 0.023838 0.691313 0.722162 1.000000
91.40619659 167.18800354 297.50000000 0.035386 0.683654 0.728948 1.000000
169.53100586 114.06199646 347.50000000 0.009743 0.711236 0.702885 1.000000
266.79699707 120.31199646 365.00000000 0.012276 0.838848 0.544228 1.000000
163.28100586 115.23400116 335.00000000 0.009743 0.711236 0.702885 1.000000
239.84399414 125.00000000 327.50000000 0.009743 0.711236 0.702885 1.000000
188.28100586 139.84399414 327.50000000 0.009743 0.711236 0.702885 1.000000
167.18800354 117.96900177 332.50000000 0.009743 0.711236 0.702885 1.000000
231.25000000 123.04699707 330.00000000 0.009743 0.711236 0.702885 1.000000
121.09400177 146.09399414 312.50000000 0.009743 0.711236 0.702885 1.000000
92.18750000 161.71899414 302.50000000 0.035317 0.685157 0.727538 1.000000
193.75000000 128.90600586 322.50000000 0.009743 0.711236 0.702885 1.000000
170.31199646 117.18800354 337.50000000 0.009743 0.711236 0.702885 1.000000
195.31199646 130.46899414 322.50000000 0.009743 0.711236 0.702885 1.000000
265.23400879 117.96900177 360.00000000 0.015027 0.834678 0.550533 1.000000
136.71899414 127.34400177 322.50000000 0.009743 0.711236 0.702885 1.000000
148.43800354 122.65599823 322.50000000 0.009743 0.711236 0.702885 1.000000
223.43800354 129.68800354 317.50000000 0.009743 0.711236 0.702885 1.000000
210.93800354 135.15600586 312.50000000 0.009743 0.711236 0.702885 1.000000
207.03100586 129.68800354 317.50000000 0.009743 0.711236 0.702885 1.000000
203.12500000 128.12500000 317.50000000 0.009743 0.711236 0.702885 1.000000
121.09400177 142.18800354 317.50000000 0.009743 0.711236 0.702885 1.000000
173.43800354 114.84400177 352.50000000 0.009743 0.711236 0.702885 1.000000
242.18800354 123.43800354 327.50000000 0.009743 0.711236 0.702885 1.000000
251.56199646 118.75000000 342.50000000 0.009724 0.712608 0.701495 1.000000
189.84399414 132.81199646 322.50000000 0.009743 0.711236 0.702885 1.000000
232.03100586 130.46899414 322.50000000 0.009743 0.711236 0.702885 1.000000
116.01599884 132.81199646 320.00000000 0.009743 0.711236 0.702885 1.000000
155.46899414 117.18800354 327.50000000 0.009743 0.711236 0.702885 1.000000
126.56199646 125.00000000 332.50000000 0.009743 0.711236 0.702885 1.000000
178.90600586 120.31199646 347.50000000 0.009743 0.711236 0.702885 1.000000
139.84399414 127.34400177 322.50000000 0.009743 0.711236 0.702885 1.000000
125.78099823 146.87500000 317.50000000 0.009743 0.711236 0.702885 1.000000
198.43800354 132.81199646 317.50000000 0.009743 0.711236 0.702885 1.000000
203.12500000 135.15600586 312.50000000 0.009743 0.711236 0.702885 1.000000
171.87500000 119.53099823 337.50000000 0.009743 0.711236 0.702885 1.000000
169.53100586 120.31199646 332.50000000 0.009743 0.711236 0.702885 1.000000
132.81199646 126.56199646 327.50000000 0.009743 0.711236 0.702885 1.000000
157.81199646 119.53099823 327.50000000 0.009743 0.711236 0.702885 1.000000
90.62500000 162.50000000 302.50000000 0.035317 0.685157 0.727538 1.000000
215.62500000 129.29699707 315.00000000 0.009743 0.711236 0.702885 1.000000
150.00000000 116.79699707 330.00000000 0.009743 0.711236 0.702885 1.000000
172.65600586 125.00000000 337.50000000 0.009743 0.711236 0.702885 1.000000
254.68800354 116.40599823 347.50000000 0.015333 0.754127 0.656550 1.000000
192.96899414 128.12500000 327.50000000 0.009743 0.711236 0.702885 1.000000
200.39100647 134.37500000 315.00000000 0.009743 0.711236 0.702885 1.000000
170.31199646 121.87500000 337.50000000 0.009743 0.711236 0.702885 1.000000
236.71899414 129.68800354 322.50000000 0.009743 0.711236 0.702885 1.000000
195.31199646 135.93800354 317.50000000 0.009743 0.711236 0.702885 1.000000
168.35899353 115.62500000 340.00000000 0.009743 0.711236 0.702885 1.000000
206.25000000 136.71899414 312.50000000 0.009743 0.711236 0.702885 1.000000
175.00000000 125.00000000 342.50000000 0.009743 0.711236 0.702885 1.000000
207.81199646 134.37500000 312.50000000 0.009743 0.711236 0.702885 1.000000
89.84380341 174.21899414 287.50000000 0.041198 0.680473 0.731615 1.000000
98.43750000 156.25000000 302.50000000 0.023838 0.691313 0.722162 1.000000
195.31199646 132.03100586 317.50000000 0.009743 0.711236 0.702885 1.000000
164.06199646 121.87500000 327.50000000 0.009743 0.711236 0.702885 1.000000
238.28100586 120.70300293 330.00000000 0.009743 0.711236 0.702885 1.000000
95.31250000 178.12500000 287.50000000 0.038287 0.682071 0.730283 1.000000
168.75000000 124.21900177 332.50000000 0.009743 0.711236 0.702885 1.000000
96.87500000 178.90600586 287.50000000 0.035386 0.683654 0.728948 1.000000
148.43800354 126.56199646 322.50000000 0.009743 0.711236 0.702885 1.000000
114.84400177 135.93800354 317.50000000 0.009743 0.711236 0.702885 1.000000
109.37500000 154.68800354 307.50000000 0.009743 0.711236 0.702885 1.000000
219.53100586 125.78099823 322.50000000 0.009743 0.711236 0.702885 1.000000
97.65619659 180.46899414 287.50000000 0.035386 0.683654 0.728948 1.000000
116.40599823 140.62500000 317.50000000 0.009743 0.711236 0.702885 1.000000
169.92199707 122.65599823 335.00000000 0.009743 0.711236 0.702885 1.000000
96.87500000 157.03100586 302.50000000 0.023838 0.691313 0.722162 1.000000
108.59400177 137.10899353 320.00000000 0.009743 0.711236 0.702885 1.000000
216.40600586 129.29699707 315.00000000 0.009743 0.711236 0.702885 1.000000
137.50000000 124.21900177 322.50000000 0.009743 0.711236 0.702885 1.000000
258.59399414 116.01599884 355.00000000 0.017997 0.796033 0.604985 1.000000
100.00000000 159.37500000 302.50000000 0.023838 0.691313 0.722162 1.000000
198.43800354 128.90600586 322.50000000 0.009743 0.711236 0.702885 1.000000
219.53100586 128.12500000 317.50000000 0.009743 0.711236 0.702885 1.000000
187.10899353 134.37500000 330.00000000 0.009743 0.711236 0.702885 1.000000
104.29699707 142.18800354 320.00000000 0.009743 0.711236 0.702885 1.000000
189.84399414 135.93800354 322.50000000 0.009743 0.711236 0.702885 1.000000
167.96899414 116.40599823 337.50000000 0.009743 0.711236 0.702885 1.000000
129.29699707 123.43800354 335.00000000 0.009743 0.711236 0.702885 1.000000
133.59399414 121.87500000 332.50000000 0.009743 0.711236 0.702885 1.000000
248.43800354 117.96900177 337.50000000 0.009743 0.711236 0.702885 1.000000
171.87500000 114.84400177 352.50000000 0.009743 0.711236 0.702885 1.000000
158.59399414 117.96900177 327.50000000 0.009743 0.711236 0.702885 1.000000
113.28099823 139.06199646 312.50000000 0.009743 0.711236 0.702885 1.000000
97.65619659 153.90600586 302.50000000 0.023838 0.691313 0.722162 1.000000
266.40600586 119.14099884 365.00000000 0.012276 0.838848 0.544228 1.000000
166.79699707 117.18800354 335.00000000 0.009743 0.711236 0.702885 1.000000
170.31199646 121.09400177 337.50000000 0.009743 0.711236 0.702885 1.000000
109.76599884 143.75000000 310.00000000 0.009743 0.711236 0.702885 1.000000
115.23400116 142.18800354 315.00000000 0.009743 0.711236 0.702885 1.000000
213.28100586 133.59399414 312.50000000 0.009743 0.711236 0.702885 1.000000
205.46899414 128.12500000 317.50000000 0.009743 0.711236 0.702885 1.000000
232.81199646 131.25000000 322.50000000 0.009743 0.711236 0.702885 1.000000
186.71899414 134.76600647 330.00000000 0.009743 0.711236 0.702885 1.000000
164.84399414 116.40599823 332.50000000 0.009743 0.711236 0.702885 1.000000
135.93800354 126.56199646 322.50000000 0.009743 0.711236 0.702885 1.000000
153.90600586 121.09400177 322.50000000 0.009743 0.711236 0.702885 1.000000
230.07800293 133.59399414 320.00000000 0.009743 0.711236 0.702885 1.000000
194.53100586 132.03100586 322.50000000 0.009743 0.711236 0.702885 1.000000
246.87500000 117.96900177 337.50000000 0.009743 0.711236 0.702885 1.000000
175.39100647 118.75000000 345.00000000 0.009743 0.711236 0.702885 1.000000
160.15600586 117.96900177 327.50000000 0.009743 0.711236 0.702885 1.000000
109.37500000 151.56199646 307.50000000 0.009743 0.711236 0.702885 1.000000
260.15600586 121.09400177 352.50000000 0.018016 0.791309 0.611151 1.000000
179.68800354 120.31199646 347.50000000 0.009743 0.711236 0.702885 1.000000
171.09399414 124.21900177 337.50000000 0.009743 0.711236 0.702885 1.000000
250.78100586 115.62500000 347.50000000 0.009742 0.716748 0.697264 1.000000
92.96880341 167.96899414 297.50000000 0.035317 0.685157 0.727538 1.000000
146.09399414 122.65599823 322.50000000 0.009743 0.711236 0.702885 1.000000
96.09380341 158.59399414 302.50000000 0.026693 0.689795 0.723512 1.000000
229.68800354 131.25000000 317.50000000 0.009743 0.711236 0.702885 1.000000
249.21899414 116.01599884 345.00000000 0.009724 0.712608 0.701495 1.000000
102.34400177 163.28100586 297.50000000 0.023838 0.691313 0.722162 1.000000
200.00000000 131.25000000 317.50000000 0.009743 0.711236 0.702885 1.000000
112.50000000 137.50000000 312.50000000 0.009743 0.711236 0.702885 1.000000
107.03099823 140.62500000 312.50000000 0.009743 0.711236 0.702885 1.000000
125.78099823 128.12500000 327.50000000 0.009743 0.711236 0.702885 1.000000
187.50000000 139.84399414 327.50000000 0.009743 0.711236 0.702885 1.000000
91.40619659 169.14100647 295.00000000 0.035386 0.683654 0.728948 1.000000
245.31199646 117.18800354 337.50000000 0.009743 0.711236 0.702885 1.000000
94.92189789 170.31199646 295.00000000 0.035317 0.685157 0.727538 1.000000
107.81199646 159.37500000 302.50000000 0.009743 0.711236 0.702885 1.000000
267.18798828 121.87500000 367.50000000 0.012276 0.838848 0.544228 1.000000
111.71900177 134.76600647 320.00000000 0.009743 0.711236 0.702885 1.000000
108.20300293 137.50000000 320.00000000 0.009743 0.711236 0.702885 1.000000
96.87500000 173.43800354 292.50000000 0.035317 0.685157 0.727538 1.000000
92.96880341 174.21899414 292.50000000 0.035386 0.683654 0.728948 1.000000
94.53119659 174.21899414 292.50000000 0.035386 0.683654 0.728948 1.000000
94.53119659 175.00000000 292.50000000 0.035386 0.683654 0.728948 1.000000
195.31199646 138.28100586 317.50000000 0.009743 0.711236 0.702885 1.000000
103.12500000 150.00000000 307.50000000 0.009743 0.711236 0.702885 1.000000
150.78100586 123.43800354 322.50000000 0.009743 0.711236 0.702885 1.000000
97.65619659 165.62500000 297.50000000 0.026744 0.688318 0.724916 1.000000
100.00000000 157.81199646 302.50000000 0.023838 0.691313 0.722162 1.000000
258.59399414 118.75000000 347.50000000 0.018016 0.791309 0.611151 1.000000
226.56199646 129.68800354 317.50000000 0.009743 0.711236 0.702885 1.000000
236.71899414 121.48400116 330.00000000 0.009743 0.711236 0.702885 1.000000
214.84399414 128.12500000 317.50000000 0.009743 0.711236 0.702885 1.000000
231.25000000 126.56199646 322.50000000 0.009743 0.711236 0.702885 1.000000
230.46899414 131.25000000 317.50000000 0.009743 0.711236 0.702885 1.000000
106.25000000 157.81199646 302.50000000 0.009743 0.711236 0.702885 1.000000
191.40600586 139.06199646 322.50000000 0.009743 0.711236 0.702885 1.000000
261.71899414 117.96900177 352.50000000 0.015213 0.800736 0.598824 1.000000
188.28100586 129.68800354 332.50000000 0.009743 0.711236 0.702885 1.000000
109.37500000 136.71899414 317.50000000 0.009743 0.711236 0.702885 1.000000
121.87500000 148.43800354 312.50000000 0.009743 0.711236 0.702885 1.000000
95.31250000 168.75000000 297.50000000 0.035317 0.685157 0.727538 1.000000
231.64100647 132.03100586 320.00000000 0.009743 0.711236 0.702885 1.000000
