135.93800354 273.43798828 317.50000000 -0.000978 -0.000978 0.999999 0.000000
172.65600586 267.18798828 357.50000000 -0.732797 0.367214 0.572855 0.000000
155.46899414 270.31201172 322.50000000 -0.144838 -0.583833 0.798850 0.000000
131.25000000 206.25000000 427.50000000 -0.000978 -0.000978 0.999999 0.000000
213.28100586 92.96880341 382.50000000 0.000978 0.000978 0.999999 0.000000
73.04689789 173.43800354 250.00000000 0.401880 0.405056 -0.821232 0.000000
225.78100586 164.84399414 417.50000000 0.000978 0.000978 0.999999 0.000000
123.43800354 283.20300293 362.00000000 -0.349079 -0.804954 -0.479784 0.000000
115.62500000 260.15600586 317.50000000 0.000978 0.000978 0.999999 0.000000
85.93750000 266.01599121 360.00000000 0.636789 -0.682625 0.358501 0.000000
154.29699707 267.18798828 320.00000000 -0.321643 -0.735416 0.596414 0.000000
146.87500000 141.40600586 417.50000000 0.000978 0.000978 0.999999 0.000000
133.59399414 173.43800354 332.50000000 0.000978 0.000978 0.999999 0.000000
65.62500000 174.21899414 247.50000000 0.314897 0.186139 -0.930695 0.000000
239.06199646 160.15600586 382.50000000 -0.000978 -0.000978 -0.999999 0.000000
219.53100586 150.00000000 367.50000000 0.561572 0.477756 -0.675563 0.000000
104.68800354 130.46899414 272.50000000 -0.000978 -0.000978 -0.999999 0.000000
253.90600586 143.75000000 387.50000000 0.558883 0.813601 -0.160323 0.000000
82.03119659 108.59400177 317.50000000 -0.706590 -0.706590 0.038232 0.000000
82.03119659 257.03100586 387.50000000 -0.500205 0.645045 0.577678 0.000000
173.43800354 218.35899353 340.00000000 -0.783108 0.586177 0.207700 0.000000
142.96899414 123.04699707 340.00000000 0.873436 -0.103676 -0.475774 0.000000
122.00000000 256.25000000 397.50000000 0.471762 0.121884 0.873261 0.000000
116.40599823 105.46900177 367.50000000 -0.253054 -0.762304 0.595698 0.000000
57.42190170 148.43800354 290.00000000 -0.915379 -0.060311 -0.398049 0.000000
134.37500000 91.79689789 360.00000000 -0.247787 -0.673918 0.696014 0.000000
97.65619659 151.56199646 272.50000000 -0.000978 -0.000978 -0.999999 0.000000
121.87500000 150.78100586 417.50000000 -0.454049 -0.292885 0.841462 0.000000
109.37500000 236.71899414 322.50000000 0.006509 0.907291 0.420452 0.000000
257.03100586 167.96899414 397.50000000 0.000978 0.000978 0.999999 0.000000
167.96899414 174.21899414 337.50000000 -0.551164 0.824541 -0.127870 0.000000
136.71899414 200.00000000 337.50000000 0.000978 0.000978 0.999999 0.000000
94.92189789 152.34399414 390.00000000 -0.804034 -0.505891 0.312416 0.000000
172.00000000 237.50000000 337.50000000 -0.973432 -0.221624 -0.057549 0.000000
91.40619659 158.59399414 272.50000000 0.396822 0.726136 -0.561479 0.000000
68.75000000 192.96899414 272.50000000 0.798218 0.569284 -0.196884 0.000000
60.54690170 135.93800354 302.00000000 -0.967846 -0.237871 0.081807 0.000000
254.68800354 137.89100647 402.00000000 0.044050 -0.689163 0.723266 0.000000
167.96899414 126.56199646 427.50000000 0.000978 0.000978 0.999999 0.000000
69.53119659 188.28100586 382.50000000 -0.917750 -0.392556 0.060290 0.000000
59.37500000 141.79699707 302.00000000 -0.967101 -0.240830 0.081958 0.000000
236.71899414 151.56199646 382.50000000 -0.000978 -0.000978 -0.999999 0.000000
91.40619659 205.46899414 417.50000000 -0.187247 0.071275 0.979724 0.000000
235.93800354 91.40619659 347.50000000 0.871483 -0.457051 -0.177824 0.000000
85.15619659 198.43800354 412.50000000 0.000978 0.000978 0.999999 0.000000
167.18800354 87.50000000 367.50000000 -0.319326 -0.640274 0.698628 0.000000
243.75000000 187.50000000 397.50000000 -0.581753 0.813364 -0.001362 0.000000
129.68800354 228.12500000 332.50000000 0.000978 0.000978 0.999999 0.000000
164.06199646 116.01599884 370.00000000 -0.292660 0.156539 -0.943317 0.000000
97.65619659 178.90600586 417.50000000 0.000978 0.000978 0.999999 0.000000
279.68798828 146.09399414 402.50000000 0.145620 -0.925031 -0.350874 0.000000
117.18800354 281.25000000 357.50000000 -0.160012 -0.980837 -0.111153 0.000000
101.95300293 96.87500000 280.00000000 -0.381297 -0.898460 -0.217676 0.000000
75.78119659 176.17199707 390.00000000 -0.893569 -0.447457 0.036280 0.000000
189.06199646 89.06250000 372.50000000 0.330904 -0.904471 0.269135 0.000000
124.21900177 167.18800354 432.50000000 0.000978 0.000978 0.999999 0.000000
157.81199646 200.00000000 332.50000000 0.000978 0.000978 0.999999 0.000000
69.92189789 186.71899414 340.00000000 -0.868867 0.174949 0.463102 0.000000
134.37500000 99.21880341 377.50000000 0.000978 0.000978 0.999999 0.000000
84.37500000 261.71899414 387.50000000 -0.440056 0.246492 0.863477 0.000000
160.93800354 277.73400879 342.00000000 0.000978 0.000978 0.999999 0.000000
194.53100586 172.00000000 417.50000000 0.000978 0.000978 0.999999 0.000000
61.71879959 201.56199646 327.50000000 -0.831749 0.264859 0.487897 0.000000
122.65599823 239.06199646 322.50000000 -0.985520 0.113760 0.125735 0.000000
189.84399414 98.43750000 392.50000000 -0.001299 -0.905318 0.424733 0.000000
107.81199646 227.34399414 332.50000000 -0.118622 0.220663 0.968110 0.000000
182.81199646 199.21899414 387.50000000 0.561624 0.806862 0.183171 0.000000
51.56250000 164.06199646 292.50000000 -0.671037 -0.671037 -0.315307 0.000000
85.93750000 153.90600586 372.50000000 -0.671037 -0.671037 0.315307 0.000000
248.43800354 153.12500000 407.50000000 0.000978 0.000978 0.999999 0.000000
178.12500000 203.90600586 397.50000000 0.993204 -0.068925 -0.093784 0.000000
153.90600586 118.75000000 352.50000000 0.740044 -0.243539 -0.626916 0.000000
115.62500000 114.84400177 277.50000000 0.800671 0.230754 -0.552881 0.000000
178.12500000 132.81199646 352.50000000 -0.172067 0.236093 -0.956375 0.000000
116.79699707 167.96899414 330.00000000 0.125998 -0.950956 0.282502 0.000000
174.21899414 167.18800354 362.50000000 -0.495950 -0.757837 -0.423930 0.000000
147.65600586 143.75000000 417.50000000 0.000978 0.000978 0.999999 0.000000
89.84380341 270.70300293 362.00000000 0.702740 -0.702740 0.110959 0.000000
103.12500000 241.40600586 322.50000000 0.000978 0.000978 0.999999 0.000000
189.06199646 165.62500000 357.50000000 -0.000978 -0.000978 -0.999999 0.000000
98.43750000 209.37500000 417.50000000 0.000978 0.000978 0.999999 0.000000
226.56199646 173.82800293 390.00000000 0.093937 0.573736 -0.813636 0.000000
158.59399414 238.28100586 327.50000000 -0.278070 0.405708 0.870677 0.000000
162.10899353 267.96899414 370.00000000 0.483582 0.722880 0.493552 0.000000
92.18750000 264.84399414 342.50000000 0.446689 -0.894688 -0.001310 0.000000
226.56199646 162.89100647 380.00000000 0.709167 0.601072 -0.368505 0.000000
184.37500000 193.75000000 347.50000000 -0.905318 -0.001299 0.424733 0.000000
93.75000000 171.87500000 417.50000000 -0.516145 -0.080603 0.852700 0.000000
67.96880341 177.34399414 247.50000000 0.374983 0.581306 -0.722129 0.000000
144.53100586 267.18798828 317.50000000 -0.000978 -0.000978 0.999999 0.000000
116.40599823 282.42199707 362.00000000 0.453432 -0.792295 -0.408250 0.000000
69.53119659 176.95300293 250.00000000 0.399869 0.551259 -0.732269 0.000000
163.28100586 139.84399414 417.50000000 0.000978 0.000978 0.999999 0.000000
117.96900177 271.09399414 317.50000000 0.000978 0.000978 0.999999 0.000000
129.29699707 156.25000000 342.00000000 0.866594 -0.384982 -0.317495 0.000000
89.84380341 122.00000000 362.50000000 0.000978 0.000978 0.999999 0.000000
179.29699707 234.37500000 350.00000000 -0.987072 -0.159790 0.012466 0.000000
60.15620041 178.12500000 247.50000000 -0.000978 -0.000978 -0.999999 0.000000
85.93750000 106.64099884 272.00000000 -0.431249 -0.860973 -0.269721 0.000000
270.31201172 163.28100586 397.50000000 -0.686466 0.405263 -0.603760 0.000000
161.71899414 274.21899414 337.50000000 -0.547766 -0.828223 -0.118318 0.000000
104.68800354 114.84400177 262.50000000 0.965588 0.167646 -0.198836 0.000000
89.06250000 203.90600586 417.50000000 -0.313098 -0.026406 0.949354 0.000000
97.65619659 139.84399414 272.50000000 -0.000978 -0.000978 -0.999999 0.000000
232.03100586 175.78100586 407.50000000 0.000978 0.000978 0.999999 0.000000
89.84380341 235.15600586 322.50000000 0.000978 0.000978 0.999999 0.000000
110.93800354 180.46899414 332.50000000 0.051670 -0.380241 0.923443 0.000000
95.31250000 111.71900177 352.50000000 -0.532518 -0.589996 0.606901 0.000000
244.53100586 103.90599823 352.50000000 -0.000978 -0.000978 -0.999999 0.000000
253.90600586 129.68800354 387.50000000 0.795152 -0.594520 -0.119494 0.000000
221.87500000 128.90600586 357.50000000 0.357510 0.327084 -0.874759 0.000000
169.53100586 190.62500000 342.50000000 -0.654360 0.073670 0.752586 0.000000
231.25000000 152.34399414 417.50000000 0.587563 -0.493283 0.641437 0.000000
168.75000000 114.06199646 342.50000000 -0.281782 0.848425 -0.448079 0.000000
81.25000000 218.75000000 322.50000000 0.000978 0.000978 0.999999 0.000000
143.75000000 228.90600586 327.50000000 -0.082930 0.755099 0.650345 0.000000
168.75000000 214.84399414 382.50000000 0.000978 0.000978 0.999999 0.000000
62.50000000 178.90600586 247.50000000 -0.000978 -0.000978 -0.999999 0.000000
200.00000000 195.31199646 367.50000000 -0.213170 0.937669 -0.274474 0.000000
197.65600586 191.40600586 397.50000000 -0.292712 -0.734180 0.612617 0.000000
252.34399414 114.06199646 372.50000000 0.576396 -0.816907 -0.020734 0.000000
168.75000000 238.28100586 332.50000000 0.000978 0.000978 0.999999 0.000000
161.32800293 232.03100586 392.00000000 0.456852 0.719334 0.523303 0.000000
78.12500000 155.46899414 357.50000000 -0.833095 0.046050 0.551210 0.000000
159.37500000 275.39099121 332.00000000 -0.609614 -0.771566 0.181815 0.000000
108.59400177 257.03100586 402.50000000 0.027496 0.223552 0.974304 0.000000
153.12500000 117.96900177 412.50000000 -0.781572 -0.507619 0.362585 0.000000
67.96880341 159.76600647 342.00000000 -0.799300 0.230359 0.555026 0.000000
75.39060211 176.56199646 382.00000000 -0.893569 -0.447457 0.036280 0.000000
149.21899414 258.59399414 322.50000000 0.000978 0.000978 0.999999 0.000000
98.43750000 105.07800293 350.00000000 -0.441111 -0.806833 0.392990 0.000000
169.53100586 202.34399414 417.50000000 0.545437 0.805022 0.233317 0.000000
256.25000000 141.40600586 382.50000000 0.932726 -0.182641 0.310909 0.000000
180.46899414 107.03099823 407.50000000 -0.195382 -0.857591 0.475777 0.000000
158.59399414 142.18800354 357.50000000 0.209841 0.250987 -0.944972 0.000000
99.21880341 269.14099121 322.00000000 0.446170 -0.670090 0.593222 0.000000
60.15620041 182.03100586 332.50000000 -0.542532 0.172829 0.822064 0.000000
210.93800354 177.34399414 387.50000000 0.169611 0.936308 -0.307506 0.000000
94.53119659 104.68800354 342.50000000 -0.683284 -0.596834 0.420610 0.000000
155.46899414 264.84399414 382.50000000 -0.001371 0.788169 0.615457 0.000000
220.31199646 172.26600647 412.00000000 0.441797 0.481214 0.757132 0.000000
124.21900177 281.64099121 352.00000000 0.461170 -0.201482 0.864134 0.000000
126.56199646 242.96899414 402.50000000 0.300342 0.627989 0.717931 0.000000
126.56199646 164.06199646 432.50000000 0.000978 0.000978 0.999999 0.000000
173.43800354 183.59399414 332.50000000 0.000978 0.000978 0.999999 0.000000
60.15620041 180.46899414 247.50000000 -0.000978 -0.000978 -0.999999 0.000000
60.93750000 180.46899414 247.50000000 -0.000978 -0.000978 -0.999999 0.000000
196.09399414 137.50000000 427.50000000 0.000978 0.000978 0.999999 0.000000
228.90600586 110.93800354 352.50000000 0.624305 -0.780730 -0.026536 0.000000
85.93750000 164.06199646 397.50000000 -0.427733 -0.630782 0.647425 0.000000
76.56250000 210.93800354 322.50000000 -0.000978 -0.000978 0.999999 0.000000
182.03100586 203.90600586 382.50000000 0.439478 0.291444 0.849658 0.000000
80.46880341 208.59399414 407.50000000 -0.981259 0.100923 0.164151 0.000000
232.81199646 170.31199646 407.50000000 0.711284 0.471413 0.521387 0.000000
124.21900177 259.37500000 397.50000000 0.503775 0.234279 0.831459 0.000000
113.28099823 169.53100586 427.50000000 0.000978 0.000978 0.999999 0.000000
161.32800293 83.59380341 350.00000000 -0.087007 -0.845823 0.526321 0.000000
135.93800354 286.32800293 360.00000000 -0.358607 -0.898732 0.252353 0.000000
155.46899414 159.37500000 362.50000000 -0.402696 0.611502 0.681103 0.000000
172.00000000 162.50000000 377.50000000 -0.151722 -0.959144 -0.238796 0.000000
100.00000000 97.65619659 282.50000000 -0.381297 -0.898460 -0.217676 0.000000
97.65619659 250.00000000 402.50000000 -0.017484 0.482826 0.875542 0.000000
100.00000000 182.81199646 332.50000000 -0.000978 -0.000978 -0.999999 0.000000
251.56199646 112.89099884 372.00000000 0.284458 -0.132213 0.949528 0.000000
117.18800354 149.60899353 300.00000000 0.920864 0.307909 -0.239167 0.000000
114.84400177 236.71899414 322.50000000 0.060800 0.945627 0.319521 0.000000
113.28099823 202.34399414 337.50000000 0.000978 0.000978 0.999999 0.000000
222.00000000 147.65600586 417.50000000 0.000978 0.000978 0.999999 0.000000
99.21880341 231.25000000 327.50000000 -0.297130 0.727567 0.618352 0.000000
130.46899414 153.90600586 347.50000000 0.708386 -0.018164 -0.705591 0.000000
57.03120041 174.21899414 257.50000000 0.000978 0.000978 -0.999999 0.000000
109.37500000 168.75000000 322.50000000 -0.199085 -0.542544 0.816095 0.000000
162.50000000 119.53099823 417.50000000 0.000978 0.000978 0.999999 0.000000
135.15600586 157.81199646 352.50000000 0.001345 0.848828 0.528668 0.000000
171.09399414 253.12500000 372.50000000 0.735004 0.142792 0.662857 0.000000
252.34399414 185.93800354 397.50000000 0.462810 -0.248970 0.850776 0.000000
73.82810211 244.53100586 362.00000000 -0.968892 0.176279 -0.173706 0.000000
274.21899414 145.31199646 402.50000000 -0.185655 -0.931068 0.314078 0.000000
78.12500000 222.00000000 317.50000000 -0.471591 0.589070 0.656200 0.000000
81.25000000 125.78099823 352.50000000 -0.695678 -0.535522 0.478800 0.000000
242.96899414 168.35899353 392.00000000 -0.659173 -0.445568 0.605772 0.000000
142.96899414 169.53100586 332.50000000 0.000978 0.000978 0.999999 0.000000
120.31199646 170.31199646 332.50000000 -0.238880 -0.089738 0.966894 0.000000
217.96899414 103.51599884 392.00000000 0.500521 -0.764640 0.405960 0.000000
144.53100586 154.68800354 357.50000000 0.000978 0.000978 0.999999 0.000000
177.73399353 154.68800354 380.00000000 -0.351373 0.648815 -0.674964 0.000000
91.01560211 145.31199646 370.00000000 -0.472102 -0.630030 0.616589 0.000000
222.00000000 116.40599823 352.50000000 0.617444 0.307916 -0.723844 0.000000
104.29699707 94.53119659 320.00000000 -0.421496 -0.905881 0.041481 0.000000
223.43800354 152.34399414 372.50000000 0.566049 0.220558 -0.794319 0.000000
109.37500000 179.68800354 427.50000000 0.000978 0.000978 0.999999 0.000000
274.21899414 157.81199646 402.50000000 -0.799672 -0.544026 -0.254087 0.000000
55.07809830 160.15600586 260.00000000 -0.696975 -0.275919 -0.661887 0.000000
140.62500000 121.87500000 402.50000000 -0.096138 -0.306850 0.946890 0.000000
96.09380341 151.56199646 272.50000000 0.426793 0.294287 -0.855127 0.000000
109.37500000 91.79689789 300.00000000 -0.000978 -0.000978 -0.999999 0.000000
214.06199646 137.10899353 360.00000000 0.226128 0.530710 -0.816831 0.000000
181.25000000 134.37500000 352.50000000 -0.000978 -0.000978 -0.999999 0.000000
72.26560211 246.09399414 372.00000000 -0.859066 0.402543 -0.316173 0.000000
231.25000000 174.21899414 397.50000000 -0.000978 -0.000978 -0.999999 0.000000
224.21899414 150.00000000 372.50000000 0.163687 0.271909 -0.948300 0.000000
113.67199707 146.09399414 310.00000000 0.702740 -0.702740 0.110959 0.000000
226.56199646 162.50000000 417.50000000 0.000978 0.000978 0.999999 0.000000
191.40600586 141.40600586 357.50000000 -0.000978 -0.000978 -0.999999 0.000000
142.96899414 160.15600586 427.50000000 0.000978 0.000978 0.999999 0.000000
95.31250000 208.59399414 417.50000000 0.000978 0.000978 0.999999 0.000000
106.25000000 97.65619659 272.50000000 -0.671037 -0.671037 -0.315307 0.000000
242.96899414 105.46900177 352.50000000 -0.000978 -0.000978 -0.999999 0.000000
142.96899414 130.46899414 412.50000000 -0.153349 -0.555333 0.817367 0.000000
114.06199646 163.28100586 427.50000000 0.000978 0.000978 0.999999 0.000000
151.56199646 273.43798828 372.50000000 0.312246 0.158186 0.936739 0.000000
192.57800293 125.78099823 350.00000000 0.394404 0.495034 -0.774201 0.000000
206.25000000 178.12500000 392.50000000 -0.206860 0.920172 -0.332403 0.000000
204.68800354 190.62500000 407.50000000 0.243392 0.932768 0.265902 0.000000
65.23439789 214.06199646 372.00000000 0.994578 0.014100 0.103037 0.000000
139.06199646 113.28099823 392.50000000 -0.594390 -0.744990 0.302803 0.000000
178.90600586 241.40600586 372.50000000 -0.000978 -0.000978 0.999999 0.000000
71.09380341 128.90600586 262.50000000 -0.693337 -0.683946 -0.226939 0.000000
178.90600586 226.56199646 387.50000000 0.000978 0.000978 0.999999 0.000000
86.71880341 154.68800354 257.50000000 0.919430 0.263311 -0.292088 0.000000
125.39099884 163.28100586 330.00000000 -0.330437 -0.669013 0.665757 0.000000
176.17199707 200.00000000 370.00000000 -0.842867 -0.535353 0.054514 0.000000
85.54689789 214.06199646 330.00000000 0.898732 -0.358607 -0.252353 0.000000
228.90600586 109.76599884 350.00000000 0.382164 0.449323 -0.807502 0.000000
92.18750000 160.93800354 397.50000000 -0.543814 -0.746315 0.383772 0.000000
179.68800354 232.81199646 372.50000000 0.000978 0.000978 0.999999 0.000000
250.78100586 152.73399353 382.00000000 0.342384 0.194633 -0.919180 0.000000
180.46899414 202.34399414 407.50000000 0.554502 0.831055 -0.043299 0.000000
231.25000000 180.46899414 407.50000000 0.000978 0.000978 0.999999 0.000000
53.90620041 198.43800354 312.50000000 -0.987889 -0.001116 0.155160 0.000000
245.31199646 171.09399414 407.50000000 0.000978 0.000978 0.999999 0.000000
83.59380341 199.21899414 412.50000000 -0.473126 0.115780 0.873354 0.000000
107.03099823 203.90600586 337.50000000 0.000978 0.000978 0.999999 0.000000
165.62500000 185.15600586 332.50000000 -0.088290 -0.210154 0.973673 0.000000
156.25000000 157.81199646 417.50000000 0.256606 -0.596648 0.760372 0.000000
266.40600586 184.37500000 402.50000000 0.215900 0.531328 0.819194 0.000000
111.71900177 163.28100586 427.50000000 -0.370756 -0.343064 0.863045 0.000000
127.34400177 281.25000000 342.50000000 -0.242649 -0.969377 0.037800 0.000000
78.51560211 226.56199646 320.00000000 -0.487006 0.467196 0.737938 0.000000
244.53100586 138.28100586 407.50000000 0.000978 0.000978 0.999999 0.000000
205.46899414 185.93800354 392.50000000 0.459239 -0.887320 0.041995 0.000000
161.71899414 121.09400177 417.50000000 0.000978 0.000978 0.999999 0.000000
246.09399414 129.68800354 402.50000000 -0.001257 -0.350710 0.936483 0.000000
134.37500000 264.84399414 317.50000000 0.000978 0.000978 0.999999 0.000000
155.46899414 278.51599121 332.00000000 -0.615195 -0.770133 0.168609 0.000000
278.90600586 145.31199646 402.50000000 0.001125 -0.986605 -0.163122 0.000000
181.25000000 198.43800354 352.50000000 -0.672312 -0.718256 0.179181 0.000000
54.68750000 167.18800354 272.50000000 -0.365258 0.877528 0.310696 0.000000
59.37500000 195.70300293 322.00000000 -0.701960 0.495207 0.511881 0.000000
221.09399414 93.75000000 342.50000000 -0.000978 -0.000978 -0.999999 0.000000
110.15599823 237.50000000 322.50000000 -0.111105 0.515125 0.849884 0.000000
91.01560211 102.34400177 282.00000000 -0.545992 -0.819740 -0.172973 0.000000
232.03100586 185.93800354 397.50000000 -0.000978 -0.000978 -0.999999 0.000000
139.06199646 203.90600586 337.50000000 0.000978 0.000978 0.999999 0.000000
264.84399414 111.71900177 372.50000000 0.915925 -0.385435 0.111900 0.000000
248.43800354 132.42199707 402.00000000 0.196132 -0.239416 0.950901 0.000000
74.21880341 222.00000000 402.50000000 -0.540389 -0.040286 0.840450 0.000000
239.06199646 146.87500000 412.50000000 0.000978 0.000978 0.999999 0.000000
112.50000000 123.43800354 377.50000000 0.000978 -0.999999 0.000978 0.000000
116.79699707 119.53099823 282.00000000 0.908465 0.331014 -0.255187 0.000000
119.53099823 132.03100586 392.50000000 -0.330430 -0.662488 0.672254 0.000000
157.81199646 274.21899414 367.50000000 0.379861 0.453589 0.806203 0.000000
176.56199646 217.18800354 392.50000000 0.833928 -0.277976 0.476752 0.000000
137.50000000 197.65600586 337.50000000 0.000978 0.000978 0.999999 0.000000
107.81199646 244.53100586 322.50000000 -0.013886 0.339581 0.940474 0.000000
150.78100586 207.81199646 337.50000000 0.464966 0.458394 0.757418 0.000000
236.71899414 152.34399414 382.50000000 -0.000978 -0.000978 -0.999999 0.000000
164.06199646 103.90599823 342.50000000 -0.000978 -0.000978 -0.999999 0.000000
112.50000000 144.92199707 310.00000000 0.702740 -0.702740 0.110959 0.000000
57.03120041 155.07800293 272.00000000 -0.966663 -0.254770 0.025599 0.000000
96.09380341 97.65619659 292.50000000 -0.288396 -0.954912 -0.070497 0.000000
253.90600586 158.59399414 397.50000000 0.000978 0.000978 0.999999 0.000000
92.18750000 217.18800354 412.50000000 0.000978 0.000978 0.999999 0.000000
208.59399414 189.06199646 382.50000000 -0.096283 -0.891663 -0.442343 0.000000
196.09399414 159.37500000 362.50000000 -0.209927 0.142956 -0.967209 0.000000
71.09380341 224.21899414 347.50000000 -0.937573 0.244523 0.247318 0.000000
51.95309830 167.96899414 302.00000000 -0.970748 -0.219768 0.096698 0.000000
138.28100586 236.71899414 407.50000000 0.608965 0.688180 0.394424 0.000000
53.12500000 169.53100586 317.50000000 -0.446663 -0.891952 0.070092 0.000000
142.57800293 185.15600586 430.00000000 0.559669 0.509248 0.653787 0.000000
233.59399414 114.84400177 352.50000000 0.857623 -0.400224 -0.322961 0.000000
198.43800354 187.50000000 392.50000000 0.000978 0.000978 0.999999 0.000000
147.65600586 114.84400177 402.50000000 -0.636531 -0.545357 0.545357 0.000000
237.50000000 141.40600586 412.50000000 0.000978 0.000978 0.999999 0.000000
245.31199646 116.79699707 390.00000000 0.482194 -0.763338 0.429888 0.000000
207.81199646 188.28100586 372.50000000 -0.763798 -0.572450 0.298184 0.000000
172.26600647 267.96899414 362.00000000 0.274876 -0.827733 0.489185 0.000000
212.50000000 136.71899414 357.50000000 -0.852811 0.501739 -0.144817 0.000000
255.46899414 177.34399414 397.50000000 0.000978 0.000978 0.999999 0.000000
112.50000000 138.28100586 387.50000000 -0.695937 0.136782 0.704956 0.000000
73.04689789 117.18800354 290.00000000 -0.801740 -0.539182 -0.257869 0.000000
111.71900177 204.68800354 337.50000000 0.000978 0.000978 0.999999 0.000000
198.43800354 128.12500000 352.50000000 -0.038867 0.435582 -0.899310 0.000000
90.62500000 100.39099884 310.00000000 -0.568989 -0.820305 -0.057887 0.000000
100.78099823 250.00000000 402.50000000 0.000978 0.000978 0.999999 0.000000
103.90599823 144.92199707 390.00000000 -0.542678 -0.660286 0.519156 0.000000
186.71899414 141.40600586 422.50000000 0.803757 0.402681 0.437975 0.000000
145.31199646 247.65600586 322.50000000 0.000978 0.000978 0.999999 0.000000
214.84399414 174.21899414 382.50000000 0.967851 0.132038 -0.214081 0.000000
99.21880341 144.53100586 272.50000000 -0.000978 -0.000978 -0.999999 0.000000
102.34400177 147.65600586 392.50000000 -0.520204 -0.749948 0.408615 0.000000
157.81199646 97.26560211 382.00000000 -0.139596 -0.974656 0.174809 0.000000
83.59380341 233.20300293 320.00000000 -0.340246 0.424916 0.838856 0.000000
84.37500000 249.21899414 317.50000000 0.000978 0.000978 0.999999 0.000000
78.12500000 116.79699707 332.00000000 -0.671037 -0.671037 0.315307 0.000000
265.62500000 180.46899414 402.50000000 0.153443 0.954013 -0.257517 0.000000
75.78119659 250.78100586 367.50000000 -0.671037 0.671037 -0.315307 0.000000
159.37500000 96.87500000 367.50000000 0.038231 -0.700903 0.712231 0.000000
142.96899414 168.75000000 332.50000000 0.000978 0.000978 0.999999 0.000000
158.59399414 237.50000000 392.50000000 0.695678 0.535522 0.478800 0.000000
192.96899414 81.64060211 370.00000000 -0.452683 -0.488898 0.745692 0.000000
96.87500000 280.85900879 370.00000000 0.414478 -0.824193 -0.385894 0.000000
83.98439789 172.00000000 270.00000000 0.825207 0.413396 0.384886 0.000000
98.43750000 116.40599823 252.50000000 0.920929 0.383160 -0.071254 0.000000
69.53119659 203.90600586 347.50000000 -0.951489 0.137068 0.275466 0.000000
212.50000000 154.68800354 417.50000000 0.000978 0.000978 0.999999 0.000000
176.95300293 217.18800354 370.00000000 0.614352 -0.246684 0.749479 0.000000
120.31199646 283.59399414 357.50000000 -0.006815 -0.824619 0.565648 0.000000
157.03100586 107.81199646 402.50000000 -0.316601 -0.947241 0.049990 0.000000
239.06199646 117.18800354 397.50000000 -0.405556 0.677031 0.614128 0.000000
82.03119659 194.53100586 322.50000000 0.481599 0.288336 -0.827602 0.000000
50.39059830 186.71899414 290.00000000 -0.983446 -0.163709 -0.077672 0.000000
98.43750000 171.87500000 322.50000000 0.258082 0.873858 -0.412026 0.000000
79.29689789 180.46899414 302.00000000 0.679107 0.388297 -0.622928 0.000000
89.84380341 136.71899414 367.50000000 -0.642757 0.182549 0.744002 0.000000
183.59399414 85.54689789 370.00000000 -0.259157 -0.259157 0.930417 0.000000
164.84399414 266.40600586 367.50000000 0.539539 0.597045 0.593662 0.000000
212.89100647 174.21899414 362.00000000 0.578850 0.012374 -0.815340 0.000000
167.18800354 190.23399353 332.00000000 -0.788456 0.004128 0.615078 0.000000
233.59399414 135.93800354 412.50000000 0.000978 0.000978 0.999999 0.000000
118.75000000 91.01560211 332.00000000 -0.184192 -0.937580 0.294985 0.000000
276.56201172 146.09399414 397.50000000 0.224754 -0.949416 -0.219306 0.000000
218.75000000 110.15599823 402.50000000 0.541671 -0.615919 0.572045 0.000000
253.90600586 96.87500000 357.50000000 0.779549 -0.356688 -0.514857 0.000000
241.40600586 185.15600586 407.50000000 0.000978 0.000978 0.999999 0.000000
280.46899414 160.93800354 402.50000000 -0.927432 -0.154340 0.340661 0.000000
164.84399414 214.06199646 407.50000000 0.106057 0.915944 0.387038 0.000000
162.50000000 189.84399414 422.50000000 -0.083202 0.326203 0.941631 0.000000
232.81199646 110.93800354 392.50000000 -0.000978 -0.000978 0.999999 0.000000
186.71899414 143.75000000 357.50000000 -0.000978 -0.000978 -0.999999 0.000000
142.18800354 228.12500000 327.50000000 0.000978 0.000978 0.999999 0.000000
207.81199646 200.00000000 377.50000000 -0.000978 -0.000978 -0.999999 0.000000
130.46899414 199.21899414 337.50000000 0.000978 0.000978 0.999999 0.000000
174.21899414 193.75000000 342.50000000 0.000978 0.000978 0.999999 0.000000
172.00000000 236.71899414 342.50000000 -0.944591 -0.305956 0.118909 0.000000
69.14060211 189.06199646 372.00000000 -0.979973 -0.196938 0.029482 0.000000
194.53100586 169.53100586 417.50000000 0.000978 0.000978 0.999999 0.000000
177.34399414 204.68800354 357.50000000 -0.851038 -0.410792 0.327084 0.000000
143.75000000 235.93800354 402.50000000 0.000978 0.000978 0.999999 0.000000
180.46899414 140.62500000 357.50000000 -0.000978 -0.000978 -0.999999 0.000000
179.68800354 200.00000000 392.50000000 0.645705 0.561409 0.517576 0.000000
170.31199646 255.46899414 332.50000000 -0.804396 0.128408 0.580051 0.000000
68.35939789 202.34399414 362.00000000 0.988027 0.136804 0.071325 0.000000
167.18800354 251.56199646 377.50000000 0.000978 0.000978 0.999999 0.000000
93.35939789 171.87500000 320.00000000 -0.356577 0.890697 0.281979 0.000000
216.40600586 165.62500000 372.50000000 0.475334 0.202429 -0.856201 0.000000
171.87500000 222.00000000 397.50000000 0.898732 0.358607 0.252353 0.000000
85.93750000 112.50000000 262.50000000 -0.551941 -0.777808 -0.300625 0.000000
178.90600586 237.50000000 352.50000000 -0.989272 -0.134744 0.056431 0.000000
81.25000000 244.53100586 317.50000000 0.000978 0.000978 0.999999 0.000000
157.03100586 96.48439789 380.00000000 -0.139596 -0.974656 0.174809 0.000000
109.37500000 147.65600586 407.50000000 -0.582412 -0.776029 0.242021 0.000000
156.25000000 206.25000000 417.50000000 0.139939 0.175239 0.974530 0.000000
237.50000000 103.12500000 377.50000000 -0.344530 -0.220557 0.912499 0.000000
141.40600586 155.46899414 357.50000000 0.000978 0.000978 0.999999 0.000000
213.28100586 113.28099823 412.50000000 0.000978 0.000978 0.999999 0.000000
110.15599823 91.79689789 320.00000000 -0.416102 -0.894116 0.165577 0.000000
275.78100586 163.28100586 397.50000000 -0.000978 -0.000978 -0.999999 0.000000
70.31250000 153.90600586 347.50000000 -0.861589 0.068647 0.502944 0.000000
178.90600586 243.75000000 352.50000000 -0.953230 0.008632 0.302123 0.000000
110.15599823 235.93800354 327.50000000 -0.916364 0.367390 0.159062 0.000000
224.21899414 108.59400177 347.50000000 0.537382 0.434866 -0.722573 0.000000
51.95309830 188.28100586 280.00000000 -0.987889 -0.001116 -0.155160 0.000000
157.81199646 154.68800354 367.50000000 0.795246 -0.532799 0.289324 0.000000
168.75000000 190.62500000 337.50000000 -0.316601 0.947241 0.049990 0.000000
214.06199646 185.93800354 397.50000000 -0.000978 -0.000978 -0.999999 0.000000
177.34399414 125.39099884 350.00000000 -0.484566 0.477951 -0.732638 0.000000
158.20300293 102.34400177 370.00000000 -0.364239 -0.364239 0.857123 0.000000
100.00000000 137.50000000 272.50000000 -0.000978 -0.000978 -0.999999 0.000000
67.96880341 200.00000000 397.50000000 -0.595035 0.148384 0.789883 0.000000
104.68800354 137.50000000 382.50000000 -0.633413 -0.685789 0.358443 0.000000
168.75000000 209.37500000 382.50000000 0.000978 0.000978 0.999999 0.000000
114.84400177 181.25000000 332.50000000 -0.022297 -0.410535 0.911572 0.000000
234.37500000 150.00000000 412.50000000 -0.239205 -0.365411 0.899586 0.000000
139.84399414 108.59400177 327.50000000 0.905318 -0.001299 -0.424733 0.000000
162.50000000 167.18800354 422.50000000 0.000978 0.000978 0.999999 0.000000
67.96880341 219.14100647 340.00000000 -0.933552 0.254861 0.252045 0.000000
232.81199646 95.31250000 342.50000000 -0.000978 -0.000978 -0.999999 0.000000
110.15599823 269.53100586 392.50000000 -0.022498 0.901233 0.432751 0.000000
167.18800354 85.93750000 352.50000000 -0.507146 -0.847215 0.158206 0.000000
241.40600586 132.03100586 372.50000000 0.530969 0.688417 -0.494119 0.000000
214.06199646 146.09399414 417.50000000 0.335174 0.293463 0.895286 0.000000
236.71899414 94.53119659 372.50000000 0.222994 -0.403161 0.887544 0.000000
218.75000000 151.56199646 417.50000000 0.000978 0.000978 0.999999 0.000000
240.62500000 167.18800354 392.50000000 -0.659401 -0.612659 0.435706 0.000000
203.90600586 146.09399414 422.50000000 0.258278 0.667086 0.698777 0.000000
69.14060211 223.43800354 340.00000000 -0.923009 0.281911 0.261877 0.000000
61.71879959 188.28100586 257.50000000 -0.848070 0.466056 -0.252129 0.000000
96.87500000 196.09399414 332.50000000 0.825060 0.109135 -0.554405 0.000000
144.53100586 142.18800354 352.50000000 0.480199 0.434310 -0.762091 0.000000
210.15600586 178.12500000 362.50000000 0.804336 0.070004 -0.590037 0.000000
121.87500000 97.65619659 362.50000000 -0.000978 -0.000978 0.999999 0.000000
114.06199646 130.46899414 322.50000000 0.558370 0.675746 -0.481238 0.000000
90.62500000 179.68800354 417.50000000 0.000978 0.000978 0.999999 0.000000
174.21899414 223.43800354 372.50000000 0.000978 0.000978 0.999999 0.000000
271.87500000 169.53100586 402.50000000 0.197080 0.097920 -0.975485 0.000000
192.18800354 135.93800354 427.50000000 0.000978 0.000978 0.999999 0.000000
130.46899414 228.12500000 332.50000000 0.000978 0.000978 0.999999 0.000000
103.90599823 235.93800354 412.50000000 -0.540252 0.405599 0.737304 0.000000
147.65600586 208.59399414 337.50000000 0.133360 0.347836 0.928022 0.000000
269.53100586 170.31199646 397.50000000 -0.387452 -0.704008 0.595192 0.000000
127.34400177 118.75000000 387.50000000 -0.671079 -0.347785 0.654751 0.000000
116.40599823 112.50000000 277.50000000 0.616226 0.064339 -0.784937 0.000000
226.56199646 153.12500000 372.50000000 -0.000978 -0.000978 -0.999999 0.000000
146.87500000 182.81199646 427.50000000 0.369381 -0.068009 0.926786 0.000000
117.96900177 89.84380341 292.50000000 -0.368685 -0.921022 -0.125657 0.000000
122.65599823 253.12500000 317.50000000 -0.270917 0.145468 0.951548 0.000000
149.21899414 162.10899353 422.00000000 0.696189 -0.499186 0.515881 0.000000
223.43800354 175.78100586 412.50000000 0.326524 0.245256 0.912815 0.000000
97.65619659 172.65600586 322.50000000 0.348028 0.762424 -0.545514 0.000000
162.50000000 143.75000000 417.50000000 0.000978 0.000978 0.999999 0.000000
147.65600586 167.96899414 427.50000000 0.080309 -0.327817 0.941322 0.000000
251.56199646 104.68800354 372.50000000 0.724142 -0.508722 0.465638 0.000000
86.71880341 259.37500000 342.50000000 0.869716 -0.493332 0.014787 0.000000
108.59400177 252.34399414 402.50000000 0.000978 0.000978 0.999999 0.000000
116.40599823 241.40600586 407.50000000 0.000978 0.000978 0.999999 0.000000
142.96899414 105.85900116 380.00000000 -0.651187 -0.631201 0.421356 0.000000
208.59399414 178.12500000 392.50000000 -0.021191 0.953576 -0.300407 0.000000
92.18750000 137.50000000 367.50000000 0.000978 0.000978 0.999999 0.000000
67.96880341 203.12500000 342.50000000 -0.920864 0.307909 0.239167 0.000000
147.65600586 192.18800354 422.50000000 0.676202 0.491631 0.548680 0.000000
185.93800354 161.71899414 372.50000000 -0.067945 0.706917 -0.704026 0.000000
227.34399414 81.25000000 362.50000000 0.308760 -0.805942 0.505099 0.000000
73.82810211 172.65600586 360.00000000 -0.949175 -0.314746 0.001234 0.000000
111.71900177 157.81199646 302.50000000 0.358820 0.891840 -0.275443 0.000000
67.96880341 133.59399414 252.50000000 -0.001380 -0.730182 -0.683251 0.000000
162.50000000 214.84399414 407.50000000 -0.279520 0.285313 0.916769 0.000000
69.53119659 172.00000000 342.50000000 -0.185243 0.195753 0.962998 0.000000
70.70310211 154.68800354 350.00000000 -0.754618 0.158787 0.636662 0.000000
120.31199646 137.89100647 400.00000000 -0.413396 -0.825207 0.384886 0.000000
163.28100586 106.25000000 402.50000000 -0.303002 -0.329869 0.894079 0.000000
255.46899414 153.90600586 397.50000000 0.000978 0.000978 0.999999 0.000000
244.53100586 146.87500000 407.50000000 0.000978 0.000978 0.999999 0.000000
224.21899414 178.90600586 397.50000000 -0.000978 -0.000978 -0.999999 0.000000
237.50000000 167.96899414 387.50000000 -0.242928 -0.918525 0.311925 0.000000
246.87500000 185.15600586 402.50000000 -0.559164 0.592950 0.579436 0.000000
100.78099823 220.31199646 417.50000000 -0.282898 0.704848 0.650506 0.000000
101.56199646 126.17199707 262.00000000 0.734252 0.243703 -0.633627 0.000000
189.84399414 178.90600586 347.50000000 0.616255 -0.751109 -0.236780 0.000000
242.96899414 106.25000000 352.50000000 -0.000978 -0.000978 -0.999999 0.000000
212.50000000 138.28100586 362.50000000 0.313718 0.487130 -0.815037 0.000000
284.37500000 158.59399414 402.50000000 -0.675293 -0.737067 -0.026675 0.000000
50.39059830 182.03100586 292.00000000 -0.974934 -0.162279 -0.152215 0.000000
61.71879959 164.84399414 337.50000000 -0.731056 0.182381 0.657491 0.000000
140.62500000 151.95300293 422.00000000 0.056046 -0.965231 0.255319 0.000000
164.06199646 108.59400177 342.50000000 -0.000978 -0.000978 -0.999999 0.000000
139.06199646 236.71899414 402.50000000 0.417251 0.535995 0.733901 0.000000
207.81199646 95.31250000 342.50000000 -0.000978 -0.000978 -0.999999 0.000000
151.56199646 272.65600586 372.50000000 0.349140 0.110040 0.930587 0.000000
174.21899414 138.28100586 357.50000000 -0.417706 0.433833 -0.798318 0.000000
169.53100586 260.93798828 367.50000000 0.702740 0.702740 0.110959 0.000000
233.59399414 164.06199646 382.50000000 -0.000978 -0.000978 -0.999999 0.000000
234.37500000 172.00000000 397.50000000 -0.000978 -0.000978 -0.999999 0.000000
58.59379959 188.28100586 332.50000000 -0.642180 0.318664 0.697178 0.000000
103.90599823 153.90600586 282.50000000 0.759232 0.562573 -0.327227 0.000000
165.62500000 229.29699707 392.00000000 0.456852 0.719334 0.523303 0.000000
132.81199646 150.00000000 347.50000000 0.341146 0.564265 -0.751814 0.000000
215.62500000 74.60939789 350.00000000 0.001299 -0.905318 0.424733 0.000000
233.59399414 105.07800293 382.00000000 0.755666 -0.647085 0.101245 0.000000
141.40600586 163.67199707 352.00000000 -0.413396 0.825207 0.384886 0.000000
200.78100586 96.09380341 387.50000000 0.000978 0.000978 0.999999 0.000000
107.03099823 126.56199646 372.50000000 -0.461197 -0.304859 0.833282 0.000000
96.09380341 229.68800354 327.50000000 -0.411030 0.751644 0.515834 0.000000
146.87500000 259.37500000 382.50000000 0.080116 0.319149 0.944312 0.000000
89.06250000 136.71899414 252.50000000 0.781177 0.040966 -0.622964 0.000000
203.90600586 132.81199646 357.50000000 0.000978 0.000978 -0.999999 0.000000
89.06250000 155.07800293 260.00000000 0.293104 0.860896 -0.415870 0.000000
250.78100586 136.71899414 382.50000000 0.793429 0.501704 -0.344621 0.000000
118.75000000 92.96880341 342.50000000 -0.180563 -0.973526 0.140157 0.000000
214.06199646 141.40600586 362.50000000 0.106567 0.242665 -0.964239 0.000000
96.87500000 253.12500000 317.50000000 0.000978 0.000978 0.999999 0.000000
171.09399414 222.00000000 377.50000000 0.364251 0.919700 0.146538 0.000000
70.31250000 195.31199646 282.50000000 0.894688 0.446689 0.001310 0.000000
193.75000000 138.28100586 427.50000000 0.000978 0.000978 0.999999 0.000000
275.78100586 168.75000000 402.50000000 -0.000978 -0.000978 -0.999999 0.000000
107.03099823 242.96899414 407.50000000 -0.076623 0.188518 0.979076 0.000000
120.31199646 196.87500000 337.50000000 0.000978 0.000978 0.999999 0.000000
162.50000000 232.81199646 327.50000000 -0.638740 -0.275566 0.718383 0.000000
176.56199646 233.59399414 382.50000000 0.763717 0.620425 0.178353 0.000000
90.62500000 270.31201172 372.50000000 0.659220 -0.709808 -0.248196 0.000000
100.00000000 142.96899414 382.50000000 -0.649067 -0.619033 0.442166 0.000000
266.40600586 167.96899414 397.50000000 -0.992111 0.076492 -0.099325 0.000000
122.65599823 104.29699707 370.00000000 -0.790097 -0.473412 0.389394 0.000000
250.78100586 135.15600586 402.50000000 0.916244 -0.400452 -0.011664 0.000000
201.56199646 186.71899414 412.50000000 0.125271 0.923704 -0.362048 0.000000
91.40619659 137.89100647 252.00000000 0.762304 -0.253054 -0.595698 0.000000
139.84399414 186.71899414 432.50000000 0.343820 0.630609 0.695788 0.000000
180.07800293 230.46899414 350.00000000 -0.000978 -0.000978 0.999999 0.000000
157.03100586 206.25000000 417.50000000 0.139939 0.175239 0.974530 0.000000
159.37500000 261.71899414 327.50000000 0.074823 0.329483 0.941192 0.000000
81.25000000 140.62500000 357.50000000 0.000978 0.000978 0.999999 0.000000
162.89100647 207.03100586 332.00000000 -0.619586 -0.619586 0.481900 0.000000
214.84399414 176.56199646 412.50000000 0.000978 0.000978 0.999999 0.000000
176.56199646 114.06199646 342.50000000 -0.217291 0.010571 -0.976049 0.000000
189.06199646 168.75000000 357.50000000 -0.000978 -0.000978 -0.999999 0.000000
245.31199646 150.00000000 382.50000000 0.226001 0.065454 -0.971926 0.000000
72.00000000 251.17199707 390.00000000 -0.839314 0.320408 0.439194 0.000000
150.00000000 205.46899414 337.50000000 0.526222 0.175407 0.832060 0.000000
219.53100586 124.21900177 417.50000000 0.823103 -0.296317 0.484455 0.000000
172.65600586 104.68800354 342.50000000 -0.000978 -0.000978 -0.999999 0.000000
148.43800354 188.28100586 427.50000000 0.203939 -0.120337 0.971560 0.000000
107.03099823 131.25000000 282.50000000 0.592692 0.354309 -0.723313 0.000000
178.51600647 253.12500000 352.00000000 -0.980837 -0.160012 0.111153 0.000000
177.34399414 204.68800354 382.50000000 -0.964922 -0.058669 -0.255898 0.000000
104.68800354 257.81201172 402.50000000 0.117716 0.208850 0.970837 0.000000
90.62500000 242.96899414 317.50000000 0.000978 0.000978 0.999999 0.000000
178.51600647 207.03100586 362.00000000 -0.864458 -0.434500 -0.252828 0.000000
186.71899414 158.59399414 417.50000000 0.000978 0.000978 0.999999 0.000000
114.06199646 117.96900177 277.50000000 0.795883 0.344295 -0.498027 0.000000
66.01560211 205.46899414 392.00000000 -0.638944 0.088783 0.764113 0.000000
210.15600586 160.15600586 417.50000000 0.000978 0.000978 0.999999 0.000000
91.40619659 239.84399414 407.50000000 -0.516247 0.775179 0.364124 0.000000
110.93800354 193.75000000 427.50000000 0.000978 0.000978 0.999999 0.000000
95.31250000 139.84399414 262.50000000 0.987889 -0.001116 -0.155160 0.000000
62.10940170 196.09399414 270.00000000 0.801502 -0.160902 -0.575939 0.000000
224.21899414 117.96900177 352.50000000 0.617444 0.307916 -0.723844 0.000000
226.56199646 109.37500000 347.50000000 0.495814 0.519186 -0.696143 0.000000
67.96880341 211.71899414 302.50000000 0.850740 0.518397 -0.086636 0.000000
216.40600586 96.87500000 342.50000000 -0.000978 -0.000978 -0.999999 0.000000
268.75000000 173.43800354 402.50000000 0.636067 0.571954 -0.517964 0.000000
89.06250000 263.28100586 347.50000000 0.790572 -0.592554 0.154514 0.000000
90.62500000 141.40600586 252.50000000 0.658032 0.155810 -0.736693 0.000000
154.68800354 164.84399414 422.50000000 0.253271 -0.371760 0.893112 0.000000
182.81199646 196.09399414 372.50000000 -0.624566 -0.594263 0.506723 0.000000
231.25000000 180.46899414 397.50000000 -0.000978 -0.000978 -0.999999 0.000000
126.56199646 212.50000000 422.50000000 0.419300 0.140714 0.896876 0.000000
112.50000000 139.84399414 327.50000000 0.958767 0.192817 -0.208775 0.000000
125.78099823 203.90600586 337.50000000 0.000978 0.000978 0.999999 0.000000
105.46900177 271.87500000 327.50000000 -0.001299 -0.905318 0.424733 0.000000
92.96880341 273.43798828 372.50000000 0.645045 -0.500205 -0.577678 0.000000
212.50000000 100.78099823 342.50000000 -0.000978 -0.000978 -0.999999 0.000000
108.59400177 264.06201172 397.50000000 0.321134 0.452721 0.831815 0.000000
162.50000000 95.70310211 380.00000000 -0.010727 -0.971404 0.237189 0.000000
119.53099823 219.53100586 417.50000000 0.000978 0.000978 0.999999 0.000000
235.15600586 91.40619659 342.50000000 0.827700 0.040478 -0.559709 0.000000
211.71899414 174.21899414 362.50000000 0.703752 0.038232 -0.709416 0.000000
196.87500000 123.43800354 427.50000000 0.161963 -0.325310 0.931634 0.000000
201.56199646 128.90600586 352.50000000 -0.041534 0.424720 -0.904372 0.000000
123.43800354 102.73400116 370.00000000 -0.790097 -0.473412 0.389394 0.000000
212.50000000 96.09380341 342.50000000 -0.000978 -0.000978 -0.999999 0.000000
140.62500000 143.75000000 347.50000000 -0.000978 -0.000978 -0.999999 0.000000
233.59399414 161.71899414 412.50000000 0.527040 0.205044 0.824734 0.000000
121.48400116 128.12500000 322.00000000 0.571596 0.294555 -0.765843 0.000000
170.31199646 217.18800354 332.50000000 -0.000978 -0.000978 0.999999 0.000000
118.75000000 222.00000000 332.50000000 0.000978 0.000978 0.999999 0.000000
102.34400177 225.78100586 412.50000000 0.983438 0.178489 0.031498 0.000000
221.87500000 189.84399414 407.50000000 -0.342178 0.569215 0.747602 0.000000
67.96880341 167.18800354 342.50000000 -0.288121 0.220658 0.931824 0.000000
172.65600586 82.03119659 352.50000000 -0.332420 -0.885953 0.323395 0.000000
235.93800354 185.15600586 407.50000000 0.000978 0.000978 0.999999 0.000000
55.46879959 168.75000000 322.50000000 -0.905756 -0.058044 0.419806 0.000000
80.46880341 109.76599884 302.00000000 -0.715286 -0.698423 0.023890 0.000000
58.59379959 193.75000000 327.50000000 -0.701960 0.495207 0.511881 0.000000
155.46899414 214.06199646 417.50000000 0.422063 0.418853 0.804006 0.000000
187.50000000 107.42199707 410.00000000 0.043680 -0.607289 0.793280 0.000000
181.25000000 198.43800354 372.50000000 -0.498760 -0.329851 0.801522 0.000000
271.87500000 164.06199646 402.50000000 -0.925434 -0.093492 -0.367193 0.000000
153.12500000 183.59399414 427.50000000 -0.622587 -0.091857 0.777140 0.000000
120.31199646 179.68800354 432.50000000 0.000978 0.000978 0.999999 0.000000
174.60899353 201.56199646 392.00000000 0.787618 0.615975 -0.015226 0.000000
98.43750000 244.53100586 317.50000000 -0.316419 0.793433 0.519945 0.000000
224.21899414 181.25000000 407.50000000 0.216541 0.405094 0.888261 0.000000
203.51600647 195.31199646 400.00000000 0.933652 -0.345250 0.095380 0.000000
244.53100586 143.75000000 382.50000000 -0.000978 -0.000978 -0.999999 0.000000
93.75000000 222.65600586 412.50000000 -0.467422 0.239040 0.851103 0.000000
121.87500000 116.40599823 377.50000000 -0.770592 -0.329794 0.545366 0.000000
223.43800354 116.79699707 402.00000000 0.619586 -0.619586 0.481900 0.000000
107.81199646 269.53100586 322.50000000 0.181153 -0.836899 0.516512 0.000000
260.15600586 167.96899414 397.50000000 0.000978 0.000978 0.999999 0.000000
80.46880341 217.18800354 402.50000000 -0.479490 0.797012 0.367235 0.000000
136.71899414 280.46899414 322.50000000 -0.000978 -0.000978 0.999999 0.000000
86.71880341 145.31199646 252.50000000 -0.000978 -0.000978 -0.999999 0.000000
207.81199646 100.78099823 342.50000000 -0.000978 -0.000978 -0.999999 0.000000
71.09380341 127.34400177 287.50000000 -0.501575 0.501575 0.704872 0.000000
98.43750000 227.34399414 332.50000000 -0.104640 0.685317 0.720688 0.000000
196.87500000 184.76600647 352.00000000 0.336991 -0.434170 -0.835424 0.000000
196.09399414 79.68750000 352.50000000 -0.185890 -0.882610 0.431791 0.000000
123.43800354 275.78100586 322.50000000 0.622109 -0.601878 0.500722 0.000000
160.93800354 180.46899414 332.50000000 0.000978 0.000978 0.999999 0.000000
112.50000000 173.43800354 427.50000000 0.000978 0.000978 0.999999 0.000000
220.31199646 107.81199646 397.50000000 0.394769 -0.675566 0.622710 0.000000
54.68750000 186.71899414 322.50000000 -0.905318 -0.001299 0.424733 0.000000
64.45310211 146.09399414 252.00000000 -0.853031 -0.489786 -0.180134 0.000000
117.18800354 122.65599823 307.50000000 0.628338 0.732798 -0.261148 0.000000
133.59399414 86.71880341 342.50000000 -0.000978 -0.000978 0.999999 0.000000
161.71899414 140.62500000 357.50000000 0.234624 0.226392 -0.945356 0.000000
162.50000000 266.40600586 332.50000000 -0.788169 -0.001371 0.615457 0.000000
243.75000000 132.03100586 372.50000000 0.308673 0.772482 -0.554971 0.000000
89.06250000 269.53100586 362.50000000 0.669148 -0.721210 0.179154 0.000000
88.28119659 232.03100586 322.50000000 -0.221553 0.138632 0.965244 0.000000
178.12500000 198.43800354 392.50000000 0.593995 0.677188 0.434265 0.000000
92.96880341 262.10900879 390.00000000 -0.356215 0.925608 -0.127907 0.000000
92.18750000 101.56199646 282.50000000 -0.411521 -0.906999 0.089461 0.000000
88.28119659 176.95300293 320.00000000 0.669753 0.442605 -0.596264 0.000000
119.53099823 222.00000000 332.50000000 0.000978 0.000978 0.999999 0.000000
66.40619659 232.03100586 372.50000000 -0.976089 0.123730 -0.178721 0.000000
95.31250000 97.26560211 300.00000000 -0.281286 -0.953755 0.105973 0.000000
96.87500000 157.03100586 397.50000000 -0.615555 -0.585198 0.527859 0.000000
208.59399414 138.28100586 422.50000000 0.348577 0.061823 0.935239 0.000000
192.96899414 103.12500000 402.50000000 -0.076246 -0.968699 0.236238 0.000000
232.03100586 158.20300293 412.00000000 0.498821 0.237899 0.833415 0.000000
151.56199646 158.98399353 420.00000000 0.443872 -0.466802 0.764901 0.000000
111.71900177 266.40600586 317.50000000 0.000978 0.000978 0.999999 0.000000
142.18800354 141.40600586 417.50000000 0.000978 0.000978 0.999999 0.000000
57.03120041 167.18800354 257.50000000 -0.328842 -0.934674 0.135084 0.000000
260.93798828 140.62500000 402.50000000 0.950792 0.036715 -0.307646 0.000000
134.37500000 101.56199646 377.50000000 0.000978 0.000978 0.999999 0.000000
60.93750000 147.65600586 252.50000000 -0.568932 -0.755890 0.323953 0.000000
164.06199646 205.46899414 342.50000000 -0.743692 0.015348 0.668346 0.000000
137.50000000 256.25000000 392.50000000 0.688660 0.606087 0.398003 0.000000
221.87500000 100.00000000 387.50000000 0.290575 -0.501046 0.815181 0.000000
118.75000000 120.70300293 292.00000000 0.727246 0.638904 -0.250829 0.000000
111.71900177 97.26560211 342.00000000 0.023451 -0.829052 0.558679 0.000000
171.87500000 215.62500000 397.50000000 0.959584 -0.054221 0.276148 0.000000
112.50000000 177.34399414 332.50000000 0.000978 0.000978 0.999999 0.000000
91.40619659 232.81199646 322.50000000 0.000978 0.000978 0.999999 0.000000
152.73399353 188.28100586 422.00000000 0.042788 -0.026090 0.998743 0.000000
247.65600586 160.54699707 390.00000000 0.892875 0.404790 -0.197280 0.000000
60.93750000 210.93800354 317.50000000 -0.702740 0.702740 -0.110959 0.000000
157.81199646 257.81201172 322.50000000 -0.539834 -0.178942 0.822532 0.000000
161.71899414 160.15600586 417.50000000 0.361693 -0.843950 0.396140 0.000000
178.90600586 246.09399414 352.50000000 -0.953230 0.008632 0.302123 0.000000
