159.97300720 304.97500610 160.00000000 0.154171 0.909468 -0.386135 0.000000
192.90800476 234.39799500 189.00000000 0.980379 -0.196541 -0.015119 0.000000
92.39060211 289.57598877 175.00000000 -0.857174 0.286747 -0.427820 0.000000
83.40820313 203.60200500 165.00000000 -0.803429 -0.595386 0.004106 0.000000
157.40600586 302.40798950 200.00000000 0.481617 0.474997 0.736494 0.000000
172.37699890 225.84399414 121.00000000 0.141901 0.781204 -0.607935 0.000000
115.48799896 271.18399048 104.50000000 -0.101975 0.970652 -0.217799 0.000000
138.58599854 272.89498901 234.50000000 0.069470 0.554341 0.829385 0.000000
250.65199280 139.01400757 188.00000000 -0.177082 -0.968134 0.177082 0.000000
197.18600464 186.49200439 167.00000000 0.801779 -0.551513 0.230183 0.000000
108.21700287 300.26998901 160.00000000 0.441234 0.564446 -0.697649 0.000000
164.25000000 149.27900696 196.00000000 -0.631283 -0.758448 0.161984 0.000000
134.73599243 215.57800293 106.00000000 0.229808 -0.280563 -0.931919 0.000000
154.83999634 311.81799316 188.00000000 0.216421 0.972020 0.091322 0.000000
220.71099854 152.70100403 213.00000000 -0.220558 -0.794319 0.566049 0.000000
258.35198975 153.12899780 206.50000000 0.509977 0.170984 0.843023 0.000000
98.80660248 288.29299927 151.00000000 -0.664647 0.664647 -0.341305 0.000000
170.23800659 214.72300720 151.50000000 -0.089717 -0.853028 0.514095 0.000000
124.89800262 214.72300720 246.50000000 0.000978 0.000978 0.999999 0.000000
168.52699280 164.67799377 213.00000000 -0.064625 -0.633321 0.771186 0.000000
116.34400177 224.98800659 94.50000000 0.533405 -0.267484 -0.802453 0.000000
252.79100037 137.72999573 182.00000000 0.039962 -0.996882 0.068043 0.000000
82.55269623 222.42199707 225.00000000 -0.605085 -0.605085 0.517440 0.000000
211.30099487 171.94900513 219.50000000 0.000978 0.000978 0.999999 0.000000
186.06399536 284.01599121 166.00000000 0.848240 0.454139 -0.272483 0.000000
151.41799927 201.46299744 241.00000000 0.283820 -0.211117 0.935348 0.000000
224.13299561 185.63699341 164.50000000 -0.389457 -0.289441 0.874384 0.000000
148.42399597 146.28500366 142.00000000 -0.628523 -0.712542 -0.311838 0.000000
176.22700500 205.31199646 166.50000000 -0.035080 -0.795618 -0.604782 0.000000
165.96099854 295.13699341 149.50000000 0.715702 0.591232 -0.371772 0.000000
261.77301025 163.39500427 194.50000000 -0.562563 -0.220401 0.796835 0.000000
177.50999451 293.42599487 197.00000000 0.545245 0.609391 0.575630 0.000000
121.47699738 301.55300903 150.00000000 -0.265224 0.795673 -0.544573 0.000000
110.35500336 158.68899536 157.00000000 -0.716165 -0.686263 0.127086 0.000000
76.99220276 214.72300720 161.50000000 -0.959629 -0.274360 -0.061952 0.000000
112.06600189 173.23199463 217.00000000 -0.398498 -0.626684 0.669676 0.000000
165.96099854 209.16200256 137.00000000 0.676535 -0.676535 0.290862 0.000000
145.42999268 235.25399780 244.50000000 0.147274 0.331710 0.931815 0.000000
155.26800537 294.28100586 138.00000000 0.541252 0.628932 -0.558114 0.000000
110.35500336 163.82200623 135.00000000 -0.296049 -0.955037 -0.016103 0.000000
190.77000427 154.41200256 157.00000000 0.240291 0.837191 -0.491295 0.000000
173.23199463 244.66400146 232.00000000 0.374437 0.043356 0.926238 0.000000
134.30900574 270.32800293 234.50000000 -0.162720 0.374963 0.912647 0.000000
186.06399536 190.77000427 171.00000000 0.590048 0.495909 -0.637117 0.000000
217.71699524 229.26600647 192.00000000 -0.765765 0.642570 0.026599 0.000000
162.53900146 264.33999634 229.50000000 0.557877 0.396603 0.729026 0.000000
250.65199280 171.94900513 214.50000000 0.735317 -0.139846 0.663138 0.000000
130.03100586 174.51600647 126.50000000 0.875696 0.079609 -0.476256 0.000000
150.56199646 312.67401123 189.00000000 0.216421 0.972020 0.091322 0.000000
109.50000000 302.40798950 181.00000000 -0.285564 0.954896 0.081405 0.000000
80.41410065 208.73399353 131.50000000 -0.954261 -0.295276 -0.046889 0.000000
75.70899963 213.01199341 214.00000000 -0.862245 -0.257001 0.436445 0.000000
116.34400177 235.25399780 94.50000000 0.264562 -0.175018 -0.948354 0.000000
117.62699890 264.33999634 238.00000000 -0.375135 0.913064 0.159963 0.000000
153.12899780 259.20700073 119.50000000 0.580942 0.224631 -0.782335 0.000000
171.09399414 266.05099487 134.50000000 0.543491 0.486634 -0.683963 0.000000
185.20899963 251.50799561 144.00000000 0.528759 0.335899 -0.779478 0.000000
245.52000427 174.51600647 214.50000000 0.000978 0.000978 0.999999 0.000000
219.00000000 163.39500427 219.50000000 -0.163573 -0.345322 0.924120 0.000000
87.25779724 283.16000366 204.50000000 -0.737882 0.490271 0.463859 0.000000
93.24610138 245.09199524 236.00000000 -0.531812 0.045822 0.845622 0.000000
94.10160065 257.49600220 231.50000000 -0.507563 0.428718 0.747382 0.000000
147.99600220 299.84201050 142.00000000 0.203349 0.696974 -0.687660 0.000000
135.16400146 262.62899780 109.50000000 0.596442 0.208061 -0.775221 0.000000
184.78100586 264.33999634 214.50000000 0.725450 0.503001 0.469800 0.000000
78.27539825 248.08599854 148.00000000 -0.969879 0.205191 -0.131271 0.000000
125.75399780 279.73800659 231.50000000 -0.027666 0.407083 0.912972 0.000000
83.40820313 198.46899414 146.00000000 -0.923966 -0.252770 -0.287044 0.000000
187.34800720 213.01199341 159.50000000 -0.505369 -0.730715 -0.458975 0.000000
145.00199890 262.62899780 115.00000000 0.395890 0.252473 -0.882909 0.000000
96.66799927 284.44299316 147.00000000 -0.603838 0.732657 -0.313996 0.000000
150.56199646 294.28100586 134.50000000 0.459172 0.721082 -0.518847 0.000000
93.24610138 273.75000000 134.50000000 -0.658440 0.611766 -0.438405 0.000000
100.51799774 173.66000366 153.00000000 -0.811657 -0.564436 0.150417 0.000000
196.75799561 200.60699463 228.00000000 0.504792 -0.410041 0.759639 0.000000
103.08399963 211.30099487 87.00000000 0.627998 -0.113779 -0.769852 0.000000
79.98629761 207.02299500 140.00000000 -0.966986 -0.250700 -0.045694 0.000000
111.21099854 198.46899414 240.50000000 -0.235276 -0.392127 0.889315 0.000000
204.45700073 193.76400757 180.00000000 0.278119 -0.912987 0.298504 0.000000
148.85200500 147.14100647 184.50000000 -0.152278 -0.947358 0.281647 0.000000
153.12899780 145.85699463 180.00000000 -0.068727 -0.397537 0.915009 0.000000
89.39649963 282.30499268 212.00000000 -0.813427 0.463224 0.351795 0.000000
139.44099426 287.86499023 123.00000000 0.446379 0.663717 -0.600188 0.000000
236.96499634 140.72500610 181.00000000 -0.317711 -0.948187 -0.001236 0.000000
155.69500732 245.52000427 240.50000000 0.444327 0.216927 0.869205 0.000000
182.21499634 280.59399414 156.50000000 0.723722 0.552271 -0.413791 0.000000
102.65599823 213.01199341 86.50000000 0.627998 -0.113779 -0.769852 0.000000
103.51200104 212.58399963 87.00000000 0.602730 -0.142083 -0.785194 0.000000
177.08200073 238.67599487 126.50000000 0.835160 0.136502 -0.532800 0.000000
104.36699677 299.84201050 184.00000000 -0.532037 0.806637 -0.257437 0.000000
238.24800110 176.22700500 219.00000000 0.640168 -0.492308 0.589761 0.000000
81.26950073 271.61099243 203.00000000 -0.920237 0.236879 0.311531 0.000000
198.46899414 263.48400879 169.50000000 0.967329 0.192948 -0.164459 0.000000
234.39799500 158.26199341 159.50000000 -0.420498 -0.639889 0.643213 0.000000
159.11700439 204.88499451 242.00000000 0.151651 -0.064657 0.986317 0.000000
203.60200500 210.44500732 156.50000000 0.276367 -0.033462 -0.960469 0.000000
198.04100037 262.62899780 166.00000000 0.967329 0.192948 -0.164459 0.000000
132.59800720 250.65199280 244.50000000 -0.014085 0.364942 0.930924 0.000000
166.81599426 284.01599121 214.50000000 0.579787 0.379408 0.721039 0.000000
238.67599487 192.47999573 219.50000000 0.367554 0.916771 0.156316 0.000000
184.78100586 195.90199280 171.50000000 0.576883 -0.769704 -0.273427 0.000000
98.80660248 284.01599121 141.00000000 -0.578465 0.725950 -0.371988 0.000000
188.20300293 254.50199890 215.00000000 0.712488 0.361977 0.601111 0.000000
155.26800537 291.71499634 215.00000000 0.185953 0.708467 0.680805 0.000000
215.57800293 223.70500183 205.00000000 -0.308752 0.683780 0.661149 0.000000
103.93900299 215.57800293 87.00000000 0.661425 -0.079952 -0.745738 0.000000
153.12899780 185.63699341 149.50000000 0.061914 0.202739 -0.977274 0.000000
250.22500610 159.11700439 178.00000000 -0.650660 -0.402316 0.644037 0.000000
126.60900116 180.50399780 231.50000000 -0.008960 -0.372479 0.927997 0.000000
189.05900574 139.44099426 166.50000000 0.999999 0.000978 0.000978 0.000000
118.91000366 298.98599243 147.00000000 -0.127561 0.825479 -0.549830 0.000000
108.21700287 171.09399414 214.00000000 -0.308655 -0.693261 0.651246 0.000000
83.40820313 194.19099426 201.00000000 -0.727870 -0.670604 0.143163 0.000000
144.57400513 313.95700073 174.50000000 -0.273835 0.961494 -0.023331 0.000000
144.57400513 142.43600464 164.00000000 -0.522664 -0.849506 -0.071849 0.000000
164.25000000 151.41799927 141.50000000 0.610552 0.496178 -0.617279 0.000000
163.39500427 304.11898804 196.00000000 0.257842 0.795403 0.548500 0.000000
176.22700500 171.94900513 219.50000000 0.001377 -0.758770 0.651358 0.000000
75.70899963 234.39799500 158.00000000 -0.999346 -0.017389 -0.031709 0.000000
117.19899750 288.72100830 221.00000000 -0.350909 0.598993 0.719771 0.000000
99.23439789 172.80499268 149.50000000 -0.827162 -0.551924 0.105749 0.000000
86.40229797 192.05299377 215.00000000 -0.828490 -0.451189 0.331711 0.000000
150.99000549 225.84399414 243.00000000 0.330531 0.045014 0.942721 0.000000
163.39500427 142.86300659 179.50000000 -0.208467 -0.856363 0.472424 0.000000
76.99220276 236.53700256 148.00000000 -0.965056 -0.028132 -0.260528 0.000000
229.26600647 209.58999634 216.50000000 -0.241979 0.516325 0.821496 0.000000
146.28500366 261.77301025 236.50000000 0.049066 0.391203 0.918995 0.000000
160.39999390 262.62899780 126.00000000 0.577755 0.338238 -0.742828 0.000000
115.48799896 302.40798950 159.00000000 -0.475044 0.855678 -0.205303 0.000000
127.89299774 152.27299500 148.00000000 -0.001228 -0.952066 -0.305890 0.000000
207.02299500 197.18600464 179.00000000 0.726213 -0.537629 0.428449 0.000000
94.52929688 173.66000366 179.00000000 0.000000 0.000000 0.000000 0.000000
193.33599854 251.08000183 214.00000000 0.682876 0.417036 0.599801 0.000000
176.65400696 269.47299194 217.00000000 0.423134 0.335697 0.841585 0.000000
205.31199646 175.79899597 159.00000000 0.058066 -0.114992 0.991668 0.000000
97.09570313 179.64799500 155.00000000 -0.947489 -0.314973 -0.055281 0.000000
82.55269623 191.62500000 113.00000000 -0.811086 -0.575187 0.106300 0.000000
98.80660248 290.85900879 162.00000000 -0.666539 0.716257 -0.206643 0.000000
100.08999634 165.96099854 131.50000000 -0.245023 -0.329113 0.911948 0.000000
87.25779724 194.19099426 171.50000000 -0.923556 -0.350700 -0.155090 0.000000
163.39500427 181.78700256 152.00000000 -0.015986 0.286521 -0.957940 0.000000
158.26199341 195.90199280 234.50000000 0.738509 -0.339227 0.582692 0.000000
117.19899750 307.54098511 199.00000000 -0.257947 0.853210 0.453316 0.000000
120.62100220 207.02299500 101.50000000 0.503455 0.001335 -0.864020 0.000000
198.46899414 198.04100037 168.00000000 -0.595704 -0.793779 0.122688 0.000000
72.71479797 244.23599243 187.00000000 -0.984778 -0.003408 -0.173784 0.000000
187.77499390 229.26600647 146.00000000 0.783720 -0.214866 -0.582766 0.000000
133.02499390 252.36300659 105.00000000 0.682943 -0.130013 -0.718809 0.000000
122.33200073 217.28900146 246.50000000 0.000978 0.000978 0.999999 0.000000
114.63300323 156.97900391 152.00000000 0.095210 -0.669398 0.736778 0.000000
137.72999573 208.73399353 245.50000000 0.216330 -0.044716 0.975296 0.000000
156.12300110 298.55899048 209.00000000 0.570552 0.577324 0.584096 0.000000
103.51200104 223.27699280 86.50000000 0.797509 -0.267925 -0.540551 0.000000
104.36699677 223.27699280 86.50000000 0.730964 -0.155878 -0.664375 0.000000
75.70899963 215.57800293 178.00000000 -0.900566 -0.427597 -0.078370 0.000000
79.13089752 204.45700073 116.00000000 -0.951695 0.231493 0.201711 0.000000
155.69500732 278.45498657 225.00000000 0.093527 -0.947127 -0.306927 0.000000
90.67970276 278.88299561 216.50000000 -0.589643 0.747095 0.306871 0.000000
227.55499268 177.93800354 219.50000000 -0.000978 -0.000978 0.999999 0.000000
78.70310211 262.20098877 211.00000000 -0.813364 -0.001362 0.581753 0.000000
115.48799896 181.78700256 110.00000000 0.887494 -0.443035 -0.126785 0.000000
161.68400574 161.68400574 146.50000000 0.244470 0.549669 -0.798811 0.000000
189.48599243 282.30499268 171.00000000 0.880187 0.423024 -0.215223 0.000000
156.12300110 141.15199280 171.00000000 -0.204158 -0.937461 0.281933 0.000000
230.97700500 213.43899536 212.00000000 -0.070737 0.953023 0.294524 0.000000
112.92199707 302.83599854 163.50000000 -0.283504 0.919590 -0.271991 0.000000
227.98199463 210.44500732 180.00000000 0.997949 0.062043 -0.015774 0.000000
145.00199890 142.86300659 159.00000000 -0.704484 -0.704484 -0.086055 0.000000
153.12899780 139.01400757 155.00000000 -0.789460 -0.549943 -0.272608 0.000000
110.35500336 162.96699524 118.00000000 -0.245416 -0.825772 -0.507811 0.000000
123.18800354 163.39500427 209.50000000 0.093208 -0.928023 0.360673 0.000000
183.92599487 156.12300110 207.00000000 -0.136497 -0.703482 0.697482 0.000000
74.85350037 222.42199707 174.00000000 -0.985809 0.001127 -0.167869 0.000000
166.81599426 200.60699463 161.00000000 0.201407 0.601147 -0.773342 0.000000
186.06399536 225.84399414 214.00000000 0.995424 0.073858 -0.060629 0.000000
114.63300323 278.02700806 229.50000000 -0.078010 0.526215 0.846766 0.000000
111.21099854 261.77301025 236.50000000 -0.254768 0.040615 0.966149 0.000000
95.81250000 171.94900513 204.50000000 -0.419970 -0.535256 0.732889 0.000000
191.62500000 203.17399597 164.00000000 -0.401032 -0.884060 -0.240023 0.000000
173.66000366 136.44700623 156.00000000 0.267053 -0.319587 -0.909146 0.000000
177.50999451 260.06201172 137.00000000 0.696391 0.286561 -0.657969 0.000000
182.21499634 256.21301270 144.00000000 0.670757 0.189662 -0.717017 0.000000
94.52929688 280.59399414 141.00000000 -0.751306 0.149057 -0.642901 0.000000
173.23199463 300.26998901 167.00000000 0.739942 -0.443306 0.505930 0.000000
105.65000153 165.10499573 146.00000000 -0.655302 -0.718160 0.234149 0.000000
178.79299927 215.14999390 152.00000000 -0.234203 -0.961670 0.142615 0.000000
127.46499634 308.39599609 167.00000000 -0.325928 0.907628 -0.264542 0.000000
214.72300720 165.53300476 152.00000000 -0.264789 -0.632640 0.727773 0.000000
179.22099304 219.85499573 231.00000000 0.602482 -0.097739 0.792125 0.000000
160.82800293 154.41200256 142.00000000 0.529808 0.460052 -0.712500 0.000000
100.08999634 182.64300537 103.00000000 0.466525 -0.556820 -0.687246 0.000000
159.54499817 214.72300720 163.00000000 0.355769 -0.673829 -0.647598 0.000000
192.90800476 236.96499634 164.00000000 0.917471 -0.396211 -0.035541 0.000000
81.69730377 235.25399780 112.00000000 -0.705724 0.708486 0.001381 0.000000
132.59800720 284.44299316 118.00000000 -0.114330 0.687465 -0.717161 0.000000
191.62500000 175.79899597 162.00000000 0.911795 0.129857 -0.389572 0.000000
144.57400513 281.44900513 226.50000000 -0.292457 0.535908 0.792005 0.000000
88.11329651 249.36900330 105.00000000 -0.814845 0.523053 -0.249886 0.000000
194.61900330 238.67599487 193.00000000 0.790530 -0.612421 0.001370 0.000000
181.35899353 292.57000732 194.50000000 0.417070 0.835713 0.357263 0.000000
205.31199646 146.28500366 194.50000000 0.001207 -0.961751 0.273924 0.000000
92.81839752 189.05900574 220.00000000 -0.694085 -0.362631 0.621888 0.000000
94.10160065 267.33401489 229.00000000 -0.716201 0.279143 0.639636 0.000000
151.41799927 247.22999573 114.50000000 0.366393 0.102154 -0.924836 0.000000
200.60699463 255.78500366 185.00000000 0.982175 0.187684 -0.010363 0.000000
105.22299957 230.97700500 86.50000000 0.754889 0.139572 -0.640830 0.000000
176.65400696 299.41400146 194.00000000 0.626727 0.439544 0.643439 0.000000
166.81599426 276.31600952 136.50000000 0.081299 0.065707 -0.994521 0.000000
75.70899963 219.00000000 167.00000000 -0.989554 -0.080234 -0.119770 0.000000
80.84179688 275.46099854 202.00000000 -0.954533 0.213461 0.208091 0.000000
100.94499969 168.95500183 141.00000000 -0.748699 -0.662897 -0.004152 0.000000
159.11700439 298.98599243 205.00000000 -0.403733 0.891150 -0.207005 0.000000
177.08200073 186.91999817 229.00000000 0.220594 -0.193855 0.955907 0.000000
73.14260101 242.95300293 186.00000000 -0.984778 -0.003408 -0.173784 0.000000
171.94900513 189.48599243 156.00000000 0.279911 0.564566 -0.776476 0.000000
111.21099854 197.18600464 239.00000000 -0.190829 -0.587752 0.786214 0.000000
166.81599426 244.66400146 234.50000000 0.581467 0.032071 0.812938 0.000000
199.32400513 259.20700073 186.50000000 0.952494 0.304252 0.013660 0.000000
213.01199341 145.00199890 189.00000000 -0.017879 -0.998042 0.059946 0.000000
168.10000610 248.94099426 234.00000000 0.622525 -0.064399 0.779945 0.000000
90.67970276 191.19700623 161.00000000 -0.912758 -0.403123 -0.066064 0.000000
104.36699677 162.96699524 182.00000000 -0.631452 -0.753767 0.181944 0.000000
181.78700256 210.44500732 234.00000000 -0.310830 -0.723123 0.616829 0.000000
243.80900574 146.28500366 159.50000000 -0.655654 -0.595287 0.464491 0.000000
85.54689789 250.22500610 229.00000000 -0.494800 0.226847 0.838876 0.000000
169.38299561 186.49200439 226.50000000 -0.038235 -0.661325 0.749124 0.000000
108.21700287 289.14801025 138.00000000 -0.558202 0.764109 -0.323339 0.000000
108.64499664 174.51600647 216.50000000 -0.322423 -0.652946 0.685350 0.000000
118.05500031 285.29901123 122.00000000 -0.320698 0.886812 -0.332743 0.000000
157.40600586 188.20300293 151.50000000 0.240129 0.481787 -0.842745 0.000000
112.92199707 265.62298584 102.00000000 0.110606 0.427024 -0.897450 0.000000
84.26370239 189.91400146 115.00000000 -0.850251 -0.523554 0.054450 0.000000
120.19300079 211.30099487 246.00000000 -0.141798 -0.117559 0.982890 0.000000
158.26199341 141.15199280 150.50000000 -0.376883 -0.926239 0.006388 0.000000
198.89599609 251.50799561 164.00000000 0.819409 -0.140766 -0.555657 0.000000
94.10160065 264.33999634 229.50000000 -0.716201 0.279143 0.639636 0.000000
106.93399811 293.85400391 150.00000000 -0.544104 0.755249 -0.365443 0.000000
76.56449890 216.43400574 192.00000000 -0.948115 -0.305547 0.087861 0.000000
170.23800659 246.37500000 231.50000000 0.530746 0.020466 0.847284 0.000000
79.98629761 196.75799561 191.00000000 -0.915197 -0.396090 0.074351 0.000000
132.59800720 190.34199524 237.00000000 -0.305198 -0.915594 0.261805 0.000000
200.60699463 188.20300293 175.00000000 0.826850 -0.522301 -0.208616 0.000000
133.45300293 181.78700256 231.00000000 -0.041105 -0.758315 0.650591 0.000000
199.75199890 262.62899780 177.00000000 0.966358 0.256972 0.010858 0.000000
118.05500031 280.59399414 114.50000000 -0.012341 0.566311 -0.824099 0.000000
150.56199646 291.28698730 217.00000000 0.379040 0.726903 0.572662 0.000000
105.22299957 162.53900146 131.50000000 -0.035165 -0.634377 0.772224 0.000000
76.13670349 209.58999634 204.50000000 -0.976217 -0.126246 -0.176244 0.000000
78.70310211 210.01800537 176.00000000 -0.862069 -0.506381 0.020364 0.000000
205.31199646 196.33000183 162.00000000 0.102383 -0.540755 -0.834926 0.000000
180.93200684 284.01599121 204.00000000 0.622930 0.192262 0.758283 0.000000
86.40229797 236.53700256 87.00000000 -0.678665 0.652625 -0.336891 0.000000
165.96099854 195.04699707 231.50000000 0.417830 -0.408225 0.811647 0.000000
132.59800720 187.34800720 116.50000000 -0.869199 -0.475818 0.134502 0.000000
94.95700073 170.66600037 203.00000000 -0.483841 -0.688093 0.540764 0.000000
118.05500031 260.91799927 99.50000000 0.192799 0.980553 -0.036667 0.000000
123.18800354 183.49800110 233.00000000 -0.255221 -0.565243 0.784451 0.000000
150.99000549 307.11300659 158.00000000 0.185974 0.929872 -0.317415 0.000000
261.77301025 190.77000427 211.50000000 0.692828 -0.692828 0.199944 0.000000
129.17599487 260.06201172 104.50000000 0.457097 0.307332 -0.834631 0.000000
136.02000427 295.13699341 219.50000000 -0.001331 0.869469 0.493986 0.000000
186.49200439 228.83799744 144.00000000 0.843070 -0.210389 -0.494944 0.000000
129.60400391 225.84399414 102.00000000 0.222031 -0.222031 -0.949423 0.000000
102.65599823 252.36300659 239.50000000 -0.888318 -0.044755 0.457043 0.000000
187.34800720 221.56599426 216.50000000 0.770491 0.596157 0.225699 0.000000
150.13499451 296.84799194 138.00000000 0.183932 0.791970 -0.582197 0.000000
85.54689789 192.90800476 134.00000000 -0.952229 -0.279444 0.123167 0.000000
79.98629761 241.24200439 125.00000000 -0.984994 -0.170146 0.028936 0.000000
118.05500031 159.11700439 121.50000000 -0.167961 -0.918844 -0.357093 0.000000
76.99220276 271.18399048 191.50000000 -0.934881 0.100886 0.340323 0.000000
193.33599854 151.41799927 204.50000000 -0.853745 -0.513946 0.083534 0.000000
142.00799561 302.83599854 209.50000000 0.001358 0.829744 0.558142 0.000000
158.68899536 217.28900146 158.00000000 0.827527 -0.523848 0.201947 0.000000
168.52699280 195.04699707 159.50000000 0.382137 0.769152 -0.512226 0.000000
116.77100372 214.72300720 246.00000000 -0.154734 -0.159766 0.974952 0.000000
140.29699707 233.54299927 106.50000000 0.397641 -0.003861 -0.917533 0.000000
82.98049927 251.93600464 128.00000000 -0.967329 0.192948 -0.164459 0.000000
83.83589935 234.39799500 229.50000000 -0.896065 0.298688 0.328409 0.000000
243.80900574 201.89100647 189.50000000 -0.029511 0.749019 -0.661891 0.000000
176.65400696 272.03900146 216.00000000 0.455979 0.357475 0.815043 0.000000
112.92199707 234.39799500 246.50000000 -0.172665 0.080899 0.981653 0.000000
126.60900116 283.16000366 116.50000000 0.191510 0.779829 -0.595979 0.000000
95.38480377 268.61700439 122.00000000 -0.706063 0.597438 -0.380188 0.000000
111.21099854 240.81399536 245.00000000 -0.096263 0.257984 0.961342 0.000000
115.06099701 158.26199341 146.00000000 -0.406402 -0.892919 -0.193733 0.000000
79.55860138 196.33000183 111.00000000 -0.800459 -0.599311 -0.009644 0.000000
185.20899963 264.33999634 213.00000000 0.735174 0.493971 0.464233 0.000000
190.77000427 161.68400574 156.50000000 0.605085 0.605085 0.517440 0.000000
186.49200439 174.51600647 219.50000000 -0.083471 -0.332559 0.939381 0.000000
150.56199646 293.42599487 134.50000000 0.459172 0.721082 -0.518847 0.000000
228.41000366 176.22700500 219.50000000 0.000978 0.000978 0.999999 0.000000
83.83589935 200.17999268 219.50000000 -0.898855 -0.273951 0.342068 0.000000
126.60900116 302.40798950 212.00000000 0.001207 0.961751 0.273924 0.000000
79.13089752 221.56599426 123.00000000 -0.999999 -0.000978 -0.000978 0.000000
242.09800720 173.66000366 214.50000000 0.153487 -0.292033 0.944012 0.000000
148.85200500 310.96301270 169.00000000 0.104468 0.948145 -0.300180 0.000000
207.02299500 221.13900757 198.00000000 -0.282277 0.958745 -0.033575 0.000000
121.04900360 230.12100220 96.00000000 0.741080 -0.092087 -0.665072 0.000000
101.37300110 269.47299194 113.00000000 -0.542364 0.692557 -0.475611 0.000000
202.74600220 244.66400146 189.50000000 0.413705 -0.892731 -0.178546 0.000000
106.07800293 241.24200439 86.50000000 0.630128 -0.082569 -0.772088 0.000000
149.70700073 313.52899170 184.00000000 0.051770 0.840913 0.538688 0.000000
127.03700256 177.08200073 121.00000000 0.605085 -0.605085 -0.517440 0.000000
114.63300323 258.35198975 240.50000000 -0.101515 0.301909 0.947916 0.000000
152.27299500 157.83399963 204.00000000 -0.334272 -0.871551 0.358694 0.000000
88.11329651 219.00000000 231.50000000 -0.627822 -0.421323 0.654467 0.000000
172.80499268 288.72100830 150.00000000 0.453072 0.620257 -0.640319 0.000000
230.12100220 139.86900330 153.00000000 -0.123820 -0.984549 -0.123820 0.000000
192.90800476 266.05099487 203.00000000 0.807292 0.537678 0.243272 0.000000
126.60900116 254.92999268 101.50000000 0.358072 0.309725 -0.880826 0.000000
80.84179688 262.62899780 215.00000000 -0.685941 0.391730 0.613215 0.000000
86.83010101 249.79699707 112.00000000 -0.841033 0.491236 -0.226607 0.000000
248.51400757 177.93800354 181.00000000 -0.658795 0.055733 0.750255 0.000000
160.39999390 233.54299927 115.00000000 0.780256 0.221822 -0.584804 0.000000
234.39799500 161.68400574 216.50000000 -0.000978 -0.000978 0.999999 0.000000
78.27539825 263.48400879 199.00000000 -0.943274 0.297233 0.147938 0.000000
130.88699341 237.82000732 101.50000000 0.767031 0.076559 -0.637026 0.000000
148.42399597 189.91400146 147.00000000 0.523800 -0.783297 -0.334783 0.000000
136.44700623 165.10499573 131.00000000 0.743279 0.466403 -0.479588 0.000000
191.62500000 171.52099609 167.00000000 0.933394 -0.144339 0.328544 0.000000
188.63099670 219.85499573 222.00000000 0.712305 0.700976 0.035403 0.000000
237.82000732 203.60200500 216.50000000 0.000978 0.000978 0.999999 0.000000
106.93399811 213.01199341 243.50000000 -0.304252 -0.013660 0.952494 0.000000
173.66000366 282.73199463 212.00000000 0.222031 0.222031 0.949423 0.000000
102.22899628 168.52699280 133.00000000 0.557517 -0.713026 0.425169 0.000000
157.40600586 245.52000427 239.50000000 0.444327 0.216927 0.869205 0.000000
160.82800293 201.46299744 136.00000000 0.679708 -0.710394 0.182585 0.000000
137.72999573 224.98800659 104.50000000 0.475777 -0.195382 -0.857591 0.000000
236.96499634 171.94900513 216.50000000 0.442269 -0.400455 0.802517 0.000000
155.69500732 168.95500183 215.00000000 0.213162 -0.642599 0.735954 0.000000
92.81839752 244.66400146 87.00000000 -0.692998 0.573344 -0.437071 0.000000
130.88699341 309.67999268 199.50000000 -0.085186 0.881186 0.465032 0.000000
241.24200439 205.74000549 193.00000000 0.545197 0.732969 -0.406839 0.000000
170.23800659 210.44500732 236.50000000 0.605085 -0.605085 0.517440 0.000000
86.83010101 284.01599121 179.00000000 -0.703476 0.642304 -0.304249 0.000000
76.13670349 233.54299927 151.50000000 -0.984429 0.067524 -0.162295 0.000000
76.56449890 209.58999634 212.00000000 -0.928359 -0.347963 0.130658 0.000000
196.75799561 223.70500183 169.00000000 0.297466 0.892399 0.339321 0.000000
106.07800293 244.23599243 87.00000000 0.652521 0.149191 -0.742939 0.000000
170.23800659 155.26800537 145.00000000 0.399376 0.464052 -0.790667 0.000000
86.83010101 197.61300659 221.00000000 -0.834079 -0.367373 0.411521 0.000000
244.66400146 172.80499268 214.50000000 0.000978 0.000978 0.999999 0.000000
139.01400757 266.05099487 114.00000000 0.603223 0.630108 -0.488964 0.000000
185.63699341 230.97700500 221.50000000 0.758770 -0.001377 0.651358 0.000000
79.55860138 277.60000610 181.00000000 -0.784632 0.507514 -0.356065 0.000000
187.34800720 216.00599670 152.00000000 -0.247148 -0.735147 -0.631250 0.000000
168.52699280 231.83200073 234.50000000 0.101486 0.501714 0.859060 0.000000
124.04299927 295.56399536 217.00000000 -0.034523 0.539947 0.840991 0.000000
185.63699341 166.38900757 151.00000000 0.508570 0.403912 -0.760402 0.000000
131.74200439 286.58200073 119.50000000 -0.155540 0.519949 -0.839917 0.000000
186.91999817 256.64099121 215.00000000 0.602822 0.289419 0.743534 0.000000
264.76800537 185.63699341 202.00000000 0.501332 0.220952 -0.836569 0.000000
103.51200104 256.64099121 94.50000000 0.035492 0.393036 -0.918838 0.000000
203.60200500 204.45700073 156.50000000 -0.000978 -0.000978 -0.999999 0.000000
155.69500732 207.02299500 154.50000000 0.973135 -0.106456 0.204145 0.000000
119.76599884 221.56599426 96.50000000 0.545606 -0.001354 -0.838040 0.000000
114.63300323 157.40600586 129.50000000 -0.435822 -0.619502 0.652898 0.000000
205.31199646 144.14599609 180.00000000 0.001377 -0.761293 0.648407 0.000000
239.10400391 142.00799561 193.00000000 -0.538758 -0.810453 -0.230014 0.000000
86.83010101 186.49200439 204.00000000 -0.919831 -0.380197 0.096753 0.000000
77.41989899 206.16799927 97.00000000 -0.948888 -0.121106 -0.291454 0.000000
110.35500336 157.83399963 196.00000000 -0.431190 -0.899339 0.072549 0.000000
83.83589935 263.48400879 141.50000000 -0.925895 0.332985 -0.178435 0.000000
162.53900146 164.25000000 149.50000000 -0.222087 0.819424 -0.528414 0.000000
208.73399353 175.37100220 219.50000000 -0.007428 -0.083834 0.996452 0.000000
201.89100647 201.03500366 156.50000000 0.057846 -0.565760 -0.822539 0.000000
98.37889862 188.63099670 225.00000000 0.766047 -0.536071 0.354682 0.000000
122.33200073 290.00399780 124.50000000 -0.250794 0.875526 -0.412984 0.000000
73.99800110 221.56599426 185.00000000 -0.967329 -0.192948 0.164459 0.000000
234.39799500 150.99000549 214.00000000 0.001207 -0.961751 0.273924 0.000000
82.55269623 233.54299927 97.00000000 -0.956866 0.280527 -0.075576 0.000000
111.21099854 162.96699524 139.00000000 -0.495140 -0.839452 -0.223956 0.000000
84.69139862 260.48999023 221.00000000 -0.540454 0.540454 0.644841 0.000000
164.25000000 256.64099121 126.50000000 0.001381 0.713977 -0.700167 0.000000
236.96499634 139.01400757 175.00000000 -0.000978 -0.999999 -0.000978 0.000000
127.46499634 217.28900146 101.50000000 0.473935 -0.281253 -0.834436 0.000000
168.10000610 207.87899780 236.00000000 0.470191 -0.301485 0.829474 0.000000
224.13299561 161.68400574 154.50000000 -0.458265 -0.416163 0.785367 0.000000
219.00000000 152.70100403 214.00000000 -0.308018 -0.720860 0.620875 0.000000
134.30900574 181.35899353 231.50000000 -0.041105 -0.758315 0.650591 0.000000
162.53900146 245.52000427 119.50000000 0.311605 0.341711 -0.886643 0.000000
142.00799561 195.90199280 242.50000000 0.186423 -0.138232 0.972696 0.000000
137.72999573 176.22700500 226.50000000 0.424057 -0.626939 0.653547 0.000000
161.25599670 212.15600586 240.00000000 0.223364 -0.188588 0.956317 0.000000
76.99220276 212.58399963 197.00000000 -0.994271 0.016335 -0.105634 0.000000
136.02000427 213.86700439 106.50000000 0.241716 -0.418874 -0.875282 0.000000
185.63699341 153.12899780 204.50000000 -0.209453 -0.727655 0.653183 0.000000
183.07000732 162.11099243 211.00000000 -0.360483 -0.738908 0.569269 0.000000
96.66799927 180.07600403 160.00000000 -0.947489 -0.314973 -0.055281 0.000000
192.47999573 245.52000427 154.50000000 0.977403 0.125435 -0.170145 0.000000
164.25000000 139.44099426 147.50000000 -0.422427 -0.906321 -0.011770 0.000000
137.72999573 205.31199646 111.50000000 0.357931 0.011464 -0.933678 0.000000
197.61300659 183.92599487 174.50000000 0.979441 -0.196843 0.044140 0.000000
246.80299377 165.10499573 178.00000000 -0.928428 -0.168932 0.330883 0.000000
190.77000427 262.20098877 207.00000000 0.675633 0.419988 0.605912 0.000000
188.63099670 242.09800720 145.00000000 0.885909 -0.090970 -0.454851 0.000000
265.19500732 177.08200073 199.50000000 0.858222 0.023122 -0.512757 0.000000
217.28900146 166.81599426 219.50000000 -0.000978 -0.000978 0.999999 0.000000
96.66799927 253.21899414 234.50000000 -0.370696 0.169014 0.913246 0.000000
72.71479797 235.25399780 197.50000000 -0.978598 -0.159594 0.129902 0.000000
238.67599487 183.92599487 216.50000000 0.906706 0.025076 0.421018 0.000000
94.95700073 266.05099487 116.50000000 -0.690187 0.634711 -0.347541 0.000000
153.12899780 209.16200256 116.00000000 0.578930 -0.426318 -0.695048 0.000000
193.76400757 240.38699341 160.00000000 0.808056 -0.583356 -0.082102 0.000000
251.93600464 164.25000000 184.00000000 -0.900993 -0.261008 0.346536 0.000000
176.22700500 153.55700684 204.00000000 -0.127861 -0.818605 0.559944 0.000000
137.30299377 311.39099121 172.00000000 -0.329378 0.940513 -0.083337 0.000000
154.83999634 307.96899414 194.50000000 0.116960 0.768381 0.629214 0.000000
135.16400146 254.92999268 242.50000000 -0.139023 0.445735 0.884304 0.000000
91.10739899 191.62500000 92.00000000 0.434853 -0.684769 -0.584803 0.000000
73.99800110 252.36300659 187.00000000 -0.976334 0.175815 0.125938 0.000000
231.40400696 197.61300659 218.00000000 0.522828 0.693206 0.496102 0.000000
184.78100586 142.43600464 181.00000000 -0.305198 -0.915594 0.261805 0.000000
118.91000366 197.61300659 242.50000000 -0.261433 -0.350055 0.899508 0.000000
153.98399353 302.40798950 152.00000000 0.329286 0.858000 -0.394216 0.000000
141.15199280 149.27900696 143.00000000 -0.261230 -0.937353 -0.230497 0.000000
130.88699341 182.64300537 124.00000000 0.863339 -0.324714 -0.386271 0.000000
138.58599854 310.96301270 195.00000000 0.080567 0.939068 0.334155 0.000000
114.63300323 228.41000366 91.50000000 0.551078 -0.216440 -0.805895 0.000000
204.45700073 221.13900757 199.00000000 0.105674 0.956288 0.272666 0.000000
170.23800659 303.69100952 194.50000000 0.985809 0.001127 -0.167869 0.000000
258.35198975 210.44500732 209.50000000 0.486099 0.859118 0.160075 0.000000
254.07400513 166.81599426 211.50000000 0.491702 -0.419825 0.762873 0.000000
88.54100037 182.21499634 192.00000000 -0.835919 -0.547575 0.037429 0.000000
192.90800476 243.80900574 155.00000000 0.953230 0.008632 -0.302123 0.000000
114.20500183 256.64099121 242.00000000 -0.101515 0.301909 0.947916 0.000000
101.80100250 198.46899414 94.50000000 0.321720 -0.128960 -0.938011 0.000000
96.24019623 216.43400574 238.00000000 -0.870313 -0.181131 0.457982 0.000000
142.86300659 149.70700073 139.50000000 -0.305198 -0.915594 -0.261805 0.000000
175.37100220 152.70100403 146.00000000 0.146434 0.468297 -0.871352 0.000000
187.34800720 238.67599487 224.50000000 0.843735 -0.536675 -0.009511 0.000000
171.94900513 301.55300903 170.00000000 0.486634 0.851985 -0.193156 0.000000
97.09570313 258.35198975 100.00000000 -0.477446 0.813721 -0.331516 0.000000
224.98800659 195.90199280 169.50000000 -0.286224 -0.498938 0.818008 0.000000
169.38299561 274.60501099 219.50000000 0.614951 0.402785 0.677938 0.000000
123.18800354 272.46701050 108.00000000 0.123844 0.531799 -0.837766 0.000000
75.70899963 254.07400513 196.00000000 0.146744 0.989123 0.010082 0.000000
159.11700439 304.11898804 198.00000000 0.406609 0.668831 0.622361 0.000000
223.27699280 141.58000183 147.00000000 0.000978 -0.999999 0.000978 0.000000
250.22500610 155.69500732 212.00000000 0.383078 -0.192262 0.903486 0.000000
122.33200073 274.60501099 109.50000000 -0.244163 0.489862 -0.836911 0.000000
110.35500336 270.32800293 106.50000000 -0.352949 0.887629 -0.295876 0.000000
175.37100220 216.86099243 157.00000000 -0.208021 -0.833601 0.511700 0.000000
192.90800476 236.96499634 178.00000000 0.945644 -0.118706 0.302766 0.000000
95.81250000 218.57200623 237.00000000 -0.602984 -0.067317 0.794908 0.000000
153.98399353 219.85499573 114.50000000 0.070976 -0.300681 -0.951080 0.000000
156.97900391 153.98399353 139.00000000 0.296129 0.451170 -0.841875 0.000000
95.38480377 201.89100647 88.00000000 0.673178 -0.352149 -0.650248 0.000000
112.06600189 162.53900146 135.50000000 -0.359865 -0.919967 -0.155428 0.000000
127.89299774 244.66400146 102.00000000 0.379122 0.175970 -0.908461 0.000000
91.53520203 177.50999451 201.00000000 -0.936328 -0.312109 0.160867 0.000000
106.93399811 266.47900391 101.00000000 -0.354559 0.622520 -0.697680 0.000000
157.83399963 213.86700439 153.00000000 0.810835 -0.469934 0.348866 0.000000
101.80100250 162.96699524 196.00000000 -0.614381 -0.503288 -0.607648 0.000000
100.51799774 172.80499268 162.00000000 -0.870951 -0.418117 -0.258115 0.000000
131.74200439 284.44299316 118.00000000 -0.114330 0.687465 -0.717161 0.000000
131.74200439 151.84599304 192.00000000 0.244106 -0.738617 0.628376 0.000000
99.23439789 295.56399536 173.00000000 -0.671354 0.728426 -0.136674 0.000000
192.90800476 235.25399780 185.00000000 0.980379 -0.196541 -0.015119 0.000000
98.37889862 205.74000549 88.00000000 0.486143 -0.482825 -0.728385 0.000000
144.14599609 143.71899414 157.00000000 -0.680943 -0.680943 -0.269507 0.000000
160.39999390 303.69100952 157.00000000 0.100150 0.881599 -0.461252 0.000000
151.41799927 290.85900879 219.50000000 0.355828 0.841760 0.405989 0.000000
260.06201172 170.23800659 194.50000000 -0.817552 -0.575722 -0.012366 0.000000
215.14999390 227.55499268 187.00000000 -0.800496 0.578220 0.157696 0.000000
199.75199890 248.94099426 206.00000000 0.758051 0.568136 0.320281 0.000000
138.58599854 254.92999268 109.50000000 0.612148 -0.372540 -0.697487 0.000000
126.60900116 157.40600586 196.50000000 -0.129925 -0.990823 -0.037283 0.000000
111.63899994 157.40600586 158.00000000 -0.716165 -0.686263 0.127086 0.000000
139.44099426 239.95899963 107.00000000 0.634661 0.314908 -0.705718 0.000000
93.24610138 292.57000732 196.50000000 -0.577415 0.814592 -0.055059 0.000000
174.51600647 295.56399536 198.00000000 0.463227 0.683970 0.563565 0.000000
148.85200500 273.75000000 121.50000000 0.511654 0.224517 -0.829338 0.000000
191.19700623 172.80499268 159.00000000 0.620439 0.373580 -0.689560 0.000000
159.97300720 202.74600220 159.50000000 0.527335 0.493853 -0.691395 0.000000
137.72999573 301.55300903 210.00000000 -0.014859 0.860482 0.509265 0.000000
148.85200500 195.47500610 122.00000000 0.639675 -0.754064 0.149007 0.000000
138.58599854 148.85200500 149.50000000 -0.388893 -0.911162 -0.136183 0.000000
122.76000214 307.11300659 174.00000000 -0.305995 0.950996 0.044439 0.000000
203.60200500 195.90199280 181.50000000 0.270992 -0.921946 0.276727 0.000000
203.60200500 195.04699707 181.50000000 0.270992 -0.921946 0.276727 0.000000
255.78500366 207.45100403 213.00000000 0.287493 0.573398 0.767178 0.000000
94.10160065 189.48599243 221.00000000 -0.694085 -0.362631 0.621888 0.000000
169.38299561 204.45700073 234.50000000 -0.001287 -0.402911 0.915238 0.000000
110.35500336 230.97700500 246.50000000 -0.180880 0.046107 0.982424 0.000000
231.83200073 208.30700684 193.00000000 0.108083 0.943392 -0.313575 0.000000
147.14100647 236.96499634 243.50000000 0.147274 0.331710 0.931815 0.000000
115.48799896 303.69100952 204.50000000 -0.348852 0.825563 0.443563 0.000000
200.17999268 214.72300720 214.50000000 0.521387 0.711284 0.471413 0.000000
103.93900299 215.57800293 88.00000000 0.661425 -0.079952 -0.745738 0.000000
156.12300110 198.46899414 240.00000000 0.546042 -0.562948 0.620426 0.000000
117.19899750 260.06201172 99.50000000 0.384436 0.461645 -0.799433 0.000000
99.23439789 263.48400879 231.50000000 -0.625431 0.500682 0.598459 0.000000
212.15600586 162.53900146 216.50000000 -0.098904 -0.359034 0.928069 0.000000
164.25000000 213.43899536 121.00000000 0.655436 -0.351418 -0.668512 0.000000
145.42999268 272.03900146 119.50000000 0.001377 0.758770 -0.651358 0.000000
248.94099426 212.15600586 214.50000000 0.605085 0.605085 0.517440 0.000000
104.79499817 218.14500427 88.00000000 0.588363 -0.158000 -0.793010 0.000000
199.32400513 240.81399536 207.00000000 0.942883 -0.317841 -0.099741 0.000000
107.78900146 161.68400574 151.50000000 -0.851229 -0.489195 -0.189993 0.000000
126.18199921 260.06201172 103.00000000 0.403542 0.284764 -0.869519 0.000000
177.93800354 261.77301025 139.50000000 0.706599 0.393653 -0.588009 0.000000
106.50599670 160.82800293 178.00000000 -0.652205 -0.740382 0.162671 0.000000
100.08999634 297.70300293 201.50000000 -0.546374 0.792006 0.272400 0.000000
130.03100586 298.13101196 138.00000000 -0.203316 0.932450 -0.298664 0.000000
230.12100220 167.67199707 159.50000000 0.001264 -0.362873 0.931838 0.000000
193.76400757 189.91400146 178.00000000 0.605085 -0.605085 -0.517440 0.000000
155.26800537 207.02299500 119.00000000 0.441033 -0.560861 -0.700660 0.000000
145.42999268 200.60699463 115.00000000 0.488500 -0.083059 -0.868602 0.000000
177.93800354 148.85200500 196.50000000 -0.191732 -0.762325 0.618142 0.000000
147.99600220 210.44500732 243.50000000 0.185607 -0.061071 0.980724 0.000000
182.64300537 248.08599854 221.00000000 0.396376 0.554268 0.731897 0.000000
92.39060211 182.64300537 104.00000000 -0.390864 -0.707513 -0.588770 0.000000
243.38099670 147.14100647 162.00000000 -0.655654 -0.595287 0.464491 0.000000
133.45300293 296.42001343 131.00000000 -0.159119 0.834257 -0.527917 0.000000
204.45700073 189.91400146 224.50000000 0.862302 -0.408943 0.298666 0.000000
211.30099487 169.81100464 151.00000000 -0.353703 -0.212222 0.910965 0.000000
154.83999634 142.00799561 145.50000000 -0.172943 -0.341669 -0.923771 0.000000
137.72999573 151.84599304 137.00000000 -0.333515 -0.935732 -0.114772 0.000000
197.18600464 242.95300293 180.00000000 0.707106 -0.707106 -0.001384 0.000000
158.26199341 199.32400513 236.50000000 0.828093 -0.291626 0.478766 0.000000
169.38299561 256.64099121 229.50000000 0.486290 0.637730 0.597346 0.000000
106.50599670 226.69900513 88.00000000 0.779135 -0.155224 -0.607334 0.000000
192.47999573 258.77899170 208.00000000 0.790112 0.544089 0.282295 0.000000
238.67599487 177.93800354 171.50000000 -0.560066 -0.223718 0.797669 0.000000
179.64799500 263.91198730 143.00000000 0.644780 0.377633 -0.664569 0.000000
115.48799896 293.85400391 138.00000000 -0.488069 0.839969 -0.237150 0.000000
82.55269623 228.41000366 88.00000000 -0.946733 0.206287 -0.247271 0.000000
250.65199280 139.01400757 187.00000000 -0.177082 -0.968134 0.177082 0.000000
171.52099609 275.46099854 217.00000000 0.540454 0.540454 0.644841 0.000000
170.23800659 304.97500610 179.00000000 0.475809 0.839210 -0.263312 0.000000
200.17999268 245.09199524 175.00000000 0.790055 -0.574445 0.214069 0.000000
228.83799744 190.77000427 168.00000000 -0.487638 0.393675 0.779249 0.000000
114.63300323 154.41200256 166.00000000 -0.705724 -0.708486 0.001381 0.000000
117.19899750 159.11700439 199.50000000 0.458334 -0.816754 0.350490 0.000000
142.86300659 262.62899780 236.50000000 0.071075 -0.051393 0.996146 0.000000
148.85200500 294.70901489 215.00000000 0.848675 0.508619 0.145110 0.000000
106.93399811 162.53900146 153.50000000 -0.773610 -0.629010 -0.076638 0.000000
207.87899780 185.63699341 221.50000000 0.009350 -0.057136 0.998323 0.000000
90.67970276 178.79299927 186.50000000 -0.853985 -0.465672 -0.232078 0.000000
163.82200623 291.71499634 212.00000000 0.428503 0.658594 0.618578 0.000000
197.18600464 183.92599487 179.00000000 0.849876 -0.402409 0.340261 0.000000
172.37699890 216.43400574 235.00000000 0.141493 -0.091554 0.985696 0.000000
126.60900116 296.84799194 136.50000000 -0.345318 0.842201 -0.414069 0.000000
233.54299927 191.62500000 219.50000000 0.000978 0.000978 0.999999 0.000000
150.56199646 285.72698975 129.50000000 0.235408 0.781057 -0.578388 0.000000
189.91400146 253.21899414 214.50000000 0.624964 0.454062 0.635017 0.000000
118.91000366 288.72100830 126.00000000 -0.415139 0.753157 -0.510309 0.000000
106.07800293 162.96699524 161.00000000 -0.000978 -0.000978 -0.999999 0.000000
82.55269623 236.10899353 108.00000000 -0.705724 0.708486 0.001381 0.000000
196.75799561 153.55700684 209.00000000 -0.311672 -0.660486 0.683095 0.000000
159.11700439 213.43899536 163.00000000 0.601147 -0.201407 -0.773342 0.000000
171.09399414 139.01400757 176.00000000 -0.346235 -0.277879 -0.896049 0.000000
115.48799896 175.37100220 224.50000000 -0.793114 -0.365186 0.487451 0.000000
78.27539825 263.48400879 203.00000000 -0.964057 0.262925 0.038266 0.000000
145.42999268 284.87100220 224.50000000 0.263357 0.436898 0.860095 0.000000
176.65400696 248.08599854 132.00000000 0.836568 0.211040 -0.505585 0.000000
82.98049927 274.17800903 206.00000000 -0.911879 0.174978 0.371295 0.000000
167.67199707 184.35400391 225.00000000 -0.257403 -0.410942 0.874569 0.000000
210.44500732 201.03500366 159.50000000 0.290063 -0.652241 -0.700318 0.000000
217.28900146 207.87899780 161.50000000 0.751306 -0.149057 -0.642901 0.000000
214.72300720 189.91400146 224.50000000 0.669398 0.095210 0.736778 0.000000
213.01199341 176.65400696 158.00000000 0.159885 -0.296538 0.941542 0.000000
159.11700439 144.57400513 181.50000000 -0.165544 -0.896817 0.410261 0.000000
227.55499268 159.97300720 156.50000000 -0.456244 -0.420524 0.784220 0.000000
99.23439789 167.24400330 187.00000000 -0.584888 -0.722509 -0.368627 0.000000
258.35198975 138.58599854 176.50000000 0.248425 -0.968001 -0.035489 0.000000
225.41600037 219.00000000 202.00000000 -0.347646 0.878982 -0.326392 0.000000
256.21301270 148.85200500 178.00000000 -0.915740 -0.321590 0.240832 0.000000
109.50000000 161.68400574 145.50000000 -0.716584 -0.696874 0.029564 0.000000
176.22700500 248.08599854 226.50000000 0.410302 0.555309 -0.723384 0.000000
220.71099854 166.81599426 219.50000000 0.000978 0.000978 0.999999 0.000000
182.21499634 184.78100586 226.50000000 0.572944 -0.266742 0.774973 0.000000
81.69730377 231.83200073 226.00000000 -0.866524 -0.017574 0.498826 0.000000
72.71479797 236.96499634 197.50000000 -0.970071 -0.232271 0.070799 0.000000
164.25000000 298.98599243 151.00000000 0.691572 0.571588 -0.441606 0.000000
177.93800354 138.58599854 152.50000000 0.712274 -0.213526 -0.668634 0.000000
97.52339935 186.49200439 99.50000000 0.312750 -0.562949 -0.765033 0.000000
158.68899536 204.45700073 123.00000000 0.653059 -0.449291 -0.609633 0.000000
129.17599487 239.53100586 99.50000000 0.686426 0.230903 -0.689567 0.000000
111.21099854 284.87100220 124.50000000 -0.392916 0.784216 -0.480231 0.000000
176.22700500 150.13499451 199.00000000 -0.157902 -0.795523 0.584988 0.000000
85.54689789 189.91400146 129.50000000 -0.244188 -0.735716 0.631739 0.000000
221.56599426 153.12899780 214.50000000 -0.393713 -0.571625 0.719885 0.000000
195.04699707 225.41600037 190.00000000 0.822008 0.547508 0.156644 0.000000
223.70500183 225.84399414 180.00000000 -0.553546 0.358750 -0.751589 0.000000
76.56449890 214.72300720 187.00000000 -0.915565 -0.366509 0.165566 0.000000
204.45700073 211.72900391 216.00000000 0.383839 0.832442 0.399635 0.000000
151.41799927 215.14999390 113.00000000 0.488236 0.025697 -0.872333 0.000000
82.98049927 211.72900391 223.00000000 0.126616 0.636057 0.761183 0.000000
157.83399963 213.86700439 154.00000000 0.810835 -0.469934 0.348866 0.000000
112.06600189 304.11898804 168.00000000 -0.904998 -0.422152 -0.052600 0.000000
79.13089752 266.90600586 200.00000000 -0.954625 0.295569 0.036474 0.000000
97.95120239 248.08599854 88.00000000 -0.558781 0.558781 -0.612802 0.000000
203.60200500 207.02299500 224.50000000 0.949964 0.237831 0.202496 0.000000
195.47500610 239.53100586 216.00000000 0.857094 -0.512590 0.051398 0.000000
98.37889862 248.51400757 88.00000000 0.237200 0.711600 -0.661333 0.000000
172.37699890 195.04699707 161.00000000 0.457671 0.635374 -0.621963 0.000000
201.46299744 213.01199341 216.00000000 0.534504 0.778481 0.329049 0.000000
134.30900574 170.66600037 223.00000000 0.058535 -0.632463 0.772376 0.000000
161.25599670 310.53500366 175.00000000 0.396709 0.887024 -0.236243 0.000000
151.84599304 255.78500366 237.00000000 0.403073 0.304987 0.862853 0.000000
215.57800293 207.87899780 159.50000000 0.751306 -0.149057 -0.642901 0.000000
94.95700073 169.38299561 197.50000000 -0.685581 -0.698017 0.206762 0.000000
168.52699280 139.44099426 152.50000000 -0.392433 -0.805690 0.443690 0.000000
185.63699341 246.37500000 221.50000000 0.441234 0.564446 0.697649 0.000000
237.39300537 194.19099426 175.00000000 -0.670232 -0.223411 0.707727 0.000000
81.26950073 192.90800476 190.00000000 -0.929164 -0.362892 -0.070452 0.000000
216.43400574 170.23800659 154.50000000 -0.386253 -0.586775 0.711691 0.000000
108.64499664 196.75799561 99.50000000 0.701729 -0.319263 -0.636904 0.000000
82.98049927 248.94099426 124.50000000 -0.967329 0.192948 -0.164459 0.000000
113.34999847 162.53900146 137.00000000 -0.495720 -0.837386 -0.230319 0.000000
88.11329651 253.21899414 229.50000000 -0.523009 0.277996 0.805717 0.000000
155.69500732 192.90800476 236.00000000 0.740662 -0.668753 -0.064718 0.000000
103.93900299 173.66000366 211.00000000 -0.531886 -0.633198 0.562279 0.000000
111.21099854 265.19500732 236.50000000 -0.273675 0.128244 0.953234 0.000000
257.49600220 207.02299500 214.50000000 -0.267484 0.802453 0.533405 0.000000
145.42999268 222.42199707 109.50000000 0.150179 -0.416209 -0.896781 0.000000
79.13089752 207.02299500 186.00000000 -0.962172 -0.136709 -0.235661 0.000000
130.45899963 178.79299927 128.00000000 0.973061 -0.229167 -0.025196 0.000000
118.05500031 175.37100220 114.50000000 0.416522 0.381680 -0.825125 0.000000
242.95300293 211.30099487 214.50000000 0.362039 0.686399 0.630701 0.000000
121.47699738 164.67799377 213.00000000 -0.076118 -0.889886 0.449787 0.000000
130.88699341 245.52000427 101.50000000 0.587006 0.091312 -0.804416 0.000000
200.17999268 150.13499451 204.00000000 -0.446689 -0.894688 0.001310 0.000000
79.98629761 196.75799561 97.00000000 -0.948187 -0.317711 0.001236 0.000000
89.39649963 255.78500366 111.00000000 -0.754409 0.488147 -0.438839 0.000000
196.75799561 269.89999390 182.00000000 0.928213 0.372047 0.001270 0.000000
219.85499573 218.14500427 209.50000000 0.249981 0.862055 0.440875 0.000000
