151.03500366 111.28900146 317.50000000 -0.000978 -0.000978 -0.999999 0.000000
150.24000549 110.49400330 317.50000000 -0.000978 -0.000978 -0.999999 0.000000
157.39500427 131.95700073 332.50000000 0.230385 0.697425 -0.678618 0.000000
150.24000549 89.82620239 307.50000000 0.886555 -0.308563 -0.344688 0.000000
149.44500732 90.62110138 307.50000000 0.976845 0.140975 -0.160936 0.000000
155.00999451 124.80300140 327.50000000 0.229317 0.616193 -0.753472 0.000000
155.80499268 129.57200623 332.50000000 0.286655 0.683808 -0.670996 0.000000
152.22799683 130.36700439 330.00000000 0.569802 0.466201 -0.676744 0.000000
147.85499573 85.05670166 307.50000000 0.828442 -0.400757 0.391253 0.000000
151.03500366 115.26399994 322.50000000 -0.000978 -0.000978 -0.999999 0.000000
157.39500427 129.57200623 332.50000000 0.229675 0.742149 -0.629654 0.000000
154.21499634 136.32899475 340.00000000 0.000978 0.000978 -0.999999 0.000000
158.18899536 128.38000488 330.00000000 0.123645 0.746340 -0.653979 0.000000
148.64999390 83.46679688 302.50000000 0.780579 0.581943 -0.228121 0.000000
147.45799255 86.64649963 305.00000000 0.829431 -0.399707 0.390228 0.000000
151.03500366 110.49400330 317.50000000 -0.000978 -0.000978 -0.999999 0.000000
152.62500000 120.03299713 322.50000000 -0.000978 -0.000978 -0.999999 0.000000
147.85499573 91.41600037 312.50000000 0.557074 -0.751969 0.352435 0.000000
152.62500000 129.97000122 330.00000000 0.472390 0.549174 -0.689388 0.000000
153.41999817 115.26399994 322.50000000 -0.000978 -0.000978 -0.999999 0.000000
153.41999817 129.17500305 330.00000000 0.250418 0.622107 -0.741804 0.000000
148.64999390 100.16000366 317.50000000 -0.000978 -0.000978 -0.999999 0.000000
148.64999390 93.80079651 317.50000000 0.700581 0.199503 -0.685116 0.000000
150.24000549 103.33999634 322.50000000 -0.319228 0.798865 -0.509812 0.000000
154.21499634 127.98200226 327.50000000 0.258356 0.635587 -0.727517 0.000000
146.66299438 93.80079651 305.00000000 0.767752 0.191555 -0.611443 0.000000
153.41999817 110.49400330 317.50000000 0.037626 -0.820807 -0.569966 0.000000
151.03500366 103.33999634 317.50000000 -0.319228 0.798865 -0.509812 0.000000
152.62500000 122.41799927 322.50000000 0.243471 0.401801 -0.882767 0.000000
149.44500732 220.98800659 422.50000000 0.000978 0.000978 -0.999999 0.000000
95.39060211 250.39999390 367.50000000 0.000978 0.000978 0.999999 0.000000
143.08599854 118.44300079 427.50000000 -0.000978 -0.000978 -0.999999 0.000000
154.21499634 139.90600586 437.50000000 0.491609 0.659393 -0.568790 0.000000
100.95500183 213.03900146 337.50000000 -0.953006 0.001227 0.302950 0.000000
113.67400360 190.78100586 302.50000000 -0.819740 -0.545992 0.172973 0.000000
107.31400299 232.91200256 422.50000000 -0.000978 -0.000978 -0.999999 0.000000
124.00800323 127.18800354 332.50000000 0.382761 -0.763893 0.519578 0.000000
70.74810028 166.13900757 402.50000000 0.914326 0.286363 -0.286363 0.000000
224.16799927 94.59570313 362.50000000 0.779700 0.145165 -0.609094 0.000000
100.95500183 251.99000549 372.50000000 -0.420566 -0.842695 0.336140 0.000000
109.69899750 247.22099304 422.50000000 0.897894 -0.382301 -0.218248 0.000000
91.01860046 260.73400879 405.00000000 0.503590 -0.380527 -0.775626 0.000000
150.24000549 155.80499268 362.50000000 0.001118 -0.987489 0.157685 0.000000
73.92769623 250.39999390 352.50000000 -0.001372 -0.783405 0.621510 0.000000
70.35060120 155.00999451 300.00000000 0.853585 0.274312 -0.442883 0.000000
98.57029724 142.29100037 282.50000000 0.000978 0.000978 0.999999 0.000000
81.08200073 124.80300140 282.50000000 0.000978 0.000978 0.999999 0.000000
106.51999664 159.77900696 287.50000000 0.000978 0.000978 0.999999 0.000000
105.72499847 205.88499451 432.50000000 0.206947 -0.142677 -0.967893 0.000000
122.02100372 188.39700317 310.00000000 -0.412639 -0.581672 0.700990 0.000000
233.30999756 142.29100037 390.00000000 0.916203 0.395724 -0.063048 0.000000
71.54299927 215.42399597 402.50000000 0.928114 -0.054129 -0.368341 0.000000
75.12010193 150.24000549 400.00000000 0.987489 -0.001118 -0.157685 0.000000
103.33999634 110.49400330 397.50000000 0.630066 0.692254 -0.351855 0.000000
155.00999451 182.83200073 432.50000000 -0.064764 -0.464371 -0.883270 0.000000
85.45410156 124.80300140 340.00000000 0.916936 0.370974 0.146990 0.000000
180.05000305 87.44139862 305.00000000 0.280039 0.657693 -0.699299 0.000000
229.73199463 112.48100281 390.00000000 -0.602577 0.468298 -0.646218 0.000000
214.62899780 96.18560028 352.50000000 0.806724 0.560604 -0.186868 0.000000
116.05899811 236.88699341 372.50000000 -0.498938 -0.670291 0.549336 0.000000
62.00389862 155.80499268 257.50000000 0.944135 0.199272 0.262489 0.000000
98.57029724 200.32000732 432.50000000 0.616777 -0.616777 -0.489052 0.000000
142.29100037 110.49400330 312.50000000 -0.000978 -0.000978 -0.999999 0.000000
205.08999634 138.31599426 367.50000000 -0.000978 -0.000978 -0.999999 0.000000
104.93000031 102.94200134 370.00000000 0.764230 0.633643 -0.120199 0.000000
213.83399963 129.57200623 397.50000000 0.000978 0.000978 -0.999999 0.000000
184.02400208 197.14100647 380.00000000 0.670021 0.670021 -0.319598 0.000000
141.49600220 255.16999817 412.50000000 -0.000978 -0.000978 -0.999999 0.000000
112.08399963 107.31400299 312.50000000 -0.000978 -0.000978 -0.999999 0.000000
189.98599243 95.39060211 387.50000000 -0.000978 -0.000978 -0.999999 0.000000
124.00800323 234.50199890 427.50000000 -0.023700 -0.298120 -0.954234 0.000000
134.34199524 180.44700623 327.50000000 -0.693098 -0.552808 0.462622 0.000000
109.69899750 124.00800323 422.50000000 0.499040 0.446336 -0.742795 0.000000
184.42199707 91.41600037 382.50000000 -0.685432 0.227432 -0.691706 0.000000
120.82800293 114.46900177 417.50000000 -0.000978 -0.000978 -0.999999 0.000000
178.06300354 105.72499847 397.50000000 -0.000978 -0.000978 -0.999999 0.000000
178.85699463 164.54899597 352.50000000 -0.366210 -0.081827 -0.926927 0.000000
77.10739899 186.01199341 417.50000000 -0.822212 -0.411901 -0.392817 0.000000
157.39500427 90.62110138 387.50000000 0.063095 0.848272 -0.525788 0.000000
181.24200439 105.72499847 327.50000000 -0.000978 -0.000978 -0.999999 0.000000
195.55099487 127.98200226 347.50000000 0.601004 0.043633 -0.798054 0.000000
62.79880142 157.39500427 257.50000000 0.944135 0.199272 0.262489 0.000000
115.26399994 251.99000549 382.50000000 -0.478374 -0.381733 0.790847 0.000000
121.62300110 228.93800354 427.50000000 -0.000978 -0.000978 -0.999999 0.000000
108.90399933 275.04299927 387.50000000 -0.299191 -0.894596 0.331938 0.000000
213.03900146 155.00999451 402.50000000 -0.000978 -0.000978 -0.999999 0.000000
220.98800659 85.05670166 352.50000000 0.830715 0.311323 -0.461509 0.000000
76.31250000 212.24400330 412.50000000 0.513583 -0.129487 -0.848213 0.000000
143.88099670 157.39500427 357.50000000 -0.000978 -0.000978 0.999999 0.000000
218.60400391 91.41600037 352.50000000 0.616777 0.616777 -0.489052 0.000000
112.48100281 166.13900757 290.00000000 -0.522379 0.345574 0.779550 0.000000
60.81150055 158.18899536 260.00000000 0.925999 0.275374 0.258253 0.000000
62.00389862 158.18899536 257.50000000 0.909655 -0.001294 0.415362 0.000000
208.66700745 113.67400360 360.00000000 0.737617 0.453791 -0.499995 0.000000
148.64999390 177.26800537 437.50000000 -0.000978 -0.000978 -0.999999 0.000000
131.95700073 236.88699341 422.50000000 0.285905 -0.544957 -0.788213 0.000000
118.44300079 276.23498535 405.00000000 0.190829 -0.786214 -0.587752 0.000000
115.26399994 242.45100403 422.50000000 -0.000978 -0.000978 -0.999999 0.000000
202.70500183 85.05670166 372.50000000 0.000978 0.000978 -0.999999 0.000000
80.68460083 237.68200684 345.00000000 -0.603114 -0.603114 0.522023 0.000000
179.65199280 189.98599243 377.50000000 -0.932490 0.249699 -0.260984 0.000000
65.58110046 201.11500549 390.00000000 0.888281 0.178819 -0.423060 0.000000
165.34399414 170.11300659 432.50000000 -0.000978 -0.000978 -0.999999 0.000000
165.34399414 71.14550018 310.00000000 0.042182 0.975005 0.218141 0.000000
179.65199280 94.59570313 387.50000000 -0.191970 0.754059 -0.628126 0.000000
86.24900055 140.70100403 415.00000000 0.754198 0.058676 -0.654020 0.000000
85.85160065 218.60400391 317.50000000 -0.497143 -0.001333 -0.867668 0.000000
63.99119949 184.42199707 310.00000000 0.967184 0.221620 0.124261 0.000000
217.01400757 133.54699707 372.50000000 -0.000978 -0.000978 -0.999999 0.000000
139.90600586 178.85699463 337.50000000 -0.001118 0.987489 0.157685 0.000000
151.83000183 210.65400696 382.50000000 -0.929945 0.309982 0.197771 0.000000
100.95500183 123.21299744 292.50000000 0.000978 0.000978 0.999999 0.000000
209.06399536 83.46679688 372.50000000 -0.000978 -0.000978 -0.999999 0.000000
151.03500366 77.90239716 357.50000000 0.001118 0.987489 -0.157685 0.000000
166.53599548 102.54499817 400.00000000 -0.318991 0.897627 -0.304155 0.000000
151.03500366 201.91000366 377.50000000 -0.904405 -0.247722 0.347397 0.000000
133.54699707 132.75199890 437.50000000 -0.052181 0.402728 -0.913831 0.000000
77.90239716 184.42199707 417.50000000 -0.000978 -0.000978 -0.999999 0.000000
138.71400452 78.69730377 340.00000000 0.338506 0.934602 -0.109239 0.000000
203.10299683 129.57200623 360.00000000 0.860664 0.363117 -0.356936 0.000000
127.98200226 276.63299561 402.50000000 -0.023397 -0.829912 -0.557404 0.000000
165.34399414 129.57200623 332.50000000 -0.079205 0.603401 -0.793494 0.000000
159.77900696 135.93200684 337.50000000 -0.240518 0.721553 -0.649240 0.000000
133.14900208 212.24400330 365.00000000 -0.482803 -0.699981 0.526239 0.000000
87.44139862 193.96099854 422.50000000 0.612990 -0.049549 -0.788535 0.000000
201.11500549 78.69730377 357.50000000 -0.001118 0.987489 -0.157685 0.000000
119.23799896 224.96299744 427.50000000 -0.000978 -0.000978 -0.999999 0.000000
116.85399628 110.49400330 317.50000000 -0.942474 0.308765 0.128090 0.000000
113.67400360 192.37100220 307.50000000 -0.869773 -0.438629 0.226051 0.000000
134.34199524 166.13900757 357.50000000 -0.635860 0.442265 0.632522 0.000000
149.84300232 187.60200500 355.00000000 -0.544649 -0.628960 0.554767 0.000000
85.85160065 229.73199463 417.50000000 0.676072 0.442368 -0.589268 0.000000
150.24000549 217.01400757 387.50000000 -0.692124 -0.619788 0.369900 0.000000
183.62699890 120.03299713 407.50000000 -0.000978 -0.000978 -0.999999 0.000000
84.26170349 131.16200256 307.50000000 0.702740 0.702740 0.110959 0.000000
91.81349945 277.42800903 385.00000000 0.424424 -0.904090 0.049853 0.000000
151.03500366 73.53029633 315.00000000 0.312705 0.938116 0.148842 0.000000
153.81700134 234.50199890 400.00000000 -0.847896 -0.189917 0.494980 0.000000
108.10900116 209.06399536 432.50000000 0.240779 -0.084462 -0.966898 0.000000
169.31799316 124.80300140 417.50000000 -0.286388 -0.210949 -0.934603 0.000000
164.54899597 168.52299500 432.50000000 -0.000978 -0.000978 -0.999999 0.000000
94.59570313 229.73199463 422.50000000 0.702554 -0.532339 -0.472263 0.000000
100.16000366 105.72499847 327.50000000 0.830587 0.556887 0.001355 0.000000
94.59570313 257.55499268 372.50000000 -0.412545 -0.848441 0.331593 0.000000
107.31400299 227.34800720 427.50000000 -0.000978 -0.000978 -0.999999 0.000000
96.98049927 148.64999390 432.50000000 0.715802 -0.219887 -0.662780 0.000000
125.59799957 178.85699463 307.50000000 -0.000978 -0.000978 0.999999 0.000000
133.54699707 274.24798584 397.50000000 -0.753027 0.655862 0.052869 0.000000
211.44900513 120.03299713 397.50000000 0.108895 0.384578 -0.916647 0.000000
149.84300232 140.70100403 360.00000000 0.336038 0.612011 -0.715906 0.000000
199.52499390 170.11300659 407.50000000 -0.000978 -0.000978 -0.999999 0.000000
201.91000366 83.86430359 315.00000000 0.395037 0.775444 -0.492577 0.000000
121.22599792 86.64649963 330.00000000 0.590217 0.805355 -0.055200 0.000000
67.56839752 161.36900330 257.50000000 -0.327282 -0.885319 0.330298 0.000000
166.93400574 81.08200073 367.50000000 -0.152061 0.922132 -0.355739 0.000000
179.65199280 144.67599487 347.50000000 -0.000978 -0.000978 -0.999999 0.000000
117.64800262 133.94400024 315.00000000 -0.791404 0.594671 0.141588 0.000000
85.05670166 197.14100647 422.50000000 -0.000978 -0.000978 -0.999999 0.000000
148.25300598 250.39999390 400.00000000 -0.644592 -0.095008 0.758601 0.000000
62.79880142 187.60200500 312.50000000 0.963288 0.232697 0.133898 0.000000
119.23799896 112.87899780 317.50000000 -0.789069 0.445573 -0.422889 0.000000
72.73539734 172.49800110 410.00000000 0.358369 0.221986 -0.906804 0.000000
178.06300354 180.44700623 357.50000000 0.000978 0.000978 -0.999999 0.000000
112.87899780 190.78100586 437.50000000 -0.000978 -0.000978 -0.999999 0.000000
95.39060211 248.81100464 412.50000000 0.743247 -0.641685 -0.189274 0.000000
101.75000000 120.82800293 417.50000000 0.715838 0.646000 -0.265066 0.000000
77.10739899 132.75199890 297.50000000 0.771373 0.229075 -0.593724 0.000000
166.93400574 127.98200226 422.50000000 0.000978 0.000978 -0.999999 0.000000
131.16200256 85.05670166 367.50000000 0.001372 0.783405 -0.621510 0.000000
181.24200439 78.29979706 355.00000000 -0.001118 0.987489 -0.157685 0.000000
69.15820313 161.76699829 260.00000000 -0.763338 0.482194 0.429888 0.000000
233.70700073 106.91699982 385.00000000 -0.904657 0.086748 -0.417216 0.000000
132.75199890 251.99000549 417.50000000 0.006191 -0.313249 -0.949651 0.000000
152.62500000 134.34199524 432.50000000 -0.000978 -0.000978 -0.999999 0.000000
120.82800293 263.11898804 387.50000000 0.000978 0.000978 0.999999 0.000000
60.41410065 162.95899963 257.50000000 0.299824 0.145164 0.942885 0.000000
209.06399536 157.39500427 407.50000000 -0.000978 -0.000978 -0.999999 0.000000
100.16000366 222.57800293 422.50000000 -0.000978 -0.000978 -0.999999 0.000000
62.79880142 162.95899963 257.50000000 0.000978 0.000978 0.999999 0.000000
95.39060211 266.29901123 402.50000000 -0.891952 -0.446663 -0.070092 0.000000
64.38870239 162.95899963 257.50000000 0.000978 0.000978 0.999999 0.000000
127.18800354 270.27301025 407.50000000 -0.130533 -0.350377 -0.927468 0.000000
125.59799957 204.69200134 345.00000000 -0.382591 -0.878599 0.285809 0.000000
93.80079651 236.88699341 417.50000000 0.096041 -0.994627 -0.038637 0.000000
100.16000366 271.86300659 402.50000000 0.453401 -0.590593 -0.667554 0.000000
218.60400391 106.51999664 392.50000000 -0.000978 -0.000978 -0.999999 0.000000
125.59799957 147.06100464 327.50000000 -0.885075 0.443255 0.142014 0.000000
156.60000610 181.24200439 362.50000000 0.540835 0.734813 -0.409325 0.000000
165.34399414 177.66499329 355.00000000 0.172301 0.867398 -0.466834 0.000000
139.90600586 265.50399780 407.50000000 -0.434793 -0.431561 -0.790386 0.000000
74.32520294 143.08599854 380.00000000 0.908361 0.412892 -0.066333 0.000000
181.24200439 192.76899719 370.00000000 0.639398 0.521303 -0.565167 0.000000
116.85399628 162.95899963 292.50000000 0.000978 0.000978 0.999999 0.000000
124.80300140 191.57600403 317.50000000 -0.469418 -0.841874 0.266260 0.000000
213.83399963 153.81700134 380.00000000 0.595488 0.350767 -0.722743 0.000000
98.96779633 108.10900116 360.00000000 0.702740 0.702740 -0.110959 0.000000
129.57200623 162.95899963 312.50000000 -0.894559 -0.017229 0.446617 0.000000
141.49600220 139.11099243 437.50000000 -0.910585 -0.209247 -0.356441 0.000000
141.49600220 197.93600464 352.50000000 -0.782597 -0.498603 0.372742 0.000000
189.19099426 154.21499634 412.50000000 -0.000978 -0.000978 -0.999999 0.000000
120.82800293 207.07699585 345.00000000 -0.390043 -0.800953 0.454248 0.000000
147.85499573 76.70999908 345.00000000 0.273877 0.955293 -0.111385 0.000000
136.72700500 190.78100586 437.50000000 -0.000978 -0.000978 -0.999999 0.000000
168.92100525 182.03700256 380.00000000 0.001227 0.953006 0.302950 0.000000
93.80079651 196.34599304 427.50000000 -0.015864 -0.269687 -0.962817 0.000000
135.93200684 222.57800293 382.50000000 -0.681854 -0.336859 0.649308 0.000000
89.82620239 195.55099487 277.50000000 -0.352355 -0.361587 0.863192 0.000000
210.65400696 90.62110138 382.50000000 0.067236 0.607985 -0.791096 0.000000
82.27439880 236.09199524 345.00000000 -0.634955 -0.570954 0.520427 0.000000
110.89199829 151.03500366 290.00000000 -0.711908 0.049933 0.700495 0.000000
191.57600403 76.70999908 345.00000000 -0.001118 0.987489 -0.157685 0.000000
146.26600647 210.65400696 427.50000000 -0.000978 -0.000978 -0.999999 0.000000
195.94799805 185.21699524 400.00000000 -0.950569 -0.013704 -0.310212 0.000000
174.08799744 125.59799957 412.50000000 -0.905172 -0.225929 -0.360028 0.000000
155.00999451 193.16600037 392.50000000 -0.783405 -0.001372 0.621510 0.000000
167.33099365 109.69899750 410.00000000 0.612060 0.406381 -0.678408 0.000000
102.54499817 261.92700195 380.00000000 -0.685432 -0.227432 0.691706 0.000000
93.00589752 111.28900146 287.50000000 -0.061330 0.797294 0.600467 0.000000
229.73199463 97.77539825 372.50000000 -0.000978 -0.000978 -0.999999 0.000000
172.89599609 126.39299774 415.00000000 -0.693827 0.223967 -0.684429 0.000000
109.69899750 143.88099670 437.50000000 0.186550 0.562683 -0.805349 0.000000
189.98599243 174.88299561 367.50000000 0.743627 0.055879 -0.666255 0.000000
87.44139862 149.44500732 417.50000000 0.467257 0.380550 -0.798030 0.000000
112.87899780 279.81298828 397.50000000 -0.645070 -0.645070 -0.409595 0.000000
227.34800720 120.82800293 377.50000000 0.316888 0.164671 -0.934059 0.000000
145.86799622 192.37100220 355.00000000 -0.768801 -0.458669 0.445611 0.000000
190.78100586 130.36700439 402.50000000 -0.368173 0.162222 -0.915496 0.000000
107.31400299 197.14100647 432.50000000 0.670021 -0.670021 -0.319598 0.000000
70.74810028 253.58000183 372.50000000 0.731551 -0.584915 -0.350297 0.000000
94.59570313 200.32000732 292.50000000 -0.532519 -0.765598 0.360948 0.000000
210.65400696 85.85160065 337.50000000 0.432537 0.812404 -0.391039 0.000000
82.67189789 234.50199890 342.50000000 -0.698712 -0.579217 0.419891 0.000000
213.83399963 93.80079651 347.50000000 0.772920 0.480024 -0.414936 0.000000
145.47099304 174.08799744 437.50000000 -0.000978 -0.000978 -0.999999 0.000000
128.77699280 101.75000000 402.50000000 0.309080 0.843368 -0.439545 0.000000
147.06100464 160.57400513 442.50000000 -0.000978 -0.000978 -0.999999 0.000000
143.08599854 162.16400146 442.50000000 -0.000978 -0.000978 -0.999999 0.000000
160.57400513 217.80900574 417.50000000 -0.593215 -0.492386 -0.636908 0.000000
147.06100464 213.03900146 427.50000000 -0.481798 0.176412 -0.858341 0.000000
73.13279724 149.84300232 340.00000000 0.920602 0.305910 0.242717 0.000000
162.16400146 138.31599426 427.50000000 -0.000978 -0.000978 -0.999999 0.000000
132.75199890 166.13900757 352.50000000 -0.985814 0.147931 0.079291 0.000000
114.46900177 102.94200134 395.00000000 0.253658 0.810772 -0.527547 0.000000
162.16400146 186.80700684 402.50000000 -0.811014 -0.505506 0.294485 0.000000
139.11099243 192.37100220 342.50000000 -0.745595 -0.492126 0.449332 0.000000
127.98200226 150.63800049 320.00000000 -0.770552 0.611864 -0.178524 0.000000
128.77699280 246.42599487 422.50000000 0.001236 -0.317711 -0.948187 0.000000
150.24000549 166.93400574 362.50000000 0.000978 0.000978 0.999999 0.000000
158.98399353 137.91900635 340.00000000 -0.178016 0.774445 -0.607080 0.000000
193.16600037 112.08399963 397.50000000 -0.000978 -0.000978 -0.999999 0.000000
127.98200226 158.18899536 307.50000000 -0.633524 -0.319192 0.704815 0.000000
142.29100037 255.16999817 397.50000000 -0.203170 -0.811154 0.548407 0.000000
93.80079651 269.47900391 402.50000000 0.401045 -0.528725 -0.748072 0.000000
162.95899963 198.33299255 420.00000000 -0.835233 -0.372788 0.404246 0.000000
125.59799957 212.24400330 432.50000000 -0.000978 -0.000978 -0.999999 0.000000
85.05670166 197.93600464 422.50000000 -0.000978 -0.000978 -0.999999 0.000000
136.72700500 268.68399048 407.50000000 -0.413916 -0.462612 -0.784005 0.000000
114.46900177 179.65199280 437.50000000 0.590085 -0.785255 -0.187546 0.000000
139.90600586 168.52299500 357.50000000 0.000978 0.000978 0.999999 0.000000
166.93400574 165.34399414 432.50000000 -0.000978 -0.000978 -0.999999 0.000000
214.62899780 134.34199524 372.50000000 -0.000978 -0.000978 -0.999999 0.000000
120.82800293 275.83801270 392.50000000 0.000978 0.000978 0.999999 0.000000
110.49400330 92.60839844 315.00000000 0.447676 0.850738 -0.275375 0.000000
69.15820313 225.75799561 312.50000000 -0.136560 -0.739828 0.658792 0.000000
213.03900146 156.60000610 382.50000000 0.312290 0.351515 -0.882560 0.000000
116.85399628 105.72499847 402.50000000 0.332150 0.878149 -0.344283 0.000000
201.11500549 91.81349945 330.00000000 0.409782 0.738924 -0.534856 0.000000
112.08399963 116.05899811 417.50000000 0.220514 0.686566 -0.692821 0.000000
232.91200256 122.41799927 382.50000000 0.464061 -0.140230 -0.874633 0.000000
100.16000366 272.65798950 402.50000000 0.434487 -0.600957 -0.670874 0.000000
138.31599426 189.98599243 337.50000000 -0.832674 -0.553762 0.001354 0.000000
101.75000000 253.58000183 377.50000000 -0.566709 -0.440404 0.696337 0.000000
72.33789825 166.93400574 257.50000000 -0.386548 0.192550 0.901945 0.000000
73.13279724 166.53599548 260.00000000 -0.670021 0.670021 0.319598 0.000000
88.23629761 108.10900116 297.50000000 0.669717 0.485083 -0.562293 0.000000
89.03130341 125.59799957 402.50000000 0.640632 0.666982 -0.380427 0.000000
61.20899963 167.72900391 257.50000000 0.000978 0.000978 0.999999 0.000000
156.60000610 194.75599670 427.50000000 -0.625429 -0.718680 -0.303871 0.000000
143.88099670 206.28199768 370.00000000 -0.496184 -0.613922 0.613922 0.000000
153.41999817 72.73539734 325.00000000 0.159885 0.965809 -0.204081 0.000000
155.80499268 217.80900574 422.50000000 -0.078872 -0.810228 -0.580783 0.000000
134.34199524 197.14100647 342.50000000 -0.735342 -0.634997 0.236752 0.000000
220.19299316 139.11099243 397.50000000 -0.250093 0.287250 -0.924630 0.000000
62.79880142 200.32000732 382.50000000 0.902354 0.001302 -0.430994 0.000000
113.67400360 164.54899597 442.50000000 -0.000978 -0.000978 -0.999999 0.000000
96.18560028 110.89199829 325.00000000 -0.000978 -0.000978 -0.999999 0.000000
135.93200684 201.11500549 432.50000000 -0.000978 -0.000978 -0.999999 0.000000
125.99500275 190.78100586 320.00000000 -0.702740 -0.702740 0.110959 0.000000
158.18899536 156.60000610 437.50000000 -0.000978 -0.000978 -0.999999 0.000000
111.28900146 216.21899414 352.50000000 0.000978 0.000978 0.999999 0.000000
117.64800262 90.62110138 357.50000000 0.548903 0.825562 -0.130971 0.000000
88.23629761 197.14100647 277.50000000 0.000978 0.000978 0.999999 0.000000
73.92769623 167.33099365 260.00000000 -0.489305 0.703063 0.516025 0.000000
94.99320221 222.57800293 345.00000000 -0.520381 -0.735142 0.434477 0.000000
74.32520294 167.72900391 260.00000000 -0.489305 0.703063 0.516025 0.000000
164.54899597 96.98049927 392.50000000 -0.138789 0.777516 -0.613357 0.000000
83.06939697 223.37300110 415.00000000 0.662436 -0.133085 -0.737203 0.000000
174.88299561 136.72700500 337.50000000 -0.000978 -0.000978 -0.999999 0.000000
132.75199890 225.75799561 427.50000000 -0.000978 -0.000978 -0.999999 0.000000
178.85699463 135.13699341 337.50000000 -0.000978 -0.000978 -0.999999 0.000000
196.34599304 176.47300720 377.50000000 0.919167 0.275606 -0.281378 0.000000
143.88099670 132.75199890 322.50000000 -0.120252 0.892695 -0.434322 0.000000
220.19299316 100.16000366 362.50000000 0.317041 0.484237 -0.815475 0.000000
93.80079651 246.42599487 362.50000000 -0.148583 -0.616845 0.772933 0.000000
59.22169876 219.39799500 355.00000000 0.968918 0.194298 -0.153122 0.000000
68.36329651 168.52299500 257.50000000 -0.504281 -0.399834 0.765397 0.000000
109.69899750 170.11300659 287.50000000 -0.381657 0.076871 0.921102 0.000000
61.60649872 201.91000366 380.00000000 0.902354 0.001302 -0.430994 0.000000
171.30599976 79.49220276 365.00000000 0.081303 0.899846 -0.428564 0.000000
125.59799957 158.18899536 307.50000000 -0.633524 -0.319192 0.704815 0.000000
151.83000183 167.72900391 437.50000000 -0.000978 -0.000978 -0.999999 0.000000
231.32200623 112.87899780 387.50000000 -0.710551 0.497552 -0.497552 0.000000
96.18560028 131.16200256 422.50000000 -0.000978 -0.000978 -0.999999 0.000000
185.21699524 142.29100037 347.50000000 -0.000978 -0.000978 -0.999999 0.000000
156.60000610 139.90600586 347.50000000 -0.404087 0.913529 -0.046677 0.000000
65.18360138 174.88299561 377.50000000 0.944368 0.187777 -0.270015 0.000000
168.52299500 142.29100037 342.50000000 -0.000978 -0.000978 -0.999999 0.000000
168.52299500 130.36700439 332.50000000 -0.096873 0.459094 -0.883090 0.000000
170.11300659 95.39060211 312.50000000 0.402935 0.671559 -0.621814 0.000000
121.62300110 94.19830322 385.00000000 0.364628 0.879042 -0.307135 0.000000
162.16400146 128.77699280 332.50000000 -0.051977 0.824605 -0.563316 0.000000
104.13500214 185.61399841 285.00000000 -0.388922 -0.553025 0.736819 0.000000
160.57400513 192.37100220 427.50000000 -0.425588 -0.707106 -0.564691 0.000000
222.57800293 97.77539825 387.50000000 -0.885075 0.443255 -0.142014 0.000000
162.16400146 101.75000000 402.50000000 -0.463227 0.683970 -0.563565 0.000000
197.14100647 108.10900116 337.50000000 0.000978 0.000978 -0.999999 0.000000
112.87899780 220.98800659 357.50000000 -0.000978 -0.000978 0.999999 0.000000
62.40140152 183.62699890 345.00000000 0.993061 0.114285 0.027739 0.000000
122.41799927 257.55499268 387.50000000 0.000978 0.000978 0.999999 0.000000
201.91000366 152.62500000 367.50000000 0.662540 0.491454 -0.565256 0.000000
147.06100464 147.85499573 442.50000000 -0.000978 -0.000978 -0.999999 0.000000
93.00589752 129.57200623 417.50000000 0.714038 0.467703 -0.520965 0.000000
116.05899811 199.52499390 327.50000000 -0.593683 -0.789072 0.157814 0.000000
94.59570313 233.70700073 357.50000000 0.000978 0.000978 0.999999 0.000000
230.52699280 93.80079651 382.50000000 -0.000978 -0.000978 -0.999999 0.000000
215.42399597 137.52099609 397.50000000 -0.190701 0.302060 -0.934020 0.000000
185.21699524 190.78100586 397.50000000 0.704848 -0.282898 -0.650506 0.000000
104.13500214 250.39999390 372.50000000 -0.626479 -0.701330 0.340088 0.000000
197.93600464 127.98200226 347.50000000 0.773905 0.342706 -0.532563 0.000000
93.00589752 187.60200500 432.50000000 0.934215 -0.231798 -0.271133 0.000000
141.49600220 206.67999268 432.50000000 -0.000978 -0.000978 -0.999999 0.000000
186.80700684 74.72270203 337.50000000 -0.008324 0.971560 -0.236647 0.000000
131.16200256 245.63099670 387.50000000 0.000978 0.000978 0.999999 0.000000
105.32700348 121.62300110 305.00000000 -0.862941 0.483305 0.147474 0.000000
158.58700562 145.47099304 435.00000000 -0.614670 0.424772 -0.664643 0.000000
123.21299744 240.06599426 422.50000000 -0.000978 -0.000978 -0.999999 0.000000
174.08799744 120.03299713 327.50000000 -0.000978 -0.000978 -0.999999 0.000000
124.80300140 104.13500214 407.50000000 0.301769 0.878012 -0.371525 0.000000
117.25099945 202.70500183 335.00000000 -0.152293 -0.752419 0.640838 0.000000
198.72999573 133.54699707 352.50000000 -0.000978 -0.000978 -0.999999 0.000000
99.36519623 242.45100403 367.50000000 0.001379 -0.668888 0.743362 0.000000
144.67599487 248.01600647 417.50000000 -0.000978 -0.000978 -0.999999 0.000000
117.64800262 113.67400360 317.50000000 -0.925815 0.359659 -0.116240 0.000000
93.80079651 236.09199524 357.50000000 0.000978 0.000978 0.999999 0.000000
148.64999390 144.27799988 355.00000000 0.959356 0.280998 -0.025995 0.000000
72.33789825 242.45100403 387.50000000 -0.000978 -0.000978 -0.999999 0.000000
76.31250000 169.71600342 260.00000000 -0.551953 0.465241 0.692025 0.000000
107.31400299 225.75799561 357.50000000 -0.847179 0.229666 0.479105 0.000000
114.46900177 118.44300079 322.50000000 -0.049323 0.915805 -0.398582 0.000000
132.75199890 160.97200012 330.00000000 -0.947241 0.316601 -0.049990 0.000000
153.41999817 98.57029724 312.50000000 -0.937349 0.056215 -0.343826 0.000000
81.87699890 162.95899963 417.50000000 0.757970 -0.540480 -0.365189 0.000000
114.46900177 106.51999664 402.50000000 0.321424 0.872872 -0.367124 0.000000
158.18899536 165.34399414 367.50000000 -0.480237 0.722848 0.496854 0.000000
189.98599243 97.77539825 387.50000000 -0.000978 -0.000978 -0.999999 0.000000
155.00999451 207.07699585 425.00000000 -0.551256 -0.524283 -0.649033 0.000000
159.77900696 143.08599854 432.50000000 -0.660809 0.496027 -0.563285 0.000000
193.16600037 95.39060211 327.50000000 0.329374 0.699311 -0.634410 0.000000
136.72700500 239.27200317 422.50000000 -0.000978 -0.000978 -0.999999 0.000000
65.97850037 205.08999634 392.50000000 0.880452 -0.006640 -0.474089 0.000000
73.13279724 135.13699341 292.50000000 0.769207 0.565359 -0.297809 0.000000
61.20899963 193.96099854 287.50000000 0.994363 -0.072704 0.077178 0.000000
199.52499390 102.54499817 337.50000000 0.538579 0.552085 -0.636502 0.000000
157.79200745 201.91000366 415.00000000 -0.896239 0.271094 0.351089 0.000000
129.57200623 200.71800232 340.00000000 -0.498764 -0.748968 0.436212 0.000000
187.60200500 182.03700256 407.50000000 -0.000978 -0.000978 -0.999999 0.000000
140.30400085 238.47700500 390.00000000 -0.175340 -0.635799 0.751676 0.000000
94.59570313 165.34399414 432.50000000 0.092108 0.340398 -0.935759 0.000000
174.88299561 143.88099670 347.50000000 -0.111721 0.535391 -0.837183 0.000000
143.88099670 77.10739899 342.50000000 0.122966 0.991625 -0.039485 0.000000
98.57029724 204.29499817 427.50000000 -0.000978 -0.000978 -0.999999 0.000000
184.81900024 112.87899780 330.00000000 0.847639 0.291810 -0.443119 0.000000
127.98200226 277.42800903 402.50000000 -0.023397 -0.829912 -0.557404 0.000000
86.64649963 240.06599426 412.50000000 -0.000978 -0.000978 -0.999999 0.000000
171.70300293 143.88099670 347.50000000 -0.059397 0.877136 -0.476554 0.000000
133.14900208 175.67799377 320.00000000 -0.818340 -0.156513 0.553013 0.000000
117.64800262 280.60699463 392.50000000 0.000978 0.000978 0.999999 0.000000
130.36700439 271.06799316 392.50000000 -0.636425 -0.713373 0.293365 0.000000
139.11099243 130.36700439 322.50000000 -0.043920 0.408585 -0.911663 0.000000
89.42870331 117.64800262 350.00000000 0.777286 0.623281 -0.085719 0.000000
190.78100586 182.83200073 407.50000000 -0.144931 0.599149 -0.787410 0.000000
110.49400330 167.72900391 287.50000000 -0.426474 0.166253 0.889090 0.000000
89.03130341 205.88499451 297.50000000 -0.557921 -0.819952 0.128072 0.000000
131.95700073 190.78100586 327.50000000 0.000978 0.000978 0.999999 0.000000
155.00999451 119.63600159 425.00000000 -0.386090 0.583242 -0.714677 0.000000
160.17700195 186.01199341 390.00000000 0.712559 0.611464 -0.344050 0.000000
148.64999390 143.88099670 337.50000000 0.679356 -0.340492 -0.650031 0.000000
205.48699951 121.62300110 360.00000000 0.772964 0.516930 -0.367846 0.000000
102.54499817 265.50399780 382.50000000 -0.722319 -0.101507 0.684070 0.000000
172.49800110 129.57200623 417.50000000 -0.583774 0.211021 -0.784014 0.000000
65.58110046 216.21899414 390.00000000 0.977837 0.140401 -0.155311 0.000000
121.62300110 259.93899536 417.50000000 -0.615172 -0.727605 -0.303570 0.000000
80.28710175 131.16200256 302.50000000 0.808647 0.267464 -0.523978 0.000000
142.29100037 233.70700073 422.50000000 -0.000978 -0.000978 -0.999999 0.000000
220.19299316 159.77900696 387.50000000 0.035002 0.603434 -0.796645 0.000000
182.03700256 180.05000305 405.00000000 -0.874319 -0.437902 0.209302 0.000000
127.98200226 275.04299927 392.50000000 0.000978 0.000978 0.999999 0.000000
157.39500427 197.14100647 417.50000000 -0.163059 0.210020 0.964004 0.000000
135.93200684 137.91900635 440.00000000 -0.220095 0.644675 -0.732088 0.000000
111.28900146 220.19299316 427.50000000 -0.000978 -0.000978 -0.999999 0.000000
125.59799957 112.08399963 417.50000000 -0.000978 -0.000978 -0.999999 0.000000
116.85399628 216.21899414 432.50000000 -0.000978 -0.000978 -0.999999 0.000000
100.16000366 204.29499817 312.50000000 -0.440983 -0.846377 0.298630 0.000000
110.49400330 241.65600586 372.50000000 -0.557877 -0.396603 0.729026 0.000000
143.08599854 189.98599243 437.50000000 0.125848 -0.372012 -0.919657 0.000000
85.05670166 143.88099670 277.50000000 0.000978 0.000978 0.999999 0.000000
114.46900177 149.44500732 442.50000000 0.186550 0.562683 -0.805349 0.000000
98.57029724 128.77699280 422.50000000 -0.000978 -0.000978 -0.999999 0.000000
69.15820313 148.25300598 295.00000000 0.803007 -0.055233 -0.593404 0.000000
141.49600220 155.80499268 347.50000000 0.001372 0.783405 -0.621510 0.000000
184.81900024 183.62699890 365.00000000 0.818642 0.467117 -0.334107 0.000000
105.72499847 154.21499634 287.50000000 -0.226348 0.027545 0.973657 0.000000
111.68699646 94.59570313 345.00000000 0.644617 0.764352 0.015315 0.000000
134.34199524 195.55099487 337.50000000 -0.869727 -0.491704 0.042459 0.000000
154.21499634 93.80079651 307.50000000 -0.183171 0.561624 -0.806862 0.000000
124.00800323 111.28900146 307.50000000 -0.000978 -0.000978 -0.999999 0.000000
72.33789825 147.85499573 382.50000000 0.901326 0.423747 -0.089719 0.000000
133.54699707 174.88299561 442.50000000 -0.000978 -0.000978 -0.999999 0.000000
221.78300476 117.64800262 372.50000000 -0.000978 -0.000978 -0.999999 0.000000
91.01860046 116.85399628 360.00000000 0.702740 0.702740 -0.110959 0.000000
146.26600647 75.12010193 325.00000000 0.316601 0.947241 0.049990 0.000000
62.00389862 173.29299927 257.50000000 0.381787 0.027364 0.923845 0.000000
182.83200073 99.36519623 322.50000000 0.499705 0.796654 -0.340055 0.000000
79.49220276 123.21299744 282.50000000 0.000978 0.000978 0.999999 0.000000
64.38870239 173.29299927 257.50000000 0.353243 -0.059093 0.933664 0.000000
79.09470367 135.93200684 345.00000000 0.865547 0.457354 0.204096 0.000000
148.64999390 114.46900177 422.50000000 -0.190467 0.577495 -0.793865 0.000000
165.34399414 105.72499847 322.50000000 -0.000978 -0.000978 -0.999999 0.000000
163.75399780 172.49800110 432.50000000 -0.000978 -0.000978 -0.999999 0.000000
137.52099609 92.21099854 292.50000000 -0.000978 -0.000978 -0.999999 0.000000
65.97850037 168.52299500 297.50000000 0.910581 0.245436 -0.332572 0.000000
195.55099487 178.06300354 377.50000000 0.888886 0.313283 -0.334269 0.000000
129.57200623 143.08599854 337.50000000 -0.639907 0.020912 0.768168 0.000000
169.31799316 87.04399872 380.00000000 -0.328360 0.490161 -0.807417 0.000000
162.16400146 215.02600098 415.00000000 -0.972845 -0.228407 -0.037464 0.000000
159.77900696 103.33999634 317.50000000 -0.000978 -0.000978 -0.999999 0.000000
100.16000366 273.85101318 400.00000000 0.406811 -0.652558 -0.639275 0.000000
217.01400757 142.68800354 400.00000000 -0.438072 0.219783 -0.871658 0.000000
117.64800262 215.42399597 432.50000000 -0.000978 -0.000978 -0.999999 0.000000
76.31250000 173.29299927 257.50000000 -0.442873 0.129587 0.887170 0.000000
83.46679688 171.70300293 422.50000000 0.429175 0.276444 -0.859877 0.000000
97.77539825 127.98200226 422.50000000 0.652887 0.662755 -0.366735 0.000000
228.93800354 116.85399628 377.50000000 -0.000978 -0.000978 -0.999999 0.000000
127.98200226 165.34399414 307.50000000 0.000978 0.000978 0.999999 0.000000
60.01660156 174.08799744 260.00000000 0.706680 0.176287 0.685219 0.000000
111.28900146 118.44300079 417.50000000 0.597058 0.657265 -0.459918 0.000000
125.59799957 275.44000244 405.00000000 -0.015134 -0.813082 -0.581952 0.000000
116.45600128 246.42599487 380.00000000 -0.646451 -0.410472 0.643128 0.000000
112.08399963 240.06599426 422.50000000 -0.000978 -0.000978 -0.999999 0.000000
219.00100708 156.60000610 385.00000000 0.336044 0.495306 -0.801090 0.000000
134.34199524 115.26399994 422.50000000 -0.033010 0.407999 -0.912386 0.000000
65.97850037 174.08799744 257.50000000 0.000978 0.000978 0.999999 0.000000
108.50700378 197.14100647 435.00000000 0.561786 -0.761388 -0.323550 0.000000
61.60649872 184.42199707 370.00000000 0.909861 0.151408 -0.386302 0.000000
155.00999451 196.34599304 392.50000000 -0.722095 0.196373 0.663338 0.000000
134.34199524 263.91400146 412.50000000 -0.000978 -0.000978 -0.999999 0.000000
224.96299744 156.60000610 387.50000000 -0.000978 -0.000978 -0.999999 0.000000
67.96579742 171.70300293 330.00000000 0.891254 0.450389 0.053067 0.000000
131.95700073 255.96499634 392.50000000 0.000978 0.000978 0.999999 0.000000
217.80900574 78.29979706 355.00000000 0.882563 -0.440555 0.164299 0.000000
232.91200256 138.31599426 387.50000000 0.998165 0.059452 -0.011473 0.000000
108.90399933 246.82299805 375.00000000 -0.270748 -0.755243 0.596911 0.000000
82.67189789 178.06300354 422.50000000 0.613432 -0.101019 -0.783260 0.000000
109.69899750 127.98200226 307.50000000 -0.798517 0.598531 0.064281 0.000000
139.90600586 79.88970184 355.00000000 0.000978 0.000978 -0.999999 0.000000
107.31400299 172.49800110 287.50000000 -0.613212 0.267785 0.743143 0.000000
119.23799896 102.54499817 397.50000000 0.343476 0.765967 -0.543433 0.000000
145.47099304 173.29299927 437.50000000 -0.000978 -0.000978 -0.999999 0.000000
204.29499817 104.93000031 392.50000000 -0.000978 -0.000978 -0.999999 0.000000
136.32899475 209.85899353 365.00000000 -0.532073 -0.717719 0.449196 0.000000
99.36519623 230.52699280 357.50000000 -0.000978 -0.000978 0.999999 0.000000
76.31250000 137.91900635 375.00000000 0.883991 0.455389 -0.105741 0.000000
170.11300659 152.22799683 370.00000000 0.350377 0.936462 0.016563 0.000000
99.36519623 224.96299744 422.50000000 -0.000978 -0.000978 -0.999999 0.000000
157.39500427 95.78810120 395.00000000 0.256279 0.514112 -0.818541 0.000000
144.67599487 131.95700073 322.50000000 -0.070091 0.894688 -0.441159 0.000000
65.97850037 169.71600342 300.00000000 0.910581 0.245436 -0.332572 0.000000
100.95500183 229.73199463 422.50000000 -0.000978 -0.000978 -0.999999 0.000000
206.67999268 109.69899750 392.50000000 -0.535954 0.610345 -0.583294 0.000000
60.41410065 229.33500671 340.00000000 0.670021 -0.670021 0.319598 0.000000
174.08799744 173.29299927 357.50000000 0.077080 0.253985 -0.964132 0.000000
156.20199585 236.09199524 405.00000000 -0.758181 -0.312569 0.572242 0.000000
205.08999634 123.21299744 397.50000000 -0.000978 -0.000978 -0.999999 0.000000
139.90600586 141.89399719 330.00000000 -0.265723 0.711247 -0.650783 0.000000
127.18800354 133.54699707 437.50000000 0.360184 0.481846 -0.798807 0.000000
97.77539825 161.36900330 282.50000000 0.000978 0.000978 0.999999 0.000000
74.72270203 174.88299561 257.50000000 -0.360030 -0.360030 0.860672 0.000000
84.65920258 135.13699341 280.00000000 -0.664052 -0.012529 0.747581 0.000000
187.60200500 73.92769623 307.50000000 -0.969686 0.216753 -0.112813 0.000000
131.16200256 189.19099426 327.50000000 0.000978 0.000978 0.999999 0.000000
193.16600037 177.26800537 372.50000000 0.842434 0.250122 -0.477226 0.000000
228.93800354 131.95700073 397.50000000 -0.000978 -0.000978 -0.999999 0.000000
198.72999573 81.08200073 367.50000000 -0.000978 -0.000978 -0.999999 0.000000
166.93400574 94.99320221 310.00000000 0.425036 0.638387 -0.641721 0.000000
132.75199890 213.03900146 432.50000000 -0.202313 -0.530882 -0.822942 0.000000
130.36700439 251.19500732 417.50000000 -0.473185 0.062080 -0.878773 0.000000
140.70100403 186.40899658 340.00000000 -0.820252 -0.162855 0.548329 0.000000
182.83200073 128.38000488 335.00000000 0.597903 0.412404 -0.687340 0.000000
77.90239716 151.03500366 412.50000000 0.902354 0.001302 -0.430994 0.000000
105.32700348 280.60699463 395.00000000 -0.178789 -0.536366 -0.824831 0.000000
215.42399597 162.95899963 387.50000000 -0.000978 -0.000978 -0.999999 0.000000
76.31250000 232.91200256 332.50000000 -0.376182 -0.760507 0.529261 0.000000
140.70100403 232.11700439 422.50000000 -0.000978 -0.000978 -0.999999 0.000000
89.82620239 118.84100342 365.00000000 0.702740 0.702740 -0.110959 0.000000
84.26170349 128.38000488 390.00000000 0.866127 0.495129 -0.068342 0.000000
212.24400330 105.72499847 357.50000000 0.586220 0.586220 -0.559189 0.000000
120.82800293 276.63299561 392.50000000 0.000978 0.000978 0.999999 0.000000
76.31250000 144.67599487 397.50000000 0.925355 0.368791 -0.087807 0.000000
154.21499634 189.98599243 432.50000000 -0.000978 -0.000978 -0.999999 0.000000
115.26399994 130.76499939 315.00000000 -0.778522 0.610518 0.145504 0.000000
97.77539825 193.16600037 282.50000000 -0.756020 0.142787 0.638784 0.000000
211.44900513 162.95899963 387.50000000 -0.000978 -0.000978 -0.999999 0.000000
158.18899536 189.19099426 432.50000000 -0.000978 -0.000978 -0.999999 0.000000
106.91699982 122.41799927 310.00000000 -0.880268 0.313624 0.356046 0.000000
147.06100464 123.21299744 427.50000000 0.350904 0.084057 -0.932631 0.000000
221.78300476 135.13699341 377.50000000 0.938116 0.312705 -0.148842 0.000000
210.65400696 96.18560028 387.50000000 -0.367747 0.450530 -0.813501 0.000000
135.93200684 161.36900330 442.50000000 -0.000978 -0.000978 -0.999999 0.000000
125.59799957 272.65798950 407.50000000 -0.223235 -0.484436 -0.845865 0.000000
196.34599304 137.52099609 352.50000000 -0.000978 -0.000978 -0.999999 0.000000
122.41799927 133.54699707 332.50000000 -0.343770 0.307742 0.887196 0.000000
106.51999664 255.16999817 417.50000000 -0.000978 -0.000978 -0.999999 0.000000
130.36700439 147.85499573 342.50000000 -0.593683 0.789072 -0.157814 0.000000
108.10900116 242.45100403 422.50000000 -0.000978 -0.000978 -0.999999 0.000000
181.24200439 79.88970184 365.00000000 -0.188952 0.883239 -0.429169 0.000000
125.19999695 268.68399048 410.00000000 -0.311030 -0.623672 -0.717142 0.000000
81.47949982 261.52899170 390.00000000 0.774976 -0.509640 -0.373736 0.000000
81.08200073 194.75599670 417.50000000 0.881095 0.127095 -0.455542 0.000000
63.59379959 143.48300171 280.00000000 -0.000978 -0.000978 0.999999 0.000000
182.03700256 93.80079651 387.50000000 -0.192415 0.752729 -0.629583 0.000000
73.13279724 176.47300720 257.50000000 0.000978 0.000978 0.999999 0.000000
83.46679688 225.36000061 415.00000000 0.662386 -0.445483 -0.602320 0.000000
84.26170349 162.95899963 422.50000000 0.561354 0.418946 -0.713698 0.000000
71.94039917 146.26600647 370.00000000 0.912055 0.409306 -0.025006 0.000000
226.55299377 85.05670166 367.50000000 0.987489 0.001118 -0.157685 0.000000
63.19630051 217.80900574 305.00000000 0.934445 -0.314250 0.167508 0.000000
221.78300476 106.12200165 370.00000000 -0.319263 0.636904 -0.701729 0.000000
128.77699280 217.01400757 432.50000000 -0.321360 -0.205274 -0.924441 0.000000
85.05670166 246.42599487 412.50000000 0.429447 -0.552146 -0.714640 0.000000
79.09470367 176.47300720 260.00000000 -0.722223 -0.015366 0.691490 0.000000
191.57600403 99.36519623 392.50000000 0.759066 0.493475 -0.424618 0.000000
101.75000000 263.11898804 412.50000000 0.483598 -0.537145 -0.691093 0.000000
63.59379959 177.26800537 257.50000000 0.239443 -0.008339 0.970875 0.000000
98.17289734 142.29100037 430.00000000 0.787410 0.064308 -0.613065 0.000000
151.83000183 208.27000427 427.50000000 -0.208027 -0.348625 -0.913885 0.000000
65.97850037 177.26800537 257.50000000 0.000978 0.000978 0.999999 0.000000
133.54699707 168.52299500 442.50000000 -0.000978 -0.000978 -0.999999 0.000000
99.36519623 251.99000549 412.50000000 0.678139 -0.544186 -0.493953 0.000000
89.82620239 145.47099304 282.50000000 0.000978 0.000978 0.999999 0.000000
118.44300079 93.00589752 377.50000000 0.264471 0.924932 0.273048 0.000000
138.31599426 134.34199524 437.50000000 -0.151768 0.307638 -0.939322 0.000000
157.39500427 189.98599243 432.50000000 -0.000978 -0.000978 -0.999999 0.000000
85.05670166 240.86099243 412.50000000 0.203917 -0.253186 -0.945682 0.000000
85.85160065 224.16799927 332.50000000 -0.729401 -0.363884 0.579278 0.000000
119.23799896 213.03900146 352.50000000 -0.702102 -0.677083 -0.220482 0.000000
83.46679688 239.27200317 352.50000000 -0.938116 -0.312705 0.148842 0.000000
137.52099609 106.51999664 307.50000000 0.000978 0.000978 -0.999999 0.000000
81.87699890 224.16799927 327.50000000 -0.656401 -0.688657 0.308041 0.000000
214.23100281 122.41799927 370.00000000 0.435048 0.454601 -0.777220 0.000000
158.18899536 192.37100220 417.50000000 0.000978 0.000978 0.999999 0.000000
82.67189789 268.28601074 370.00000000 0.511882 -0.795730 0.323714 0.000000
120.82800293 162.95899963 297.50000000 -0.763569 0.512845 0.392367 0.000000
193.96099854 86.64649963 312.50000000 0.332174 0.888302 -0.317143 0.000000
191.97399902 178.06300354 370.00000000 0.876375 0.009337 -0.481539 0.000000
205.08999634 112.08399963 397.50000000 -0.076771 0.191317 -0.978521 0.000000
114.46900177 239.27200317 422.50000000 0.185179 -0.132270 -0.973763 0.000000
191.57600403 78.29979706 355.00000000 -0.008305 0.971693 -0.236101 0.000000
160.57400513 168.52299500 437.50000000 -0.537791 -0.285455 -0.793282 0.000000
77.10739899 140.70100403 392.50000000 0.850086 0.508885 -0.135606 0.000000
118.44300079 182.03700256 442.50000000 -0.000978 -0.000978 -0.999999 0.000000
129.17500305 157.39500427 310.00000000 -0.633524 -0.319192 0.704815 0.000000
186.80700684 184.42199707 402.50000000 -0.000978 -0.000978 -0.999999 0.000000
113.67400360 273.45300293 387.50000000 0.000978 0.000978 0.999999 0.000000
124.80300140 144.67599487 317.50000000 -0.879960 0.442169 -0.173657 0.000000
137.52099609 186.80700684 332.50000000 0.000978 0.000978 0.999999 0.000000
124.00800323 222.57800293 367.50000000 0.000978 0.000978 0.999999 0.000000
137.12399292 170.90800476 340.00000000 -0.889169 0.445287 0.105352 0.000000
171.70300293 178.85699463 362.50000000 -0.186868 0.806724 -0.560604 0.000000
147.06100464 256.76000977 407.50000000 -0.625863 -0.779922 -0.004127 0.000000
161.76699829 103.33999634 405.00000000 -0.301988 0.768552 -0.564031 0.000000
99.36519623 258.35000610 412.50000000 -0.000978 -0.000978 -0.999999 0.000000
119.23799896 97.77539825 392.50000000 -0.000978 -0.000978 -0.999999 0.000000
227.34800720 87.44139862 377.50000000 -0.000978 -0.000978 -0.999999 0.000000
123.21299744 182.03700256 442.50000000 -0.000978 -0.000978 -0.999999 0.000000
185.21699524 173.29299927 412.50000000 -0.497182 -0.756438 -0.424984 0.000000
124.80300140 108.10900116 307.50000000 -0.000978 -0.000978 -0.999999 0.000000
103.33999634 232.11700439 362.50000000 -0.404142 -0.305795 0.862067 0.000000
67.56839752 165.34399414 342.50000000 0.874319 0.437902 0.209302 0.000000
173.29299927 130.36700439 417.50000000 -0.583774 0.211021 -0.784014 0.000000
65.18360138 178.85699463 257.50000000 0.000978 0.000978 0.999999 0.000000
182.83200073 76.70999908 345.00000000 -0.180501 0.955989 -0.231309 0.000000
63.59379959 205.88499451 277.50000000 0.954686 -0.278178 0.105786 0.000000
142.29100037 248.01600647 417.50000000 -0.000978 -0.000978 -0.999999 0.000000
96.98049927 149.44500732 282.50000000 0.000978 0.000978 0.999999 0.000000
179.25500488 192.37100220 380.00000000 -0.932490 0.249699 -0.260984 0.000000
118.44300079 196.34599304 437.50000000 0.000978 0.000978 -0.999999 0.000000
110.49400330 170.90800476 287.50000000 -0.246711 0.030383 0.968613 0.000000
118.44300079 202.30799866 435.00000000 -0.085160 -0.584575 -0.806858 0.000000
162.16400146 194.75599670 417.50000000 -0.188895 -0.081651 0.978597 0.000000
200.32000732 158.98399353 377.50000000 0.105483 0.890280 -0.443030 0.000000
104.93000031 187.60200500 437.50000000 -0.000978 -0.000978 -0.999999 0.000000
189.19099426 192.37100220 402.50000000 -0.000978 -0.000978 -0.999999 0.000000
73.13279724 146.26600647 302.50000000 0.842002 0.505801 -0.187612 0.000000
199.52499390 127.98200226 352.50000000 0.947732 0.044765 -0.315911 0.000000
113.67400360 172.49800110 287.50000000 0.000978 0.000978 0.999999 0.000000
181.24200439 141.49600220 412.50000000 -0.618487 0.001371 -0.785794 0.000000
182.03700256 115.26399994 402.50000000 -0.000978 -0.000978 -0.999999 0.000000
213.43699646 105.72499847 360.00000000 0.586220 0.586220 -0.559189 0.000000
127.58499908 82.67189789 335.00000000 0.412365 0.909353 -0.055072 0.000000
224.96299744 162.16400146 392.50000000 0.499469 0.193488 -0.844448 0.000000
66.77339935 178.06300354 392.50000000 0.987489 -0.001118 -0.157685 0.000000
217.80900574 125.59799957 372.50000000 0.345264 0.188972 -0.919284 0.000000
183.62699890 166.13900757 417.50000000 -0.761625 0.116832 -0.637399 0.000000
154.21499634 121.62300110 427.50000000 -0.462355 0.502127 -0.730819 0.000000
129.57200623 153.41999817 322.50000000 -0.670021 0.670021 -0.319598 0.000000
218.60400391 97.37789917 360.00000000 0.545634 0.442809 -0.711480 0.000000
135.13699341 211.44900513 432.50000000 -0.000978 -0.000978 -0.999999 0.000000
68.36329651 179.65199280 257.50000000 0.000978 0.000978 0.999999 0.000000
