121.95300293 185.54299927 118.75000000 -0.574860 0.422448 0.700766 0.000000
150.69900513 295.30099487 153.75000000 -0.468140 -0.652711 0.595662 0.000000
162.02299500 231.27499390 135.00000000 -0.479105 0.229666 0.847179 0.000000
114.11299896 270.91000366 123.75000000 0.616353 -0.701367 0.358041 0.000000
135.02000427 283.54098511 190.00000000 0.293800 -0.675900 -0.675900 0.000000
112.37100220 228.22700500 218.75000000 -0.000978 -0.000978 -0.999999 0.000000
174.21899414 150.69900513 226.25000000 -0.560429 0.520038 -0.644578 0.000000
189.89799500 189.02699280 181.25000000 -0.503471 0.444045 0.741175 0.000000
155.92599487 200.35200500 168.75000000 -0.611229 0.268306 0.744588 0.000000
180.75199890 162.02299500 177.50000000 -0.433755 -0.110895 0.894181 0.000000
103.66000366 174.21899414 106.25000000 -0.588334 0.167879 0.790999 0.000000
186.85000610 122.82399750 197.50000000 0.216269 0.547575 -0.808325 0.000000
165.50799561 172.47700500 238.75000000 0.978491 0.195213 -0.066688 0.000000
208.19099426 132.40600586 208.75000000 -0.000978 -0.000978 -0.999999 0.000000
105.40200043 151.57000732 143.75000000 0.685235 0.688385 0.237863 0.000000
239.55099487 183.80099487 213.75000000 -0.000978 -0.000978 -0.999999 0.000000
230.40400696 200.35200500 192.50000000 0.442817 0.862964 -0.243323 0.000000
223.87100220 201.22300720 163.75000000 0.820984 -0.385878 -0.420814 0.000000
130.66400146 290.51000977 160.00000000 0.386809 -0.904472 0.179744 0.000000
177.70300293 155.92599487 228.75000000 -0.761102 0.476303 -0.440294 0.000000
236.50199890 146.34399414 177.50000000 0.425216 -0.137946 -0.894518 0.000000
174.21899414 248.26199341 213.75000000 -0.444867 -0.444867 -0.777295 0.000000
184.67199707 141.98800659 178.75000000 -0.460787 0.175187 0.870049 0.000000
197.73800659 143.29499817 210.00000000 0.094309 0.322777 -0.941765 0.000000
134.14799500 208.19099426 121.25000000 -0.393683 0.170357 0.903323 0.000000
114.11299896 229.96899414 218.75000000 0.400956 -0.569258 -0.717760 0.000000
210.80499268 162.02299500 216.25000000 -0.347584 0.465033 -0.814205 0.000000
201.22300720 176.83200073 183.75000000 0.131791 -0.012182 0.991203 0.000000
188.15600586 118.46900177 193.75000000 0.483095 0.862566 -0.150329 0.000000
200.78700256 204.70700073 150.00000000 0.048406 0.357155 0.932790 0.000000
105.83799744 175.96099854 107.50000000 0.001362 -0.581753 0.813364 0.000000
131.53500366 133.71299744 177.50000000 -0.001244 0.944109 -0.329630 0.000000
163.76600647 193.38299561 171.25000000 0.153581 -0.040416 0.987309 0.000000
266.98999023 156.79699707 202.50000000 -0.592903 0.555741 -0.582768 0.000000
130.66400146 252.61700439 213.75000000 0.088446 -0.265339 -0.960090 0.000000
90.15820313 230.83999634 122.50000000 0.912162 -0.247981 0.326290 0.000000
110.19300079 148.95700073 192.50000000 0.686901 0.686901 -0.237350 0.000000
139.37500000 284.84799194 191.25000000 0.325161 -0.736062 -0.593703 0.000000
114.98400116 161.58799744 127.50000000 -0.705781 0.300640 0.641473 0.000000
91.02929688 185.54299927 132.50000000 0.960952 0.191662 0.199593 0.000000
176.83200073 201.22300720 153.75000000 -0.222281 -0.893541 0.390096 0.000000
137.63299561 293.12298584 155.00000000 0.427529 -0.853514 0.297881 0.000000
262.19900513 192.51199341 206.25000000 -0.435100 0.055574 -0.898665 0.000000
183.80099487 276.13699341 171.25000000 -0.783632 -0.275927 0.556584 0.000000
184.67199707 182.05900574 231.25000000 -0.521643 0.077752 -0.849614 0.000000
206.44900513 179.44500732 218.75000000 -0.893541 0.222281 -0.390096 0.000000
144.60200500 290.07400513 183.75000000 0.034009 -0.871978 -0.488362 0.000000
224.74200439 216.90199280 191.25000000 0.118874 0.188947 -0.974766 0.000000
175.52499390 175.08999634 162.50000000 -0.723031 -0.406808 0.558331 0.000000
180.31599426 273.52301025 166.25000000 -0.795095 -0.234034 0.559511 0.000000
229.96899414 181.18800354 213.75000000 -0.000978 -0.000978 -0.999999 0.000000
232.58200073 167.25000000 171.25000000 -0.000978 -0.000978 -0.999999 0.000000
137.63299561 212.54699707 236.25000000 0.001333 -0.497143 -0.867668 0.000000
146.34399414 280.05700684 137.50000000 -0.449623 -0.224060 0.864660 0.000000
157.23199463 209.93400574 167.50000000 -0.297165 -0.317863 0.900365 0.000000
169.86300659 139.81100464 200.00000000 -0.300137 0.900412 -0.314922 0.000000
200.78700256 149.82800293 162.50000000 0.204819 0.125945 -0.970663 0.000000
236.93800354 192.51199341 211.25000000 -0.160826 -0.494282 -0.854296 0.000000
101.91799927 267.86099243 162.50000000 0.821356 -0.567764 0.054945 0.000000
130.66400146 156.79699707 226.25000000 0.085601 0.773310 -0.628223 0.000000
157.66799927 260.45700073 211.25000000 -0.127022 -0.673964 -0.727762 0.000000
146.34399414 149.82800293 226.25000000 0.290275 0.630265 -0.720074 0.000000
156.36099243 264.81298828 142.50000000 -0.760153 -0.250237 0.599624 0.000000
187.28500366 161.15199280 218.75000000 -0.060663 0.548786 -0.833759 0.000000
248.26199341 186.85000610 210.00000000 -0.235757 -0.280931 -0.930321 0.000000
212.54699707 200.35200500 218.75000000 -0.999999 -0.000978 -0.000978 0.000000
125.43800354 165.50799561 143.75000000 -0.707028 0.412295 0.574564 0.000000
155.92599487 159.41000366 158.75000000 0.000978 0.000978 0.999999 0.000000
237.80900574 131.97099304 182.50000000 0.783683 -0.251842 -0.567818 0.000000
107.14499664 182.05900574 106.25000000 -0.748968 0.498764 0.436212 0.000000
184.67199707 192.94700623 175.00000000 -0.182454 0.544345 0.818779 0.000000
250.00399780 166.81399536 212.50000000 -0.113954 -0.514957 -0.849608 0.000000
205.57800293 175.96099854 218.75000000 -0.893541 0.222281 -0.390096 0.000000
132.40600586 253.48800659 213.75000000 0.058980 -0.264782 -0.962503 0.000000
118.46900177 231.71099854 218.75000000 0.435381 -0.544640 -0.716806 0.000000
193.38299561 142.85899353 208.75000000 -0.067515 0.458824 -0.885958 0.000000
222.12899780 218.20899963 165.00000000 0.894505 0.184120 -0.407384 0.000000
121.08200073 173.34800720 231.25000000 0.410799 0.475748 -0.777758 0.000000
197.73800659 239.55099487 188.75000000 -0.921179 0.359246 -0.149569 0.000000
100.61100006 152.44099426 175.00000000 0.787832 0.615537 -0.020842 0.000000
149.82800293 291.81600952 148.75000000 -0.348386 -0.785072 0.512143 0.000000
126.74400330 275.26599121 120.00000000 -0.374460 -0.917359 0.135028 0.000000
155.92599487 200.35200500 131.25000000 -0.336592 0.697574 0.632532 0.000000
118.46900177 153.31300354 141.25000000 -0.788258 0.399794 0.467775 0.000000
255.23100281 193.38299561 196.25000000 0.427024 0.679583 -0.596504 0.000000
155.05499268 199.48100281 156.25000000 0.164960 -0.615952 0.770319 0.000000
136.76199341 182.92999268 131.25000000 -0.748377 0.525665 0.404484 0.000000
243.90600586 169.86300659 213.75000000 -0.423581 -0.221451 -0.878373 0.000000
118.46900177 139.37500000 181.25000000 0.517923 0.776078 -0.359803 0.000000
112.37100220 277.87899780 176.25000000 0.738397 -0.572136 -0.356974 0.000000
194.25399780 211.67599487 221.25000000 -0.446829 -0.630916 -0.634263 0.000000
154.18400574 288.33200073 186.25000000 0.055494 -0.781190 -0.621822 0.000000
238.24400330 109.75800323 180.00000000 -0.115166 0.961440 -0.249741 0.000000
186.85000610 237.80900574 160.00000000 -0.748805 -0.012503 0.662672 0.000000
124.56600189 173.34800720 233.75000000 0.450885 0.258304 -0.854390 0.000000
150.69900513 208.62699890 162.50000000 -0.677031 -0.405556 0.614128 0.000000
181.18800354 214.28900146 228.75000000 -0.232816 -0.617197 -0.751574 0.000000
269.16799927 168.99200439 203.75000000 0.979010 -0.019932 -0.202837 0.000000
250.00399780 193.38299561 191.25000000 0.520179 0.563948 -0.641386 0.000000
173.34800720 202.96499634 168.75000000 0.130966 0.557708 0.819640 0.000000
119.77500153 175.96099854 232.50000000 0.451166 0.371455 -0.811462 0.000000
254.35899353 188.15600586 208.75000000 0.000978 0.000978 -0.999999 0.000000
220.38699341 117.16200256 155.00000000 0.061801 0.888559 -0.454580 0.000000
248.69700623 168.99200439 182.50000000 0.474429 -0.036704 -0.879528 0.000000
231.71099854 117.16200256 162.50000000 0.300137 0.900412 -0.314922 0.000000
160.28100586 198.17399597 155.00000000 -0.067750 -0.676063 0.733723 0.000000
151.57000732 190.77000427 166.25000000 -0.691755 0.001381 0.722131 0.000000
264.81298828 146.34399414 201.25000000 0.888850 -0.387295 -0.244842 0.000000
104.96700287 227.35600281 212.50000000 0.569358 -0.569358 -0.593011 0.000000
124.56600189 287.02499390 180.00000000 0.638387 -0.425036 -0.641721 0.000000
211.67599487 187.28500366 218.75000000 0.000978 0.000978 -0.999999 0.000000
155.92599487 197.30299377 135.00000000 -0.138877 0.852264 0.504341 0.000000
139.37500000 291.81600952 146.25000000 0.238217 -0.956859 0.166352 0.000000
161.15199280 282.23400879 193.75000000 -0.085719 -0.623281 -0.777286 0.000000
247.82600403 151.57000732 187.50000000 0.904399 -0.124793 -0.408031 0.000000
105.83799744 269.16799927 177.50000000 0.798352 -0.533809 -0.278715 0.000000
256.97299194 132.40600586 203.75000000 -0.000978 -0.000978 -0.999999 0.000000
177.26800537 234.32400513 150.00000000 -0.759573 -0.378973 0.528610 0.000000
159.41000366 217.77299500 233.75000000 -0.015229 -0.207344 -0.978150 0.000000
244.77699280 116.29100037 182.50000000 -0.851270 0.438720 0.287862 0.000000
256.97299194 134.14799500 203.75000000 -0.000978 -0.000978 -0.999999 0.000000
263.07000732 171.60600281 198.75000000 0.109830 0.174001 -0.978602 0.000000
117.59799957 145.03700256 197.50000000 0.474745 0.818580 -0.323331 0.000000
190.77000427 248.26199341 166.25000000 -0.776757 -0.104253 0.621112 0.000000
121.95300293 216.03100586 228.75000000 0.408522 -0.171781 -0.896438 0.000000
212.54699707 176.83200073 161.25000000 0.185430 0.378047 -0.907026 0.000000
157.23199463 212.54699707 157.50000000 -0.393588 -0.527505 0.752879 0.000000
210.80499268 135.02000427 163.75000000 -0.000978 -0.000978 -0.999999 0.000000
243.90600586 185.54299927 211.25000000 -0.229469 -0.153417 -0.961149 0.000000
229.09800720 180.31599426 168.75000000 0.559360 -0.017867 -0.828732 0.000000
121.95300293 273.95901489 120.00000000 0.375299 -0.768470 0.518270 0.000000
187.72099304 125.43800354 182.50000000 0.880922 0.265627 0.391688 0.000000
182.92999268 168.12100220 176.25000000 -0.585187 0.211532 0.782822 0.000000
217.77299500 177.70300293 163.75000000 0.390426 -0.145177 -0.909116 0.000000
193.38299561 148.95700073 211.25000000 0.070314 0.121032 -0.990155 0.000000
116.72699738 263.50601196 197.50000000 0.546018 -0.465868 -0.696298 0.000000
196.86700439 202.09399414 151.25000000 -0.193147 0.690695 0.696875 0.000000
107.14499664 148.52200317 147.50000000 0.723570 0.661858 0.195935 0.000000
142.85899353 232.58200073 126.25000000 -0.460894 0.231203 0.856809 0.000000
172.47700500 140.68200684 167.50000000 -0.887544 0.403161 0.222994 0.000000
160.28100586 200.35200500 133.75000000 -0.123709 0.660278 0.740763 0.000000
221.25799561 168.99200439 213.75000000 -0.000978 -0.000978 -0.999999 0.000000
150.69900513 284.41198730 192.50000000 -0.633865 -0.633865 -0.443204 0.000000
197.73800659 210.80499268 158.75000000 -0.853514 -0.427529 -0.297881 0.000000
213.41799927 138.50399780 163.75000000 0.364561 -0.122437 -0.923095 0.000000
155.92599487 126.74400330 180.00000000 0.275346 0.930528 -0.241457 0.000000
258.71499634 152.44099426 206.25000000 -0.127049 0.127049 -0.983726 0.000000
171.60600281 282.23400879 191.25000000 -0.591894 -0.445171 -0.671925 0.000000
141.11700439 234.32400513 123.75000000 -0.415120 -0.211253 0.884900 0.000000
103.66000366 265.24798584 132.50000000 0.773241 -0.541751 0.329552 0.000000
112.37100220 195.99600220 106.25000000 -0.000978 0.999999 -0.000978 0.000000
223.87100220 154.18400574 168.75000000 0.497468 -0.265006 -0.826013 0.000000
151.13499451 282.23400879 142.50000000 -0.722506 -0.339334 0.602359 0.000000
193.38299561 256.10198975 193.75000000 -0.691755 0.001381 -0.722131 0.000000
119.33999634 137.63299561 176.25000000 0.444867 -0.444867 -0.777295 0.000000
197.73800659 129.79299927 203.75000000 0.099455 0.546283 -0.831675 0.000000
93.64260101 234.32400513 192.50000000 0.792812 0.026474 -0.608891 0.000000
223.43600464 199.48100281 212.50000000 -0.281871 -0.182873 -0.941863 0.000000
183.36500549 171.60600281 227.50000000 -0.593578 0.482597 -0.644023 0.000000
114.11299896 165.07200623 222.50000000 0.464868 0.636047 -0.615908 0.000000
189.02699280 117.59799957 183.75000000 0.860229 0.463893 0.211680 0.000000
88.41600037 198.60899353 135.00000000 0.946193 0.220459 0.236891 0.000000
187.28500366 228.22700500 161.25000000 -0.949791 0.165708 0.265402 0.000000
267.86099243 184.67199707 202.50000000 0.699167 0.077039 -0.710796 0.000000
108.88700104 202.09399414 223.75000000 0.705167 -0.038309 -0.708005 0.000000
228.22700500 121.95300293 206.25000000 -0.125464 0.365364 -0.922371 0.000000
169.86300659 144.60200500 161.25000000 -0.428493 -0.242061 0.870517 0.000000
129.79299927 183.80099487 238.75000000 0.074558 0.150300 -0.985825 0.000000
165.50799561 280.49200439 156.25000000 -0.651444 -0.347763 0.674301 0.000000
181.18800354 243.03500366 213.75000000 -0.382408 -0.525608 -0.759934 0.000000
98.43360138 256.10198975 176.25000000 0.653921 -0.653921 -0.380493 0.000000
219.51600647 202.96499634 216.25000000 0.691755 -0.001381 -0.722131 0.000000
175.52499390 147.21499634 212.50000000 -0.936344 -0.008869 -0.350971 0.000000
235.19500732 138.50399780 178.75000000 0.766955 -0.158837 -0.621733 0.000000
186.41400146 274.39498901 173.75000000 -0.773562 -0.188412 0.605064 0.000000
157.66799927 278.31500244 197.50000000 -0.055469 -0.618690 -0.783674 0.000000
177.70300293 250.44000244 210.00000000 -0.609674 -0.659784 -0.439299 0.000000
94.51370239 173.34800720 132.50000000 0.838215 0.501716 0.213722 0.000000
107.14499664 272.65200806 173.75000000 0.686203 -0.686203 0.241354 0.000000
169.42799377 206.44900513 167.50000000 0.000978 0.000978 0.999999 0.000000
138.50399780 269.16799927 128.75000000 -0.085078 0.252695 0.963798 0.000000
117.59799957 251.31100464 205.00000000 0.615284 -0.471103 -0.632050 0.000000
96.69139862 161.58799744 190.00000000 0.753893 0.643422 -0.132864 0.000000
133.27699280 289.63900757 147.50000000 0.593517 -0.792843 0.138338 0.000000
132.40600586 228.22700500 226.25000000 0.198747 -0.535555 -0.820780 0.000000
269.16799927 182.92999268 203.75000000 0.870564 0.088891 -0.483960 0.000000
114.98400116 202.96499634 106.25000000 -0.748968 0.498764 0.436212 0.000000
212.54699707 131.53500366 208.75000000 -0.000978 -0.000978 -0.999999 0.000000
189.46299744 247.39100647 165.00000000 -0.747519 -0.101334 0.656466 0.000000
166.37899780 254.35899353 213.75000000 -0.744990 -0.594390 -0.302803 0.000000
118.46900177 243.90600586 111.25000000 -0.557607 0.069524 0.827188 0.000000
101.91799927 267.42599487 168.75000000 0.773767 -0.553602 -0.307911 0.000000
175.08999634 225.61300659 226.25000000 -0.337120 -0.623753 -0.705183 0.000000
125.00199890 264.81298828 115.00000000 -0.615893 -0.212538 0.758619 0.000000
216.03100586 161.15199280 213.75000000 -0.333871 0.327828 -0.883776 0.000000
222.12899780 195.12500000 213.75000000 -0.494980 -0.189917 -0.847896 0.000000
188.59199524 251.74600220 165.00000000 -0.740809 -0.172601 0.649162 0.000000
197.73800659 235.19500732 188.75000000 -0.928563 0.345288 -0.136189 0.000000
261.32800293 162.89500427 196.25000000 0.596040 0.043681 -0.801766 0.000000
219.95100403 220.38699341 162.50000000 0.835365 0.379139 -0.398018 0.000000
201.22300720 193.38299561 161.25000000 0.122095 0.804653 0.581056 0.000000
263.07000732 189.02699280 198.75000000 0.596576 0.328198 -0.732382 0.000000
183.80099487 186.41400146 231.25000000 -0.578717 -0.115743 -0.807273 0.000000
172.47700500 195.99600220 171.25000000 -0.000978 -0.000978 0.999999 0.000000
91.02929688 182.92999268 137.50000000 0.942476 0.263562 0.205606 0.000000
167.68600464 237.80900574 222.50000000 -0.299457 -0.410025 -0.861513 0.000000
243.47099304 120.21099854 190.00000000 0.782610 0.566176 -0.258779 0.000000
112.37100220 280.92800903 165.00000000 0.591778 -0.756778 0.277644 0.000000
101.04699707 186.41400146 216.25000000 0.727221 0.114045 -0.676863 0.000000
240.85699463 170.73399353 175.00000000 0.944109 0.001244 -0.329630 0.000000
124.56600189 142.42399597 202.50000000 0.387561 0.779986 -0.491343 0.000000
87.54489899 184.67199707 190.00000000 0.955846 -0.062532 -0.287137 0.000000
245.64799500 129.79299927 206.25000000 -0.153318 -0.003357 -0.988171 0.000000
199.48100281 176.83200073 173.75000000 0.833965 0.108778 -0.540989 0.000000
233.45300293 162.89500427 171.25000000 0.131754 -0.098519 -0.986375 0.000000
158.53900146 282.23400879 193.75000000 -0.096678 -0.549769 -0.829703 0.000000
236.93800354 182.05900574 213.75000000 -0.000978 -0.000978 -0.999999 0.000000
144.60200500 167.25000000 158.75000000 -0.104579 0.212938 0.971453 0.000000
188.15600586 274.39498901 188.75000000 -0.357574 -0.398172 -0.844749 0.000000
182.05900574 123.69499969 183.75000000 0.029625 0.712417 0.701131 0.000000
162.02299500 163.76600647 236.25000000 -0.179299 0.430026 -0.884833 0.000000
114.11299896 209.06300354 106.25000000 -0.691755 0.001381 0.722131 0.000000
216.03100586 193.38299561 218.75000000 -0.625153 -0.012475 -0.780402 0.000000
88.85160065 181.62300110 167.50000000 0.915179 0.364653 -0.171685 0.000000
91.02929688 238.67999268 170.00000000 0.975427 -0.217161 -0.037193 0.000000
182.92999268 193.38299561 233.75000000 -0.000978 -0.000978 -0.999999 0.000000
183.80099487 161.15199280 178.75000000 -0.083032 0.493971 0.865505 0.000000
141.11700439 146.34399414 218.75000000 0.323755 0.758649 -0.565363 0.000000
224.30700684 221.25799561 177.50000000 0.938766 0.232258 -0.254510 0.000000
202.09399414 108.45099640 170.00000000 0.367123 0.926548 -0.082031 0.000000
166.37899780 210.80499268 236.25000000 -0.430780 -0.301083 -0.850751 0.000000
138.50399780 132.84199524 190.00000000 0.157774 0.947991 -0.276441 0.000000
121.95300293 281.79901123 132.50000000 0.182201 -0.860641 0.475500 0.000000
115.41999817 210.80499268 107.50000000 -0.691755 0.001381 0.722131 0.000000
94.07810211 169.42799377 145.00000000 0.000978 0.000978 0.999999 0.000000
91.02929688 176.83200073 170.00000000 0.994477 0.099997 0.031867 0.000000
94.07810211 203.83599854 208.75000000 0.858760 -0.110391 -0.500346 0.000000
171.60600281 289.63900757 182.50000000 -0.305084 -0.765106 -0.567041 0.000000
125.43800354 143.73100281 203.75000000 0.673428 0.223434 -0.704678 0.000000
212.54699707 192.51199341 221.25000000 -0.490473 -0.031249 -0.870896 0.000000
267.42599487 186.41400146 203.75000000 0.692583 0.297281 -0.657231 0.000000
141.11700439 295.30099487 156.25000000 0.427529 -0.853514 0.297881 0.000000
88.41600037 184.67199707 170.00000000 0.993823 0.090755 0.063865 0.000000
149.82800293 295.30099487 173.75000000 0.001244 -0.944109 -0.329630 0.000000
91.02929688 174.21899414 167.50000000 0.982812 0.178157 -0.048374 0.000000
155.92599487 194.68899536 150.00000000 -0.659218 0.672240 -0.336934 0.000000
162.89500427 286.58999634 186.25000000 0.021611 -0.939463 -0.341969 0.000000
185.54299927 247.39100647 158.75000000 -0.552776 0.304265 0.775797 0.000000
216.03100586 116.72699738 201.25000000 0.023712 0.788078 -0.615119 0.000000
91.46489716 214.28900146 106.25000000 0.944109 0.001244 0.329630 0.000000
126.30899811 143.73100281 151.25000000 -0.482597 0.644023 0.593578 0.000000
193.81799316 262.19900513 190.00000000 -0.716138 -0.486841 -0.500133 0.000000
100.17600250 250.87500000 116.25000000 0.891263 -0.194006 -0.409893 0.000000
91.46489716 215.16000366 106.25000000 0.944109 0.001244 0.329630 0.000000
162.02299500 263.07000732 146.25000000 -0.550954 -0.130760 0.824228 0.000000
87.10939789 210.80499268 188.75000000 0.980145 -0.066307 -0.186867 0.000000
224.74200439 202.52900696 192.50000000 0.035356 0.668937 -0.742478 0.000000
180.31599426 154.18400574 211.25000000 -0.759705 0.625190 -0.178844 0.000000
128.05099487 198.60899353 236.25000000 0.000978 0.000978 -0.999999 0.000000
147.21499634 290.51000977 145.00000000 -0.329010 -0.802657 0.497488 0.000000
231.71099854 194.68899536 177.50000000 0.748417 0.455630 -0.481948 0.000000
196.86700439 182.05900574 226.25000000 -0.321014 0.125967 -0.938660 0.000000
187.72099304 268.29699707 192.50000000 -0.648925 -0.363069 -0.668639 0.000000
91.02929688 216.90199280 107.50000000 0.944109 0.001244 0.329630 0.000000
101.04699707 157.23199463 140.00000000 0.831579 0.424468 0.358194 0.000000
140.24600220 214.72500610 235.00000000 0.041796 -0.440881 -0.896592 0.000000
119.33999634 273.52301025 121.25000000 0.381723 -0.809765 0.445610 0.000000
216.90199280 217.77299500 156.25000000 -0.032414 -0.737059 0.675050 0.000000
213.41799927 111.50000000 188.75000000 0.014725 0.876827 -0.480581 0.000000
87.54489899 228.22700500 180.00000000 0.950175 -0.297503 -0.093052 0.000000
225.17799377 210.80499268 177.50000000 0.691755 0.001381 -0.722131 0.000000
130.66400146 213.41799927 118.75000000 0.000978 0.000978 0.999999 0.000000
196.86700439 219.95100403 185.00000000 -0.872889 -0.481835 0.076814 0.000000
102.78900146 151.57000732 153.75000000 0.800132 0.560553 0.213471 0.000000
126.30899811 205.57800293 116.25000000 -0.435876 0.064220 0.897713 0.000000
163.76600647 165.50799561 236.25000000 -0.086717 0.521726 -0.848694 0.000000
105.40200043 173.34800720 218.75000000 0.723300 0.336456 -0.603021 0.000000
229.09800720 133.27699280 211.25000000 0.001277 0.384343 -0.923189 0.000000
197.73800659 131.53500366 206.25000000 -0.367277 0.742716 -0.559893 0.000000
152.44099426 206.44900513 238.75000000 -0.217991 -0.173072 -0.960482 0.000000
138.50399780 293.99398804 172.50000000 0.001244 -0.944109 -0.329630 0.000000
202.09399414 157.66799927 216.25000000 0.284204 0.467462 -0.837083 0.000000
110.19300079 276.13699341 157.50000000 0.663215 -0.732709 0.152585 0.000000
236.50199890 136.76199341 180.00000000 0.817552 -0.012366 -0.575722 0.000000
124.13099670 168.99200439 232.50000000 0.818910 0.124968 -0.560152 0.000000
179.88099670 228.22700500 150.00000000 -0.464636 -0.403116 0.788423 0.000000
186.41400146 119.33999634 188.75000000 0.865392 0.217473 0.451444 0.000000
160.28100586 290.94500732 158.75000000 -0.513900 -0.601516 0.611625 0.000000
148.95700073 202.96499634 128.75000000 0.104388 0.630738 0.768942 0.000000
142.85899353 250.87500000 218.75000000 0.502755 -0.502755 -0.703189 0.000000
171.60600281 135.02000427 173.75000000 -0.613215 0.391730 0.685941 0.000000
182.05900574 138.50399780 178.75000000 -0.258588 0.180064 0.949057 0.000000
126.30899811 185.54299927 238.75000000 0.446919 0.260830 -0.855705 0.000000
173.34800720 256.97299194 206.25000000 -0.771162 -0.135736 -0.622001 0.000000
186.41400146 201.65800476 162.50000000 -0.001383 0.690311 -0.723512 0.000000
96.69139862 239.55099487 193.75000000 0.444867 -0.444867 -0.777295 0.000000
208.19099426 168.12100220 216.25000000 -0.369195 0.153012 -0.916669 0.000000
92.33599854 222.12899780 106.25000000 0.950868 -0.156913 0.266887 0.000000
236.06599426 148.08599854 176.25000000 0.599149 -0.253184 -0.759551 0.000000
226.48399353 182.05900574 213.75000000 -0.172012 0.026552 -0.984737 0.000000
233.45300293 192.07600403 212.50000000 -0.160826 -0.494282 -0.854296 0.000000
256.10198975 164.20100403 192.50000000 0.825872 0.009556 -0.563777 0.000000
168.99200439 270.03900146 153.75000000 -0.757159 -0.232612 0.610411 0.000000
106.70899963 271.78100586 140.00000000 0.809727 -0.585192 -0.043504 0.000000
174.21899414 202.96499634 156.25000000 0.223927 -0.674913 0.703100 0.000000
111.50000000 168.12100220 223.75000000 0.487998 0.419449 -0.765454 0.000000
222.12899780 188.15600586 216.25000000 -0.473228 -0.017428 -0.880767 0.000000
85.80280304 214.28900146 160.00000000 0.705724 0.708486 -0.001381 0.000000
91.90039825 223.87100220 107.50000000 0.901730 -0.236063 0.362158 0.000000
156.79699707 230.83999634 131.25000000 -0.283467 -0.466249 0.838009 0.000000
208.19099426 207.32000732 216.25000000 -0.243277 -0.601130 -0.761222 0.000000
263.94100952 177.70300293 208.75000000 -0.000978 -0.000978 -0.999999 0.000000
122.82399750 158.53900146 223.75000000 0.001360 0.819933 -0.572458 0.000000
244.77699280 198.60899353 206.25000000 -0.085396 -0.880560 -0.466179 0.000000
193.81799316 236.06599426 185.00000000 -0.478319 0.793978 0.375247 0.000000
216.90199280 186.85000610 217.50000000 -0.495047 -0.051022 -0.867367 0.000000
219.51600647 106.27300262 171.25000000 0.065312 0.991131 -0.115727 0.000000
159.41000366 231.71099854 133.75000000 -0.513455 -0.319519 0.796412 0.000000
108.88700104 162.89500427 216.25000000 0.751784 0.250595 -0.609938 0.000000
89.28710175 178.57400513 160.00000000 0.960379 0.257221 -0.107283 0.000000
212.54699707 127.18000031 206.25000000 0.000978 0.000978 -0.999999 0.000000
121.95300293 214.28900146 113.75000000 -0.471043 0.178672 0.863826 0.000000
140.24600220 287.46099854 186.25000000 -0.195302 -0.755064 -0.625888 0.000000
119.33999634 264.81298828 198.75000000 0.354718 -0.691454 -0.629338 0.000000
203.83599854 142.85899353 161.25000000 0.117473 -0.283784 -0.951665 0.000000
139.37500000 246.08399963 220.00000000 -0.031683 -0.530352 -0.847185 0.000000
131.53500366 168.99200439 148.75000000 -0.875511 0.374785 0.304987 0.000000
125.43800354 148.95700073 213.75000000 0.423805 0.849163 -0.315137 0.000000
214.28900146 200.35200500 158.75000000 -0.000978 -0.000978 -0.999999 0.000000
219.51600647 108.01599884 178.75000000 0.001244 0.944109 -0.329630 0.000000
95.82029724 171.16999817 132.50000000 0.836761 0.502664 0.217163 0.000000
228.22700500 110.19300079 185.00000000 0.001244 0.944109 -0.329630 0.000000
211.67599487 192.51199341 221.25000000 -0.459239 -0.041995 -0.887320 0.000000
138.93899536 131.53500366 180.00000000 0.319519 0.933658 -0.161834 0.000000
186.41400146 163.76600647 221.25000000 -0.376220 0.612795 -0.694939 0.000000
151.57000732 188.15600586 161.25000000 -0.773184 -0.627025 -0.095004 0.000000
240.42199707 111.50000000 188.75000000 -0.182863 0.981247 -0.060954 0.000000
121.51799774 229.09800720 112.50000000 -0.551968 -0.196154 0.810466 0.000000
208.19099426 154.18400574 213.75000000 -0.130864 0.545511 -0.827824 0.000000
215.16000366 224.74200439 166.25000000 0.001244 -0.944109 -0.329630 0.000000
190.77000427 254.35899353 198.75000000 -0.168692 -0.158545 -0.972834 0.000000
164.63699341 210.80499268 236.25000000 -0.000978 -0.000978 -0.999999 0.000000
266.55499268 180.31599426 208.75000000 -0.257984 -0.096263 -0.961342 0.000000
121.51799774 260.45700073 112.50000000 -0.350904 -0.084057 0.932631 0.000000
215.16000366 134.14799500 208.75000000 0.686901 -0.686901 -0.237350 0.000000
169.86300659 164.63699341 158.75000000 -0.697482 -0.120461 0.706405 0.000000
230.83999634 106.70899963 170.00000000 -0.194364 0.971818 -0.133387 0.000000
124.56600189 279.18600464 125.00000000 0.326834 -0.755098 0.568336 0.000000
91.46489716 239.55099487 128.75000000 0.920877 -0.336283 0.197229 0.000000
260.45700073 142.85899353 203.75000000 -0.160265 -0.135418 -0.977741 0.000000
134.14799500 274.39498901 123.75000000 -0.652181 0.344888 0.675065 0.000000
194.68899536 229.96899414 205.00000000 -0.857515 -0.509456 -0.071576 0.000000
195.99600220 229.09800720 196.25000000 -0.879640 -0.446363 0.164296 0.000000
108.45099640 234.32400513 210.00000000 0.580875 -0.700029 -0.415384 0.000000
105.40200043 147.21499634 161.25000000 0.698208 0.712664 -0.067942 0.000000
246.52000427 155.05499268 183.75000000 0.663175 -0.508714 -0.549008 0.000000
180.31599426 209.93400574 231.25000000 -0.178106 -0.099494 -0.978968 0.000000
197.73800659 148.08599854 211.25000000 0.190671 0.447855 -0.873539 0.000000
129.79299927 162.89500427 151.25000000 -0.740739 0.185568 0.645655 0.000000
261.32800293 159.41000366 196.25000000 0.440744 -0.081517 -0.893924 0.000000
254.35899353 168.99200439 188.75000000 0.849133 0.051589 -0.525654 0.000000
199.48100281 185.10699463 162.50000000 -0.490909 -0.128882 -0.861625 0.000000
214.28900146 112.37100220 191.25000000 0.011563 0.926363 -0.376455 0.000000
182.92999268 236.93800354 213.75000000 -0.716726 -0.012525 -0.697242 0.000000
158.53900146 160.28100586 158.75000000 0.000978 0.000978 0.999999 0.000000
137.63299561 257.84399414 126.25000000 -0.697773 -0.098423 0.709525 0.000000
244.77699280 182.92999268 178.75000000 0.322050 0.091446 -0.942296 0.000000
88.41600037 193.38299561 140.00000000 0.942074 0.211036 0.260691 0.000000
261.76400757 177.70300293 197.50000000 0.563567 -0.144237 -0.813380 0.000000
111.50000000 232.58200073 106.25000000 -0.777485 -0.073565 0.624584 0.000000
220.38699341 163.76600647 213.75000000 -0.284862 0.347502 -0.893362 0.000000
225.61300659 135.89100647 211.25000000 0.089016 0.138866 -0.986302 0.000000
93.20709991 180.31599426 128.75000000 0.927839 0.313973 0.201337 0.000000
215.16000366 114.11299896 151.25000000 -0.569358 0.569358 -0.593011 0.000000
196.86700439 146.34399414 161.25000000 -0.000978 -0.000978 -0.999999 0.000000
236.06599426 179.44500732 213.75000000 -0.000978 -0.000978 -0.999999 0.000000
258.71499634 134.14799500 196.25000000 0.671836 -0.213553 -0.709247 0.000000
97.12699890 157.66799927 177.50000000 0.852533 0.520916 0.042834 0.000000
123.69499969 289.63900757 170.00000000 0.123060 -0.990232 0.065555 0.000000
172.47700500 185.54299927 173.75000000 -0.841609 0.223719 0.491573 0.000000
121.95300293 255.23100281 206.25000000 0.662369 -0.568463 -0.487973 0.000000
216.46699524 222.12899780 187.50000000 0.708891 -0.340594 -0.617632 0.000000
191.20500183 134.14799500 205.00000000 0.627147 0.443184 -0.640526 0.000000
184.23599243 223.87100220 152.50000000 -0.781190 -0.055494 0.621822 0.000000
109.75800323 157.23199463 212.50000000 0.586321 0.345946 -0.732495 0.000000
171.16999817 137.63299561 170.00000000 -0.949298 0.279835 0.143265 0.000000
89.28710175 178.57400513 195.00000000 0.941196 0.134070 -0.310121 0.000000
135.89100647 249.56799316 217.50000000 0.201895 -0.759802 -0.618013 0.000000
90.15820313 177.70300293 165.00000000 0.949523 0.308819 0.055101 0.000000
208.19099426 216.90199280 206.25000000 -0.204400 -0.974928 -0.087954 0.000000
175.96099854 244.34199524 215.00000000 -0.380052 -0.543165 -0.748687 0.000000
130.66400146 141.11700439 203.75000000 0.191894 0.756831 -0.624807 0.000000
168.99200439 237.80900574 143.75000000 -0.670256 -0.182518 0.719336 0.000000
226.48399353 214.28900146 178.75000000 0.998623 0.001028 -0.052451 0.000000
124.56600189 213.41799927 113.75000000 0.000978 0.000978 0.999999 0.000000
203.83599854 218.64500427 206.25000000 -0.314536 -0.940907 -0.125544 0.000000
91.90039825 231.71099854 190.00000000 0.862941 -0.147474 -0.483305 0.000000
137.63299561 138.50399780 158.75000000 0.000978 0.000978 0.999999 0.000000
243.03500366 111.93599701 185.00000000 -0.291187 0.951906 -0.095321 0.000000
104.09600067 174.21899414 217.50000000 0.748510 0.306136 -0.588229 0.000000
243.03500366 169.86300659 213.75000000 -0.265725 -0.285834 -0.920700 0.000000
210.80499268 140.24600220 211.25000000 0.090854 0.457067 -0.884780 0.000000
149.82800293 292.68798828 178.75000000 0.217473 -0.865392 -0.451444 0.000000
108.88700104 274.82998657 157.50000000 0.701936 -0.701936 0.120715 0.000000
185.97900391 217.77299500 155.00000000 -0.806436 -0.109769 0.581044 0.000000
160.28100586 192.07600403 240.00000000 -0.598277 -0.023598 -0.800942 0.000000
107.14499664 154.18400574 131.25000000 0.449623 -0.224060 0.864660 0.000000
89.28710175 191.64100647 130.00000000 0.947744 0.308962 0.079522 0.000000
221.25799561 226.48399353 191.25000000 -0.684719 -0.687867 -0.240832 0.000000
112.37100220 237.37300110 107.50000000 -0.638663 -0.058580 0.767253 0.000000
187.28500366 227.35600281 166.25000000 -0.686901 0.686901 -0.237350 0.000000
163.76600647 207.32000732 168.75000000 0.280570 0.509415 0.813497 0.000000
124.56600189 282.23400879 186.25000000 0.427529 -0.853514 -0.297881 0.000000
138.93899536 238.67999268 125.00000000 -0.369802 -0.197132 0.907957 0.000000
126.30899811 228.22700500 223.75000000 0.352390 -0.151820 -0.923457 0.000000
121.08200073 192.51199341 116.25000000 -0.001333 0.497143 0.867668 0.000000
128.92199707 135.89100647 186.25000000 0.515441 0.843315 -0.152122 0.000000
132.40600586 140.24600220 156.25000000 -0.225621 0.078531 0.971045 0.000000
97.12699890 163.76600647 142.50000000 0.876005 0.453307 0.164706 0.000000
190.77000427 161.15199280 218.75000000 -0.366506 0.317841 -0.874443 0.000000
128.05099487 143.73100281 153.75000000 -0.546230 0.613874 0.569905 0.000000
106.70899963 158.53900146 210.00000000 0.734693 0.526667 -0.427608 0.000000
145.47300720 243.47099304 130.00000000 -0.250451 -0.270261 0.929641 0.000000
222.56500244 196.86700439 165.00000000 0.889642 -0.141827 -0.434076 0.000000
97.99810028 164.63699341 200.00000000 0.851857 0.496300 -0.167409 0.000000
216.90199280 121.08200073 161.25000000 0.061562 0.765942 -0.639955 0.000000
227.35600281 177.70300293 168.75000000 0.392563 0.022171 -0.919458 0.000000
220.38699341 188.15600586 216.25000000 -0.382526 -0.079749 -0.920496 0.000000
145.47300720 266.55499268 133.75000000 -0.658195 -0.082819 0.748279 0.000000
240.42199707 130.66400146 186.25000000 0.852523 0.151136 -0.500362 0.000000
97.12699890 260.45700073 162.50000000 0.935568 0.312775 -0.163966 0.000000
221.25799561 127.61499786 167.50000000 0.576932 -0.174140 -0.798013 0.000000
243.90600586 130.66400146 206.25000000 -0.000978 -0.000978 -0.999999 0.000000
266.98999023 159.41000366 205.00000000 -0.592903 0.555741 -0.582768 0.000000
187.28500366 270.03900146 191.25000000 -0.546063 -0.502378 -0.670397 0.000000
167.25000000 287.46099854 186.25000000 0.116914 -0.756239 -0.643765 0.000000
100.17600250 247.39100647 193.75000000 0.713039 -0.365535 -0.598297 0.000000
94.94920349 190.77000427 208.75000000 0.689297 -0.156039 -0.707476 0.000000
105.83799744 264.81298828 127.50000000 0.721913 -0.594804 0.353623 0.000000
89.28710175 193.38299561 200.00000000 0.959282 0.118446 -0.256416 0.000000
179.44500732 204.70700073 141.25000000 -0.462529 0.569395 0.679600 0.000000
177.70300293 270.91000366 196.25000000 -0.445707 -0.612638 -0.652702 0.000000
231.71099854 128.05099487 208.75000000 -0.000978 -0.000978 -0.999999 0.000000
153.31300354 171.60600281 241.25000000 -0.113366 0.616890 -0.778842 0.000000
246.95500183 135.89100647 190.00000000 0.880700 0.109201 -0.460914 0.000000
219.51600647 190.77000427 216.25000000 -0.372600 -0.068110 -0.925489 0.000000
159.41000366 259.58599854 211.25000000 -0.162521 -0.724510 -0.669830 0.000000
122.82399750 273.52301025 193.75000000 0.272237 -0.651139 -0.708452 0.000000
210.80499268 217.77299500 183.75000000 0.601281 -0.771309 0.208671 0.000000
166.81399536 270.03900146 152.50000000 -0.668389 -0.275970 0.690722 0.000000
127.18000031 233.45300293 223.75000000 0.598968 -0.419776 -0.681928 0.000000
158.53900146 283.97698975 151.25000000 -0.579955 -0.401507 0.708833 0.000000
194.25399780 128.92199707 203.75000000 0.140032 0.276063 -0.950884 0.000000
176.83200073 158.53900146 173.75000000 -0.727650 -0.026741 0.685427 0.000000
243.90600586 197.30299377 192.50000000 0.248414 0.945620 -0.209985 0.000000
87.54489899 192.51199341 195.00000000 0.954692 0.083972 -0.285503 0.000000
227.35600281 184.23599243 167.50000000 0.622565 -0.165109 -0.764952 0.000000
88.85160065 192.51199341 138.75000000 0.973917 0.162951 0.157898 0.000000
141.98800659 167.68600464 157.50000000 -0.390961 0.279258 0.877020 0.000000
105.40200043 248.26199341 196.25000000 0.574755 -0.448142 -0.684708 0.000000
148.08599854 242.16400146 131.25000000 -0.466829 -0.036534 0.883592 0.000000
91.90039825 169.86300659 182.50000000 0.691755 -0.001381 0.722131 0.000000
126.30899811 266.55499268 116.25000000 -0.714707 -0.108020 0.691032 0.000000
92.77149963 188.15600586 112.50000000 0.937190 0.324151 0.128847 0.000000
252.61700439 194.25399780 196.25000000 0.376855 0.656617 -0.653326 0.000000
113.24199677 191.64100647 228.75000000 0.824619 -0.006815 -0.565648 0.000000
185.10699463 274.39498901 190.00000000 -0.492213 -0.559410 -0.666924 0.000000
108.88700104 211.67599487 223.75000000 -0.000978 -0.000978 -0.999999 0.000000
215.16000366 218.64500427 198.75000000 0.579277 -0.599543 -0.552255 0.000000
255.23100281 187.28500366 193.75000000 0.726510 0.195896 -0.658641 0.000000
101.04699707 246.08399963 107.50000000 0.721439 -0.509153 0.469350 0.000000
174.21899414 223.87100220 138.75000000 -0.854349 -0.426405 0.297098 0.000000
194.68899536 259.58599854 182.50000000 -0.000978 -0.000978 -0.999999 0.000000
158.53900146 258.71499634 213.75000000 -0.101465 -0.674963 -0.730842 0.000000
86.67389679 222.12899780 165.00000000 0.989771 -0.142660 0.001106 0.000000
99.30470276 199.48100281 216.25000000 0.630074 0.067457 -0.773599 0.000000
185.54299927 203.39999390 157.50000000 -0.192835 0.915607 0.352816 0.000000
243.90600586 133.27699280 206.25000000 -0.000978 -0.000978 -0.999999 0.000000
254.35899353 161.15199280 211.25000000 -0.691755 -0.001381 -0.722131 0.000000
259.58599854 178.57400513 196.25000000 0.547461 -0.192597 -0.814367 0.000000
139.37500000 198.60899353 126.25000000 -0.539368 0.219742 0.812893 0.000000
229.09800720 175.08999634 213.75000000 -0.000978 -0.000978 -0.999999 0.000000
168.99200439 138.50399780 163.75000000 0.497074 0.866799 0.039711 0.000000
140.24600220 220.38699341 233.75000000 -0.000978 -0.000978 -0.999999 0.000000
159.41000366 144.16600037 225.00000000 -0.006826 0.563790 -0.825890 0.000000
119.33999634 231.71099854 111.25000000 -0.696574 -0.261810 0.668012 0.000000
112.37100220 247.39100647 106.25000000 -0.351430 -0.658726 0.665264 0.000000
169.86300659 146.34399414 161.25000000 -0.252847 0.071703 0.964845 0.000000
175.08999634 247.39100647 151.25000000 -0.490571 -0.163524 0.855921 0.000000
226.48399353 161.15199280 168.75000000 0.325107 0.047545 -0.944481 0.000000
208.62699890 138.50399780 210.00000000 0.218270 0.462130 -0.859531 0.000000
223.00000000 153.31300354 168.75000000 0.497468 -0.265006 -0.826013 0.000000
249.13299561 180.31599426 183.75000000 0.816941 0.202334 -0.540063 0.000000
126.30899811 174.21899414 136.25000000 -0.636258 0.662699 0.394975 0.000000
110.62899780 248.26199341 106.25000000 -0.145376 -0.618972 0.771842 0.000000
111.50000000 248.26199341 106.25000000 -0.351430 -0.658726 0.665264 0.000000
166.81399536 229.09800720 137.50000000 -0.530380 -0.299229 0.793195 0.000000
182.05900574 141.98800659 208.75000000 0.715705 0.199408 -0.669331 0.000000
261.32800293 137.63299561 201.25000000 -0.496507 0.160591 -0.853048 0.000000
188.15600586 138.50399780 206.25000000 0.169563 0.676726 -0.716443 0.000000
138.50399780 168.12100220 238.75000000 0.481089 -0.112778 -0.869387 0.000000
144.60200500 165.50799561 236.25000000 0.151224 0.591421 -0.792056 0.000000
149.82800293 189.02699280 136.25000000 -0.217161 0.975427 0.037193 0.000000
231.71099854 198.60899353 188.75000000 0.439626 0.871800 -0.216087 0.000000
122.82399750 248.26199341 213.75000000 0.520487 -0.510445 -0.684499 0.000000
135.02000427 224.74200439 118.75000000 -0.509738 -0.411396 0.755593 0.000000
169.42799377 230.83999634 140.00000000 -0.375967 -0.401136 0.835307 0.000000
223.00000000 202.09399414 191.25000000 -0.132746 0.618985 -0.774104 0.000000
133.27699280 239.55099487 221.25000000 -0.227504 -0.450488 -0.863309 0.000000
172.47700500 234.32400513 143.75000000 -0.677287 -0.255371 0.689977 0.000000
172.91200256 263.94100952 202.50000000 -0.457154 -0.408693 -0.789924 0.000000
241.72900391 156.79699707 177.50000000 0.310764 -0.387307 -0.867997 0.000000
216.46699524 209.06300354 202.50000000 -0.599172 -0.184478 -0.779077 0.000000
118.90399933 236.06599426 112.50000000 -0.530727 -0.111351 0.840197 0.000000
250.87500000 141.98800659 206.25000000 -0.000978 -0.000978 -0.999999 0.000000
162.02299500 205.57800293 158.75000000 0.089379 -0.107951 0.990130 0.000000
129.35699463 249.13299561 215.00000000 0.175763 -0.419798 -0.890436 0.000000
202.96499634 116.72699738 198.75000000 0.183565 0.799496 -0.571935 0.000000
121.95300293 277.00799561 123.75000000 0.398202 -0.682397 0.613000 0.000000
198.60899353 141.98800659 208.75000000 0.112598 0.213809 -0.970365 0.000000
213.41799927 137.63299561 163.75000000 0.311764 -0.090767 -0.945814 0.000000
223.00000000 127.18000031 208.75000000 0.144543 -0.014566 -0.989391 0.000000
114.11299896 141.55299377 177.50000000 0.577706 0.796051 -0.180438 0.000000
192.51199341 178.57400513 226.25000000 -0.306262 0.379399 -0.873075 0.000000
226.48399353 125.43800354 208.75000000 0.324815 0.602766 -0.728813 0.000000
166.37899780 254.35899353 146.25000000 -0.500304 -0.180707 0.846783 0.000000
168.12100220 138.93899536 210.00000000 -0.506633 0.861685 -0.028677 0.000000
226.48399353 130.66400146 171.25000000 0.691755 0.001381 -0.722131 0.000000
176.39700317 160.28100586 172.50000000 -0.790757 0.285683 0.541377 0.000000
263.94100952 183.80099487 208.75000000 -0.000978 -0.000978 -0.999999 0.000000
261.32800293 178.57400513 208.75000000 -0.000978 -0.000978 -0.999999 0.000000
173.34800720 146.34399414 163.75000000 -0.579217 0.698712 0.419891 0.000000
168.12100220 221.25799561 133.75000000 -0.458560 -0.394201 0.796447 0.000000
202.96499634 185.54299927 161.25000000 -0.446701 -0.190180 -0.874237 0.000000
190.77000427 159.41000366 216.25000000 -0.251602 0.324319 -0.911874 0.000000
203.83599854 213.41799927 213.75000000 -0.379428 -0.449871 -0.808487 0.000000
183.80099487 173.34800720 228.75000000 -0.614951 0.402785 -0.677938 0.000000
173.34800720 238.24400330 147.50000000 -0.658617 -0.275885 0.700079 0.000000
134.14799500 255.23100281 213.75000000 0.003555 -0.240582 -0.970622 0.000000
140.24600220 259.58599854 128.75000000 -0.521706 -0.171909 0.835626 0.000000
224.30700684 180.31599426 215.00000000 -0.604536 0.201512 -0.770668 0.000000
108.01599884 252.61700439 106.25000000 0.594123 -0.774066 0.218724 0.000000
185.54299927 276.13699341 188.75000000 -0.325541 -0.460790 -0.825648 0.000000
136.76199341 224.74200439 121.25000000 -0.451219 -0.177842 0.874513 0.000000
181.18800354 256.10198975 158.75000000 -0.297429 -0.021156 0.954510 0.000000
192.94700623 234.32400513 187.50000000 -0.478319 0.793978 0.375247 0.000000
147.21499634 184.67199707 241.25000000 -0.000978 -0.000978 -0.999999 0.000000
148.08599854 258.71499634 136.25000000 -0.717851 -0.182921 0.671736 0.000000
196.86700439 238.24400330 177.50000000 -0.577379 0.770366 0.270498 0.000000
108.01599884 253.48800659 106.25000000 0.594123 -0.774066 0.218724 0.000000
226.91999817 183.80099487 167.50000000 0.613549 -0.043724 -0.788445 0.000000
175.52499390 222.12899780 140.00000000 -0.788149 -0.485139 0.378763 0.000000
256.97299194 159.41000366 208.75000000 -0.688330 0.104650 -0.717809 0.000000
179.44500732 199.48100281 171.25000000 0.000978 0.000978 0.999999 0.000000
140.24600220 227.79100037 122.50000000 -0.356465 0.056561 0.932595 0.000000
108.88700104 253.92399597 107.50000000 0.594123 -0.774066 0.218724 0.000000
109.32199860 254.35899353 107.50000000 0.594123 -0.774066 0.218724 0.000000
189.46299744 257.84399414 170.00000000 -0.784357 -0.293143 0.546673 0.000000
171.60600281 141.55299377 210.00000000 -0.600218 0.799835 -0.001367 0.000000
174.21899414 259.58599854 156.25000000 -0.563989 -0.237714 0.790828 0.000000
109.75800323 224.74200439 218.75000000 0.475400 -0.345023 -0.809293 0.000000
239.55099487 159.84599304 175.00000000 0.640198 -0.091874 -0.762696 0.000000
245.21299744 112.37100220 182.50000000 -0.495607 0.469087 0.730980 0.000000
93.20709991 250.44000244 165.00000000 0.940505 -0.280356 -0.191968 0.000000
115.85500336 175.08999634 121.25000000 -0.665999 0.315985 0.675721 0.000000
101.04699707 172.04100037 110.00000000 0.465644 0.878920 0.103319 0.000000
164.63699341 257.84399414 211.25000000 -0.348529 -0.652879 -0.672515 0.000000
145.03700256 140.24600220 212.50000000 0.335164 0.870814 -0.359651 0.000000
130.66400146 281.36300659 126.25000000 -0.178572 -0.630345 0.755498 0.000000
182.92999268 141.11700439 208.75000000 0.717187 0.199821 -0.667619 0.000000
165.94299316 197.73800659 142.50000000 -0.318778 0.915946 0.243771 0.000000
223.87100220 155.05499268 213.75000000 -0.000978 -0.000978 -0.999999 0.000000
110.62899780 171.60600281 223.75000000 0.554538 0.137525 -0.820716 0.000000
211.67599487 113.67800140 195.00000000 -0.176475 0.885292 -0.430249 0.000000
214.28900146 121.95300293 206.25000000 0.814493 0.387322 -0.431952 0.000000
220.38699341 170.73399353 213.75000000 -0.788411 -0.035134 -0.614145 0.000000
218.64500427 177.70300293 163.75000000 0.390426 -0.145177 -0.909116 0.000000
85.80280304 221.25799561 152.50000000 0.974208 0.218252 -0.057306 0.000000
141.98800659 179.88099670 145.00000000 -0.496799 0.848884 -0.180518 0.000000
243.90600586 118.46900177 201.25000000 -0.179154 0.669148 -0.721210 0.000000
184.23599243 247.39100647 205.00000000 -0.700955 -0.387587 -0.598698 0.000000
140.24600220 186.41400146 241.25000000 -0.000978 -0.000978 -0.999999 0.000000
150.69900513 286.15399170 190.00000000 -0.103029 -0.816980 -0.567388 0.000000
182.05900574 155.05499268 213.75000000 -0.702546 0.690301 -0.172958 0.000000
181.18800354 203.39999390 165.00000000 0.338007 0.845795 0.412773 0.000000
136.32600403 229.96899414 227.50000000 0.195998 -0.539375 -0.818938 0.000000
189.02699280 182.05900574 228.75000000 -0.202717 -0.327467 -0.922860 0.000000
198.60899353 124.56600189 201.25000000 0.106894 0.798044 -0.593042 0.000000
181.18800354 201.22300720 146.25000000 -0.819933 -0.001360 0.572458 0.000000
259.58599854 135.02000427 203.75000000 0.365700 -0.683843 -0.631366 0.000000
126.74400330 194.25399780 120.00000000 -0.384656 0.120812 0.915120 0.000000
242.16400146 136.76199341 183.75000000 0.563578 -0.262166 -0.783358 0.000000
87.98049927 230.40400696 170.00000000 0.957737 -0.287198 -0.016024 0.000000
216.90199280 215.16000366 153.75000000 -0.250400 -0.480829 0.840299 0.000000
100.17600250 171.60600281 113.75000000 0.465644 0.878920 0.103319 0.000000
131.97099304 168.99200439 150.00000000 -0.875511 0.374785 0.304987 0.000000
260.45700073 183.80099487 208.75000000 -0.000978 -0.000978 -0.999999 0.000000
123.69499969 180.31599426 123.75000000 -0.507619 0.362585 0.781572 0.000000
250.00399780 160.28100586 186.25000000 0.770129 -0.181476 -0.611529 0.000000
194.25399780 243.03500366 171.25000000 -0.859711 -0.031436 0.509813 0.000000
189.89799500 255.23100281 198.75000000 -0.365600 -0.307954 -0.878351 0.000000
124.13099670 140.24600220 197.50000000 0.763652 0.565134 -0.312185 0.000000
235.19500732 176.83200073 213.75000000 -0.000978 -0.000978 -0.999999 0.000000
118.90399933 165.50799561 132.50000000 -0.895860 0.274849 0.349133 0.000000
214.28900146 141.55299377 212.50000000 0.195329 0.610597 -0.767475 0.000000
171.16999817 191.64100647 237.50000000 -0.733164 -0.360867 -0.576407 0.000000
187.28500366 216.90199280 156.25000000 -0.812624 -0.157137 0.561204 0.000000
165.50799561 284.41198730 157.50000000 -0.599453 -0.267302 0.754457 0.000000
154.18400574 229.96899414 228.75000000 -0.101373 -0.074037 -0.992090 0.000000
179.44500732 146.34399414 208.75000000 0.552716 0.552716 -0.623707 0.000000
155.05499268 207.32000732 166.25000000 -0.752347 0.421249 0.506482 0.000000
103.22499847 149.82800293 177.50000000 0.707106 0.707106 -0.001384 0.000000
135.89100647 270.03900146 201.25000000 0.387237 -0.540824 -0.746697 0.000000
265.68399048 148.95700073 198.75000000 0.825795 -0.251597 -0.504738 0.000000
108.01599884 177.70300293 108.75000000 -0.638634 0.283304 0.715462 0.000000
109.32199860 275.26599121 175.00000000 0.730769 -0.542716 -0.414048 0.000000
157.66799927 199.48100281 238.75000000 -0.597819 0.119564 -0.792664 0.000000
186.85000610 229.09800720 207.50000000 -0.701211 0.026699 -0.712453 0.000000
199.48100281 131.53500366 206.25000000 0.107106 0.779089 -0.617696 0.000000
171.60600281 261.32800293 153.75000000 -0.722951 -0.189601 0.664375 0.000000
93.20709991 169.86300659 196.25000000 0.801104 0.512389 -0.309337 0.000000
259.58599854 166.37899780 196.25000000 0.681087 0.058789 -0.729839 0.000000
179.00999451 173.34800720 172.50000000 0.941119 0.086038 0.326943 0.000000
241.29299927 123.69499969 206.25000000 -0.236966 0.180737 -0.954558 0.000000
95.38480377 172.47700500 132.50000000 0.836761 0.502664 0.217163 0.000000
164.63699341 207.32000732 131.25000000 -0.691292 0.394317 0.605499 0.000000
