97.07810211 116.66400146 192.50000000 0.508619 0.848675 -0.145110 0.000000
195.00799561 166.05499268 57.50000000 -0.426823 -0.426823 0.797273 0.000000
86.00779724 264.83599854 147.50000000 -0.814866 -0.416203 0.403446 0.000000
124.32800293 207.78100586 232.50000000 -0.057484 -0.539793 -0.839833 0.000000
184.78900146 184.78900146 142.50000000 -0.001191 0.967932 0.251210 0.000000
270.79699707 109.85199738 202.50000000 -0.401683 0.845565 -0.351668 0.000000
147.32000732 247.80499268 177.50000000 -0.000978 -0.000978 0.999999 0.000000
272.50000000 111.55500031 202.50000000 -0.339786 0.851792 -0.398744 0.000000
126.88300323 275.90600586 177.50000000 0.000978 0.000978 0.999999 0.000000
222.25799561 177.97599792 222.50000000 -0.000978 -0.000978 -0.999999 0.000000
99.63279724 277.18301392 185.00000000 0.507512 -0.581700 -0.635655 0.000000
122.62500000 172.01600647 237.50000000 -0.660152 0.549287 -0.512332 0.000000
215.44500732 176.27299500 227.50000000 -0.372994 -0.426959 -0.823761 0.000000
136.67599487 257.17199707 175.00000000 -0.528837 -0.054419 0.846977 0.000000
286.97601318 128.58599854 202.50000000 -0.412244 -0.001292 -0.911072 0.000000
103.03900146 106.44499969 122.50000000 0.549362 0.831891 -0.078480 0.000000
251.63699341 95.37490082 195.00000000 -0.321014 0.938660 -0.125967 0.000000
89.41400146 229.49600220 110.00000000 -0.551990 -0.764418 0.333125 0.000000
145.61700439 152.42999268 17.50000000 0.464317 -0.871868 0.155743 0.000000
236.73399353 164.35099792 222.50000000 -0.367252 -0.040515 -0.929239 0.000000
149.87500000 226.51600647 222.50000000 0.327484 -0.817920 -0.473033 0.000000
114.10900116 283.57000732 172.50000000 0.000978 0.000978 0.999999 0.000000
251.21099854 92.82029724 187.50000000 -0.180097 0.931198 -0.316915 0.000000
153.28100586 117.51599884 222.50000000 -0.000978 -0.000978 -0.999999 0.000000
232.47599792 137.52699280 150.00000000 -0.540510 -0.282074 0.792643 0.000000
138.80499268 163.50000000 232.50000000 -0.606140 0.606140 -0.514965 0.000000
175.42199707 153.28100586 32.50000000 0.000978 0.000978 0.999999 0.000000
196.71099854 173.71899414 87.50000000 -0.161398 -0.395639 -0.904113 0.000000
85.58200073 121.77300262 145.00000000 0.812549 0.579987 -0.058140 0.000000
129.43699646 163.50000000 237.50000000 -0.000978 -0.000978 -0.999999 0.000000
115.38700104 153.28100586 20.00000000 0.985809 0.001127 -0.167869 0.000000
238.43699646 183.93699646 197.50000000 -0.418792 -0.845369 0.331609 0.000000
289.53100586 119.21900177 192.50000000 -0.832406 0.185146 -0.522323 0.000000
183.93699646 98.78119659 202.50000000 0.080526 0.854708 -0.512825 0.000000
205.22599792 189.89799500 162.50000000 -0.125226 -0.313738 0.941215 0.000000
179.67999268 185.64100647 127.50000000 -0.761293 -0.001377 -0.648407 0.000000
142.21099854 206.92999268 232.50000000 -0.000978 -0.000978 -0.999999 0.000000
155.83599854 221.40600586 152.50000000 -0.442151 -0.838994 0.317162 0.000000
220.97999573 168.60899353 225.00000000 -0.408585 -0.274921 -0.870331 0.000000
234.60499573 146.46899414 155.00000000 -0.646751 -0.188956 0.738924 0.000000
61.73820114 173.71899414 115.00000000 0.985809 -0.001127 -0.167869 0.000000
196.71099854 100.48400116 102.50000000 0.026983 -0.934127 0.355919 0.000000
80.04679871 139.65600586 202.50000000 0.881342 0.364328 -0.300835 0.000000
190.75000000 148.17199707 52.50000000 -0.861070 0.380473 0.337342 0.000000
240.99200439 91.96869659 187.50000000 -0.194648 0.975719 -0.100423 0.000000
133.69500732 222.25799561 227.50000000 -0.339754 -0.243515 -0.908442 0.000000
143.91400146 93.67179871 52.50000000 0.361981 0.754803 0.547030 0.000000
121.77300262 215.44500732 232.50000000 -0.000978 -0.000978 -0.999999 0.000000
257.17199707 122.62500000 217.50000000 -0.573400 0.456379 -0.680390 0.000000
222.25799561 126.88300323 227.50000000 -0.000978 -0.000978 -0.999999 0.000000
91.96869659 281.01501465 177.50000000 -0.506611 0.001337 -0.862174 0.000000
131.14100647 206.92999268 232.50000000 -0.000978 -0.000978 -0.999999 0.000000
118.36699677 234.17999268 152.50000000 -0.431179 -0.851539 0.298271 0.000000
75.78900146 134.97300720 130.00000000 0.840575 0.534130 0.090215 0.000000
59.18360138 178.82800293 100.00000000 0.967101 0.240830 0.081958 0.000000
100.48400116 175.42199707 37.50000000 0.146427 -0.047272 0.988091 0.000000
159.24200439 171.16400146 132.50000000 -0.192513 0.427644 -0.883210 0.000000
157.53900146 143.06199646 22.50000000 -0.672725 -0.227378 0.704088 0.000000
173.71899414 232.47599792 202.50000000 -0.000978 -0.000978 -0.999999 0.000000
78.34369659 208.63299561 217.50000000 0.661039 -0.329708 -0.674033 0.000000
73.23429871 157.11300659 180.00000000 0.888274 0.444843 -0.114388 0.000000
97.07810211 135.39799500 217.50000000 0.567881 0.210839 -0.795649 0.000000
200.11700439 126.03099823 227.50000000 -0.000978 -0.000978 -0.999999 0.000000
169.46099854 177.97599792 132.50000000 -0.316723 0.444660 -0.837833 0.000000
93.24600220 269.94500732 190.00000000 0.018199 -0.701368 -0.712567 0.000000
80.89839935 268.66799927 145.00000000 -0.598448 -0.800267 -0.037841 0.000000
122.62500000 256.32000732 167.50000000 -0.591827 -0.238917 0.769844 0.000000
161.79699707 86.00779724 62.50000000 -0.158224 0.922738 0.351453 0.000000
150.72599792 154.98399353 17.50000000 0.000978 0.000978 0.999999 0.000000
101.33599854 114.53500366 195.00000000 0.484710 0.868498 -0.103765 0.000000
138.80499268 94.52339935 152.50000000 0.312109 0.936328 -0.160867 0.000000
235.03100586 149.87500000 222.50000000 -0.000978 -0.000978 -0.999999 0.000000
206.07800293 178.82800293 227.50000000 0.000978 0.000978 -0.999999 0.000000
115.38700104 155.83599854 20.00000000 0.985809 0.001127 -0.167869 0.000000
103.03900146 106.87100220 110.00000000 0.598796 0.800700 -0.017978 0.000000
93.24600220 243.54699707 140.00000000 -0.680931 -0.486857 0.547087 0.000000
172.01600647 165.20300293 132.50000000 -0.055519 -0.624946 -0.778691 0.000000
89.83979797 136.25000000 75.00000000 0.688317 0.632729 0.354786 0.000000
113.25800323 136.25000000 32.50000000 0.837246 0.507192 0.204391 0.000000
60.03509903 198.41400146 110.00000000 0.994963 -0.036280 -0.093450 0.000000
128.58599854 239.28900146 162.50000000 0.000978 0.000978 0.999999 0.000000
204.37500000 212.89100647 167.50000000 0.549248 -0.798199 0.247395 0.000000
206.50399780 166.05499268 65.00000000 -0.650015 -0.592907 0.475334 0.000000
95.80069733 174.57000732 235.00000000 0.272125 0.181873 -0.944918 0.000000
73.23429871 244.39799500 122.50000000 0.577415 -0.814592 0.055059 0.000000
148.17199707 219.27699280 225.00000000 -0.182242 -0.739689 -0.647802 0.000000
204.37500000 161.79699707 82.50000000 -0.850032 -0.399375 -0.343432 0.000000
246.95300293 149.02299500 172.50000000 -0.828685 -0.498446 0.254624 0.000000
202.67199707 149.87500000 142.50000000 0.468131 -0.094189 0.878625 0.000000
102.18699646 235.88299561 217.50000000 0.377737 -0.301886 -0.875317 0.000000
111.55500031 109.85199738 77.50000000 0.717100 0.647448 0.258029 0.000000
86.85929871 223.10899353 72.50000000 0.382290 -0.904511 0.188981 0.000000
137.95300293 217.14799500 227.50000000 -0.000978 -0.000978 -0.999999 0.000000
111.55500031 189.04699707 237.50000000 -0.000978 -0.000978 -0.999999 0.000000
186.49200439 180.53100586 102.50000000 -0.347729 -0.934771 -0.072719 0.000000
130.28900146 220.55499268 67.50000000 -0.001240 -0.946173 0.323658 0.000000
105.16799927 151.57800293 40.00000000 0.785874 0.317219 0.530824 0.000000
76.64060211 226.51600647 92.50000000 -0.800852 -0.592312 -0.088340 0.000000
148.17199707 252.06199646 207.50000000 -0.198383 0.258582 -0.945399 0.000000
189.89799500 100.48400116 92.50000000 0.164924 0.450986 -0.877161 0.000000
244.39799500 126.88300323 157.50000000 0.000000 0.000000 0.000000 0.000000
206.07800293 206.92999268 207.50000000 0.000978 0.000978 0.999999 0.000000
106.44499969 117.94100189 210.00000000 -0.037712 0.819894 -0.571272 0.000000
110.70300293 221.40600586 227.50000000 -0.415345 -0.352651 -0.838526 0.000000
131.99200439 248.65600586 212.50000000 0.119285 -0.596423 -0.793758 0.000000
143.91400146 211.18699646 62.50000000 -0.431249 -0.860973 0.269721 0.000000
94.52339935 143.06199646 222.50000000 0.411502 0.560237 -0.718888 0.000000
110.70300293 134.54699707 222.50000000 0.419035 0.313890 -0.851987 0.000000
222.25799561 115.81199646 142.50000000 -0.733611 -0.172345 0.657352 0.000000
196.28500366 153.28100586 110.00000000 -0.816195 -0.029199 -0.577038 0.000000
120.06999969 197.56199646 237.50000000 -0.000978 -0.000978 -0.999999 0.000000
174.57000732 95.37490082 192.50000000 -0.174325 0.877485 -0.446800 0.000000
128.58599854 153.28100586 232.50000000 -0.000978 -0.000978 -0.999999 0.000000
174.57000732 229.07000732 182.50000000 -0.333078 -0.285707 0.898571 0.000000
164.35099792 230.34800720 210.00000000 -0.282929 -0.554795 -0.782403 0.000000
121.77300262 94.94920349 120.00000000 0.435362 0.872220 -0.222917 0.000000
166.90600586 183.08599854 32.50000000 -0.527678 -0.497525 0.688494 0.000000
221.40600586 152.42999268 227.50000000 -0.000978 -0.000978 -0.999999 0.000000
251.21099854 166.90600586 192.50000000 -0.643514 -0.475495 0.599829 0.000000
120.92199707 166.05499268 237.50000000 -0.000978 -0.000978 -0.999999 0.000000
169.88699341 223.96099854 210.00000000 -0.585172 -0.507599 -0.632390 0.000000
93.67179871 181.38299561 37.50000000 0.000978 0.000978 0.999999 0.000000
151.57800293 158.39100647 17.50000000 -0.000978 -0.000978 0.999999 0.000000
258.87500000 100.05899811 200.00000000 -0.365936 0.664593 -0.651465 0.000000
168.60899353 216.29699707 217.50000000 -0.814443 -0.338160 -0.471519 0.000000
239.28900146 163.50000000 177.50000000 -0.692650 -0.559127 0.455647 0.000000
269.94500732 149.87500000 212.50000000 -0.852681 0.170536 -0.493814 0.000000
232.47599792 149.02299500 152.50000000 -0.412026 -0.258082 0.873858 0.000000
69.82810211 241.84399414 192.50000000 -0.000978 -0.000978 -0.999999 0.000000
172.86700439 152.42999268 232.50000000 -0.000978 -0.000978 -0.999999 0.000000
172.01600647 97.92960358 197.50000000 0.001240 0.946173 -0.323658 0.000000
225.66400146 145.61700439 222.50000000 -0.000978 -0.000978 -0.999999 0.000000
177.97599792 201.82000732 137.50000000 -0.576400 -0.692677 0.433546 0.000000
126.88300323 108.14800262 207.50000000 0.247116 0.859601 -0.447235 0.000000
203.94900513 211.18699646 165.00000000 0.573837 -0.718529 0.392971 0.000000
84.30460358 171.16400146 227.50000000 0.488578 -0.074197 -0.869360 0.000000
103.89099884 279.31201172 187.50000000 0.585675 -0.704460 -0.400899 0.000000
246.10099792 108.14800262 152.50000000 -0.490786 -0.314040 0.812716 0.000000
208.20700073 115.81199646 125.00000000 -0.754858 -0.334595 0.564123 0.000000
106.44499969 166.90600586 37.50000000 0.527479 0.281847 0.801454 0.000000
66.42179871 205.22599792 82.50000000 0.887629 -0.295876 0.352949 0.000000
65.57029724 188.19500732 207.50000000 0.887629 0.295876 -0.352949 0.000000
129.43699646 227.36700439 227.50000000 -0.000978 -0.000978 -0.999999 0.000000
181.38299561 125.18000031 47.50000000 -0.700294 -0.499732 0.509761 0.000000
265.68701172 100.48400116 197.50000000 -0.286581 0.725259 -0.625996 0.000000
255.04299927 166.05499268 195.00000000 -0.694003 -0.434376 0.574175 0.000000
281.44100952 149.02299500 205.00000000 -0.828209 -0.378474 -0.413313 0.000000
157.53900146 106.44499969 217.50000000 -0.509560 0.826687 -0.238615 0.000000
109.00000000 103.89099884 132.50000000 0.449038 0.888284 -0.096522 0.000000
207.78100586 191.60099792 227.50000000 -0.885392 -0.353255 -0.302146 0.000000
91.96869659 286.12500000 167.50000000 -0.157038 -0.861505 0.482854 0.000000
237.58599854 160.09399414 222.50000000 -0.351365 -0.032176 -0.935686 0.000000
172.01600647 203.52299500 47.50000000 -0.153053 -0.954252 0.256863 0.000000
269.09399414 171.16400146 212.50000000 0.971830 -0.073042 -0.224078 0.000000
147.32000732 128.58599854 222.50000000 -0.000978 -0.000978 -0.999999 0.000000
152.42999268 189.89799500 237.50000000 -0.000978 -0.000978 -0.999999 0.000000
201.82000732 80.47260284 135.00000000 -0.313575 0.943392 0.108083 0.000000
86.85929871 163.50000000 47.50000000 0.515628 0.462573 0.721216 0.000000
120.06999969 228.21899414 142.50000000 -0.484106 -0.845288 0.226118 0.000000
83.45310211 233.32800293 212.50000000 0.792895 -0.512112 -0.330240 0.000000
225.66400146 177.97599792 222.50000000 -0.000978 -0.000978 -0.999999 0.000000
130.28900146 140.50799561 227.50000000 -0.000978 -0.000978 -0.999999 0.000000
182.23399353 82.17569733 155.00000000 -0.154615 0.852590 -0.499185 0.000000
119.21900177 160.09399414 237.50000000 -0.000978 -0.000978 -0.999999 0.000000
187.34399414 95.37490082 197.50000000 0.210987 0.900696 -0.379777 0.000000
123.47599792 172.01600647 237.50000000 -0.660152 0.549287 -0.512332 0.000000
120.06999969 241.84399414 162.50000000 -0.479387 -0.529497 0.699872 0.000000
244.39799500 189.89799500 217.50000000 -0.000978 -0.000978 -0.999999 0.000000
92.39450073 263.98400879 155.00000000 -0.225033 -0.591294 0.774424 0.000000
103.03900146 173.71899414 37.50000000 0.270935 -0.020841 0.962372 0.000000
168.60899353 202.67199707 217.50000000 -0.938908 0.344056 -0.008822 0.000000
207.78100586 152.42999268 62.50000000 -0.640198 0.091874 0.762696 0.000000
80.04679871 134.97300720 105.00000000 0.664647 0.664647 0.341305 0.000000
219.70300293 178.40199280 170.00000000 -0.650593 -0.692567 0.311575 0.000000
260.57800293 170.31199646 212.50000000 -0.000978 -0.000978 -0.999999 0.000000
212.89100647 198.41400146 207.50000000 0.020088 -0.464714 0.885233 0.000000
222.25799561 190.75000000 217.50000000 -0.531373 -0.435362 -0.726707 0.000000
120.06999969 275.05499268 192.50000000 0.286747 0.427820 0.857174 0.000000
199.26600647 173.71899414 157.50000000 -0.052631 0.311936 0.948644 0.000000
207.78100586 162.22300720 60.00000000 -0.739576 -0.328521 0.587453 0.000000
127.73400116 241.84399414 217.50000000 0.014251 -0.395130 -0.918515 0.000000
152.42999268 161.79699707 17.50000000 -0.601025 -0.058255 0.797104 0.000000
207.78100586 112.40599823 122.50000000 -0.825795 -0.504738 0.251597 0.000000
160.09399414 128.58599854 27.50000000 -0.767237 0.295091 0.569446 0.000000
88.13670349 189.04699707 230.00000000 0.671659 -0.251280 -0.696945 0.000000
114.10900116 127.73400116 47.50000000 0.857647 0.344604 0.381692 0.000000
141.35899353 86.00779724 117.50000000 0.538758 0.810453 -0.230014 0.000000
93.67179871 157.53900146 232.50000000 -0.000978 -0.000978 -0.999999 0.000000
141.35899353 126.88300323 222.50000000 -0.000978 -0.000978 -0.999999 0.000000
73.23429871 207.35499573 65.00000000 0.867288 -0.369941 0.333100 0.000000
95.37490082 112.83200073 140.00000000 0.612786 0.789471 -0.035056 0.000000
242.69500732 137.10099792 162.50000000 -0.764999 -0.453758 0.457034 0.000000
208.63299561 180.53100586 157.50000000 -0.214904 -0.513637 0.830658 0.000000
93.24600220 132.84399414 215.00000000 0.603826 0.271009 -0.749632 0.000000
193.30499268 156.68699646 112.50000000 -0.701936 -0.701936 0.120715 0.000000
241.84399414 97.92960358 147.50000000 0.000978 0.000978 0.999999 0.000000
148.17199707 209.48399353 57.50000000 0.102154 -0.924836 0.366393 0.000000
167.75799561 155.83599854 232.50000000 -0.000978 -0.000978 -0.999999 0.000000
85.15619659 278.46099854 172.50000000 0.606140 -0.606140 -0.514965 0.000000
257.17199707 149.02299500 212.50000000 -0.747468 0.006934 -0.664262 0.000000
154.55900574 211.18699646 125.00000000 -0.309153 -0.927460 0.210337 0.000000
227.36700439 157.53900146 222.50000000 -0.206757 0.273364 -0.939427 0.000000
117.51599884 271.64801025 172.50000000 0.000978 0.000978 0.999999 0.000000
180.53100586 178.82800293 37.50000000 -0.640541 0.032379 0.767241 0.000000
156.68699646 166.05499268 22.50000000 0.000978 0.000978 0.999999 0.000000
82.60150146 226.08999634 95.00000000 -0.286493 -0.925043 0.249434 0.000000
193.30499268 93.67179871 97.50000000 0.000978 0.000978 -0.999999 0.000000
178.82800293 177.12500000 232.50000000 -0.000978 -0.000978 -0.999999 0.000000
67.27339935 204.37500000 207.50000000 0.632812 0.202686 -0.747307 0.000000
113.25800323 220.55499268 77.50000000 0.103382 -0.935812 -0.337000 0.000000
132.84399414 103.89099884 42.50000000 0.636378 0.636378 0.435944 0.000000
209.48399353 187.34399414 227.50000000 -0.793345 -0.279169 -0.540989 0.000000
111.55500031 150.72599792 232.50000000 -0.000978 -0.000978 -0.999999 0.000000
164.35099792 186.49200439 32.50000000 0.000978 0.000978 0.999999 0.000000
96.22650146 223.10899353 107.50000000 -0.507702 -0.817009 0.273378 0.000000
253.76499939 162.22300720 190.00000000 -0.001322 -0.471891 0.881656 0.000000
162.64799500 122.62500000 222.50000000 -0.044774 0.221451 -0.974143 0.000000
129.43699646 131.14100647 222.50000000 -0.000978 -0.000978 -0.999999 0.000000
102.18699646 117.51599884 202.50000000 0.631313 0.696565 -0.340942 0.000000
89.41400146 223.53500366 90.00000000 -0.312246 -0.936739 -0.158186 0.000000
196.71099854 153.28100586 232.50000000 -0.000978 -0.000978 -0.999999 0.000000
236.73399353 158.39100647 167.50000000 0.000978 0.000978 0.999999 0.000000
96.22650146 160.94500732 232.50000000 -0.062090 0.467746 -0.881680 0.000000
127.73400116 267.39001465 197.50000000 -0.098625 0.710981 0.696261 0.000000
110.70300293 220.12899780 110.00000000 -0.240830 -0.967101 0.081958 0.000000
155.83599854 171.58999634 140.00000000 0.001314 0.889912 0.456129 0.000000
253.76499939 142.21099854 177.50000000 -0.712767 -0.543298 0.443610 0.000000
166.90600586 158.39100647 142.50000000 -0.606140 -0.606140 -0.514965 0.000000
254.61700439 113.68399811 160.00000000 -0.540454 0.540454 0.644841 0.000000
242.69500732 99.63279724 147.50000000 0.000978 0.000978 0.999999 0.000000
166.05499268 149.02299500 232.50000000 -0.000978 -0.000978 -0.999999 0.000000
126.88300323 271.22299194 195.00000000 -0.073931 0.674072 0.734956 0.000000
73.23429871 166.05499268 217.50000000 0.898195 0.019901 -0.439147 0.000000
279.31201172 143.06199646 207.50000000 -0.000978 -0.000978 -0.999999 0.000000
221.40600586 115.38700104 225.00000000 -0.061677 0.658367 -0.750166 0.000000
189.04699707 115.81199646 102.50000000 -0.929090 0.139019 -0.342731 0.000000
90.26560211 206.07800293 227.50000000 0.000000 0.000000 0.000000 0.000000
133.69500732 279.31201172 187.50000000 0.412816 0.827214 0.381183 0.000000
154.98399353 233.32800293 167.50000000 -0.093401 -0.444701 0.890796 0.000000
115.81199646 166.05499268 17.50000000 0.761293 -0.001377 0.648407 0.000000
177.12500000 172.86700439 37.50000000 -0.364384 -0.766015 0.529571 0.000000
163.50000000 166.05499268 27.50000000 -0.569681 -0.097121 0.816108 0.000000
151.57800293 232.47599792 167.50000000 -0.424132 -0.640356 0.640356 0.000000
116.23799896 99.63279724 130.00000000 0.514458 0.857430 0.012153 0.000000
160.09399414 206.92999268 52.50000000 -0.001299 -0.905318 0.424733 0.000000
148.17199707 166.05499268 17.50000000 -0.269105 0.505545 0.819760 0.000000
248.65600586 173.71899414 217.50000000 -0.000978 -0.000978 -0.999999 0.000000
150.72599792 95.37490082 47.50000000 0.052951 0.676912 0.734157 0.000000
139.65600586 265.68701172 177.50000000 -0.743040 -0.570694 0.349570 0.000000
126.88300323 218.85099792 52.50000000 -0.758898 0.636157 0.139206 0.000000
134.54699707 118.36699677 27.50000000 -0.001240 0.946173 0.323658 0.000000
190.75000000 200.96899414 152.50000000 0.241764 -0.963176 -0.117650 0.000000
142.21099854 270.79699707 182.50000000 -0.773786 -0.273752 0.571240 0.000000
166.90600586 136.25000000 32.50000000 -0.799350 0.103755 0.591840 0.000000
189.47300720 96.22650146 90.00000000 -0.982239 0.185703 0.026863 0.000000
190.32400513 105.59400177 95.00000000 -0.917060 0.150269 -0.369352 0.000000
242.69500732 110.70300293 147.50000000 0.000978 0.000978 0.999999 0.000000
147.32000732 166.90600586 17.50000000 -0.269105 0.505545 0.819760 0.000000
164.35099792 164.35099792 152.50000000 -0.000978 -0.000978 -0.999999 0.000000
149.02299500 166.90600586 17.50000000 -0.269105 0.505545 0.819760 0.000000
286.12500000 109.85199738 192.50000000 -0.763893 0.382761 -0.519578 0.000000
183.51199341 125.18000031 50.00000000 -0.580128 -0.015158 0.814384 0.000000
202.67199707 153.28100586 162.50000000 -0.163019 -0.890115 0.425582 0.000000
138.80499268 193.30499268 237.50000000 -0.848675 0.508619 0.145110 0.000000
80.47260284 138.80499268 175.00000000 0.962552 0.270297 -0.020792 0.000000
238.01199341 87.71089935 175.00000000 -0.177317 0.948848 -0.261238 0.000000
83.87889862 270.79699707 150.00000000 -0.429093 -0.561632 0.707424 0.000000
115.81199646 224.81199646 227.50000000 -0.000978 -0.000978 -0.999999 0.000000
190.75000000 106.44499969 117.50000000 -0.029487 -0.652933 0.756841 0.000000
184.36300659 136.25000000 115.00000000 -0.703443 -0.700469 0.120463 0.000000
268.24200439 129.43699646 182.50000000 -0.387038 -0.106057 0.915944 0.000000
120.92199707 270.79699707 172.50000000 0.000978 0.000978 0.999999 0.000000
143.06199646 223.96099854 222.50000000 -0.000978 -0.000978 -0.999999 0.000000
129.43699646 220.12899780 90.00000000 -0.001127 -0.985809 -0.167869 0.000000
128.58599854 98.35540009 55.00000000 0.512853 0.650735 0.559934 0.000000
137.10099792 271.64801025 192.50000000 0.000978 0.000978 0.999999 0.000000
138.80499268 254.19099426 175.00000000 -0.469359 -0.443192 0.763730 0.000000
218.85099792 126.03099823 142.50000000 -0.624931 -0.209344 0.752088 0.000000
148.17199707 95.80069733 175.00000000 0.269455 0.945144 -0.184652 0.000000
196.71099854 113.25800323 117.50000000 0.408930 -0.703624 0.581111 0.000000
213.74200439 120.06999969 132.50000000 -0.551087 -0.377748 0.744049 0.000000
271.22299194 94.52339935 175.00000000 -0.312109 0.936328 -0.160867 0.000000
193.30499268 184.36300659 70.00000000 -0.824523 -0.469586 -0.315675 0.000000
166.05499268 209.48399353 212.50000000 -0.941727 0.236469 0.239235 0.000000
266.53900146 125.18000031 182.50000000 -0.343136 -0.324996 0.881269 0.000000
161.79699707 115.81199646 222.50000000 0.055655 0.116990 -0.991572 0.000000
158.39100647 221.40600586 217.50000000 -0.145991 -0.738986 -0.657713 0.000000
202.67199707 159.24200439 227.50000000 -0.000978 -0.000978 -0.999999 0.000000
77.49210358 185.64100647 47.50000000 -0.000978 -0.000978 0.999999 0.000000
145.61700439 224.81199646 222.50000000 -0.000978 -0.000978 -0.999999 0.000000
116.66400146 259.72601318 207.50000000 -0.000978 -0.000978 -0.999999 0.000000
207.78100586 168.60899353 227.50000000 -0.000978 -0.000978 -0.999999 0.000000
151.57800293 168.60899353 17.50000000 -0.269105 0.505545 0.819760 0.000000
128.58599854 123.05100250 30.00000000 0.486857 0.680931 0.547087 0.000000
123.47599792 241.84399414 217.50000000 0.026064 -0.289185 -0.956918 0.000000
145.61700439 206.92999268 47.50000000 -0.548984 -0.832696 -0.072347 0.000000
238.43699646 114.10900116 222.50000000 -0.000978 -0.000978 -0.999999 0.000000
213.74200439 165.20300293 227.50000000 -0.000978 -0.000978 -0.999999 0.000000
103.89099884 149.02299500 47.50000000 0.834510 0.267848 0.481508 0.000000
106.44499969 229.07000732 132.50000000 -0.543663 -0.797477 0.261648 0.000000
209.48399353 103.89099884 217.50000000 -0.344295 0.795883 -0.498027 0.000000
130.28900146 219.70300293 132.50000000 -0.162309 -0.959337 0.230927 0.000000
205.22599792 100.48400116 107.50000000 -0.782664 -0.187656 0.593482 0.000000
156.68699646 154.98399353 22.50000000 0.000978 0.000978 0.999999 0.000000
126.88300323 245.25000000 167.50000000 -0.479050 -0.692704 0.539140 0.000000
130.28900146 106.44499969 42.50000000 0.636378 0.636378 0.435944 0.000000
157.53900146 130.28900146 227.50000000 0.510528 -0.851844 0.117147 0.000000
213.74200439 162.64799500 227.50000000 -0.000978 -0.000978 -0.999999 0.000000
146.46899414 163.50000000 232.50000000 -0.000978 -0.000978 -0.999999 0.000000
155.83599854 167.75799561 22.50000000 0.000978 0.000978 0.999999 0.000000
120.06999969 233.32800293 152.50000000 -0.332040 -0.846469 0.416220 0.000000
117.51599884 230.34800720 145.00000000 -0.442308 -0.871212 0.212963 0.000000
69.40229797 195.85899353 60.00000000 0.694619 -0.441425 0.568022 0.000000
248.65600586 110.70300293 217.50000000 -0.244994 0.250594 -0.936579 0.000000
187.34399414 185.64100647 227.50000000 -0.244777 -0.668005 -0.702747 0.000000
274.20300293 109.85199738 202.50000000 -0.205894 0.753914 -0.623876 0.000000
86.85929871 145.19099426 75.00000000 0.789672 0.344380 0.507761 0.000000
99.63279724 201.82000732 232.50000000 -0.000978 -0.000978 -0.999999 0.000000
216.72300720 130.28900146 140.00000000 -0.851643 -0.148048 0.502777 0.000000
242.69500732 92.82029724 192.50000000 -0.130825 0.971662 -0.196873 0.000000
91.96869659 126.88300323 87.50000000 0.864896 0.479849 0.147309 0.000000
175.42199707 78.34369659 117.50000000 -0.156964 0.983723 -0.087469 0.000000
161.79699707 114.10900116 222.50000000 0.097244 0.228587 -0.968654 0.000000
184.78900146 109.85199738 62.50000000 0.000978 0.000978 0.999999 0.000000
222.25799561 179.67999268 222.50000000 -0.000978 -0.000978 -0.999999 0.000000
121.77300262 116.23799896 215.00000000 0.706433 0.311994 -0.635305 0.000000
187.34399414 173.71899414 157.50000000 0.577973 0.801994 0.150841 0.000000
93.24600220 272.50000000 160.00000000 -0.422452 -0.242046 0.873469 0.000000
142.21099854 94.94920349 160.00000000 0.000978 0.000978 -0.999999 0.000000
244.39799500 157.53900146 217.50000000 -0.000978 -0.000978 -0.999999 0.000000
214.59399414 191.60099792 162.50000000 0.000978 0.000978 0.999999 0.000000
112.40599823 231.62500000 222.50000000 0.000978 0.000978 -0.999999 0.000000
116.66400146 187.34399414 237.50000000 -0.000978 -0.000978 -0.999999 0.000000
180.53100586 200.54299927 145.00000000 -0.554433 -0.830951 0.046086 0.000000
80.89839935 141.35899353 207.50000000 0.809441 0.529787 -0.253241 0.000000
79.19529724 275.90600586 162.50000000 0.420260 -0.907290 0.014401 0.000000
143.06199646 206.92999268 232.50000000 -0.000978 -0.000978 -0.999999 0.000000
203.09800720 135.39799500 85.00000000 -0.768247 0.528878 -0.360672 0.000000
246.95300293 91.11710358 182.50000000 -0.126466 0.960878 -0.246413 0.000000
125.18000031 195.00799561 237.50000000 -0.000978 -0.000978 -0.999999 0.000000
176.27299500 203.94900513 65.00000000 -0.664647 -0.664647 -0.341305 0.000000
74.93750000 191.60099792 52.50000000 0.900002 -0.149763 0.409351 0.000000
181.38299561 149.87500000 37.50000000 -0.346253 0.577088 0.739648 0.000000
160.94500732 238.43699646 207.50000000 -0.000978 -0.000978 -0.999999 0.000000
238.43699646 161.79699707 172.50000000 -0.984789 -0.014904 0.173112 0.000000
155.83599854 198.41400146 37.50000000 -0.625115 -0.715571 0.311750 0.000000
144.76600647 235.88299561 167.50000000 0.000978 0.000978 0.999999 0.000000
277.60900879 153.28100586 202.50000000 -0.503175 -0.333853 0.797093 0.000000
240.99200439 172.01600647 217.50000000 -0.000978 -0.000978 -0.999999 0.000000
200.96899414 163.50000000 57.50000000 0.000978 0.000978 0.999999 0.000000
196.71099854 171.16400146 227.50000000 -0.507772 -0.844301 -0.171243 0.000000
212.03900146 131.99200439 227.50000000 -0.000978 -0.000978 -0.999999 0.000000
178.82800293 160.94500732 127.50000000 -0.000978 -0.000978 -0.999999 0.000000
205.22599792 167.33200073 65.00000000 -0.461148 -0.645607 0.608715 0.000000
152.85499573 249.50799561 205.00000000 -0.492577 -0.775444 -0.395037 0.000000
228.21899414 160.94500732 162.50000000 -0.000978 -0.000978 0.999999 0.000000
193.30499268 172.01600647 52.50000000 -0.938638 -0.333236 0.088952 0.000000
152.42999268 223.53500366 155.00000000 0.591008 0.001365 0.806665 0.000000
215.44500732 135.39799500 137.50000000 -0.743326 -0.275365 0.609623 0.000000
169.46099854 161.79699707 32.50000000 0.000978 0.000978 0.999999 0.000000
78.34369659 173.71899414 222.50000000 0.269850 0.169504 -0.947866 0.000000
175.42199707 206.50399780 175.00000000 -0.774902 -0.630931 -0.038110 0.000000
199.26600647 81.32420349 120.00000000 -0.057118 0.987330 0.148041 0.000000
155.83599854 81.75000000 77.50000000 0.215445 0.974979 0.054774 0.000000
178.82800293 228.21899414 202.50000000 0.000978 0.000978 -0.999999 0.000000
135.39799500 226.08999634 150.00000000 -0.307028 -0.790637 0.529743 0.000000
185.64100647 198.41400146 177.50000000 0.001381 -0.700167 0.713977 0.000000
60.88669968 184.78900146 115.00000000 0.985809 0.001127 0.167869 0.000000
207.78100586 80.89839935 137.50000000 -0.272944 0.815712 0.510015 0.000000
71.53119659 160.09399414 162.50000000 0.931229 0.340494 -0.129907 0.000000
74.93750000 229.49600220 95.00000000 -0.107204 -0.773927 0.624135 0.000000
165.20300293 114.96099854 42.50000000 -0.819974 0.483171 0.306900 0.000000
235.88299561 129.43699646 152.50000000 0.000978 0.000978 0.999999 0.000000
173.71899414 196.71099854 107.50000000 -0.701936 -0.701936 0.120715 0.000000
258.87500000 168.60899353 202.50000000 -0.606140 -0.606140 0.514965 0.000000
259.72601318 151.57800293 212.50000000 -0.000978 -0.000978 -0.999999 0.000000
108.14800262 235.45700073 145.00000000 -0.491794 -0.867295 0.077062 0.000000
73.66010284 151.57800293 155.00000000 0.935177 0.330783 -0.126596 0.000000
154.98399353 209.91000366 120.00000000 -0.309153 -0.927460 0.210337 0.000000
267.39001465 132.84399414 187.50000000 0.808584 -0.588186 0.015152 0.000000
181.38299561 99.63279724 67.50000000 0.000978 0.000978 0.999999 0.000000
143.91400146 84.30460358 117.50000000 0.424583 0.905343 -0.009145 0.000000
190.32400513 200.96899414 150.00000000 -0.074662 -0.996569 0.035708 0.000000
92.82029724 156.68699646 232.50000000 -0.000978 -0.000978 -0.999999 0.000000
173.71899414 145.61700439 232.50000000 -0.000978 -0.000978 -0.999999 0.000000
240.13999939 93.67179871 197.50000000 -0.156565 0.894861 -0.417985 0.000000
164.35099792 112.40599823 42.50000000 -0.950937 0.257630 0.171304 0.000000
191.60099792 152.42999268 47.50000000 -0.470553 -0.587773 -0.658105 0.000000
188.19500732 134.54699707 232.50000000 0.000978 0.000978 -0.999999 0.000000
205.22599792 163.50000000 77.50000000 -0.946702 -0.295928 -0.127209 0.000000
130.28900146 275.90600586 192.50000000 0.000978 0.000978 0.999999 0.000000
150.72599792 232.47599792 217.50000000 -0.245464 -0.253880 -0.935570 0.000000
164.35099792 110.27700043 45.00000000 -0.814406 0.300873 0.496205 0.000000
158.39100647 207.78100586 227.50000000 -0.319074 -0.227501 -0.920019 0.000000
103.89099884 251.21099854 157.50000000 0.000978 0.000978 0.999999 0.000000
204.37500000 154.13299561 227.50000000 0.000978 0.000978 -0.999999 0.000000
226.51600647 153.28100586 222.50000000 -0.609512 -0.152002 -0.778068 0.000000
172.01600647 181.38299561 37.50000000 -0.064446 -0.266631 0.961642 0.000000
195.00799561 124.32800293 122.50000000 0.540454 -0.540454 0.644841 0.000000
68.97650146 178.82800293 67.50000000 0.849958 0.031582 0.525903 0.000000
193.30499268 200.96899414 147.50000000 -0.090595 -0.829733 0.550759 0.000000
289.95700073 125.18000031 195.00000000 -0.620587 -0.620587 0.479315 0.000000
109.85199738 167.75799561 32.50000000 0.000978 0.000978 0.999999 0.000000
174.57000732 79.62100220 140.00000000 0.135693 0.977237 -0.163080 0.000000
181.38299561 172.86700439 117.50000000 -0.396555 -0.393395 -0.829448 0.000000
80.89839935 236.73399353 207.50000000 0.336539 -0.462939 -0.820018 0.000000
197.56199646 175.42199707 72.50000000 -0.947044 -0.217287 0.236419 0.000000
239.28900146 189.04699707 217.50000000 -0.000978 -0.000978 -0.999999 0.000000
118.36699677 98.35540009 130.00000000 0.509265 0.860482 -0.014859 0.000000
164.35099792 85.58200073 155.00000000 0.297731 0.924532 -0.237900 0.000000
218.85099792 117.51599884 227.50000000 0.109780 0.249266 -0.962193 0.000000
103.03900146 172.01600647 37.50000000 0.282990 -0.070427 0.956533 0.000000
205.22599792 209.48399353 207.50000000 -0.204364 0.576215 0.791335 0.000000
235.88299561 152.42999268 162.50000000 -0.540454 0.540454 0.644841 0.000000
154.13299561 212.03900146 72.50000000 -0.707106 -0.707106 0.001384 0.000000
218.85099792 187.34399414 167.50000000 -0.870854 -0.290285 0.396672 0.000000
126.88300323 253.33999634 210.00000000 -0.094092 -0.571792 -0.814985 0.000000
102.18699646 212.89100647 227.50000000 0.569655 -0.711656 -0.411143 0.000000
74.93750000 204.37500000 57.50000000 0.342376 0.342376 0.874961 0.000000
164.35099792 235.03100586 207.50000000 -0.352185 -0.466924 -0.811140 0.000000
103.89099884 246.95300293 212.50000000 -0.000978 -0.000978 -0.999999 0.000000
133.69500732 212.89100647 52.50000000 0.000978 0.000978 0.999999 0.000000
106.44499969 115.38700104 205.00000000 0.592705 0.720063 -0.360848 0.000000
168.60899353 120.06999969 42.50000000 -0.806435 0.312117 0.502240 0.000000
99.63279724 220.97999573 225.00000000 0.887629 0.295876 0.352949 0.000000
84.73040009 142.21099854 80.00000000 0.855597 0.428566 0.290319 0.000000
193.30499268 134.54699707 127.50000000 0.000978 0.000978 0.999999 0.000000
222.25799561 181.38299561 187.50000000 0.366607 -0.917219 0.155913 0.000000
122.62500000 223.96099854 137.50000000 -0.319519 -0.796412 0.513455 0.000000
124.32800293 212.46499634 50.00000000 -0.751188 -0.277924 0.598727 0.000000
96.22650146 111.12899780 125.00000000 0.283837 0.950120 0.129259 0.000000
238.86300659 152.42999268 165.00000000 -0.540454 0.540454 0.644841 0.000000
97.50389862 112.40599823 155.00000000 0.614199 0.783432 -0.094829 0.000000
216.29699707 204.37500000 182.50000000 -0.915661 -0.380480 0.129614 0.000000
171.16400146 210.33599854 182.50000000 -0.902783 -0.421849 0.083820 0.000000
86.85929871 124.75399780 165.00000000 0.795130 0.567510 -0.213778 0.000000
166.05499268 130.28900146 227.50000000 0.035427 0.245544 -0.968738 0.000000
91.96869659 159.24200439 47.50000000 0.482597 0.593578 0.644023 0.000000
198.41400146 177.55099487 85.00000000 -0.719456 -0.390185 -0.574577 0.000000
148.17199707 138.80499268 227.50000000 -0.000978 -0.000978 -0.999999 0.000000
222.25799561 161.79699707 227.50000000 -0.367505 0.339827 -0.865712 0.000000
106.01899719 211.18699646 50.00000000 0.172038 -0.765798 0.619642 0.000000
75.78900146 221.40600586 207.50000000 0.744655 -0.394422 -0.538443 0.000000
71.53119659 178.82800293 62.50000000 0.766192 0.509168 0.392043 0.000000
184.78900146 187.34399414 47.50000000 -0.877810 -0.395993 0.269516 0.000000
208.63299561 96.22650146 107.50000000 -0.829656 -0.247819 0.500256 0.000000
98.78119659 220.97999573 100.00000000 -0.377718 -0.914107 0.147437 0.000000
136.25000000 222.25799561 77.50000000 0.063650 -0.905999 0.418466 0.000000
172.86700439 202.67199707 47.50000000 -0.153053 -0.954252 0.256863 0.000000
236.73399353 141.35899353 157.50000000 -0.686399 -0.362039 0.630701 0.000000
77.91790009 133.69500732 150.00000000 0.839218 0.463819 -0.283876 0.000000
172.86700439 230.77299500 202.50000000 -0.000978 -0.000978 -0.999999 0.000000
194.15600586 201.82000732 162.50000000 -0.295876 -0.887629 0.352949 0.000000
114.10900116 180.53100586 17.50000000 0.946173 -0.001240 0.323658 0.000000
125.18000031 205.65199280 235.00000000 0.043955 -0.636632 -0.769914 0.000000
94.52339935 275.05499268 182.50000000 0.089238 -0.907485 -0.410496 0.000000
143.91400146 238.86300659 215.00000000 -0.573723 -0.144548 -0.806193 0.000000
221.40600586 185.64100647 222.50000000 -0.000978 -0.000978 -0.999999 0.000000
134.54699707 179.67999268 237.50000000 0.421393 0.637920 -0.644582 0.000000
125.18000031 184.78900146 242.50000000 -0.164788 -0.356336 -0.919712 0.000000
91.11710358 157.96499634 50.00000000 0.523712 0.540552 0.658429 0.000000
170.31199646 220.55499268 172.50000000 -0.760784 -0.270466 0.589963 0.000000
206.07800293 219.27699280 195.00000000 -0.382779 -0.836442 -0.392230 0.000000
114.10900116 181.38299561 17.50000000 0.946173 -0.001240 0.323658 0.000000
154.13299561 250.35899353 202.50000000 -0.822255 -0.529355 -0.208996 0.000000
78.76950073 134.54699707 115.00000000 0.837924 0.532960 0.117629 0.000000
94.52339935 188.19500732 42.50000000 -0.000978 -0.000978 0.999999 0.000000
195.00799561 124.75399780 95.00000000 -0.737313 0.588230 -0.332196 0.000000
211.18699646 158.39100647 152.50000000 -0.000978 -0.000978 0.999999 0.000000
128.58599854 161.79699707 237.50000000 -0.226453 0.620014 -0.751200 0.000000
158.39100647 252.06199646 197.50000000 -0.870699 -0.379692 -0.312598 0.000000
65.99610138 235.88299561 140.00000000 0.927479 -0.254240 0.274125 0.000000
218.85099792 130.28900146 142.50000000 -0.597084 -0.135498 0.790652 0.000000
157.53900146 131.99200439 22.50000000 0.000978 0.000978 0.999999 0.000000
78.34369659 156.26199341 75.00000000 0.699052 0.683483 0.210183 0.000000
143.91400146 224.81199646 222.50000000 -0.000978 -0.000978 -0.999999 0.000000
215.44500732 152.42999268 227.50000000 -0.000978 -0.000978 -0.999999 0.000000
87.71089935 162.64799500 47.50000000 0.508282 0.461924 0.726826 0.000000
84.30460358 238.43699646 207.50000000 0.264576 -0.533849 -0.803122 0.000000
145.61700439 182.23399353 17.50000000 0.554702 -0.741239 0.377983 0.000000
237.58599854 122.62500000 152.50000000 -0.546656 -0.509651 0.664397 0.000000
212.03900146 188.19500732 222.50000000 -0.539598 -0.526150 -0.657267 0.000000
236.73399353 175.42199707 182.50000000 -0.395456 -0.789298 0.469705 0.000000
220.55499268 103.89099884 217.50000000 -0.000978 -0.000978 -0.999999 0.000000
69.82810211 261.00399780 170.00000000 0.828330 -0.555535 -0.072461 0.000000
195.85899353 177.12500000 87.50000000 -0.201467 -0.347210 -0.915891 0.000000
166.05499268 180.53100586 232.50000000 -0.000978 -0.000978 -0.999999 0.000000
157.53900146 186.49200439 27.50000000 0.000978 0.000978 0.999999 0.000000
122.62500000 105.59400177 52.50000000 0.420814 0.385878 0.820984 0.000000
61.31250000 234.17999268 162.50000000 0.957480 -0.272643 0.094327 0.000000
192.87899780 114.10900116 75.00000000 -0.894652 0.443932 0.050231 0.000000
60.03509903 229.92199707 170.00000000 0.973627 -0.129733 0.187672 0.000000
143.91400146 218.00000000 227.50000000 0.391242 -0.919877 -0.027479 0.000000
62.58980179 190.75000000 165.00000000 0.970896 0.238824 0.018002 0.000000
105.16799927 115.81199646 80.00000000 0.680931 0.486857 0.547087 0.000000
229.49600220 177.12500000 180.00000000 -0.411713 -0.715951 0.563832 0.000000
205.22599792 140.50799561 92.50000000 -0.663205 0.666464 -0.340565 0.000000
205.22599792 143.06199646 227.50000000 -0.584844 0.719178 -0.375152 0.000000
200.54299927 189.04699707 160.00000000 -0.247802 -0.677115 0.692899 0.000000
120.92199707 218.85099792 87.50000000 0.240830 -0.967101 -0.081958 0.000000
114.10900116 183.93699646 17.50000000 0.925871 -0.067942 0.371681 0.000000
258.02301025 181.38299561 207.50000000 0.807626 0.462186 -0.366230 0.000000
201.82000732 206.50399780 160.00000000 0.001127 -0.985809 -0.167869 0.000000
95.37490082 164.35099792 42.50000000 0.000978 0.000978 0.999999 0.000000
153.28100586 240.99200439 207.50000000 0.387370 -0.278846 -0.878743 0.000000
166.05499268 201.82000732 212.50000000 -0.835585 -0.475927 0.274394 0.000000
152.42999268 190.75000000 237.50000000 -0.000978 -0.000978 -0.999999 0.000000
189.89799500 184.78900146 227.50000000 -0.064641 -0.354867 -0.932680 0.000000
172.86700439 137.95300293 37.50000000 -0.001381 0.700167 0.713977 0.000000
197.56199646 218.00000000 177.50000000 0.894132 0.389072 0.221698 0.000000
132.84399414 133.69500732 227.50000000 0.193276 0.877857 -0.438191 0.000000
195.00799561 121.77300262 227.50000000 -0.000978 -0.000978 -0.999999 0.000000
118.36699677 269.94500732 172.50000000 0.000978 0.000978 0.999999 0.000000
187.34399414 178.40199280 100.00000000 -0.347729 -0.934771 -0.072719 0.000000
130.28900146 112.40599823 32.50000000 -0.000978 -0.000978 0.999999 0.000000
114.96099854 112.40599823 207.50000000 0.362133 0.897204 -0.252754 0.000000
71.10540009 246.10099792 130.00000000 0.931007 -0.343146 0.124408 0.000000
200.96899414 161.79699707 57.50000000 0.000978 0.000978 0.999999 0.000000
78.34369659 177.12500000 52.50000000 -0.000978 -0.000978 0.999999 0.000000
210.33599854 200.96899414 207.50000000 0.000978 0.000978 0.999999 0.000000
160.09399414 113.25800323 37.50000000 -0.752735 0.500184 0.428026 0.000000
77.49210358 193.30499268 47.50000000 0.720765 0.026695 0.692665 0.000000
281.44100952 129.43699646 205.00000000 -0.412244 -0.001292 -0.911072 0.000000
84.30460358 133.69500732 202.50000000 0.752735 0.500184 -0.428026 0.000000
185.64100647 171.16400146 117.50000000 -0.741434 -0.450805 -0.497042 0.000000
149.02299500 184.78900146 17.50000000 -0.000978 -0.000978 0.999999 0.000000
196.28500366 124.32800293 85.00000000 -0.894257 0.429413 -0.126131 0.000000
120.06999969 289.10501099 175.00000000 -0.108531 -0.939261 0.325592 0.000000
84.30460358 140.50799561 212.50000000 0.812735 0.407166 -0.416746 0.000000
162.64799500 158.39100647 22.50000000 -0.432053 0.438526 0.788052 0.000000
126.03099823 235.03100586 157.50000000 -0.159286 -0.826205 0.540383 0.000000
66.42179871 177.55099487 150.00000000 0.949882 0.288286 -0.120894 0.000000
264.83599854 92.39450073 175.00000000 -0.312109 0.936328 -0.160867 0.000000
189.89799500 189.47300720 225.00000000 0.211532 -0.782822 -0.585187 0.000000
117.51599884 99.20700073 130.00000000 0.509265 0.860482 -0.014859 0.000000
82.17569733 219.70300293 70.00000000 0.585308 -0.762963 0.274413 0.000000
136.25000000 240.13999939 217.50000000 -0.000978 -0.000978 -0.999999 0.000000
265.68701172 101.33599854 157.50000000 0.193810 0.566168 -0.801181 0.000000
86.43350220 173.71899414 230.00000000 0.608912 0.321415 -0.725203 0.000000
83.45310211 124.75399780 145.00000000 0.777484 0.627369 -0.043902 0.000000
188.19500732 173.71899414 152.50000000 0.556177 0.762527 0.330482 0.000000
283.99600220 115.81199646 185.00000000 -0.562573 -0.327227 0.759232 0.000000
83.87889862 258.87500000 195.00000000 0.410816 -0.549404 -0.727589 0.000000
103.03900146 152.42999268 47.50000000 0.910058 0.383555 0.157102 0.000000
276.75799561 132.84399414 192.50000000 0.342376 -0.342376 0.874961 0.000000
111.55500031 267.39001465 197.50000000 0.001377 0.761293 0.648407 0.000000
120.92199707 100.91000366 160.00000000 0.344490 0.935043 -0.083795 0.000000
66.84760284 159.24200439 115.00000000 0.907010 0.361353 0.216231 0.000000
87.71089935 225.66400146 97.50000000 -0.300526 -0.924367 0.235009 0.000000
70.25389862 162.64799500 80.00000000 0.698750 0.481954 0.528648 0.000000
107.29699707 275.05499268 192.50000000 -0.000978 -0.000978 0.999999 0.000000
189.04699707 104.74199677 97.50000000 -0.943778 0.193701 -0.267885 0.000000
154.98399353 196.71099854 232.50000000 0.000978 0.000978 -0.999999 0.000000
93.24600220 253.76499939 150.00000000 -0.611438 -0.510374 0.604700 0.000000
197.56199646 113.25800323 117.50000000 0.000000 0.000000 0.000000 0.000000
108.14800262 251.21099854 157.50000000 -0.617245 0.240302 0.749175 0.000000
207.78100586 129.43699646 132.50000000 -0.664607 -0.300924 0.683917 0.000000
220.55499268 88.13670349 180.00000000 0.001314 0.889912 -0.456129 0.000000
197.56199646 168.18400574 60.00000000 -0.520036 -0.346154 0.780859 0.000000
142.21099854 131.99200439 227.50000000 0.283766 -0.086814 -0.954956 0.000000
236.73399353 187.34399414 202.50000000 -0.319869 -0.937830 0.134754 0.000000
114.96099854 288.67999268 172.50000000 0.018172 -0.666766 0.745045 0.000000
251.21099854 149.87500000 217.50000000 -0.000978 -0.000978 -0.999999 0.000000
192.45300293 175.42199707 87.50000000 -0.000978 -0.000978 -0.999999 0.000000
157.53900146 104.74199677 212.50000000 0.087588 0.925742 -0.367871 0.000000
211.18699646 103.46499634 115.00000000 -0.664647 -0.664647 0.341305 0.000000
152.42999268 143.06199646 227.50000000 0.579588 -0.459328 -0.673124 0.000000
103.03900146 272.50000000 167.50000000 0.000978 0.000978 0.999999 0.000000
147.74600220 211.18699646 110.00000000 -0.304697 -0.946025 0.110436 0.000000
240.13999939 139.65600586 157.50000000 -0.442636 -0.883830 0.151390 0.000000
211.18699646 82.60150146 127.50000000 -0.092245 0.989004 0.115598 0.000000
260.57800293 164.77699280 200.00000000 -0.691103 -0.451299 0.564540 0.000000
134.54699707 220.12899780 90.00000000 0.056077 -0.937666 -0.342985 0.000000
126.03099823 126.88300323 27.50000000 0.539055 0.742225 0.398147 0.000000
261.00399780 153.28100586 190.00000000 -0.727185 -0.648993 0.223629 0.000000
119.21900177 211.18699646 232.50000000 -0.000978 -0.000978 -0.999999 0.000000
211.18699646 123.47599792 132.50000000 -0.684769 -0.584803 0.434853 0.000000
105.59400177 182.23399353 32.50000000 0.821445 0.205742 0.531882 0.000000
61.31250000 235.88299561 167.50000000 0.981011 -0.183266 0.063484 0.000000
103.03900146 162.64799500 237.50000000 -0.000978 -0.000978 -0.999999 0.000000
175.42199707 116.23799896 50.00000000 -0.290787 0.660295 0.692426 0.000000
184.78900146 149.87500000 232.50000000 -0.000978 -0.000978 -0.999999 0.000000
269.51901245 98.78119659 190.00000000 -0.369849 0.858854 -0.354374 0.000000
150.30099487 82.60150146 85.00000000 0.514884 0.855349 0.057209 0.000000
171.16400146 209.48399353 197.50000000 -0.642737 -0.416866 0.642737 0.000000
133.69500732 259.72601318 172.50000000 -0.489862 0.244163 0.836911 0.000000
143.91400146 188.19500732 17.50000000 -0.618029 -0.326047 0.715356 0.000000
101.33599854 112.40599823 97.50000000 0.815712 0.498229 0.293908 0.000000
177.12500000 158.39100647 127.50000000 -0.000978 -0.000978 -0.999999 0.000000
74.08589935 160.94500732 217.50000000 0.861357 0.289159 -0.417674 0.000000
172.01600647 209.48399353 167.50000000 -0.880279 -0.432030 -0.196109 0.000000
80.89839935 137.10099792 97.50000000 0.767977 0.607917 0.201613 0.000000
114.96099854 189.89799500 22.50000000 0.525924 -0.768658 0.364101 0.000000
219.70300293 97.92960358 207.50000000 -0.015170 0.804026 -0.594400 0.000000
189.04699707 171.16400146 232.50000000 0.000978 0.000978 -0.999999 0.000000
158.39100647 230.77299500 167.50000000 -0.470867 -0.741823 0.477476 0.000000
160.94500732 170.31199646 142.50000000 0.238684 0.968481 -0.071230 0.000000
212.89100647 166.90600586 227.50000000 -0.000978 -0.000978 -0.999999 0.000000
159.66799927 86.85929871 155.00000000 0.255747 0.941424 -0.219804 0.000000
114.10900116 251.21099854 162.50000000 -0.246555 -0.289310 0.924938 0.000000
88.56250000 258.02301025 197.50000000 0.229857 -0.617644 -0.752118 0.000000
200.11700439 179.67999268 157.50000000 -0.475514 0.047963 0.878400 0.000000
91.11710358 168.60899353 232.50000000 0.362979 -0.081704 -0.928208 0.000000
215.44500732 103.89099884 122.50000000 -0.850448 -0.281432 0.444448 0.000000
208.63299561 200.11700439 207.50000000 0.270476 0.907923 0.320185 0.000000
178.82800293 189.47300720 100.00000000 -0.301036 0.716369 -0.629439 0.000000
154.13299561 248.65600586 202.50000000 -0.701995 -0.673727 -0.230857 0.000000
78.34369659 270.37100220 150.00000000 0.049166 -0.818966 0.571731 0.000000
211.18699646 122.62500000 132.50000000 -0.684769 -0.584803 0.434853 0.000000
282.29299927 114.96099854 200.00000000 -0.518484 0.609683 -0.599550 0.000000
70.67960358 243.12100220 125.00000000 0.834065 -0.455371 0.311405 0.000000
94.52339935 222.25799561 87.50000000 0.241828 -0.566345 0.787891 0.000000
182.23399353 108.14800262 62.50000000 -0.363928 -0.104953 0.925495 0.000000
75.78900146 264.83599854 182.50000000 0.437690 -0.587470 -0.680666 0.000000
204.80099487 153.28100586 90.00000000 -0.942592 -0.329713 -0.053013 0.000000
82.60150146 178.82800293 227.50000000 -0.000978 -0.000978 -0.999999 0.000000
102.18699646 185.64100647 237.50000000 0.000978 0.000978 -0.999999 0.000000
176.27299500 170.31199646 32.50000000 -0.390185 -0.574577 0.719456 0.000000
144.76600647 86.85929871 132.50000000 0.489185 0.827733 -0.274876 0.000000
253.76499939 118.36699677 217.50000000 -0.096721 0.142096 -0.985116 0.000000
209.05799866 124.32800293 130.00000000 -0.772156 -0.322668 0.547412 0.000000
280.16400146 110.70300293 197.50000000 -0.518484 0.609683 -0.599550 0.000000
242.69500732 113.25800323 222.50000000 -0.250635 0.442029 -0.861274 0.000000
81.75000000 199.26600647 47.50000000 0.000978 0.000978 0.999999 0.000000
69.82810211 258.02301025 177.50000000 0.891798 -0.422128 -0.162800 0.000000
105.59400177 265.68701172 162.50000000 -0.000978 -0.000978 0.999999 0.000000
252.06199646 89.41400146 172.50000000 -0.152776 0.918060 -0.365822 0.000000
174.57000732 171.16400146 157.50000000 -0.639877 -0.261984 0.722442 0.000000
171.16400146 197.56199646 82.50000000 -0.343419 -0.496760 -0.797052 0.000000
117.51599884 249.50799561 162.50000000 -0.238698 -0.331284 0.912839 0.000000
