184.65800476 227.19700623 342.50000000 0.000978 0.000978 0.999999 0.000000
153.72099304 310.34201050 377.50000000 0.000978 0.000978 0.999999 0.000000
99.58010101 294.87298584 412.50000000 0.925412 0.163308 -0.341970 0.000000
212.69500732 223.81300354 340.00000000 -0.084782 -0.888128 0.451708 0.000000
174.02299500 327.74398804 402.50000000 -0.725368 -0.120647 0.677706 0.000000
96.19629669 297.77301025 400.00000000 0.982047 0.001143 -0.188635 0.000000
194.32600403 217.52900696 407.50000000 -0.000978 -0.000978 -0.999999 0.000000
96.19629669 285.20498657 400.00000000 0.978537 0.180483 -0.099450 0.000000
158.55499268 321.94299316 447.50000000 -0.000978 -0.000978 -0.999999 0.000000
207.86099243 241.69900513 422.50000000 -0.500743 0.738720 -0.451164 0.000000
263.93600464 234.93200684 407.50000000 -0.261258 0.415295 -0.871364 0.000000
167.25599670 221.88000488 335.00000000 -0.800879 0.237011 0.549926 0.000000
182.72500610 272.15301514 335.00000000 -0.082634 -0.766899 0.636425 0.000000
116.98200226 275.53698730 442.50000000 0.669863 0.689048 -0.276578 0.000000
213.66200256 196.25999451 327.50000000 -0.117021 0.748048 -0.653246 0.000000
206.89500427 257.16799927 422.50000000 -0.000978 -0.000978 -0.999999 0.000000
202.06100464 248.46699524 367.50000000 0.000978 0.000978 0.999999 0.000000
142.11900330 212.69500732 307.50000000 0.000978 0.000978 0.999999 0.000000
246.05000305 268.76998901 390.00000000 -0.491810 0.163937 -0.855130 0.000000
258.13500977 190.45899963 372.50000000 -0.090667 0.827515 -0.554075 0.000000
234.93200684 217.52900696 407.50000000 -0.279310 0.500886 -0.819206 0.000000
197.22700500 318.07598877 407.50000000 -0.593929 -0.174685 0.785323 0.000000
156.62100220 267.80300903 452.50000000 -0.000978 -0.000978 -0.999999 0.000000
233.96499634 254.26800537 412.50000000 -0.352975 -0.514150 -0.781702 0.000000
166.28900146 220.42999268 332.50000000 -0.305333 0.372172 0.876504 0.000000
117.94899750 349.01400757 417.50000000 0.000978 -0.999999 0.000978 0.000000
174.02299500 195.29299927 382.50000000 0.351259 0.866643 -0.354327 0.000000
158.55499268 206.89500427 387.50000000 0.455412 0.369123 -0.810153 0.000000
150.82000732 217.52900696 317.50000000 -0.820541 -0.484794 0.302800 0.000000
166.28900146 286.17199707 357.50000000 0.000978 0.000978 0.999999 0.000000
188.52499390 309.37500000 392.50000000 0.000978 0.000978 0.999999 0.000000
246.53300476 270.70300293 382.50000000 -0.700489 -0.700489 -0.136498 0.000000
262.96899414 253.30099487 412.50000000 -0.000978 -0.000978 -0.999999 0.000000
192.39300537 251.36700439 427.50000000 0.582177 -0.514678 0.629426 0.000000
111.18199921 258.13500977 287.50000000 -0.000978 -0.000978 0.999999 0.000000
166.28900146 343.21301270 437.50000000 -0.000978 -0.000978 -0.999999 0.000000
167.25599670 332.57800293 402.50000000 -0.223595 -0.256926 0.940210 0.000000
142.11900330 367.86599731 425.00000000 0.000978 0.000978 -0.999999 0.000000
163.38900757 320.97698975 447.50000000 -0.000978 -0.000978 -0.999999 0.000000
111.18199921 278.43798828 307.50000000 0.000978 0.000978 0.999999 0.000000
268.76998901 195.29299927 372.50000000 -0.000978 -0.000978 -0.999999 0.000000
176.92399597 221.39599609 407.50000000 -0.000978 -0.000978 -0.999999 0.000000
240.73199463 179.82400513 352.50000000 -0.001266 0.930643 -0.365926 0.000000
153.72099304 244.11599731 315.00000000 -0.393340 0.390181 0.832492 0.000000
148.88699341 371.73300171 420.00000000 0.494119 -0.866458 0.071388 0.000000
187.55900574 331.61099243 432.50000000 -0.000978 -0.000978 -0.999999 0.000000
135.35200500 280.85400391 335.00000000 -0.504857 -0.774331 0.381484 0.000000
150.82000732 365.44900513 392.50000000 -0.189917 -0.847896 0.494980 0.000000
192.39300537 204.96099854 342.50000000 0.000978 0.000978 0.999999 0.000000
107.31400299 259.10198975 287.50000000 0.000978 0.000978 0.999999 0.000000
169.18899536 277.47100830 447.50000000 0.136467 -0.685335 -0.715327 0.000000
266.83599854 257.16799927 397.50000000 -0.434596 -0.725428 0.533743 0.000000
215.59599304 215.11199951 340.00000000 -0.079252 0.799726 0.595111 0.000000
158.55499268 242.66600037 322.50000000 -0.834186 0.287382 0.470686 0.000000
253.30099487 257.65100098 385.00000000 -0.408770 -0.819131 0.402408 0.000000
95.71289825 302.60699463 352.50000000 0.956248 -0.155175 0.248014 0.000000
101.51399994 262.00201416 332.50000000 0.943177 0.317046 0.099491 0.000000
203.02699280 262.00201416 422.50000000 -0.000978 -0.000978 -0.999999 0.000000
240.73199463 200.12699890 337.50000000 0.425690 0.504583 -0.751122 0.000000
143.08599854 216.56199646 392.50000000 0.226128 0.816831 -0.530710 0.000000
216.56199646 193.35899353 322.50000000 0.469022 0.882306 -0.039425 0.000000
102.48000336 267.31900024 320.00000000 0.933019 0.001263 0.359825 0.000000
171.12300110 235.41499329 425.00000000 -0.432251 0.649211 -0.625846 0.000000
120.36599731 259.10198975 290.00000000 0.057027 0.285136 0.956789 0.000000
122.78299713 216.07899475 335.00000000 0.811518 0.580470 0.067032 0.000000
215.59599304 213.66200256 342.50000000 0.210166 0.845199 0.491395 0.000000
179.82400513 266.83599854 332.50000000 -0.553146 -0.066491 0.830427 0.000000
256.20098877 218.49600220 362.50000000 0.001263 -0.933019 0.359825 0.000000
201.09399414 208.82800293 407.50000000 0.290715 0.653707 -0.698679 0.000000
238.79899597 192.39300537 377.50000000 -0.235276 0.854583 -0.462962 0.000000
143.08599854 334.51199341 447.50000000 0.174036 -0.498307 -0.849354 0.000000
198.19299316 255.23399353 367.50000000 0.000978 0.000978 0.999999 0.000000
109.73100281 235.89799500 355.00000000 0.800978 0.558071 0.216772 0.000000
182.72500610 285.20498657 442.50000000 -0.000978 -0.000978 -0.999999 0.000000
226.71400452 212.69500732 340.00000000 -0.205328 -0.619073 0.758017 0.000000
158.55499268 319.52600098 390.00000000 -0.412821 -0.611770 0.674771 0.000000
221.39599609 267.80300903 362.50000000 0.050652 -0.983591 0.173159 0.000000
236.86500549 249.43400574 412.50000000 -0.446663 0.070092 -0.891952 0.000000
210.76199341 269.73599243 362.50000000 -0.396313 -0.878519 0.266720 0.000000
247.50000000 221.39599609 352.50000000 -0.962474 -0.064333 0.263640 0.000000
113.11499786 284.23800659 317.50000000 -0.345253 -0.788461 0.509047 0.000000
103.44699860 292.93899536 327.50000000 -0.000978 -0.000978 0.999999 0.000000
103.93099976 282.30499268 425.00000000 0.913435 0.132889 -0.384678 0.000000
141.15199280 275.53698730 327.50000000 0.270806 -0.809289 0.521263 0.000000
171.12300110 237.83200073 427.50000000 -0.432251 0.649211 -0.625846 0.000000
127.61699677 355.29800415 430.00000000 0.652721 0.001380 -0.757597 0.000000
173.05700684 215.59599304 342.50000000 -0.000978 -0.000978 0.999999 0.000000
108.28099823 319.04299927 432.50000000 0.756665 -0.570310 -0.319695 0.000000
147.91999817 296.80700684 452.50000000 -0.000978 -0.000978 -0.999999 0.000000
227.19700623 219.46299744 412.50000000 -0.000978 -0.000978 -0.999999 0.000000
207.86099243 208.82800293 337.50000000 0.453716 0.050413 0.889719 0.000000
101.99700165 250.39999390 360.00000000 0.872490 0.485331 -0.056691 0.000000
153.72099304 230.09800720 422.50000000 -0.310258 0.933557 -0.179477 0.000000
279.40399170 250.39999390 407.50000000 -0.369548 -0.037869 -0.928440 0.000000
192.39300537 286.17199707 372.50000000 -0.827162 -0.551924 0.105749 0.000000
118.43299866 324.84399414 365.00000000 -0.530534 -0.390146 0.752542 0.000000
124.71700287 358.19799805 405.00000000 0.000978 0.000978 -0.999999 0.000000
193.35899353 195.29299927 392.50000000 -0.001377 0.651358 -0.758770 0.000000
158.55499268 349.01400757 437.50000000 0.103405 -0.398453 -0.911341 0.000000
230.09800720 249.43400574 357.50000000 0.582974 0.430171 0.689271 0.000000
220.42999268 179.34100342 345.00000000 0.150802 0.983231 -0.102546 0.000000
180.79100037 219.46299744 407.50000000 -0.000978 -0.000978 -0.999999 0.000000
121.33300018 220.42999268 320.00000000 0.000978 0.000978 -0.999999 0.000000
106.34799957 296.80700684 432.50000000 0.545617 0.354570 -0.759330 0.000000
112.14800262 262.00201416 287.50000000 -0.303002 -0.329869 0.894079 0.000000
155.65400696 277.47100830 342.50000000 -0.247462 -0.742386 0.622596 0.000000
111.18199921 287.13900757 437.50000000 -0.388437 -0.545779 -0.742456 0.000000
179.82400513 248.46699524 352.50000000 -0.673635 -0.466363 0.573342 0.000000
236.86500549 273.60400391 402.50000000 -0.865876 -0.433694 -0.249336 0.000000
179.34100342 345.14599609 415.00000000 -0.631457 -0.580941 0.513585 0.000000
138.25199890 206.89500427 372.50000000 0.447994 0.801250 -0.396611 0.000000
185.14199829 326.77700806 405.00000000 -0.544453 -0.387493 0.743922 0.000000
206.89500427 241.21600342 420.00000000 -0.181075 0.842525 -0.507311 0.000000
232.03100586 256.20098877 412.50000000 -0.000978 -0.000978 -0.999999 0.000000
162.42199707 364.48199463 402.50000000 -0.979922 -0.195510 0.039102 0.000000
170.15600586 318.07598877 447.50000000 -0.560779 -0.169888 -0.810349 0.000000
204.96099854 233.96499634 367.50000000 0.338468 -0.188352 0.921935 0.000000
146.95300293 221.39599609 312.50000000 -0.378731 0.059800 0.923573 0.000000
214.62899780 237.83200073 372.50000000 0.653921 -0.653921 -0.380493 0.000000
213.66200256 286.17199707 417.50000000 -0.888984 0.025476 -0.457230 0.000000
124.71700287 283.27099609 327.50000000 -0.368964 -0.696932 0.614940 0.000000
189.49200439 206.89500427 402.50000000 -0.000978 -0.000978 -0.999999 0.000000
193.35899353 189.49200439 382.50000000 0.234454 0.933603 -0.270955 0.000000
116.01599884 262.48498535 290.00000000 -0.485368 -0.602931 0.633161 0.000000
123.75000000 227.68099976 415.00000000 0.395213 0.795266 -0.459738 0.000000
186.59199524 336.44500732 417.50000000 -0.584042 -0.584042 0.563728 0.000000
162.42199707 343.21301270 402.50000000 0.000978 0.000978 0.999999 0.000000
133.41799927 364.96600342 405.00000000 0.595204 -0.764813 0.246562 0.000000
167.25599670 291.00601196 447.50000000 -0.279273 -0.225945 -0.933250 0.000000
239.76600647 212.21200562 405.00000000 -0.194567 0.776735 -0.599021 0.000000
201.09399414 232.99800110 347.50000000 0.000978 0.000978 0.999999 0.000000
178.85699463 308.40798950 392.50000000 -0.807057 -0.577729 -0.122014 0.000000
108.28099823 263.93600464 287.50000000 0.101122 -0.414185 0.904558 0.000000
199.16000366 301.15701294 390.00000000 0.079055 -0.582135 0.809240 0.000000
186.59199524 326.77700806 432.50000000 -0.000978 -0.000978 -0.999999 0.000000
181.75799561 314.20901489 397.50000000 -0.000978 -0.000978 0.999999 0.000000
123.75000000 340.31201172 372.50000000 -0.000978 -0.000978 0.999999 0.000000
232.03100586 193.35899353 332.50000000 0.250896 0.642232 -0.724286 0.000000
236.86500549 193.35899353 332.50000000 0.091145 0.315704 -0.944470 0.000000
166.28900146 243.63299561 437.50000000 -0.430457 0.590008 -0.683080 0.000000
222.36300659 191.42599487 377.50000000 0.000978 0.000978 -0.999999 0.000000
250.39999390 204.96099854 397.50000000 0.000978 0.999999 0.000978 0.000000
262.00201416 203.99400330 387.50000000 -0.442992 0.820884 -0.360427 0.000000
186.59199524 241.69900513 422.50000000 -0.181608 0.517808 -0.835998 0.000000
137.28500366 272.63699341 452.50000000 -0.000978 -0.000978 -0.999999 0.000000
247.50000000 262.48498535 395.00000000 -0.130533 -0.927468 0.350377 0.000000
166.28900146 218.49600220 402.50000000 0.236417 0.621574 -0.746828 0.000000
232.51499939 272.63699341 400.00000000 0.000978 0.000978 -0.999999 0.000000
211.72900391 231.06399536 347.50000000 -0.067108 -0.442367 0.894320 0.000000
109.24800110 265.38598633 290.00000000 -0.428289 -0.668264 0.608270 0.000000
110.21499634 265.38598633 290.00000000 -0.405539 -0.700175 0.587617 0.000000
242.66600037 250.39999390 357.50000000 0.000978 0.000978 0.999999 0.000000
182.72500610 253.78399658 435.00000000 -0.398411 0.489476 -0.775681 0.000000
158.55499268 246.53300476 442.50000000 -0.000978 -0.000978 -0.999999 0.000000
155.65400696 247.50000000 447.50000000 -0.000978 -0.000978 -0.999999 0.000000
167.25599670 209.79499817 337.50000000 0.000978 0.000978 0.999999 0.000000
260.06799316 250.39999390 412.50000000 -0.000978 -0.000978 -0.999999 0.000000
255.23399353 213.66200256 357.50000000 -0.226342 -0.442190 0.867892 0.000000
160.48800659 301.64099121 372.50000000 -0.881057 -0.441257 0.170386 0.000000
149.85400391 243.63299561 442.50000000 -0.000978 -0.000978 -0.999999 0.000000
245.56599426 189.49200439 372.50000000 -0.000978 -0.000978 -0.999999 0.000000
155.17100525 194.32600403 325.00000000 -0.855992 0.141450 0.497263 0.000000
164.35499573 199.16000366 382.50000000 0.191840 0.465471 -0.864022 0.000000
161.45500183 354.81399536 397.50000000 -0.601587 -0.037862 0.797909 0.000000
160.00500488 318.07598877 390.00000000 -0.305168 -0.663619 0.682995 0.000000
258.13500977 191.90899658 350.00000000 -0.444867 -0.444867 0.777295 0.000000
135.35200500 243.63299561 442.50000000 0.343028 0.127098 -0.930687 0.000000
183.69099426 281.33801270 352.50000000 0.547250 -0.821621 -0.159552 0.000000
177.89100647 226.22999573 412.50000000 0.000978 0.000978 -0.999999 0.000000
269.73599243 250.39999390 412.50000000 -0.000978 -0.000978 -0.999999 0.000000
123.75000000 322.91000366 367.50000000 -0.833585 0.434845 0.340655 0.000000
277.47100830 196.74299622 370.00000000 -0.584042 0.584042 -0.563728 0.000000
144.05299377 331.61099243 387.50000000 -0.561354 -0.713698 0.418946 0.000000
145.02000427 347.07998657 387.50000000 -0.000978 -0.000978 0.999999 0.000000
222.36300659 263.45199585 410.00000000 -0.653921 -0.653921 -0.380493 0.000000
237.83200073 271.67001343 402.50000000 -0.865876 -0.433694 -0.249336 0.000000
103.93099976 262.00201416 320.00000000 0.975963 0.211640 0.052003 0.000000
210.76199341 245.56599426 422.50000000 -0.572662 0.379040 -0.726903 0.000000
156.62100220 313.24200439 382.50000000 0.000978 0.000978 0.999999 0.000000
148.88699341 261.03500366 452.50000000 -0.000978 -0.000978 -0.999999 0.000000
203.02699280 237.83200073 417.50000000 -0.282775 0.242987 -0.927899 0.000000
103.44699860 304.54098511 337.50000000 -0.320201 -0.932879 0.164952 0.000000
206.41099548 277.47100830 425.00000000 -0.757934 -0.076808 -0.647794 0.000000
176.92399597 244.60000610 342.50000000 -0.725374 -0.307198 0.616005 0.000000
198.19299316 277.47100830 352.50000000 -0.437939 -0.877353 0.196114 0.000000
274.57000732 201.09399414 382.50000000 -0.166262 0.481131 -0.860738 0.000000
100.54699707 270.70300293 412.50000000 0.000978 0.000978 -0.999999 0.000000
172.08999634 268.76998901 337.50000000 -0.341366 0.081025 0.936432 0.000000
220.42999268 262.00201416 417.50000000 -0.199503 -0.685116 -0.700581 0.000000
193.35899353 198.67700195 395.00000000 -0.046850 0.773740 -0.631769 0.000000
150.82000732 234.93200684 437.50000000 -0.311283 0.708047 -0.633855 0.000000
233.96499634 267.31900024 360.00000000 -0.176939 -0.878847 0.443080 0.000000
118.91600037 204.96099854 292.50000000 0.653921 0.653921 -0.380493 0.000000
179.82400513 257.16799927 362.50000000 -0.584042 0.584042 0.563728 0.000000
175.95700073 232.99800110 337.50000000 0.000978 0.000978 0.999999 0.000000
94.26270294 284.23800659 385.00000000 0.946675 0.316419 0.060701 0.000000
188.52499390 267.80300903 437.50000000 -0.456831 0.058990 -0.887596 0.000000
124.71700287 346.11300659 432.50000000 0.435579 -0.359551 -0.825224 0.000000
270.70300293 252.81700134 395.00000000 -0.528666 -0.626629 0.572580 0.000000
215.59599304 180.79100037 357.50000000 0.001143 0.982047 -0.188635 0.000000
176.44000244 255.23399353 340.00000000 -0.331315 0.447510 0.830642 0.000000
105.86399841 238.79899597 370.00000000 0.933021 0.328412 0.147030 0.000000
170.15600586 291.97299194 367.50000000 0.139214 -0.520220 0.842610 0.000000
163.38900757 346.11300659 437.50000000 0.000978 0.000978 -0.999999 0.000000
117.94899750 340.79598999 430.00000000 0.388313 -0.768502 -0.508544 0.000000
248.46699524 225.74699402 410.00000000 0.001334 0.865851 -0.500299 0.000000
122.78299713 290.03900146 447.50000000 0.292621 -0.003673 -0.956221 0.000000
145.02000427 266.83599854 452.50000000 -0.000978 -0.000978 -0.999999 0.000000
226.22999573 212.69500732 407.50000000 0.000978 0.000978 -0.999999 0.000000
145.02000427 334.51199341 447.50000000 -0.115878 -0.256494 -0.959574 0.000000
207.86099243 200.12699890 397.50000000 -0.105281 0.843690 -0.526405 0.000000
247.50000000 192.87600708 340.00000000 -0.542152 -0.676431 0.498511 0.000000
116.98200226 288.10501099 442.50000000 0.233846 -0.698400 -0.676427 0.000000
184.65800476 221.39599609 407.50000000 -0.000978 -0.000978 -0.999999 0.000000
150.82000732 257.16799927 312.50000000 0.000978 0.000978 0.999999 0.000000
272.63699341 203.02699280 362.50000000 -0.383865 -0.195554 0.902445 0.000000
214.62899780 294.87298584 412.50000000 -0.787135 -0.097844 -0.608971 0.000000
187.55900574 239.76600647 417.50000000 -0.000978 -0.000978 -0.999999 0.000000
248.46699524 185.14199829 335.00000000 0.756480 0.566150 -0.327432 0.000000
169.18899536 224.29699707 407.50000000 0.269588 0.334407 -0.903047 0.000000
104.41400146 295.83999634 427.50000000 0.862632 -0.045547 -0.503777 0.000000
186.59199524 267.80300903 332.50000000 -0.001381 0.719425 0.694569 0.000000
119.88300323 336.44500732 367.50000000 -0.707402 -0.107809 0.698541 0.000000
134.38499451 341.27899170 442.50000000 -0.000978 -0.000978 -0.999999 0.000000
182.72500610 262.96899414 437.50000000 -0.915283 0.234947 -0.327196 0.000000
119.88300323 300.67401123 442.50000000 0.369203 0.253549 -0.894093 0.000000
236.86500549 206.89500427 342.50000000 0.000978 0.000978 0.999999 0.000000
149.85400391 366.89898682 400.00000000 -0.001146 -0.981965 0.189060 0.000000
134.38499451 306.95800781 365.00000000 -0.544370 0.001351 0.838844 0.000000
189.49200439 221.39599609 407.50000000 -0.000978 -0.000978 -0.999999 0.000000
147.91999817 203.99400330 377.50000000 0.236223 0.764987 -0.599161 0.000000
237.83200073 207.86099243 342.50000000 0.000978 0.000978 0.999999 0.000000
238.79899597 243.63299561 357.50000000 -0.000978 -0.000978 0.999999 0.000000
131.48399353 304.05801392 360.00000000 -0.743447 -0.606538 0.281778 0.000000
131.48399353 302.60699463 357.50000000 -0.419727 -0.481788 0.769227 0.000000
120.84999847 246.05000305 435.00000000 0.515126 0.025961 -0.856721 0.000000
197.22700500 267.80300903 432.50000000 -0.935587 0.291412 -0.199387 0.000000
147.91999817 262.96899414 452.50000000 -0.000978 -0.000978 -0.999999 0.000000
261.03500366 218.49600220 362.50000000 0.015650 -0.998461 -0.053210 0.000000
283.75500488 233.96499634 400.00000000 -0.700489 0.700489 -0.136498 0.000000
244.60000610 238.79899597 357.50000000 0.000978 0.000978 0.999999 0.000000
168.22300720 197.22700500 382.50000000 0.266022 0.558804 -0.785474 0.000000
131.48399353 317.10900879 447.50000000 -0.000978 -0.000978 -0.999999 0.000000
99.09670258 255.23399353 385.00000000 0.999999 0.000978 0.000978 0.000000
119.39900208 340.31201172 370.00000000 -0.725428 -0.434596 0.533743 0.000000
159.52099609 297.29000854 370.00000000 -0.388711 -0.807816 0.443099 0.000000
192.39300537 330.16101074 415.00000000 -0.794496 -0.578782 0.183813 0.000000
231.06399536 195.29299927 382.50000000 -0.134282 0.816019 -0.562212 0.000000
195.29299927 279.40399170 357.50000000 -0.385255 -0.882937 0.268329 0.000000
252.33399963 232.03100586 412.50000000 -0.000978 -0.000978 -0.999999 0.000000
248.46699524 262.96899414 387.50000000 -0.933557 -0.310258 -0.179477 0.000000
183.69099426 223.33000183 342.50000000 0.000978 0.000978 0.999999 0.000000
112.14800262 300.19000244 340.00000000 -0.653921 -0.653921 0.380493 0.000000
207.86099243 219.46299744 337.50000000 0.000978 0.000978 0.999999 0.000000
262.96899414 227.19700623 372.50000000 0.000978 0.000978 0.999999 0.000000
178.85699463 276.50399780 342.50000000 0.000978 0.000978 0.999999 0.000000
114.56500244 291.00601196 330.00000000 -0.584042 -0.584042 0.563728 0.000000
184.65800476 320.97698975 437.50000000 -0.000978 -0.000978 -0.999999 0.000000
231.06399536 242.66600037 417.50000000 -0.000978 -0.000978 -0.999999 0.000000
233.96499634 190.45899963 327.50000000 0.706895 0.354264 -0.612207 0.000000
248.46699524 267.31900024 370.00000000 -0.681886 -0.480838 0.551205 0.000000
274.57000732 247.50000000 412.50000000 -0.000978 -0.000978 -0.999999 0.000000
148.88699341 324.84399414 447.50000000 -0.000978 -0.000978 -0.999999 0.000000
189.49200439 293.42300415 380.00000000 -0.512853 -0.559934 0.650735 0.000000
124.23300171 218.49600220 375.00000000 0.621062 0.772976 -0.129574 0.000000
179.82400513 294.87298584 377.50000000 -0.152476 -0.741246 0.653686 0.000000
210.27799988 222.36300659 415.00000000 0.997914 0.035070 -0.054200 0.000000
178.85699463 271.67001343 332.50000000 -0.162472 -0.371566 0.914080 0.000000
129.55099487 299.22399902 355.00000000 -0.423643 -0.404459 0.810518 0.000000
112.14800262 324.84399414 432.50000000 -0.000978 -0.000978 -0.999999 0.000000
171.12300110 358.68200684 427.50000000 0.000978 0.000978 -0.999999 0.000000
177.89100647 208.82800293 342.50000000 0.000978 0.000978 0.999999 0.000000
235.89799500 237.83200073 412.50000000 0.000978 0.000978 -0.999999 0.000000
170.15600586 262.96899414 447.50000000 -0.161261 0.057677 -0.985225 0.000000
128.58399963 213.66200256 292.50000000 0.000978 0.000978 0.999999 0.000000
137.28500366 363.99899292 425.00000000 0.189006 -0.947750 -0.256994 0.000000
261.03500366 252.81700134 385.00000000 -0.390630 -0.604900 0.693905 0.000000
127.61699677 217.04600525 380.00000000 0.472501 0.849286 -0.235491 0.000000
105.38099670 331.12799072 370.00000000 0.700489 -0.700489 0.136498 0.000000
162.42199707 297.77301025 372.50000000 -0.493726 -0.540588 0.681175 0.000000
264.90200806 187.55900574 362.50000000 -0.349298 0.904666 -0.244070 0.000000
152.75399780 362.54901123 432.50000000 -0.000978 -0.000978 -0.999999 0.000000
136.31799316 301.64099121 362.50000000 -0.482903 -0.620875 0.617510 0.000000
122.78299713 295.35598755 345.00000000 -0.460083 -0.650808 0.603964 0.000000
272.63699341 235.89799500 387.50000000 -0.176525 -0.351638 0.919342 0.000000
128.58399963 214.62899780 292.50000000 0.000978 0.000978 0.999999 0.000000
107.31400299 320.97698975 357.50000000 -0.020676 -0.825671 0.563772 0.000000
170.15600586 319.52600098 445.00000000 -0.607528 -0.246465 -0.755093 0.000000
184.65800476 295.83999634 377.50000000 0.000978 0.000978 0.999999 0.000000
280.37100220 220.42999268 397.50000000 -0.310258 -0.933557 -0.179477 0.000000
190.45899963 181.75799561 362.50000000 -0.214947 0.957247 -0.193586 0.000000
215.59599304 261.03500366 422.50000000 -0.284220 -0.195488 -0.938618 0.000000
99.09670258 266.83599854 400.00000000 0.982047 -0.001143 0.188635 0.000000
133.41799927 270.70300293 317.50000000 -0.000978 -0.000978 0.999999 0.000000
194.32600403 292.93899536 382.50000000 0.000978 0.000978 0.999999 0.000000
117.94899750 300.67401123 347.50000000 0.000978 0.000978 0.999999 0.000000
101.51399994 248.46699524 392.50000000 0.931397 0.338815 -0.133057 0.000000
255.23399353 221.39599609 407.50000000 -0.000978 -0.000978 -0.999999 0.000000
187.55900574 197.22700500 342.50000000 -0.000978 -0.000978 0.999999 0.000000
190.45899963 190.94200134 385.00000000 -0.003865 0.918471 -0.395470 0.000000
214.62899780 252.33399963 367.50000000 -0.001370 -0.790530 0.612421 0.000000
107.79799652 246.53300476 330.00000000 0.926236 0.370227 0.070838 0.000000
157.10400391 320.01000977 390.00000000 -0.354642 -0.625935 0.694575 0.000000
136.80200195 356.74798584 380.00000000 0.499040 -0.446336 0.742795 0.000000
124.71700287 216.56199646 292.50000000 0.469149 0.752285 0.462565 0.000000
143.08599854 370.28298950 417.50000000 0.207460 -0.977343 -0.041972 0.000000
197.22700500 262.00201416 427.50000000 -0.000978 -0.000978 -0.999999 0.000000
156.13800049 221.39599609 325.00000000 -0.501924 0.834506 0.227315 0.000000
176.92399597 248.94999695 435.00000000 -0.605560 0.527967 -0.595439 0.000000
134.86799622 201.09399414 335.00000000 0.717159 0.694164 0.061799 0.000000
218.49600220 204.96099854 402.50000000 -0.537080 0.543815 -0.644833 0.000000
210.76199341 274.57000732 417.50000000 -0.883337 0.001320 -0.468736 0.000000
125.68399811 240.73199463 432.50000000 -0.012420 -0.801756 -0.597522 0.000000
186.59199524 203.02699280 342.50000000 0.000978 0.000978 0.999999 0.000000
253.78399658 255.23399353 370.00000000 -0.872297 -0.460257 0.165108 0.000000
174.99000549 262.00201416 442.50000000 -0.295196 0.141532 -0.944896 0.000000
212.69500732 264.90200806 422.50000000 -0.195969 -0.106098 -0.974853 0.000000
105.38099670 314.69198608 350.00000000 -0.386253 -0.586775 0.711691 0.000000
117.46600342 225.26400757 340.00000000 0.881057 0.441257 0.170386 0.000000
159.52099609 238.79899597 437.50000000 -0.379122 0.885617 -0.268233 0.000000
261.03500366 241.69900513 377.50000000 -0.608512 -0.178436 0.773223 0.000000
165.32200623 304.05801392 380.00000000 -0.294347 -0.693242 0.657856 0.000000
110.21499634 268.76998901 432.50000000 0.766973 0.023750 -0.641240 0.000000
188.52499390 257.16799927 432.50000000 -0.269765 0.368133 -0.889778 0.000000
211.72900391 229.61399841 345.00000000 0.240319 -0.894931 0.375959 0.000000
145.98599243 298.73999023 452.50000000 -0.000978 -0.000978 -0.999999 0.000000
153.72099304 319.52600098 450.00000000 -0.085196 -0.884082 -0.459499 0.000000
103.93099976 258.13500977 420.00000000 0.907954 0.300695 -0.291895 0.000000
164.35499573 295.83999634 372.50000000 -0.180243 -0.807306 0.561934 0.000000
144.05299377 320.01000977 452.50000000 0.160759 -0.499974 -0.850989 0.000000
170.15600586 227.19700623 412.50000000 -0.000978 -0.000978 -0.999999 0.000000
204.96099854 255.23399353 367.50000000 -0.363989 0.739404 0.566387 0.000000
148.88699341 350.94699097 387.50000000 0.000978 0.000978 0.999999 0.000000
168.22300720 347.07998657 407.50000000 -0.714022 -0.241160 0.657278 0.000000
198.19299316 213.66200256 407.50000000 -0.000978 -0.000978 -0.999999 0.000000
191.42599487 203.02699280 342.50000000 0.000978 0.000978 0.999999 0.000000
188.52499390 218.49600220 407.50000000 -0.000978 -0.000978 -0.999999 0.000000
162.42199707 277.47100830 347.50000000 -0.444867 -0.444867 0.777295 0.000000
137.28500366 361.09899902 385.00000000 0.197873 -0.886762 0.417731 0.000000
156.62100220 266.35299683 325.00000000 -0.001143 -0.982047 0.188635 0.000000
168.70599365 302.60699463 380.00000000 -0.202822 -0.741615 0.639430 0.000000
211.72900391 271.18701172 385.00000000 -0.700489 -0.700489 -0.136498 0.000000
205.92799377 285.20498657 427.50000000 -0.000978 -0.000978 -0.999999 0.000000
110.21499634 324.84399414 432.50000000 -0.000978 -0.000978 -0.999999 0.000000
154.68800354 283.27099609 452.50000000 -0.000978 -0.000978 -0.999999 0.000000
132.45100403 327.74398804 447.50000000 -0.000978 -0.000978 -0.999999 0.000000
157.58799744 292.93899536 452.50000000 -0.000978 -0.000978 -0.999999 0.000000
186.59199524 338.86199951 420.00000000 -0.791462 -0.438622 0.425674 0.000000
268.28601074 202.06100464 385.00000000 -0.459822 0.767460 -0.446731 0.000000
166.28900146 268.76998901 447.50000000 -0.340860 -0.374792 -0.862175 0.000000
177.89100647 264.90200806 442.50000000 -0.000978 -0.000978 -0.999999 0.000000
101.99700165 283.27099609 420.00000000 0.974400 0.193879 -0.113826 0.000000
123.75000000 282.30499268 327.50000000 -0.368964 -0.696932 0.614940 0.000000
176.92399597 202.06100464 342.50000000 0.000978 0.000978 0.999999 0.000000
263.45199585 249.43400574 385.00000000 -0.649216 -0.481460 0.588824 0.000000
210.76199341 262.96899414 357.50000000 0.000978 0.000978 0.999999 0.000000
105.86399841 245.56599426 350.00000000 0.841437 0.504260 0.194178 0.000000
203.02699280 232.99800110 417.50000000 -0.000978 -0.000978 -0.999999 0.000000
116.49900055 349.98001099 410.00000000 0.653921 -0.653921 -0.380493 0.000000
97.64649963 269.73599243 392.50000000 0.977395 0.168087 -0.128244 0.000000
121.81600189 228.64700317 415.00000000 0.395213 0.795266 -0.459738 0.000000
110.21499634 284.23800659 317.50000000 -0.204199 -0.973392 0.103979 0.000000
175.95700073 213.66200256 342.50000000 0.000978 0.000978 0.999999 0.000000
171.12300110 304.54098511 382.50000000 -0.117524 -0.694729 0.709605 0.000000
179.82400513 294.39001465 375.00000000 -0.200225 -0.870607 0.449393 0.000000
232.99800110 189.00900269 375.00000000 0.001145 0.981537 -0.191268 0.000000
148.88699341 335.96200562 445.00000000 -0.358874 -0.783729 -0.506930 0.000000
244.60000610 246.53300476 357.50000000 0.000978 0.000978 0.999999 0.000000
130.51800537 221.39599609 292.50000000 -0.604591 0.004113 0.796525 0.000000
104.41400146 316.14300537 352.50000000 -0.136039 -0.442483 0.886398 0.000000
164.35499573 262.96899414 447.50000000 -0.284274 0.236188 -0.929195 0.000000
132.93499756 221.39599609 295.00000000 -0.754127 -0.015333 0.656550 0.000000
261.03500366 198.19299316 357.50000000 0.000978 0.000978 0.999999 0.000000
244.60000610 215.59599304 347.50000000 0.000978 -0.999999 0.000978 0.000000
203.99400330 262.00201416 362.50000000 0.000978 0.000978 0.999999 0.000000
227.19700623 224.29699707 342.50000000 0.000978 0.000978 0.999999 0.000000
230.09800720 234.93200684 417.50000000 -0.000978 -0.000978 -0.999999 0.000000
173.05700684 247.50000000 337.50000000 -0.886806 0.093864 0.452509 0.000000
238.79899597 255.23399353 357.50000000 0.000978 0.000978 0.999999 0.000000
210.76199341 244.60000610 422.50000000 -0.572662 0.379040 -0.726903 0.000000
132.45100403 221.88000488 295.00000000 -0.604591 0.004113 0.796525 0.000000
216.56199646 192.39300537 382.50000000 0.000000 0.000000 0.000000 0.000000
242.66600037 263.93600464 407.50000000 -0.123610 -0.749107 -0.650814 0.000000
118.91600037 292.93899536 337.50000000 -0.422217 -0.845993 0.325621 0.000000
128.58399963 223.33000183 292.50000000 -0.600218 0.001367 0.799835 0.000000
204.96099854 237.83200073 417.50000000 -0.017987 0.590788 -0.806626 0.000000
161.45500183 197.22700500 377.50000000 0.401577 0.689126 -0.603192 0.000000
145.02000427 277.47100830 337.50000000 -0.432111 -0.747568 0.504403 0.000000
190.45899963 289.55599976 375.00000000 -0.813341 -0.548815 0.193074 0.000000
202.06100464 272.63699341 427.50000000 -0.000978 -0.000978 -0.999999 0.000000
140.18600464 279.40399170 452.50000000 0.000978 0.000978 -0.999999 0.000000
144.05299377 262.96899414 452.50000000 -0.000978 -0.000978 -0.999999 0.000000
126.65000153 232.03100586 427.50000000 -0.260550 -0.525781 0.809733 0.000000
237.83200073 192.39300537 332.50000000 -0.000978 -0.000978 -0.999999 0.000000
130.51800537 224.29699707 292.50000000 -0.604591 0.004113 0.796525 0.000000
180.79100037 260.55200195 345.00000000 -0.941834 0.313049 0.122264 0.000000
125.68399811 279.40399170 447.50000000 0.376078 -0.288478 -0.880537 0.000000
194.32600403 285.20498657 437.50000000 -0.000978 -0.000978 -0.999999 0.000000
127.61699677 273.11999512 315.00000000 -0.443278 -0.552852 0.705592 0.000000
186.59199524 261.03500366 362.50000000 -0.512830 0.852813 0.098566 0.000000
208.82800293 239.76600647 377.50000000 -0.000978 -0.000978 0.999999 0.000000
248.46699524 264.41900635 400.00000000 -0.001143 -0.982047 0.188635 0.000000
162.90499878 291.97299194 365.00000000 -0.735669 -0.367019 0.569287 0.000000
109.73100281 305.50799561 435.00000000 0.947030 -0.161225 -0.277741 0.000000
177.89100647 259.10198975 337.50000000 0.201909 0.262344 0.943615 0.000000
167.25599670 326.77700806 442.50000000 -0.482597 -0.644023 -0.593578 0.000000
219.46299744 255.23399353 357.50000000 0.138293 0.291354 0.946566 0.000000
182.72500610 232.99800110 417.50000000 -0.000978 -0.000978 -0.999999 0.000000
173.05700684 304.54098511 382.50000000 -0.219781 -0.847294 0.483518 0.000000
113.11499786 320.01000977 437.50000000 0.856809 0.231203 -0.460894 0.000000
201.09399414 242.66600037 362.50000000 -0.596877 -0.738455 0.313723 0.000000
165.32200623 276.50399780 342.50000000 0.000978 0.000978 0.999999 0.000000
134.38499451 198.19299316 317.50000000 -0.000978 -0.000978 -0.999999 0.000000
153.72099304 359.64801025 432.50000000 -0.072734 -0.437776 -0.896137 0.000000
213.66200256 236.86500549 352.50000000 -0.520597 -0.770354 0.368148 0.000000
239.76600647 189.49200439 372.50000000 -0.000978 -0.000978 -0.999999 0.000000
136.31799316 195.29299927 317.50000000 -0.000978 -0.000978 -0.999999 0.000000
144.53599548 299.70700073 365.00000000 -0.538154 -0.432179 0.723610 0.000000
181.75799561 323.87701416 437.50000000 -0.000978 -0.000978 -0.999999 0.000000
170.15600586 206.89500427 392.50000000 0.000978 0.000978 -0.999999 0.000000
159.52099609 299.70700073 452.50000000 -0.000978 -0.000978 -0.999999 0.000000
102.96399689 270.70300293 315.00000000 0.981537 0.001145 0.191268 0.000000
251.36700439 182.72500610 337.50000000 -0.412911 0.231051 0.880976 0.000000
234.93200684 227.19700623 412.50000000 -0.473285 0.109438 -0.874085 0.000000
134.38499451 308.40798950 452.50000000 0.000978 0.000978 -0.999999 0.000000
218.49600220 261.03500366 417.50000000 -0.452909 -0.715033 -0.532542 0.000000
261.03500366 235.89799500 372.50000000 -0.712996 -0.447076 0.540148 0.000000
162.42199707 334.51199341 442.50000000 -0.000978 -0.000978 -0.999999 0.000000
127.61699677 311.30899048 447.50000000 -0.000978 -0.000978 -0.999999 0.000000
174.02299500 288.58898926 365.00000000 -0.215809 -0.762317 0.610164 0.000000
184.65800476 239.76600647 422.50000000 -0.347998 0.498744 -0.793821 0.000000
241.69900513 210.27799988 345.00000000 -0.671131 -0.618103 0.409307 0.000000
189.49200439 262.96899414 432.50000000 -0.553824 -0.293574 -0.779162 0.000000
259.10198975 223.33000183 367.50000000 0.000978 0.000978 0.999999 0.000000
207.86099243 218.49600220 342.50000000 0.732382 0.596576 0.328198 0.000000
168.22300720 276.50399780 342.50000000 -0.000978 -0.000978 0.999999 0.000000
229.13099670 205.44400024 400.00000000 0.135337 0.795663 -0.590427 0.000000
145.98599243 298.25698853 365.00000000 -0.700489 -0.700489 0.136498 0.000000
161.45500183 209.79499817 392.50000000 -0.000978 -0.000978 -0.999999 0.000000
148.88699341 352.88101196 437.50000000 -0.000978 -0.000978 -0.999999 0.000000
164.35499573 238.31500244 430.00000000 -0.676736 0.689415 -0.258332 0.000000
258.13500977 225.26400757 367.50000000 -0.917827 -0.293415 0.267398 0.000000
220.42999268 206.89500427 337.50000000 0.000978 0.000978 0.999999 0.000000
196.74299622 275.53698730 345.00000000 -0.341876 -0.858558 0.382097 0.000000
219.46299744 197.71000671 330.00000000 0.933019 -0.001263 -0.359825 0.000000
147.91999817 284.23800659 347.50000000 -0.653921 -0.653921 0.380493 0.000000
232.03100586 189.97599792 325.00000000 0.624886 0.326239 -0.709286 0.000000
243.63299561 189.49200439 372.50000000 -0.000978 -0.000978 -0.999999 0.000000
119.88300323 353.84799194 407.50000000 0.700489 -0.700489 -0.136498 0.000000
229.13099670 264.90200806 402.50000000 -0.016039 -0.956161 -0.292400 0.000000
243.63299561 225.26400757 412.50000000 -0.000978 -0.000978 -0.999999 0.000000
137.28500366 337.41198730 382.50000000 -0.446159 0.890929 0.084784 0.000000
200.12699890 228.64700317 415.00000000 0.214013 0.974678 0.064815 0.000000
234.93200684 188.52499390 327.50000000 0.598499 0.608615 -0.520947 0.000000
171.12300110 210.76199341 397.50000000 0.000978 0.000978 -0.999999 0.000000
266.83599854 233.96499634 407.50000000 -0.000978 -0.000978 -0.999999 0.000000
260.06799316 199.16000366 382.50000000 -0.316077 0.802106 -0.506677 0.000000
164.35499573 239.76600647 432.50000000 0.001337 0.865181 -0.501457 0.000000
180.79100037 213.66200256 342.50000000 0.000978 0.000978 0.999999 0.000000
203.99400330 240.73199463 422.50000000 -0.095978 0.928688 -0.358227 0.000000
142.11900330 359.64801025 382.50000000 -0.600703 0.164928 0.782275 0.000000
258.13500977 202.54400635 390.00000000 -0.399635 0.832442 -0.383839 0.000000
202.06100464 275.53698730 357.50000000 -0.635557 -0.741224 0.215996 0.000000
190.94200134 263.93600464 360.00000000 -0.509784 0.763861 -0.395774 0.000000
139.21899414 203.02699280 367.50000000 0.492758 0.721717 -0.486122 0.000000
227.19700623 255.23399353 357.50000000 0.740320 0.380782 0.554014 0.000000
163.38900757 367.86599731 420.00000000 -0.162266 -0.986258 0.031072 0.000000
147.91999817 235.89799500 307.50000000 -0.708583 0.255217 0.657856 0.000000
212.69500732 296.80700684 402.50000000 -0.653921 -0.653921 0.380493 0.000000
103.93099976 254.26800537 415.00000000 0.901778 0.335030 -0.273042 0.000000
164.35499573 325.81100464 447.50000000 -0.399948 -0.152293 -0.903797 0.000000
100.06300354 255.23399353 400.00000000 0.816462 0.361280 -0.450407 0.000000
183.69099426 205.92799377 397.50000000 0.054998 0.409130 -0.910817 0.000000
236.86500549 211.72900391 342.50000000 0.000978 0.000978 0.999999 0.000000
168.22300720 364.48199463 422.50000000 -0.473417 -0.786874 -0.395861 0.000000
253.78399658 176.92399597 345.00000000 0.000978 0.999999 0.000978 0.000000
126.65000153 302.60699463 357.50000000 0.000978 0.000978 0.999999 0.000000
108.28099823 328.71099854 422.50000000 0.911127 -0.392078 -0.126972 0.000000
144.53599548 210.76199341 385.00000000 0.050829 0.937086 -0.345379 0.000000
134.38499451 233.96499634 292.50000000 0.000978 0.000978 0.999999 0.000000
122.78299713 274.57000732 447.50000000 0.275919 0.661887 -0.696975 0.000000
154.68800354 282.30499268 452.50000000 -0.000978 -0.000978 -0.999999 0.000000
189.97599792 328.71099854 410.00000000 -0.421606 -0.773215 0.473696 0.000000
218.49600220 259.10198975 357.50000000 0.000978 0.000978 0.999999 0.000000
243.63299561 176.92399597 342.50000000 -0.241567 0.969909 -0.030348 0.000000
182.72500610 265.86898804 442.50000000 -0.499766 0.523166 -0.690312 0.000000
222.36300659 181.27400208 360.00000000 0.001335 0.864020 -0.503455 0.000000
129.55099487 307.44100952 447.50000000 0.225150 -0.110667 -0.968019 0.000000
119.88300323 224.29699707 392.50000000 0.530812 0.829862 -0.171953 0.000000
148.88699341 265.38598633 320.00000000 0.106957 -0.596324 0.795587 0.000000
246.53300476 213.66200256 402.50000000 -0.370096 0.833110 -0.411043 0.000000
136.31799316 234.93200684 292.50000000 -0.000978 -0.000978 0.999999 0.000000
183.69099426 314.20901489 397.50000000 -0.000978 -0.000978 0.999999 0.000000
179.82400513 229.61399841 340.00000000 -0.483598 0.537145 0.691093 0.000000
168.22300720 245.56599426 437.50000000 -0.000978 -0.000978 -0.999999 0.000000
101.02999878 314.20901489 410.00000000 0.845993 -0.422217 -0.325621 0.000000
94.26270294 281.33801270 370.00000000 -0.000978 -0.000978 0.999999 0.000000
177.89100647 199.16000366 342.50000000 0.000978 0.000978 0.999999 0.000000
150.82000732 227.19700623 312.50000000 -0.685875 0.012521 0.727612 0.000000
196.25999451 290.03900146 432.50000000 -0.497143 -0.001333 -0.867668 0.000000
285.20498657 213.66200256 382.50000000 -0.938381 0.276649 -0.207139 0.000000
209.79499817 222.36300659 412.50000000 0.777566 0.592063 -0.211782 0.000000
225.26400757 202.06100464 337.50000000 0.227790 -0.222334 0.947987 0.000000
221.39599609 203.02699280 337.50000000 0.000978 0.000978 0.999999 0.000000
133.41799927 216.07899475 385.00000000 0.340695 0.879751 -0.331610 0.000000
174.99000549 331.12799072 440.00000000 -0.834889 -0.483032 -0.263893 0.000000
165.32200623 296.80700684 372.50000000 -0.020962 -0.663784 0.747630 0.000000
174.02299500 264.90200806 337.50000000 0.000978 0.000978 0.999999 0.000000
102.48000336 272.63699341 317.50000000 0.974143 0.098537 0.203310 0.000000
165.32200623 298.73999023 447.50000000 -0.000978 -0.000978 -0.999999 0.000000
135.35200500 236.86500549 292.50000000 0.000978 0.000978 0.999999 0.000000
241.69900513 263.45199585 360.00000000 -0.409231 -0.614674 0.674319 0.000000
129.06700134 288.10501099 340.00000000 -0.484911 -0.736469 0.471671 0.000000
151.78700256 275.05398560 335.00000000 -0.105612 -0.885734 0.452020 0.000000
130.51800537 237.83200073 292.50000000 -0.496041 -0.098071 0.862743 0.000000
131.48399353 237.83200073 292.50000000 -0.492518 -0.107069 0.863691 0.000000
155.65400696 187.07499695 345.00000000 0.447637 0.882320 -0.145374 0.000000
194.32600403 330.16101074 420.00000000 -0.722321 -0.516418 0.459961 0.000000
136.31799316 227.19700623 422.50000000 0.000978 0.000978 0.999999 0.000000
203.99400330 262.96899414 362.50000000 0.000978 0.000978 0.999999 0.000000
207.86099243 241.21600342 420.00000000 -0.229087 0.964234 -0.133310 0.000000
131.48399353 320.97698975 372.50000000 -0.468366 -0.879409 0.085284 0.000000
122.78299713 276.98699951 315.00000000 0.000978 0.000978 0.999999 0.000000
147.43699646 227.19700623 310.00000000 -0.772667 0.256507 0.580681 0.000000
182.72500610 237.83200073 422.50000000 -0.444867 0.444867 -0.777295 0.000000
171.12300110 264.90200806 447.50000000 -0.072771 0.218314 -0.973162 0.000000
96.19629669 279.40399170 350.00000000 0.983386 0.122167 0.134263 0.000000
201.09399414 232.99800110 417.50000000 -0.000978 -0.000978 -0.999999 0.000000
153.23699951 194.32600403 370.00000000 0.405434 0.849704 -0.337085 0.000000
252.33399963 254.75100708 380.00000000 -0.317219 -0.792251 0.521259 0.000000
272.63699341 214.62899780 372.50000000 0.000978 0.000978 0.999999 0.000000
204.96099854 232.03100586 417.50000000 -0.000978 -0.000978 -0.999999 0.000000
210.76199341 226.22999573 417.50000000 -0.005671 0.168993 -0.985601 0.000000
203.02699280 219.46299744 412.50000000 -0.000978 -0.000978 -0.999999 0.000000
256.20098877 211.72900391 397.50000000 0.309566 0.309566 -0.899076 0.000000
200.12699890 215.59599304 407.50000000 0.000978 0.000978 -0.999999 0.000000
237.83200073 224.29699707 412.50000000 -0.000978 -0.000978 -0.999999 0.000000
107.31400299 240.73199463 292.50000000 0.981537 0.001145 0.191268 0.000000
164.35499573 345.14599609 402.50000000 -0.372993 -0.048766 0.926552 0.000000
222.36300659 257.16799927 417.50000000 0.000978 0.000978 -0.999999 0.000000
147.91999817 286.17199707 452.50000000 -0.000978 -0.000978 -0.999999 0.000000
210.76199341 262.96899414 422.50000000 -0.000978 -0.000978 -0.999999 0.000000
133.41799927 240.73199463 292.50000000 -0.443870 -0.052939 0.894526 0.000000
276.50399780 217.52900696 377.50000000 0.000978 0.000978 0.999999 0.000000
136.31799316 243.63299561 442.50000000 0.343028 0.127098 -0.930687 0.000000
175.47399902 316.14300537 395.00000000 -0.525540 -0.603272 0.599892 0.000000
181.75799561 249.43400574 357.50000000 -0.700489 0.700489 0.136498 0.000000
142.11900330 210.76199341 382.50000000 0.170984 0.843023 -0.509977 0.000000
240.73199463 266.83599854 362.50000000 -0.549174 -0.472390 0.689388 0.000000
119.88300323 280.85400391 320.00000000 -0.359500 -0.778649 0.514263 0.000000
131.48399353 241.69900513 292.50000000 -0.771788 0.178105 0.610428 0.000000
283.27099609 233.96499634 402.50000000 -0.790572 -0.592554 -0.154514 0.000000
191.42599487 199.16000366 342.50000000 0.000978 0.000978 0.999999 0.000000
178.85699463 188.52499390 377.50000000 -0.383262 0.327851 -0.863495 0.000000
182.72500610 197.22700500 392.50000000 0.330030 0.548976 -0.767923 0.000000
227.19700623 265.86898804 357.50000000 -0.006846 -0.809250 0.587425 0.000000
113.11499786 336.44500732 367.50000000 0.000978 0.000978 0.999999 0.000000
190.45899963 278.43798828 437.50000000 -0.174323 0.038608 -0.983931 0.000000
102.48000336 307.44100952 422.50000000 0.878948 -0.218622 -0.423858 0.000000
132.45100403 242.66600037 292.50000000 -0.659155 0.104698 0.744683 0.000000
205.92799377 264.90200806 357.50000000 -0.000978 -0.000978 0.999999 0.000000
190.94200134 230.09800720 415.00000000 -0.165895 0.823498 -0.542522 0.000000
150.82000732 190.45899963 352.50000000 0.547250 0.821621 -0.159552 0.000000
238.79899597 243.63299561 412.50000000 -0.000978 -0.000978 -0.999999 0.000000
249.43400574 219.46299744 357.50000000 0.000978 0.000978 0.999999 0.000000
186.59199524 312.27499390 397.50000000 -0.364793 -0.855323 0.367898 0.000000
209.79499817 255.23399353 362.50000000 -0.000978 -0.000978 0.999999 0.000000
268.76998901 205.92799377 362.50000000 -0.235445 -0.084357 0.968220 0.000000
150.33700562 186.59199524 330.00000000 0.587182 0.744836 -0.316917 0.000000
153.72099304 277.47100830 452.50000000 -0.000978 -0.000978 -0.999999 0.000000
277.47100830 228.64700317 385.00000000 -0.753506 -0.521407 0.400454 0.000000
95.22949982 305.50799561 375.00000000 0.974400 -0.193879 -0.113826 0.000000
247.98300171 269.73599243 380.00000000 -0.700489 -0.700489 -0.136498 0.000000
183.69099426 220.42999268 407.50000000 -0.000978 -0.000978 -0.999999 0.000000
255.23399353 257.16799927 387.50000000 -0.441257 -0.881057 0.170386 0.000000
250.39999390 184.65800476 362.50000000 -0.054288 0.925547 -0.374721 0.000000
134.38499451 287.13900757 452.50000000 -0.000978 -0.000978 -0.999999 0.000000
172.08999634 257.16799927 332.50000000 -0.766543 0.126517 0.629607 0.000000
134.38499451 292.45599365 350.00000000 -0.446689 -0.894688 0.001310 0.000000
157.58799744 313.24200439 382.50000000 0.000978 0.000978 0.999999 0.000000
216.56199646 205.92799377 337.50000000 0.000978 0.000978 0.999999 0.000000
174.99000549 280.37100220 447.50000000 -0.000978 -0.000978 -0.999999 0.000000
120.36599731 350.94699097 380.00000000 0.456915 -0.841034 0.289638 0.000000
96.67970276 297.77301025 342.50000000 0.986865 -0.103070 0.124395 0.000000
167.25599670 229.13099670 417.50000000 -0.124855 0.815229 -0.565520 0.000000
156.62100220 313.24200439 452.50000000 -0.714954 -0.340377 -0.610724 0.000000
160.48800659 203.99400330 387.50000000 0.258278 0.386671 -0.885312 0.000000
207.86099243 180.30799866 355.00000000 0.000000 0.000000 0.000000 0.000000
283.75500488 214.62899780 390.00000000 -0.941542 -0.296538 0.159885 0.000000
209.79499817 183.20799255 345.00000000 0.277866 0.830494 0.482773 0.000000
272.63699341 238.79899597 407.50000000 -0.000978 -0.000978 -0.999999 0.000000
188.04200745 261.03500366 435.00000000 -0.926855 0.283324 -0.246307 0.000000
170.15600586 299.70700073 447.50000000 -0.000978 -0.000978 -0.999999 0.000000
132.45100403 322.91000366 447.50000000 -0.000978 -0.000978 -0.999999 0.000000
221.39599609 260.06799316 417.50000000 -0.385258 -0.469080 -0.794695 0.000000
227.19700623 194.80999756 385.00000000 -0.196572 0.923464 -0.329506 0.000000
135.35200500 201.09399414 352.50000000 0.788925 0.614225 0.018025 0.000000
262.00201416 241.69900513 412.50000000 -0.000978 -0.000978 -0.999999 0.000000
246.53300476 263.93600464 397.50000000 -0.594965 -0.745711 0.299888 0.000000
262.00201416 244.60000610 377.50000000 -0.675706 -0.366624 0.639537 0.000000
118.91600037 313.24200439 357.50000000 -0.386821 -0.483931 0.784972 0.000000
152.75399780 368.35000610 427.50000000 -0.000978 -0.000978 -0.999999 0.000000
165.32200623 270.70300293 337.50000000 -0.485018 -0.806243 0.338718 0.000000
171.12300110 219.94599915 405.00000000 0.229548 0.760474 -0.607443 0.000000
106.83100128 316.14300537 430.00000000 0.931545 -0.206542 -0.299275 0.000000
122.78299713 311.30899048 447.50000000 0.001263 -0.933019 -0.359825 0.000000
116.01599884 268.76998901 442.50000000 -0.000978 -0.000978 -0.999999 0.000000
152.27099609 356.74798584 390.00000000 -0.570215 0.414852 0.709050 0.000000
140.18600464 299.70700073 362.50000000 -0.159181 -0.665528 0.729201 0.000000
124.71700287 352.88101196 427.50000000 0.774331 -0.504857 -0.381484 0.000000
157.58799744 200.12699890 327.50000000 -0.000978 -0.000978 0.999999 0.000000
200.12699890 305.50799561 392.50000000 -0.812617 -0.501402 0.297069 0.000000
152.75399780 339.34600830 392.50000000 -0.000978 -0.000978 0.999999 0.000000
131.48399353 273.60400391 317.50000000 -0.496472 -0.355082 0.792106 0.000000
129.55099487 304.54098511 447.50000000 0.608000 -0.236010 -0.758047 0.000000
145.98599243 313.24200439 452.50000000 -0.000978 -0.000978 -0.999999 0.000000
212.69500732 293.90600586 397.50000000 -0.488623 -0.733763 0.472059 0.000000
190.45899963 223.33000183 412.50000000 -0.000978 -0.000978 -0.999999 0.000000
252.33399963 262.96899414 407.50000000 -0.000978 -0.000978 -0.999999 0.000000
193.35899353 240.73199463 352.50000000 0.742362 -0.668552 -0.044002 0.000000
157.58799744 232.03100586 322.50000000 -0.877417 0.155180 0.453937 0.000000
158.55499268 302.60699463 452.50000000 -0.000978 -0.000978 -0.999999 0.000000
127.61699677 249.43400574 292.50000000 0.000978 0.000978 0.999999 0.000000
99.58010101 263.45199585 345.00000000 0.933557 0.310258 0.179477 0.000000
132.45100403 297.29000854 355.00000000 -0.456025 -0.485658 0.745773 0.000000
154.68800354 193.35899353 367.50000000 0.416818 0.868498 -0.268279 0.000000
