255.35299683 226.10699463 440.00000000 0.001244 0.944109 -0.329630 0.000000
156.26699829 180.71099854 382.50000000 -0.000978 -0.000978 -0.999999 0.000000
158.88600159 288.08999634 462.50000000 0.320704 0.416761 0.850564 0.000000
186.82200623 243.56700134 472.50000000 0.701680 0.701680 0.123651 0.000000
132.69599915 224.36099243 492.50000000 0.000978 0.000978 0.999999 0.000000
190.31399536 227.85299683 417.50000000 -0.182744 -0.974214 -0.132332 0.000000
130.94999695 295.94699097 457.50000000 -0.085133 0.250316 0.964414 0.000000
130.94999695 233.96400452 347.50000000 0.268173 0.237284 -0.933691 0.000000
275.43200684 204.28199768 450.00000000 0.732901 0.114007 -0.670715 0.000000
258.40798950 199.91700745 432.50000000 0.717142 0.623672 -0.311030 0.000000
142.29899597 158.01300049 372.50000000 -0.369898 0.897482 -0.240213 0.000000
182.45700073 302.05801392 407.50000000 0.815100 0.465545 -0.344789 0.000000
113.92700195 247.05900574 335.00000000 0.657321 0.258177 -0.708007 0.000000
158.01300049 220.86900330 407.50000000 0.305774 0.914425 -0.265198 0.000000
169.36199951 233.96400452 402.50000000 0.218637 -0.876035 0.429837 0.000000
136.18800354 312.09799194 445.00000000 -0.437386 0.809084 0.392526 0.000000
170.23500061 307.29598999 397.50000000 0.000978 0.000978 -0.999999 0.000000
178.09199524 195.55200195 487.50000000 0.865827 0.346023 -0.361402 0.000000
132.69599915 311.66101074 442.50000000 -0.274853 0.754654 0.595779 0.000000
227.85299683 176.34599304 407.50000000 -0.000978 -0.000978 -0.999999 0.000000
130.94999695 158.44999695 460.00000000 0.548149 -0.788260 0.279603 0.000000
159.75900269 290.70901489 462.50000000 0.000978 0.000978 0.999999 0.000000
108.25199890 317.77200317 407.50000000 -0.701680 0.701680 0.123651 0.000000
99.52200317 251.42399597 317.50000000 0.801780 0.052321 -0.595325 0.000000
158.01300049 302.05801392 452.50000000 -0.012009 0.471039 0.882031 0.000000
281.10598755 153.64799500 457.50000000 0.449843 -0.593660 0.667240 0.000000
239.20199585 195.55200195 407.50000000 -0.000978 -0.000978 -0.999999 0.000000
261.89999390 151.90199280 427.50000000 -0.000978 -0.000978 -0.999999 0.000000
166.74299622 281.10598755 387.50000000 0.442356 -0.288225 -0.849263 0.000000
218.25000000 236.58299255 462.50000000 0.000978 0.000978 0.999999 0.000000
88.17299652 252.29699707 317.50000000 -0.000978 -0.000978 -0.999999 0.000000
194.67900085 277.17800903 445.00000000 0.623358 0.528756 0.576057 0.000000
288.08999634 172.85400391 447.50000000 0.815508 0.337288 -0.470302 0.000000
207.77400208 226.97999573 477.50000000 0.466297 0.469592 0.749700 0.000000
113.48999786 295.94699097 342.50000000 0.000978 0.000978 -0.999999 0.000000
127.89499664 214.75799561 495.00000000 -0.802353 0.492897 0.336574 0.000000
72.45899963 236.58299255 342.50000000 -0.949432 -0.092979 -0.299890 0.000000
79.00650024 195.55200195 455.00000000 -0.775928 -0.500546 0.383914 0.000000
195.55200195 237.45599365 407.50000000 -0.000978 -0.000978 -0.999999 0.000000
251.42399597 162.37800598 417.50000000 -0.000978 -0.000978 -0.999999 0.000000
231.34500122 161.50500488 402.50000000 -0.069611 0.991666 -0.108410 0.000000
171.10800171 268.88400269 472.50000000 0.240220 0.178487 0.954168 0.000000
219.12300110 137.93400574 417.50000000 -0.305774 -0.914425 -0.265198 0.000000
285.47100830 207.77400208 467.50000000 0.640981 0.082848 0.763073 0.000000
216.50399780 153.64799500 462.50000000 -0.282723 -0.551231 0.784991 0.000000
74.64150238 269.75698853 355.00000000 -0.707670 0.491206 -0.507857 0.000000
102.14099884 286.34399414 452.50000000 -0.529902 0.386421 0.754906 0.000000
130.94999695 207.77400208 497.50000000 -0.344408 0.755111 0.557844 0.000000
114.36299896 274.99499512 342.50000000 0.618115 0.076364 -0.782370 0.000000
137.93400574 305.54998779 367.50000000 0.442258 -0.432538 -0.785696 0.000000
222.17900085 230.47200012 470.00000000 0.098625 0.696261 0.710981 0.000000
265.39199829 221.74200439 442.50000000 0.096849 -0.264720 -0.959450 0.000000
237.45599365 160.63200378 407.50000000 0.588770 0.707513 -0.390864 0.000000
260.15399170 147.53700256 422.50000000 0.194583 -0.586814 -0.785994 0.000000
123.96600342 279.35998535 352.50000000 0.790967 -0.049524 -0.609851 0.000000
86.42700195 272.37600708 337.50000000 -0.815840 0.487610 -0.310871 0.000000
270.63000488 154.52099609 432.50000000 -0.427400 -0.195341 0.882707 0.000000
90.79199982 275.86801147 332.50000000 -0.323550 0.761388 -0.561786 0.000000
158.01300049 319.51800537 432.50000000 0.453411 0.746891 0.486386 0.000000
233.96400452 171.10800171 472.50000000 0.000978 0.000978 0.999999 0.000000
137.06100464 170.23500061 372.50000000 0.272381 0.038556 -0.961417 0.000000
281.10598755 203.40899658 467.50000000 0.000978 0.000978 0.999999 0.000000
100.83200073 253.16999817 320.00000000 0.704652 0.351509 -0.616366 0.000000
230.47200012 146.66400146 457.50000000 0.226863 -0.636781 0.736914 0.000000
274.12200928 201.66299438 467.50000000 0.000978 0.000978 0.999999 0.000000
164.12399292 219.55999756 410.00000000 0.155540 0.839917 -0.519949 0.000000
152.77499390 164.12399292 377.50000000 0.376091 -0.141209 -0.915760 0.000000
166.74299622 306.42300415 447.50000000 0.809084 0.392526 0.437386 0.000000
189.44099426 182.45700073 397.50000000 -0.000978 -0.000978 -0.999999 0.000000
112.61699677 247.93200684 482.50000000 0.000978 0.000978 0.999999 0.000000
173.72700500 257.53500366 377.50000000 -0.000978 -0.000978 -0.999999 0.000000
123.09300232 170.23500061 472.50000000 -0.447067 -0.342804 0.826206 0.000000
240.07499695 185.94900513 472.50000000 0.000978 0.000978 0.999999 0.000000
116.98200226 172.85400391 352.50000000 -0.000978 -0.000978 -0.999999 0.000000
252.29699707 165.86999512 462.50000000 0.753498 -0.531208 0.387373 0.000000
94.28399658 174.60000610 357.50000000 -0.766759 -0.613713 -0.188246 0.000000
255.78900146 142.29899597 412.50000000 0.724708 0.411053 -0.553023 0.000000
127.45800018 154.08500671 440.00000000 -0.204570 -0.926914 -0.314615 0.000000
189.44099426 260.15399170 402.50000000 0.879399 -0.418124 -0.227662 0.000000
95.15699768 254.04299927 472.50000000 0.089375 0.187320 0.978225 0.000000
145.79100037 243.56700134 487.50000000 0.000978 0.000978 0.999999 0.000000
277.61401367 213.01199341 452.50000000 0.000978 0.000978 -0.999999 0.000000
281.10598755 193.80599976 452.50000000 0.398481 0.433688 -0.808163 0.000000
194.67900085 215.63099670 427.50000000 -0.085581 0.001057 0.996331 0.000000
279.35998535 157.13999939 457.50000000 0.000978 0.000978 0.999999 0.000000
80.31600189 199.47999573 345.00000000 -0.870854 -0.396672 -0.290285 0.000000
116.10900116 240.07499695 487.50000000 0.000978 0.000978 0.999999 0.000000
70.27649689 227.85299683 355.00000000 -0.926982 -0.219362 -0.304277 0.000000
157.13999939 204.28199768 392.50000000 0.393294 0.523848 -0.755581 0.000000
222.61500549 254.04299927 427.50000000 0.819551 0.540813 -0.189360 0.000000
199.04400635 220.86900330 482.50000000 0.658352 -0.387751 0.645152 0.000000
124.83899689 271.06600952 475.00000000 -0.372418 0.810368 0.452336 0.000000
124.83899689 281.10598755 357.50000000 0.690827 0.351130 -0.632033 0.000000
140.55299377 268.88400269 477.50000000 -0.211319 0.211319 0.954300 0.000000
113.48999786 165.86999512 352.50000000 -0.000978 -0.000978 -0.999999 0.000000
141.86300659 220.86900330 360.00000000 0.912640 -0.202649 -0.354995 0.000000
106.50599670 171.98100281 342.50000000 -0.000978 -0.000978 -0.999999 0.000000
182.89399719 174.60000610 420.00000000 0.097353 -0.977227 0.188545 0.000000
82.06199646 281.10598755 437.50000000 -0.870319 0.435909 0.229189 0.000000
271.50299072 151.90199280 432.50000000 -0.608711 -0.271774 0.745393 0.000000
132.69599915 194.24299622 370.00000000 0.687667 -0.724684 -0.044136 0.000000
178.09199524 250.55099487 377.50000000 -0.629971 0.449502 -0.633313 0.000000
245.31300354 218.25000000 427.50000000 0.424132 0.640356 -0.640356 0.000000
121.34700012 235.71000671 342.50000000 -0.000978 -0.000978 -0.999999 0.000000
166.74299622 312.53399658 437.50000000 0.311184 0.537791 0.783547 0.000000
95.15699768 212.13900757 477.50000000 -0.755819 -0.188572 0.627039 0.000000
90.79199982 174.60000610 372.50000000 -0.662761 -0.662761 -0.348563 0.000000
122.22000122 305.54998779 352.50000000 -0.000978 -0.000978 -0.999999 0.000000
171.10800171 298.56600952 447.50000000 0.287519 0.507478 0.812280 0.000000
90.79199982 179.83799744 457.50000000 -0.000978 -0.000978 0.999999 0.000000
184.20300293 236.14599609 390.00000000 0.366230 0.807626 0.462186 0.000000
68.09400177 211.26600647 412.50000000 -0.706329 -0.152761 0.691204 0.000000
117.85500336 227.85299683 492.50000000 -0.000978 -0.000978 0.999999 0.000000
226.10699463 171.98100281 407.50000000 0.323421 -0.061047 -0.944284 0.000000
147.53700256 258.40798950 482.50000000 0.000978 0.000978 0.999999 0.000000
136.18800354 140.99000549 390.00000000 -0.315742 -0.947226 0.055416 0.000000
88.17299652 294.20098877 372.50000000 -0.701680 0.701680 -0.123651 0.000000
190.31399536 179.83799744 477.50000000 0.617492 -0.729764 0.293509 0.000000
85.55400085 211.26600647 467.50000000 -0.688560 -0.458484 0.561852 0.000000
171.98100281 214.32200623 405.00000000 0.483237 0.776109 -0.405138 0.000000
121.34700012 152.33900452 425.00000000 -0.193264 -0.966321 -0.169917 0.000000
138.80700684 259.28100586 362.50000000 0.592215 -0.035001 -0.805020 0.000000
144.04499817 149.71899414 440.00000000 -0.348959 -0.929190 0.121794 0.000000
177.21899414 255.78900146 477.50000000 0.698706 0.715375 0.006945 0.000000
209.52000427 242.69400024 412.50000000 -0.001131 0.984919 -0.173011 0.000000
90.35549927 257.53500366 320.00000000 -0.390177 0.785210 -0.480840 0.000000
90.79199982 301.62200928 400.00000000 -0.553709 0.831264 -0.049063 0.000000
278.48699951 185.94900513 447.50000000 0.276884 0.294280 -0.914732 0.000000
93.41100311 257.53500366 317.50000000 -0.533115 0.536479 -0.654201 0.000000
182.45700073 145.79100037 397.50000000 -0.313483 -0.943117 -0.110720 0.000000
130.07699585 300.31201172 357.50000000 0.547766 -0.118318 -0.828223 0.000000
147.53700256 227.85299683 492.50000000 0.000978 0.000978 0.999999 0.000000
137.06100464 264.51901245 477.50000000 -0.726811 0.586349 0.357689 0.000000
164.99699402 154.08500671 450.00000000 0.456668 -0.430666 0.778448 0.000000
112.61699677 238.32899475 487.50000000 0.000978 0.000978 0.999999 0.000000
90.79199982 257.97100830 320.00000000 -0.671529 0.333325 -0.661773 0.000000
177.21899414 289.83599854 452.50000000 0.452946 0.213767 0.865531 0.000000
112.61699677 152.77499390 407.50000000 -0.506151 -0.859475 0.071506 0.000000
93.41100311 188.56799316 467.50000000 -0.605402 -0.474595 0.638943 0.000000
274.99499512 199.04400635 467.50000000 0.000978 0.000978 0.999999 0.000000
160.63200378 322.13699341 392.50000000 0.564566 0.760797 -0.320082 0.000000
236.58299255 232.21800232 447.50000000 -0.161057 0.962415 -0.218671 0.000000
96.90299988 306.42300415 422.50000000 0.001321 0.886089 0.463513 0.000000
252.29699707 231.34500122 467.50000000 -0.566081 0.410945 0.714616 0.000000
228.72599792 140.11700439 450.00000000 -0.194583 -0.586814 0.785994 0.000000
252.29699707 167.61599731 467.50000000 0.400261 -0.236585 0.885335 0.000000
197.29800415 221.30599976 430.00000000 0.001374 0.633537 0.773712 0.000000
139.67999268 151.02900696 437.50000000 -0.260692 -0.949567 0.174245 0.000000
214.75799561 253.16999817 412.50000000 0.000978 0.000978 -0.999999 0.000000
186.82200623 233.96400452 412.50000000 -0.430911 -0.880940 -0.195601 0.000000
185.51300049 254.04299927 395.00000000 0.956523 -0.215385 -0.196656 0.000000
104.76000214 206.02799988 482.50000000 -0.205704 0.192432 0.959508 0.000000
221.74200439 174.16299438 405.00000000 0.427897 0.530328 -0.731886 0.000000
103.88700104 207.77400208 482.50000000 0.000978 0.000978 0.999999 0.000000
230.90899658 154.52099609 395.00000000 0.529212 0.721653 -0.446264 0.000000
273.24899292 173.72700500 432.50000000 0.927253 -0.084785 -0.364710 0.000000
182.45700073 271.06600952 395.00000000 0.659448 0.315952 -0.682131 0.000000
117.41899872 224.36099243 335.00000000 0.633537 0.001374 -0.773712 0.000000
139.67999268 159.32299805 460.00000000 -0.282170 -0.849594 0.445613 0.000000
227.85299683 245.31300354 452.50000000 0.979646 -0.008115 0.200567 0.000000
122.22000122 288.96301270 462.50000000 -0.256523 0.477716 0.840228 0.000000
220.86900330 214.75799561 472.50000000 0.689957 0.020993 0.723546 0.000000
142.29899597 264.51901245 367.50000000 -0.000978 -0.000978 -0.999999 0.000000
186.82200623 282.41500854 450.00000000 0.547295 0.093370 0.831715 0.000000
95.15699768 195.11599731 325.00000000 -0.231330 -0.575996 -0.784038 0.000000
72.89550018 213.01199341 355.00000000 -0.830494 0.277866 -0.482773 0.000000
122.65699768 193.80599976 350.00000000 0.556803 -0.577112 -0.597421 0.000000
232.21800232 192.93299866 407.50000000 -0.000978 -0.000978 -0.999999 0.000000
84.24449921 285.47100830 360.00000000 -0.662804 0.685381 -0.301568 0.000000
227.85299683 234.40100098 455.00000000 0.782446 0.619971 0.058434 0.000000
271.50299072 202.53599548 467.50000000 0.000978 0.000978 0.999999 0.000000
212.13900757 147.53700256 387.50000000 -0.000978 -0.000978 -0.999999 0.000000
272.37600708 162.37800598 432.50000000 -0.000978 -0.000978 0.999999 0.000000
131.82299805 246.18600464 352.50000000 0.641801 0.120060 -0.757414 0.000000
121.34700012 169.36199951 472.50000000 -0.169772 -0.340947 0.924626 0.000000
184.20300293 220.86900330 487.50000000 0.000978 0.000978 0.999999 0.000000
162.37800598 213.88499451 492.50000000 0.000978 0.000978 0.999999 0.000000
75.07800293 274.12200928 412.50000000 -0.655427 0.009700 0.755196 0.000000
192.05999756 190.31399536 477.50000000 -0.066786 0.572659 -0.817069 0.000000
107.37899780 271.50299072 467.50000000 -0.221275 0.351437 0.909686 0.000000
190.31399536 247.05900574 432.50000000 0.577706 0.796051 -0.180438 0.000000
195.55200195 240.07499695 407.50000000 0.272996 0.665727 -0.694464 0.000000
250.55099487 156.26699829 417.50000000 -0.000978 -0.000978 -0.999999 0.000000
178.96499634 301.18499756 442.50000000 0.489612 0.758162 0.430662 0.000000
286.34399414 192.93299866 457.50000000 0.968033 0.250166 -0.018128 0.000000
188.13200378 259.28100586 400.00000000 0.883784 -0.330852 -0.330852 0.000000
146.66400146 213.88499451 367.50000000 -0.000978 -0.000978 -0.999999 0.000000
218.68699646 207.77400208 475.00000000 0.744062 -0.152435 0.650488 0.000000
104.76000214 164.12399292 447.50000000 -0.511099 -0.581945 0.632549 0.000000
277.61401367 181.58399963 442.50000000 0.588841 0.448721 -0.672247 0.000000
137.93400574 297.69299316 367.50000000 0.871935 0.174975 -0.457288 0.000000
171.98100281 232.21800232 377.50000000 -0.000978 -0.000978 -0.999999 0.000000
186.38499451 253.16999817 460.00000000 0.914496 0.112064 0.388765 0.000000
226.97999573 153.64799500 387.50000000 0.879187 -0.310212 0.361662 0.000000
101.26799774 158.01300049 427.50000000 -0.103962 -0.963896 0.245145 0.000000
276.74099731 177.21899414 437.50000000 0.849594 0.282170 -0.445613 0.000000
256.66198730 229.59899902 447.50000000 0.161558 0.774572 -0.611504 0.000000
268.88400269 163.25100708 462.50000000 0.000978 0.000978 0.999999 0.000000
69.83999634 213.88499451 362.50000000 -0.937254 -0.218646 -0.271567 0.000000
128.33099365 203.40899658 352.50000000 0.549162 -0.183054 -0.815422 0.000000
125.71199799 151.46499634 425.00000000 -0.193264 -0.966321 -0.169917 0.000000
81.18900299 262.77301025 337.50000000 -0.737091 0.192352 -0.647840 0.000000
92.53800201 177.21899414 457.50000000 -0.549947 -0.683672 0.479741 0.000000
188.13200378 191.18699646 425.00000000 0.000978 0.000978 0.999999 0.000000
261.02700806 160.63200378 462.50000000 0.000978 0.000978 0.999999 0.000000
101.26799774 184.20300293 472.50000000 -0.476858 -0.252995 0.841784 0.000000
157.13999939 307.29598999 387.50000000 0.751422 -0.009723 -0.659751 0.000000
127.45800018 293.76400757 460.00000000 -0.101481 0.678009 0.728014 0.000000
261.89999390 158.88600159 427.50000000 -0.000978 -0.000978 -0.999999 0.000000
276.74099731 144.04499817 447.50000000 -0.000978 -0.000978 -0.999999 0.000000
230.47200012 167.61599731 407.50000000 0.526365 0.198714 -0.826712 0.000000
87.30000305 191.18699646 337.50000000 0.000978 0.000978 -0.999999 0.000000
151.90199280 316.02600098 442.50000000 0.000978 0.000978 0.999999 0.000000
124.83899689 192.05999756 492.50000000 -0.427529 -0.853514 0.297881 0.000000
215.63099670 240.07499695 412.50000000 0.493953 -0.544186 -0.678139 0.000000
151.90199280 199.04400635 387.50000000 0.060354 0.227867 -0.971820 0.000000
86.42700195 284.59799194 352.50000000 -0.579999 0.610436 -0.539416 0.000000
196.42500305 273.24899292 447.50000000 0.718383 0.519293 0.462884 0.000000
197.29800415 240.07499695 452.50000000 -0.001251 0.939829 0.341642 0.000000
210.39300537 199.91700745 477.50000000 0.000978 0.000978 0.999999 0.000000
152.77499390 289.83599854 462.50000000 -0.151723 0.776641 0.611399 0.000000
73.76850128 221.74200439 440.00000000 -0.997568 0.052391 0.045976 0.000000
258.40798950 184.20300293 422.50000000 0.931068 0.215512 -0.294392 0.000000
164.12399292 231.78199768 490.00000000 0.362395 0.885688 0.290217 0.000000
128.33099365 249.67799377 487.50000000 -0.427567 0.376704 0.821755 0.000000
93.41100311 199.91700745 472.50000000 0.000978 0.000978 0.999999 0.000000
155.39399719 178.96499634 382.50000000 -0.000978 -0.000978 -0.999999 0.000000
274.99499512 210.39300537 467.50000000 0.000978 0.000978 0.999999 0.000000
117.85500336 232.21800232 487.50000000 -0.689074 0.609756 0.391632 0.000000
214.75799561 218.25000000 477.50000000 0.227308 0.408560 0.883974 0.000000
152.33900452 309.91500854 380.00000000 0.705677 -0.347134 -0.617671 0.000000
138.80700684 202.53599548 492.50000000 -0.403356 -0.548235 0.732627 0.000000
235.71000671 194.67900085 472.50000000 0.000978 0.000978 0.999999 0.000000
185.07600403 253.16999817 462.50000000 0.929325 0.032494 0.367831 0.000000
133.56900024 152.77499390 447.50000000 0.188179 -0.977793 -0.092245 0.000000
78.13349915 188.56799316 425.00000000 -0.787034 -0.561720 0.255043 0.000000
267.13800049 164.99699402 432.50000000 0.497525 -0.688494 -0.527678 0.000000
265.39199829 204.28199768 437.50000000 -0.000978 -0.000978 -0.999999 0.000000
129.20399475 307.29598999 447.50000000 0.000978 0.000978 0.999999 0.000000
155.39399719 233.09100342 367.50000000 0.531122 0.253880 -0.808365 0.000000
153.64799500 284.59799194 467.50000000 0.250106 0.368500 0.895352 0.000000
179.83799744 272.37600708 392.50000000 0.568054 -0.294370 -0.768544 0.000000
90.35549927 229.59899902 475.00000000 -0.449644 0.033556 0.892577 0.000000
226.97999573 221.74200439 472.50000000 0.000978 0.000978 0.999999 0.000000
152.77499390 228.72599792 412.50000000 0.205032 -0.111950 -0.972332 0.000000
255.78900146 171.98100281 467.50000000 0.435849 -0.495058 0.751634 0.000000
167.61599731 257.53500366 377.50000000 -0.000978 -0.000978 -0.999999 0.000000
80.31600189 284.59799194 422.50000000 -0.955518 0.262999 0.133482 0.000000
253.16999817 148.41000366 457.50000000 0.000978 0.000978 0.999999 0.000000
161.50500488 265.39199829 377.50000000 -0.000978 -0.000978 -0.999999 0.000000
166.30700684 319.51800537 430.00000000 0.088589 0.788589 0.608506 0.000000
169.36199951 262.77301025 377.50000000 0.001374 0.619822 -0.784741 0.000000
133.56900024 153.64799500 367.50000000 -0.690960 0.625311 -0.362713 0.000000
127.45800018 189.87800598 490.00000000 0.035394 -0.723448 0.689470 0.000000
189.44099426 206.02799988 407.50000000 -0.581270 0.687864 -0.434704 0.000000
274.99499512 197.29800415 467.50000000 0.000978 0.000978 0.999999 0.000000
286.34399414 147.10099792 445.00000000 0.573398 -0.767178 0.287493 0.000000
224.36099243 255.78900146 437.50000000 0.865993 0.448755 -0.220625 0.000000
94.28399658 165.86999512 437.50000000 -0.752629 -0.607468 0.254032 0.000000
132.69599915 268.88400269 477.50000000 0.000978 0.000978 0.999999 0.000000
284.59799194 165.86999512 442.50000000 0.752138 0.644046 0.139618 0.000000
119.60099792 164.99699402 357.50000000 0.786330 0.009674 -0.617732 0.000000
165.86999512 261.02700806 477.50000000 0.000978 0.000978 0.999999 0.000000
285.47100830 165.43400574 460.00000000 0.262518 -0.570623 0.778122 0.000000
102.57700348 254.91600037 475.00000000 0.001362 0.581753 0.813364 0.000000
159.75900269 219.12300110 382.50000000 0.656230 -0.491753 -0.572313 0.000000
193.80599976 142.29899597 437.50000000 -0.000978 -0.000978 0.999999 0.000000
191.18699646 173.72700500 472.50000000 0.169323 -0.098670 0.980609 0.000000
77.69699860 211.70199585 340.00000000 -0.937603 -0.263309 -0.227087 0.000000
175.03599548 306.42300415 440.00000000 0.473016 0.473016 0.743311 0.000000
192.93299866 166.30700684 465.00000000 0.070598 -0.629616 0.773692 0.000000
174.60000610 294.20098877 452.50000000 -0.581165 -0.087968 0.809017 0.000000
96.90299988 166.30700684 370.00000000 -0.839428 -0.503657 -0.204185 0.000000
85.55400085 201.66299438 322.50000000 -0.921216 0.367101 0.128832 0.000000
195.55200195 236.58299255 467.50000000 0.733763 0.488623 0.472059 0.000000
145.79100037 277.61401367 372.50000000 -0.292827 0.955736 0.028660 0.000000
185.94900513 235.27400208 410.00000000 -0.413139 -0.628834 -0.658699 0.000000
150.15600586 154.52099609 452.50000000 -0.142437 -0.841408 0.521291 0.000000
102.57700348 314.27999878 385.00000000 -0.867404 -0.483166 0.118999 0.000000
140.55299377 194.67900085 387.50000000 -0.144090 0.865995 0.478844 0.000000
89.91899872 208.64700317 472.50000000 -0.869982 0.155926 0.467779 0.000000
178.52900696 254.91600037 475.00000000 0.475130 0.656452 0.585938 0.000000
227.85299683 216.50399780 472.50000000 0.000978 0.000978 0.999999 0.000000
229.16299438 236.58299255 445.00000000 0.987597 0.035641 -0.152911 0.000000
78.56999969 191.18699646 447.50000000 -0.682324 -0.582227 0.442092 0.000000
207.77400208 251.42399597 452.50000000 -0.942311 -0.125014 0.310519 0.000000
159.75900269 229.59899902 402.50000000 0.000978 0.000978 0.999999 0.000000
101.26799774 233.09100342 482.50000000 -0.615801 -0.748096 0.247266 0.000000
150.59199524 288.96301270 465.00000000 0.271012 0.831621 0.484725 0.000000
81.62550354 185.94900513 430.00000000 -0.725996 -0.571948 0.381845 0.000000
178.09199524 291.58200073 402.50000000 -0.000978 -0.000978 -0.999999 0.000000
81.18900299 289.39999390 420.00000000 -0.944109 0.001244 -0.329630 0.000000
193.80599976 273.68600464 450.00000000 0.718151 0.566266 0.404476 0.000000
109.99800110 220.86900330 487.50000000 0.000978 0.000978 0.999999 0.000000
148.84700012 162.37800598 375.00000000 0.503176 -0.020344 -0.863944 0.000000
95.15699768 292.45498657 352.50000000 -0.818545 0.496135 -0.289543 0.000000
213.01199341 240.94799805 462.50000000 0.000978 0.000978 0.999999 0.000000
226.97999573 249.67799377 452.50000000 0.880373 0.353058 0.316692 0.000000
263.64599609 153.64799500 427.50000000 -0.000978 -0.000978 -0.999999 0.000000
96.02999878 285.03500366 450.00000000 -0.534077 0.534077 0.655381 0.000000
151.90199280 240.07499695 362.50000000 0.610301 0.264728 -0.746627 0.000000
164.99699402 229.59899902 397.50000000 0.000978 0.000978 0.999999 0.000000
75.07800293 238.32899475 337.50000000 -0.944754 0.090918 -0.314918 0.000000
174.60000610 302.93099976 442.50000000 0.220280 0.549930 0.805639 0.000000
100.39499664 202.53599548 322.50000000 0.691755 -0.001381 -0.722131 0.000000
225.23399353 178.96499634 472.50000000 0.000978 0.000978 0.999999 0.000000
138.80700684 169.36199951 477.50000000 0.000978 0.000978 0.999999 0.000000
123.09300232 178.96499634 362.50000000 0.886089 -0.001321 -0.463513 0.000000
154.52099609 182.45700073 487.50000000 0.287236 -0.319642 0.902953 0.000000
265.39199829 170.23500061 427.50000000 0.534263 -0.108590 -0.838315 0.000000
99.52200317 181.58399963 467.50000000 -0.588786 -0.531426 0.609031 0.000000
231.34500122 233.09100342 462.50000000 -0.000978 -0.000978 0.999999 0.000000
210.39300537 140.99000549 405.00000000 -0.207495 -0.834524 -0.510408 0.000000
92.53800201 246.18600464 472.50000000 0.000978 0.000978 0.999999 0.000000
211.26600647 161.50500488 462.50000000 -0.318734 -0.192364 0.928119 0.000000
150.15600586 217.81399536 370.00000000 0.534077 -0.534077 -0.655381 0.000000
259.28100586 216.50399780 437.50000000 0.722662 0.403308 -0.561339 0.000000
89.91899872 296.82000732 427.50000000 -0.829625 0.503316 0.241653 0.000000
169.36199951 280.66900635 390.00000000 0.661245 0.286593 -0.693267 0.000000
160.63200378 223.92399597 395.00000000 0.735669 -0.569287 0.367019 0.000000
171.98100281 185.07600403 392.50000000 0.334225 0.077942 -0.939265 0.000000
250.55099487 234.83700562 462.50000000 -0.205808 0.219260 0.953713 0.000000
214.75799561 259.28100586 447.50000000 0.226051 0.872767 0.432641 0.000000
169.36199951 264.51901245 382.50000000 0.610552 0.617279 -0.496178 0.000000
104.76000214 188.56799316 477.50000000 -0.561614 -0.625702 0.541375 0.000000
178.52900696 314.27999878 420.00000000 0.669264 0.740920 0.055891 0.000000
82.06199646 203.40899658 332.50000000 -0.883935 -0.441244 -0.154797 0.000000
251.42399597 204.28199768 467.50000000 0.000978 0.000978 0.999999 0.000000
117.41899872 259.28100586 345.00000000 0.615795 -0.239737 -0.750549 0.000000
170.23500061 230.47200012 487.50000000 0.000978 0.000978 0.999999 0.000000
118.72799683 226.10699463 492.50000000 0.000978 0.000978 0.999999 0.000000
226.10699463 161.50500488 402.50000000 0.271803 0.417575 -0.867038 0.000000
94.28399658 293.32800293 357.50000000 -0.682319 0.662963 -0.308092 0.000000
164.12399292 157.13999939 452.50000000 0.116635 -0.783965 0.609750 0.000000
255.78900146 231.34500122 467.50000000 0.000978 0.000978 0.999999 0.000000
193.80599976 146.22799683 390.00000000 -0.157774 -0.947991 -0.276441 0.000000
147.97399902 319.51800537 375.00000000 0.541128 0.487518 -0.685206 0.000000
138.80700684 288.96301270 367.50000000 0.858241 -0.270782 -0.436005 0.000000
75.51450348 191.18699646 445.00000000 -0.571557 -0.625510 0.531093 0.000000
148.41000366 169.36199951 477.50000000 0.124159 -0.946547 0.297715 0.000000
240.07499695 163.25100708 467.50000000 -0.000978 -0.000978 0.999999 0.000000
75.95099640 213.88499451 347.50000000 -0.964813 -0.087710 -0.247877 0.000000
130.94999695 319.51800537 432.50000000 -0.681103 0.611502 0.402696 0.000000
172.85400391 140.99000549 410.00000000 0.274483 -0.961307 -0.023386 0.000000
229.16299438 242.69400024 430.00000000 0.943117 0.313483 -0.110720 0.000000
83.80799866 202.53599548 462.50000000 0.000978 0.000978 0.999999 0.000000
123.96600342 206.90100098 347.50000000 0.962488 -0.240297 -0.125994 0.000000
175.47300720 232.21800232 487.50000000 0.000978 0.000978 0.999999 0.000000
245.31300354 147.53700256 402.50000000 -0.000978 -0.000978 -0.999999 0.000000
161.50500488 240.07499695 487.50000000 -0.000978 -0.000978 0.999999 0.000000
170.23500061 265.39199829 382.50000000 0.651605 0.567418 -0.503436 0.000000
107.81600189 188.56799316 480.00000000 -0.407917 -0.748666 0.522592 0.000000
178.09199524 287.21701050 452.50000000 0.455605 0.248373 0.854830 0.000000
256.66198730 237.45599365 457.50000000 0.061660 0.998053 0.009406 0.000000
83.37149811 196.42500305 340.00000000 -0.832469 -0.446806 -0.327657 0.000000
272.37600708 228.72599792 467.50000000 0.000978 0.000978 0.999999 0.000000
136.18800354 226.97999573 492.50000000 0.000978 0.000978 0.999999 0.000000
98.64900208 292.45498657 342.50000000 0.000978 0.000978 -0.999999 0.000000
107.37899780 168.92599487 460.00000000 -0.555778 -0.186269 0.810194 0.000000
114.36299896 199.91700745 337.50000000 -0.000978 -0.000978 -0.999999 0.000000
91.22850037 179.83799744 355.00000000 -0.712710 -0.594744 -0.371920 0.000000
168.48899841 171.98100281 412.50000000 -0.256807 -0.481320 -0.838082 0.000000
220.86900330 247.93200684 417.50000000 0.816415 0.283630 -0.503012 0.000000
139.67999268 217.37699890 357.50000000 0.920261 -0.286592 -0.266429 0.000000
233.96400452 185.94900513 407.50000000 -0.000978 -0.000978 -0.999999 0.000000
107.37899780 186.82200623 477.50000000 -0.407917 -0.748666 0.522592 0.000000
114.36299896 212.13900757 332.50000000 -0.000978 -0.000978 -0.999999 0.000000
107.81600189 155.39399719 420.00000000 0.701680 -0.701680 -0.123651 0.000000
112.61699677 266.26501465 337.50000000 0.984919 -0.001131 -0.173011 0.000000
213.88499451 187.69500732 472.50000000 0.000978 0.000978 0.999999 0.000000
101.26799774 299.00299072 350.00000000 -0.828387 0.551778 -0.096525 0.000000
175.47300720 312.97100830 405.00000000 0.883319 0.262446 -0.388420 0.000000
73.76850128 225.23399353 345.00000000 -0.946708 0.079654 -0.312087 0.000000
227.85299683 209.52000427 417.50000000 0.258049 0.278008 -0.925269 0.000000
149.28300476 240.07499695 487.50000000 0.000978 0.000978 0.999999 0.000000
97.77600098 180.71099854 337.50000000 -0.000978 -0.000978 -0.999999 0.000000
100.39499664 207.77400208 322.50000000 0.833995 -0.143181 -0.532871 0.000000
75.51450348 283.72500610 405.00000000 -0.978330 0.195181 -0.069101 0.000000
226.97999573 145.79100037 457.50000000 0.109910 -0.801613 0.587654 0.000000
290.70901489 156.26699829 447.50000000 0.995167 0.007531 0.097903 0.000000
196.42500305 221.74200439 487.50000000 -0.315485 -0.948930 0.001237 0.000000
254.91600037 169.36199951 462.50000000 0.685586 -0.599265 0.413344 0.000000
77.69699860 196.42500305 452.50000000 -0.838014 -0.407215 0.363192 0.000000
160.63200378 280.23300171 382.50000000 0.835152 -0.006790 -0.549978 0.000000
83.80799866 208.64700317 322.50000000 -0.767250 -0.110449 -0.631766 0.000000
185.94900513 303.80398560 432.50000000 0.826964 0.510907 0.234741 0.000000
174.60000610 233.96400452 487.50000000 0.000978 0.000978 0.999999 0.000000
81.18900299 259.28100586 337.50000000 -0.759328 -0.073763 -0.646514 0.000000
163.25100708 278.48699951 387.50000000 0.521259 0.317219 -0.792251 0.000000
185.07600403 146.22799683 440.00000000 0.001374 -0.633537 0.773712 0.000000
85.55400085 182.45700073 447.50000000 -0.640733 -0.580191 0.502832 0.000000
123.09300232 318.64498901 362.50000000 -0.222663 0.846726 -0.483194 0.000000
267.13800049 229.59899902 452.50000000 0.612691 0.545177 -0.572182 0.000000
94.28399658 296.82000732 362.50000000 -0.660840 0.637652 -0.395841 0.000000
225.23399353 178.09199524 407.50000000 0.125100 0.269953 -0.954712 0.000000
261.02700806 177.21899414 467.50000000 0.339041 -0.072557 0.937969 0.000000
81.62550354 209.52000427 325.00000000 -0.367214 0.732797 -0.572855 0.000000
81.18900299 292.01800537 405.00000000 -0.839505 0.542724 -0.026106 0.000000
123.09300232 212.13900757 342.50000000 0.900275 0.223971 -0.373285 0.000000
178.09199524 263.64599609 387.50000000 0.602049 0.602049 -0.524474 0.000000
191.18699646 178.09199524 472.50000000 0.678017 0.547436 -0.490516 0.000000
163.25100708 190.31399536 387.50000000 -0.001381 -0.688930 -0.724826 0.000000
178.96499634 259.28100586 472.50000000 0.324821 0.218932 0.920087 0.000000
229.59899902 228.28999329 435.00000000 0.963879 -0.160429 0.212601 0.000000
168.05299377 187.69500732 390.00000000 0.667856 0.424696 -0.611230 0.000000
140.55299377 294.20098877 372.50000000 0.154298 -0.238700 -0.958757 0.000000
230.47200012 222.61500549 422.50000000 0.568976 0.682438 -0.458852 0.000000
178.09199524 233.96400452 392.50000000 0.440995 -0.839915 0.316332 0.000000
131.82299805 214.75799561 352.50000000 0.543396 -0.651066 -0.529937 0.000000
143.60899353 312.53399658 370.00000000 0.659113 -0.406757 -0.632549 0.000000
194.67900085 242.25799561 415.00000000 0.512849 0.853801 0.089500 0.000000
225.23399353 136.18800354 437.50000000 -0.305774 -0.914425 0.265198 0.000000
113.48999786 268.01098633 342.50000000 0.896313 -0.070003 -0.437862 0.000000
254.91600037 178.96499634 467.50000000 0.000978 0.000978 0.999999 0.000000
217.37699890 154.52099609 462.50000000 0.068864 -0.313137 0.947208 0.000000
238.32899475 135.75199890 415.00000000 -0.191160 -0.966201 -0.172954 0.000000
122.22000122 312.09799194 440.00000000 -0.168443 0.763304 0.623694 0.000000
209.52000427 224.36099243 477.50000000 0.580468 0.144744 0.801315 0.000000
107.37899780 265.39199829 472.50000000 -0.742072 0.593980 0.310672 0.000000
84.68099976 181.14799500 430.00000000 -0.931496 -0.352494 0.089799 0.000000
194.67900085 230.03599548 480.00000000 0.377633 0.664569 0.644780 0.000000
258.40798950 145.79100037 452.50000000 0.915365 0.156557 -0.370941 0.000000
272.37600708 176.34599304 462.50000000 -0.158814 -0.221814 0.962069 0.000000
229.59899902 163.25100708 402.50000000 -0.069611 0.991666 -0.108410 0.000000
96.02999878 163.25100708 392.50000000 -0.625664 -0.777427 -0.064428 0.000000
192.93299866 179.83799744 397.50000000 0.000978 0.000978 -0.999999 0.000000
207.33799744 251.42399597 445.00000000 -0.676648 -0.731944 0.080034 0.000000
227.85299683 184.20300293 472.50000000 0.000978 0.000978 0.999999 0.000000
185.94900513 201.66299438 422.50000000 -0.970983 -0.177822 0.159912 0.000000
131.82299805 146.66400146 417.50000000 -0.534077 -0.534077 0.655381 0.000000
219.99600220 190.31399536 407.50000000 0.210271 0.123614 -0.969797 0.000000
66.78450012 233.96400452 360.00000000 -0.918973 -0.230818 -0.319705 0.000000
104.76000214 156.26699829 382.50000000 -0.652286 -0.751961 -0.095278 0.000000
171.10800171 246.18600464 482.50000000 0.000978 0.000978 0.999999 0.000000
94.28399658 283.28900146 450.00000000 -0.610241 0.532481 0.586575 0.000000
83.80799866 295.94699097 402.50000000 -0.779050 0.626838 -0.012454 0.000000
243.56700134 207.77400208 472.50000000 0.000978 0.000978 0.999999 0.000000
247.93200684 151.90199280 412.50000000 0.532299 0.620170 -0.576235 0.000000
119.60099792 179.83799744 352.50000000 0.777218 -0.623800 0.082498 0.000000
102.14099884 213.01199341 322.50000000 0.844008 -0.413424 -0.341659 0.000000
95.15699768 247.05900574 472.50000000 0.000978 0.000978 0.999999 0.000000
103.88700104 213.01199341 322.50000000 0.817083 -0.441193 -0.371112 0.000000
231.34500122 235.27400208 435.00000000 0.849594 -0.282170 0.445613 0.000000
89.04599762 203.40899658 472.50000000 -0.761685 -0.309484 0.569259 0.000000
206.90100098 242.69400024 412.50000000 -0.458627 0.733473 -0.501676 0.000000
170.23500061 233.09100342 417.50000000 -0.183483 -0.559546 -0.808234 0.000000
224.36099243 145.79100037 457.50000000 -0.083158 -0.704658 0.704658 0.000000
111.74400330 193.80599976 337.50000000 0.784216 -0.392916 -0.480231 0.000000
226.10699463 189.44099426 407.50000000 -0.000978 -0.000978 -0.999999 0.000000
120.47399902 148.41000366 402.50000000 -0.446377 -0.891371 0.078772 0.000000
165.86999512 287.21701050 392.50000000 -0.000978 -0.000978 -0.999999 0.000000
95.15699768 176.34599304 457.50000000 -0.000978 -0.000978 0.999999 0.000000
159.75900269 322.13699341 392.50000000 0.564566 0.760797 -0.320082 0.000000
93.41100311 226.97999573 477.50000000 -0.397875 0.329757 0.856128 0.000000
155.39399719 261.46398926 480.00000000 0.940412 0.156963 0.301642 0.000000
151.90199280 295.07400513 457.50000000 0.183109 0.320091 0.929523 0.000000
204.28199768 162.37800598 462.50000000 0.000978 0.000978 0.999999 0.000000
208.64700317 228.72599792 412.50000000 0.575177 -0.484624 -0.659022 0.000000
161.50500488 278.48699951 382.50000000 0.894346 -0.044650 -0.445143 0.000000
177.21899414 253.60699463 380.00000000 -0.629971 0.449502 -0.633313 0.000000
127.45800018 170.67199707 475.00000000 -0.542807 -0.715443 0.439889 0.000000
268.88400269 192.93299866 437.50000000 -0.000978 -0.000978 -0.999999 0.000000
146.66400146 312.97100830 445.00000000 0.396611 0.801250 0.447994 0.000000
235.71000671 162.37800598 467.50000000 0.000978 0.000978 0.999999 0.000000
163.25100708 224.36099243 377.50000000 -0.000978 -0.000978 -0.999999 0.000000
248.80499268 217.37699890 467.50000000 0.000978 0.000978 0.999999 0.000000
147.53700256 199.04400635 387.50000000 -0.000978 -0.000978 -0.999999 0.000000
133.56900024 220.86900330 497.50000000 0.000978 0.000978 0.999999 0.000000
194.67900085 216.50399780 427.50000000 -0.759185 -0.645960 -0.079838 0.000000
170.23500061 247.05900574 482.50000000 0.000978 0.000978 0.999999 0.000000
95.15699768 170.23500061 367.50000000 -0.786676 -0.557425 -0.265366 0.000000
164.12399292 327.81201172 415.00000000 0.489573 0.533016 0.690081 0.000000
274.12200928 155.39399719 432.50000000 -0.566056 0.043328 0.823227 0.000000
112.61699677 195.55200195 337.50000000 0.837592 -0.353580 -0.416439 0.000000
260.15399170 185.07600403 467.50000000 0.000978 0.000978 0.999999 0.000000
116.98200226 216.50399780 337.50000000 0.776657 -0.168049 -0.607094 0.000000
157.13999939 236.58299255 402.50000000 0.000978 0.000978 0.999999 0.000000
81.18900299 182.02099609 415.00000000 -0.957264 -0.273319 -0.094561 0.000000
75.95099640 267.13800049 352.50000000 -0.874505 0.158604 -0.458351 0.000000
281.97900391 189.44099426 462.50000000 -0.000978 -0.000978 0.999999 0.000000
238.32899475 168.48899841 412.50000000 0.205810 -0.620524 -0.756699 0.000000
178.96499634 273.24899292 462.50000000 0.259238 0.896224 0.359971 0.000000
126.14900208 144.04499817 380.00000000 -0.662761 -0.662761 0.348563 0.000000
203.40899658 207.77400208 407.50000000 -0.507679 -0.688634 0.517732 0.000000
183.33000183 282.85198975 452.50000000 0.560302 0.476675 0.677380 0.000000
87.30000305 293.76400757 375.00000000 -0.701680 0.701680 -0.123651 0.000000
266.26501465 175.47300720 462.50000000 0.226133 -0.116260 0.967134 0.000000
83.80799866 198.17100525 337.50000000 -0.809416 -0.405510 -0.424743 0.000000
192.93299866 229.59899902 412.50000000 -0.952846 -0.267863 -0.142594 0.000000
104.76000214 217.37699890 322.50000000 -0.000978 -0.000978 -0.999999 0.000000
113.48999786 240.07499695 487.50000000 0.000978 0.000978 0.999999 0.000000
176.34599304 292.45498657 452.50000000 0.496472 0.355082 0.792106 0.000000
103.45099640 291.58200073 450.00000000 -0.327096 0.796200 0.508993 0.000000
77.26049805 219.12300110 335.00000000 -0.961154 -0.191176 -0.199087 0.000000
121.34700012 253.16999817 482.50000000 -0.260630 0.292309 0.920124 0.000000
283.72500610 196.86199951 455.00000000 0.589259 0.100392 -0.801683 0.000000
155.39399719 316.89898682 437.50000000 -0.701680 0.701680 0.123651 0.000000
251.42399597 160.63200378 417.50000000 -0.000978 -0.000978 -0.999999 0.000000
143.17199707 243.56700134 487.50000000 0.000978 0.000978 0.999999 0.000000
108.68800354 317.77200317 410.00000000 -0.686332 0.726120 0.041208 0.000000
215.63099670 158.88600159 387.50000000 0.178756 0.830691 -0.527256 0.000000
226.10699463 201.66299438 412.50000000 0.070822 0.703884 -0.706775 0.000000
125.71199799 150.59199524 430.00000000 0.312775 -0.935568 -0.163966 0.000000
215.19500732 137.06100464 425.00000000 0.000978 0.000978 0.999999 0.000000
118.72799683 264.51901245 477.50000000 0.000978 0.000978 0.999999 0.000000
187.69500732 256.22500610 430.00000000 0.999241 0.037842 0.009205 0.000000
230.47200012 187.69500732 472.50000000 0.000978 0.000978 0.999999 0.000000
126.58499908 255.78900146 352.50000000 0.227411 0.195116 -0.954051 0.000000
277.61401367 151.90199280 452.50000000 0.222794 -0.188107 0.956545 0.000000
151.02900696 218.68699646 370.00000000 0.657101 -0.282985 -0.698669 0.000000
125.27600098 212.13900757 345.00000000 0.824298 -0.346490 -0.447747 0.000000
97.77600098 178.09199524 462.50000000 -0.570140 -0.607360 0.553222 0.000000
131.82299805 231.34500122 347.50000000 -0.000978 -0.000978 -0.999999 0.000000
108.25199890 287.21701050 457.50000000 0.000978 0.000978 0.999999 0.000000
92.97450256 185.07600403 465.00000000 -0.557517 -0.425169 0.713026 0.000000
85.99050140 184.20300293 360.00000000 -0.807376 -0.554022 -0.202989 0.000000
288.96301270 164.12399292 457.50000000 0.374475 -0.298670 0.877818 0.000000
245.31300354 226.97999573 467.50000000 0.000978 0.000978 0.999999 0.000000
159.75900269 301.18499756 452.50000000 -0.012009 0.471039 0.882031 0.000000
123.96600342 281.97900391 467.50000000 -0.326392 0.347646 0.878982 0.000000
192.93299866 144.04499817 437.50000000 -0.000978 -0.000978 0.999999 0.000000
109.12500000 219.99600220 322.50000000 0.727502 -0.423964 -0.539440 0.000000
89.04599762 285.47100830 352.50000000 -0.250113 0.750339 -0.611911 0.000000
85.11750031 244.44000244 465.00000000 -0.420498 0.639889 0.643213 0.000000
65.03849792 244.44000244 390.00000000 0.000000 0.000000 0.000000 0.000000
199.04400635 170.23500061 467.50000000 -0.058186 -0.420835 0.905269 0.000000
267.13800049 201.66299438 442.50000000 -0.000978 -0.000978 -0.999999 0.000000
258.40798950 230.47200012 447.50000000 -0.000978 -0.000978 -0.999999 0.000000
250.55099487 151.90199280 457.50000000 0.137561 -0.209556 0.968072 0.000000
109.12500000 220.86900330 322.50000000 0.727502 -0.423964 -0.539440 0.000000
109.56199646 220.86900330 325.00000000 0.694416 -0.012525 -0.719465 0.000000
133.56900024 174.16299438 480.00000000 -0.947653 -0.096215 0.304461 0.000000
79.87950134 221.74200439 325.00000000 -0.961586 -0.123280 -0.245263 0.000000
105.63300323 221.74200439 322.50000000 0.525710 -0.532429 -0.663437 0.000000
178.96499634 149.71899414 445.00000000 0.439203 -0.829607 0.344751 0.000000
184.20300293 284.59799194 452.50000000 0.553793 0.450684 0.700141 0.000000
264.51901245 219.12300110 467.50000000 0.000978 0.000978 0.999999 0.000000
80.31600189 267.13800049 442.50000000 -0.742454 0.023860 0.669472 0.000000
211.26600647 256.66198730 452.50000000 -0.000978 -0.000978 0.999999 0.000000
74.64150238 264.51901245 435.00000000 -0.658616 0.723702 0.206108 0.000000
254.91600037 160.63200378 462.50000000 -0.017960 -0.238268 0.971033 0.000000
188.56799316 147.10099792 390.00000000 -0.157774 -0.947991 -0.276441 0.000000
188.56799316 274.55899048 455.00000000 0.340413 0.643364 0.685712 0.000000
105.63300323 181.58399963 337.50000000 0.000978 0.000978 -0.999999 0.000000
146.66400146 254.04299927 362.50000000 0.862964 0.339955 -0.373797 0.000000
165.86999512 229.59899902 397.50000000 0.000978 0.000978 0.999999 0.000000
120.47399902 224.36099243 337.50000000 0.458484 0.688560 -0.561852 0.000000
80.31600189 223.48800659 322.50000000 -0.984919 -0.001131 -0.173011 0.000000
137.93400574 263.64599609 362.50000000 -0.000978 -0.000978 -0.999999 0.000000
233.96400452 200.78999329 472.50000000 0.000978 0.000978 0.999999 0.000000
230.47200012 192.93299866 407.50000000 -0.000978 -0.000978 -0.999999 0.000000
73.33200073 201.66299438 387.50000000 -0.870319 -0.435909 0.229189 0.000000
160.63200378 298.56600952 387.50000000 0.729019 0.199668 -0.654724 0.000000
182.89399719 141.42599487 420.00000000 0.150930 -0.980432 -0.126389 0.000000
161.50500488 328.24798584 417.50000000 0.163731 0.925009 0.342855 0.000000
75.51450348 271.50299072 420.00000000 -0.886654 0.001317 0.462431 0.000000
117.85500336 288.08999634 462.50000000 -0.316766 0.438479 0.841068 0.000000
125.71199799 254.91600037 482.50000000 0.000978 0.000978 0.999999 0.000000
185.94900513 149.28300476 447.50000000 0.000978 0.000978 0.999999 0.000000
261.02700806 185.07600403 427.50000000 0.756113 0.447763 -0.477286 0.000000
200.78999329 223.48800659 482.50000000 0.246680 0.219118 0.944000 0.000000
161.50500488 326.50201416 417.50000000 0.163731 0.925009 0.342855 0.000000
83.37149811 179.83799744 445.00000000 -0.628223 -0.085601 0.773310 0.000000
110.43499756 224.36099243 325.00000000 0.863875 -0.162802 -0.476671 0.000000
87.30000305 290.70901489 432.50000000 -0.762776 0.507973 0.400171 0.000000
188.56799316 182.89399719 425.00000000 -0.889317 -0.441113 -0.120561 0.000000
185.07600403 261.02700806 392.50000000 0.583137 -0.449467 -0.676706 0.000000
281.97900391 179.83799744 462.50000000 0.000978 0.000978 0.999999 0.000000
127.45800018 250.55099487 352.50000000 0.487533 0.212824 -0.846769 0.000000
82.06199646 201.66299438 337.50000000 -0.883935 -0.441244 -0.154797 0.000000
178.09199524 141.42599487 412.50000000 0.105474 -0.987192 -0.119696 0.000000
227.85299683 164.12399292 467.50000000 0.000978 0.000978 0.999999 0.000000
140.55299377 289.83599854 372.50000000 0.696582 -0.070962 -0.713960 0.000000
153.64799500 271.50299072 477.50000000 0.331035 0.874115 0.355443 0.000000
178.09199524 255.78900146 477.50000000 0.698706 0.715375 0.006945 0.000000
209.52000427 227.41700745 475.00000000 0.445345 0.448607 0.774867 0.000000
159.75900269 226.97999573 402.50000000 0.000978 0.000978 0.999999 0.000000
268.88400269 228.72599792 467.50000000 0.000978 0.000978 0.999999 0.000000
89.04599762 268.88400269 457.50000000 -0.632213 0.304041 0.712647 0.000000
120.91100311 284.59799194 465.00000000 -0.305902 0.472187 0.826719 0.000000
151.90199280 185.94900513 492.50000000 0.069935 -0.157650 0.985016 0.000000
108.25199890 295.94699097 452.50000000 -0.367846 0.516930 0.772964 0.000000
274.12200928 199.91700745 447.50000000 0.885003 0.001319 -0.465583 0.000000
116.10900116 192.05999756 342.50000000 0.477873 -0.848034 -0.229075 0.000000
110.87100220 215.63099670 487.50000000 0.000978 0.000978 0.999999 0.000000
170.23500061 245.31300354 482.50000000 0.347726 0.612194 0.710145 0.000000
179.83799744 296.82000732 447.50000000 0.000978 0.000978 0.999999 0.000000
132.69599915 144.91799927 407.50000000 -0.189695 -0.953858 0.232747 0.000000
195.11599731 192.05999756 480.00000000 0.358655 0.610859 -0.705845 0.000000
85.11750031 177.21899414 440.00000000 -0.778691 -0.624946 0.055519 0.000000
109.12500000 160.63200378 447.50000000 -0.279713 -0.717664 0.637746 0.000000
140.11700439 205.15499878 365.00000000 0.835585 -0.274394 -0.475927 0.000000
216.50399780 228.72599792 472.50000000 0.194565 0.309345 0.930833 0.000000
177.21899414 195.11599731 485.00000000 0.889502 0.395170 -0.229406 0.000000
189.44099426 199.91700745 427.50000000 0.000978 0.000978 0.999999 0.000000
220.86900330 138.80700684 447.50000000 -0.202226 -0.935820 0.288696 0.000000
127.45800018 151.02900696 362.50000000 -0.000978 -0.000978 -0.999999 0.000000
74.64150238 213.01199341 455.00000000 -0.232078 -0.465672 0.853985 0.000000
184.20300293 271.50299072 462.50000000 0.309842 0.871526 0.380053 0.000000
170.23500061 267.13800049 382.50000000 -0.000978 -0.000978 -0.999999 0.000000
272.37600708 222.61500549 467.50000000 0.000978 0.000978 0.999999 0.000000
96.46649933 174.60000610 345.00000000 -0.422415 -0.441836 -0.791421 0.000000
198.17100525 218.25000000 432.50000000 -0.578136 0.049233 0.814454 0.000000
71.58599854 268.01098633 367.50000000 -0.953922 0.271226 0.128336 0.000000
118.29199982 188.56799316 350.00000000 0.885088 -0.296031 -0.359144 0.000000
147.53700256 189.44099426 492.50000000 0.000978 0.000978 0.999999 0.000000
167.61599731 231.34500122 487.50000000 0.187380 0.105479 0.976608 0.000000
110.87100220 284.59799194 342.50000000 0.688930 0.001381 -0.724826 0.000000
67.65750122 251.42399597 405.00000000 -0.942169 0.055727 0.330472 0.000000
155.39399719 201.66299438 387.50000000 0.077499 0.327074 -0.941815 0.000000
211.26600647 198.17100525 407.50000000 -0.238217 0.956859 -0.166352 0.000000
191.18699646 260.59100342 420.00000000 -0.000978 -0.000978 -0.999999 0.000000
261.02700806 136.18800354 437.50000000 0.000978 0.000978 0.999999 0.000000
171.10800171 226.97999573 492.50000000 -0.000978 -0.000978 0.999999 0.000000
169.79899597 171.10800171 390.00000000 0.218740 0.949684 0.224174 0.000000
97.77600098 286.78100586 450.00000000 -0.417030 0.465711 0.780512 0.000000
219.99600220 244.44000244 412.50000000 -0.000978 -0.000978 -0.999999 0.000000
177.21899414 230.47200012 417.50000000 -0.000978 -0.000978 -0.999999 0.000000
196.42500305 208.64700317 422.50000000 0.966733 -0.241367 -0.084668 0.000000
107.37899780 317.33599854 395.00000000 -0.701680 0.701680 0.123651 0.000000
241.82099915 134.87899780 435.00000000 -0.292010 -0.934712 0.202591 0.000000
75.07800293 257.53500366 442.50000000 0.000978 0.000978 0.999999 0.000000
229.59899902 193.80599976 407.50000000 -0.000978 -0.000978 -0.999999 0.000000
74.20500183 192.93299866 392.50000000 -0.942476 -0.222165 -0.249763 0.000000
108.25199890 247.05900574 482.50000000 0.000978 0.000978 0.999999 0.000000
177.21899414 172.85400391 472.50000000 0.000978 0.000978 0.999999 0.000000
100.39499664 220.86900330 482.50000000 -0.586471 -0.085017 0.805496 0.000000
164.12399292 192.05999756 387.50000000 0.481787 -0.240129 -0.842745 0.000000
96.46649933 164.99699402 375.00000000 -0.561720 -0.787034 -0.255043 0.000000
176.34599304 144.48199463 435.00000000 -0.102359 -0.921228 0.375315 0.000000
