170.47300720 130.76899719 190.00000000 0.076456 0.374232 -0.924178 0.000000
67.75199890 202.89199829 97.50000000 0.950901 -0.239416 0.196132 0.000000
132.58999634 159.54499817 111.25000000 -0.001378 -0.753685 0.657235 0.000000
228.02499390 142.78900146 151.25000000 0.000978 0.000978 0.999999 0.000000
104.17800140 183.58599854 201.25000000 -0.298834 -0.301778 -0.905333 0.000000
67.02349854 195.97099304 173.75000000 0.797739 -0.289081 -0.529193 0.000000
94.70709991 183.58599854 196.25000000 0.578461 0.069987 -0.812702 0.000000
156.63099670 158.08799744 183.75000000 -0.000978 -0.000978 -0.999999 0.000000
139.87500000 178.48599243 81.25000000 -0.655262 0.520504 0.547455 0.000000
84.50789642 190.87100220 51.25000000 -0.580879 -0.232040 0.780216 0.000000
93.97859955 237.86000061 145.00000000 0.234454 -0.933603 -0.270955 0.000000
66.65920258 176.30099487 90.00000000 0.989410 0.001108 0.145143 0.000000
85.96489716 214.18400574 66.25000000 -0.535257 -0.501698 0.679558 0.000000
191.60000610 125.30500031 111.25000000 -0.325017 -0.493075 0.806995 0.000000
169.74400330 154.44500732 186.25000000 0.270782 -0.436005 -0.858241 0.000000
252.06700134 151.16700745 155.00000000 0.885488 -0.287145 0.365320 0.000000
122.39099884 127.48999786 163.75000000 -0.282806 0.423445 -0.860648 0.000000
206.16999817 112.91999817 136.25000000 -0.193264 0.966321 -0.169917 0.000000
115.10600281 169.01600647 63.75000000 -0.482479 -0.001329 0.875906 0.000000
93.25000000 156.63099670 43.75000000 -0.641258 -0.421398 0.641258 0.000000
174.11500549 139.51100159 192.50000000 0.290078 -0.292993 -0.911049 0.000000
95.07129669 156.63099670 45.00000000 -0.641258 -0.421398 0.641258 0.000000
101.99199677 183.58599854 196.25000000 -0.074691 -0.852601 -0.517197 0.000000
155.90199280 144.97500610 91.25000000 -0.432373 -0.554962 0.710683 0.000000
136.96099854 116.92700195 122.50000000 0.208646 0.977957 -0.008159 0.000000
139.14700317 200.70599365 170.00000000 -0.402396 -0.402396 -0.822287 0.000000
83.05079651 220.74000549 166.25000000 0.172833 -0.668390 -0.723452 0.000000
227.29699707 164.64500427 153.75000000 0.041972 -0.207460 0.977343 0.000000
138.41799927 168.28700256 86.25000000 -0.627372 0.630718 0.456727 0.000000
119.47699738 202.16299438 180.00000000 0.000978 0.000978 -0.999999 0.000000
157.35899353 138.41799927 183.75000000 0.395357 -0.186817 -0.899329 0.000000
104.17800140 129.31199646 95.00000000 0.508178 0.845976 0.161491 0.000000
61.92390060 200.34199524 116.25000000 0.954272 -0.205929 0.216697 0.000000
93.25000000 158.08799744 43.75000000 -0.673364 -0.283101 0.682961 0.000000
142.06100464 185.40699768 132.50000000 -0.709244 -0.576984 -0.405046 0.000000
90.33599854 184.31500244 193.75000000 0.843123 0.031738 -0.536784 0.000000
155.53799438 122.39099884 172.50000000 0.156517 0.986640 -0.045216 0.000000
95.43560028 182.85800171 196.25000000 0.417323 -0.003900 -0.908750 0.000000
164.64500427 118.01999664 163.75000000 0.145307 0.953158 -0.265285 0.000000
151.53100586 199.61300659 158.75000000 -0.865994 0.297829 -0.401687 0.000000
127.12599945 207.62699890 80.00000000 -0.137075 -0.829821 0.540932 0.000000
233.12500000 143.51800537 151.25000000 0.000978 0.000978 0.999999 0.000000
93.97859955 158.45199585 45.00000000 -0.671016 -0.237291 0.702446 0.000000
152.25999451 114.74099731 117.50000000 -0.001211 0.960094 0.279674 0.000000
118.74800110 201.79899597 73.75000000 0.055789 -0.648009 0.759587 0.000000
104.90599823 135.50399780 171.25000000 0.730267 0.625261 -0.275242 0.000000
138.05400085 183.58599854 165.00000000 -0.747203 0.655829 -0.107586 0.000000
134.77499390 127.48999786 76.25000000 0.488841 -0.401142 0.774674 0.000000
118.38400269 171.20100403 197.50000000 -0.199771 0.077212 -0.976796 0.000000
175.57200623 161.73100281 183.75000000 0.004062 -0.545602 -0.838034 0.000000
109.64199829 232.39700317 92.50000000 -0.247148 -0.631250 0.735147 0.000000
144.61000061 115.83399963 120.00000000 0.056670 0.997609 0.039562 0.000000
125.30500031 121.29799652 100.00000000 0.146355 0.983357 0.107649 0.000000
149.34599304 116.19799805 95.00000000 -0.001211 0.960094 0.279674 0.000000
198.88499451 147.88900757 183.75000000 -0.263006 -0.183968 -0.947092 0.000000
107.81999969 174.11500549 58.75000000 -0.468043 -0.231749 0.852777 0.000000
201.79899597 174.11500549 171.25000000 -0.119868 -0.972825 -0.198098 0.000000
57.55279922 194.51400757 131.25000000 0.976695 -0.056883 0.206958 0.000000
64.10939789 192.32800293 171.25000000 0.731890 -0.240815 -0.637452 0.000000
123.84799957 121.66200256 101.25000000 0.178966 0.980051 0.086439 0.000000
107.81999969 124.57599640 118.75000000 0.352253 0.927921 0.121987 0.000000
104.17800140 228.02499390 163.75000000 -0.185621 -0.737880 -0.648905 0.000000
138.41799927 156.63099670 116.25000000 -0.585691 -0.760288 0.280941 0.000000
124.57599640 126.39800262 162.50000000 0.031842 0.834809 -0.549617 0.000000
144.24600220 150.80299377 98.75000000 -0.602049 -0.602049 -0.524474 0.000000
121.66200256 176.30099487 63.75000000 -0.378277 0.231088 0.896384 0.000000
190.50700378 163.18800354 122.50000000 -0.825356 -0.403965 0.394460 0.000000
80.86530304 177.75799561 188.75000000 0.319093 0.559615 -0.764860 0.000000
89.60749817 195.24200439 56.25000000 -0.551358 -0.432146 0.713620 0.000000
147.16000366 181.39999390 128.75000000 -0.600284 -0.723920 -0.339998 0.000000
143.51800537 180.30799866 142.50000000 -0.417121 -0.908775 -0.011768 0.000000
120.93399811 228.38999939 95.00000000 -0.474723 -0.625695 0.618986 0.000000
93.97859955 175.57200623 198.75000000 0.945555 -0.190206 -0.264099 0.000000
207.62699890 161.73100281 176.25000000 -0.314876 -0.116571 -0.941947 0.000000
163.91600037 126.03299713 88.75000000 -0.001378 -0.753685 0.657235 0.000000
87.42189789 208.35600281 178.75000000 0.247546 -0.651187 -0.717410 0.000000
107.81999969 233.12500000 93.75000000 -0.192534 -0.660777 0.725468 0.000000
122.75499725 238.95300293 125.00000000 0.000978 0.000978 -0.999999 0.000000
147.88900757 127.48999786 176.25000000 0.443909 0.563615 -0.696622 0.000000
145.70300293 123.11900330 73.75000000 -0.408282 -0.230123 0.883374 0.000000
211.63400269 171.20100403 170.00000000 -0.486219 -0.641001 -0.593893 0.000000
226.56799316 161.00199890 153.75000000 -0.316198 -0.013748 0.948594 0.000000
83.05079651 206.16999817 178.75000000 0.312360 -0.681366 -0.661945 0.000000
56.82419968 177.39399719 145.00000000 0.914425 0.305774 0.265198 0.000000
102.35600281 131.13299561 90.00000000 0.583384 0.801968 0.128492 0.000000
109.27700043 219.28300476 83.75000000 -0.456966 -0.343120 0.820641 0.000000
122.39099884 203.98399353 76.25000000 -0.167680 -0.593678 0.787039 0.000000
192.32800293 124.57599640 183.75000000 -0.160423 0.888829 -0.429240 0.000000
109.27700043 230.21099854 161.25000000 0.076462 -0.786264 -0.613142 0.000000
193.05700684 111.82700348 125.00000000 0.960094 -0.001211 0.279674 0.000000
106.36299896 168.28700256 56.25000000 -0.454467 -0.165128 0.875324 0.000000
186.50000000 127.48999786 111.25000000 -0.546142 -0.617158 0.566432 0.000000
127.48999786 122.02600098 157.50000000 0.370187 0.799668 -0.472750 0.000000
214.18400574 156.63099670 148.75000000 -0.694392 -0.372641 0.615596 0.000000
91.06449890 132.22599792 127.50000000 0.643490 0.741780 0.188900 0.000000
210.54100037 121.29799652 122.50000000 -0.534897 -0.585518 0.609142 0.000000
136.96099854 118.38400269 135.00000000 0.442873 0.887170 -0.129587 0.000000
71.75879669 159.54499817 82.50000000 0.871485 0.476527 0.115912 0.000000
194.51400757 160.63800049 127.50000000 -0.919974 -0.123124 0.372140 0.000000
168.28700256 141.33200073 188.75000000 0.402255 -0.230072 -0.886148 0.000000
65.93070221 181.39999390 97.50000000 0.986951 -0.052312 0.152286 0.000000
85.23639679 164.64500427 43.75000000 -0.457156 -0.496765 0.737721 0.000000
104.90599823 239.68200684 118.75000000 -0.001211 -0.960094 0.279674 0.000000
127.48999786 187.22900391 183.75000000 -0.260122 -0.528033 -0.808404 0.000000
142.78900146 163.91600037 113.75000000 0.335345 0.784611 0.521469 0.000000
179.21499634 115.10600281 163.75000000 0.090724 0.962187 -0.256839 0.000000
188.32099915 135.50399780 117.50000000 -0.416924 -0.303077 0.856924 0.000000
121.66200256 142.78900146 71.25000000 -0.808922 0.321353 0.492319 0.000000
97.62110138 239.31799316 122.50000000 0.140007 -0.982486 0.122963 0.000000
180.67199707 177.75799561 118.75000000 -0.663369 -0.603214 0.442803 0.000000
60.10260010 194.51400757 165.00000000 0.744277 -0.192618 -0.639492 0.000000
121.66200256 183.94999695 192.50000000 0.350857 -0.935185 -0.048259 0.000000
200.34199524 111.82700348 132.50000000 -0.001211 0.960094 -0.279674 0.000000
140.60400391 178.48599243 181.25000000 -0.397663 -0.229137 -0.888460 0.000000
103.44899750 126.39800262 150.00000000 0.401035 0.873198 -0.276941 0.000000
87.42189789 165.37300110 43.75000000 -0.349444 -0.418393 0.838353 0.000000
202.52699280 131.13299561 183.75000000 -0.677098 -0.015357 -0.735733 0.000000
138.05400085 182.85800171 157.50000000 -0.861443 -0.489555 0.135100 0.000000
143.88200378 195.24200439 100.00000000 -0.986241 -0.165311 -0.001125 0.000000
225.83999634 158.08799744 153.75000000 -0.447756 -0.123666 0.885563 0.000000
129.31199646 143.51800537 87.50000000 -0.826088 -0.102718 0.554101 0.000000
123.11900330 166.83000183 68.75000000 -0.558177 0.183034 0.809282 0.000000
216.36900330 120.93399811 163.75000000 -0.391652 0.745614 -0.539136 0.000000
131.86099243 229.84700012 107.50000000 -0.599892 -0.603272 0.525540 0.000000
121.66200256 193.05700684 68.75000000 0.081373 -0.137980 0.987087 0.000000
150.07400513 207.62699890 116.25000000 -0.748683 0.130011 0.650054 0.000000
145.33900452 204.71299744 112.50000000 -0.741224 -0.215996 0.635557 0.000000
241.86700439 139.14700317 153.75000000 0.084546 0.560297 0.823966 0.000000
65.20220184 199.61300659 167.50000000 0.589068 -0.538431 -0.602570 0.000000
131.86099243 193.05700684 73.75000000 -0.379346 -0.163389 0.910714 0.000000
146.43200684 181.76499939 112.50000000 -0.769192 -0.609519 0.191914 0.000000
123.84799957 196.69900513 181.25000000 -0.272747 -0.463825 -0.842897 0.000000
121.66200256 199.24899292 72.50000000 -0.050013 -0.684462 0.727331 0.000000
128.94700623 236.40299988 130.00000000 -0.421960 -0.878214 -0.225145 0.000000
156.99499512 114.37699890 100.00000000 0.177199 0.977694 0.112763 0.000000
116.56300354 133.31799316 168.75000000 0.205047 0.766228 -0.608974 0.000000
195.97099304 161.00199890 138.75000000 -0.927096 -0.059684 0.370042 0.000000
187.22900391 145.70300293 113.75000000 -0.805016 0.160404 0.571157 0.000000
133.31799316 136.59700012 85.00000000 0.017841 -0.059820 0.998050 0.000000
119.47699738 229.84700012 155.00000000 -0.602049 -0.602049 -0.524474 0.000000
104.90599823 231.66799927 88.75000000 -0.552935 -0.395423 0.733419 0.000000
66.65920258 185.77200317 52.50000000 0.999999 -0.000978 -0.000978 0.000000
91.06449890 179.21499634 191.25000000 0.236891 0.220459 -0.946193 0.000000
122.02600098 236.76800537 140.00000000 -0.202367 -0.852941 -0.481185 0.000000
83.05079651 146.06700134 67.50000000 0.707106 0.707106 -0.001384 0.000000
106.36299896 147.16000366 178.75000000 0.363537 0.021838 -0.931324 0.000000
166.83000183 148.25300598 145.00000000 -0.333921 0.512864 0.790865 0.000000
118.74800110 238.95300293 113.75000000 -0.222098 -0.966705 0.127097 0.000000
99.44239807 133.31799316 90.00000000 0.588244 0.796735 0.138498 0.000000
233.12500000 142.06100464 151.25000000 0.000978 0.000978 0.999999 0.000000
137.69000244 185.77200317 158.75000000 -0.944241 -0.312091 -0.104916 0.000000
169.01600647 183.94999695 167.50000000 -0.008159 -0.977957 0.208646 0.000000
222.19700623 165.37300110 153.75000000 0.025836 -0.499045 0.866191 0.000000
119.47699738 197.06399536 70.00000000 -0.094789 -0.625610 0.774356 0.000000
85.23639679 237.86000061 130.00000000 0.552531 -0.829510 -0.081381 0.000000
171.20100403 161.00199890 183.75000000 0.204742 -0.347918 -0.914895 0.000000
213.81900024 156.63099670 147.50000000 -0.736211 -0.497977 0.458271 0.000000
80.50099945 225.83999634 160.00000000 0.485300 -0.708772 -0.511983 0.000000
177.02900696 148.61700439 106.25000000 -0.000978 -0.000978 0.999999 0.000000
69.93750000 202.89199829 75.00000000 0.911766 -0.408631 -0.041262 0.000000
84.50789642 235.31100464 141.25000000 0.376219 -0.864536 -0.333222 0.000000
117.29100037 218.19099426 85.00000000 -0.369641 -0.747423 0.552018 0.000000
96.16410065 208.35600281 68.75000000 -0.315753 -0.642840 0.697895 0.000000
210.54100037 118.38400269 160.00000000 -0.160201 0.965116 -0.207090 0.000000
171.92999268 183.22200012 167.50000000 -0.636662 -0.754618 -0.158787 0.000000
88.15039825 198.15600586 56.25000000 -0.585675 -0.400899 0.704460 0.000000
84.50789642 169.01600647 43.75000000 -0.519065 -0.266547 0.812111 0.000000
170.83700562 136.96099854 137.50000000 0.821016 -0.569256 0.043359 0.000000
179.57899475 183.58599854 162.50000000 -0.806677 -0.461643 0.368995 0.000000
230.94000244 169.01600647 156.25000000 -0.076070 -0.584161 0.808065 0.000000
207.62699890 170.47300720 173.75000000 -0.255350 -0.463299 -0.848617 0.000000
115.10600281 123.48300171 152.50000000 0.183809 0.913344 -0.363343 0.000000
141.33200073 177.39399719 157.50000000 -0.941408 -0.335208 -0.037245 0.000000
134.77499390 139.14700317 181.25000000 -0.773771 -0.058641 -0.630745 0.000000
108.54900360 153.71699524 56.25000000 -0.712229 -0.101747 0.694534 0.000000
66.65920258 188.68600464 57.50000000 0.981904 -0.163449 0.095648 0.000000
92.52149963 205.44200134 183.75000000 0.092399 -0.346832 -0.933365 0.000000
147.16000366 158.08799744 183.75000000 -0.000978 -0.000978 -0.999999 0.000000
89.60749817 202.52699280 183.75000000 -0.000978 -0.000978 -0.999999 0.000000
122.39099884 232.76100159 100.00000000 -0.416572 -0.615730 0.668839 0.000000
147.16000366 159.90899658 115.00000000 0.531063 0.461142 0.710859 0.000000
198.88499451 121.29799652 175.00000000 -0.241844 0.901420 -0.359102 0.000000
146.43200684 197.79200745 157.50000000 -0.328631 0.941021 0.080508 0.000000
67.75199890 173.02299500 55.00000000 0.993804 0.111142 0.001079 0.000000
170.47300720 181.39999390 123.75000000 0.579942 -0.814648 0.004094 0.000000
127.12599945 133.31799316 80.00000000 -0.665216 0.049856 0.744985 0.000000
228.02499390 127.48999786 153.75000000 -0.000978 -0.000978 -0.999999 0.000000
114.37699890 187.95700073 191.25000000 -0.717974 -0.681849 0.139982 0.000000
83.77929688 170.47300720 43.75000000 -0.498185 -0.197167 0.844356 0.000000
149.34599304 127.48999786 178.75000000 0.834759 0.165166 -0.525259 0.000000
170.47300720 187.59300232 145.00000000 0.442698 -0.894930 -0.055848 0.000000
123.48300171 134.77499390 77.50000000 -0.565032 0.096821 0.819368 0.000000
213.09100342 124.57599640 130.00000000 -0.492030 -0.670034 0.555843 0.000000
132.95399475 120.93399811 85.00000000 0.309488 0.950837 0.011186 0.000000
67.38770294 155.90199280 155.00000000 0.808221 0.539329 -0.236439 0.000000
139.14700317 232.03199768 127.50000000 -0.506798 -0.861144 -0.039830 0.000000
240.41000366 153.71699524 161.25000000 -0.366048 -0.226046 -0.902725 0.000000
147.16000366 147.88900757 91.25000000 -0.123645 -0.746340 0.653979 0.000000
123.84799957 237.13200378 135.00000000 -0.252205 -0.954108 -0.161464 0.000000
99.07820129 165.37300110 188.75000000 -0.646049 0.192735 -0.738562 0.000000
245.50999451 147.88900757 161.25000000 -0.684038 -0.387347 -0.618106 0.000000
118.01999664 161.00199890 63.75000000 -0.680775 -0.120663 0.722486 0.000000
236.76800537 150.80299377 151.25000000 -0.264358 -0.447728 0.854198 0.000000
68.11620331 171.92999268 45.00000000 0.992406 0.115762 0.041584 0.000000
132.95399475 169.01600647 77.50000000 -0.786531 0.455701 0.416780 0.000000
245.50999451 150.80299377 158.75000000 -0.793622 -0.082398 -0.602806 0.000000
151.89599609 204.71299744 120.00000000 -0.816506 0.121670 0.564371 0.000000
72.12310028 220.37600708 110.00000000 0.602049 -0.602049 0.524474 0.000000
146.43200684 152.98800659 183.75000000 0.023783 0.636557 -0.770863 0.000000
224.01899719 122.39099884 160.00000000 -0.300491 0.892502 -0.336370 0.000000
129.67599487 140.60400391 86.25000000 -0.753390 -0.310030 0.579901 0.000000
173.38699341 165.73699951 182.50000000 -0.267910 -0.413218 -0.870330 0.000000
148.61700439 116.92700195 77.50000000 0.209242 0.853526 0.477192 0.000000
72.12310028 151.16700745 127.50000000 0.831207 0.483188 0.274998 0.000000
163.91600037 114.01300049 140.00000000 0.000978 0.999999 0.000978 0.000000
113.64800262 127.48999786 76.25000000 0.250303 0.915847 0.313963 0.000000
56.45999908 175.57200623 155.00000000 0.960651 0.266635 -0.077822 0.000000
195.97099304 136.96099854 123.75000000 -0.560861 -0.441033 0.700660 0.000000
69.93750000 190.14300537 178.75000000 0.699037 -0.050033 -0.713333 0.000000
115.10600281 195.97099304 68.75000000 -0.100009 -0.560917 0.821809 0.000000
107.81999969 151.53100586 181.25000000 0.514960 0.609510 -0.602756 0.000000
88.87899780 230.57499695 157.50000000 0.413951 -0.623420 -0.663319 0.000000
136.96099854 214.91200256 161.25000000 -0.491558 -0.729889 -0.475007 0.000000
182.12899780 175.57200623 118.75000000 -0.698191 -0.541556 0.468238 0.000000
100.53500366 207.62699890 181.25000000 -0.244019 -0.625003 -0.741502 0.000000
161.00199890 114.74099731 90.00000000 -0.580062 0.759035 0.295624 0.000000
91.06449890 182.85800171 193.75000000 0.737235 0.179327 -0.651403 0.000000
188.68600464 121.29799652 107.50000000 -0.389526 -0.327941 0.860653 0.000000
171.92999268 149.71000671 147.50000000 0.384753 0.675382 0.629146 0.000000
87.42189789 141.33200073 88.75000000 0.509667 0.847486 -0.148347 0.000000
197.79200745 120.93399811 175.00000000 -0.241844 0.901420 -0.359102 0.000000
184.31500244 164.64500427 113.75000000 -0.763608 -0.337408 0.550508 0.000000
178.48599243 161.73100281 108.75000000 -0.058861 -0.135033 0.989091 0.000000
125.30500031 165.37300110 111.25000000 0.000978 0.000978 0.999999 0.000000
68.11620331 189.41400146 177.50000000 0.728028 -0.237435 -0.643118 0.000000
231.66799927 129.31199646 165.00000000 -0.370516 0.171772 -0.912804 0.000000
122.39099884 224.38299561 161.25000000 -0.216343 -0.367347 -0.904573 0.000000
85.96489716 233.12500000 148.75000000 0.401604 -0.899651 -0.171294 0.000000
211.63400269 163.18800354 150.00000000 -0.541409 -0.732301 0.413051 0.000000
124.57599640 206.89900208 176.25000000 -0.304186 -0.638952 -0.706549 0.000000
191.60000610 111.09899902 130.00000000 -0.001108 0.989410 0.145143 0.000000
195.97099304 153.71699524 133.75000000 -0.900489 0.086877 0.426112 0.000000
67.38770294 197.42799377 172.50000000 0.782530 -0.406657 -0.471462 0.000000
184.31500244 127.48999786 108.75000000 -0.498938 -0.549336 0.670291 0.000000
100.89900208 160.27400208 52.50000000 -0.718266 -0.223773 0.658802 0.000000
238.22500610 139.87500000 153.75000000 -0.146697 0.190068 0.970749 0.000000
106.36299896 150.07400513 53.75000000 -0.500217 -0.286958 0.816969 0.000000
134.77499390 173.38699341 183.75000000 -0.589395 0.141753 -0.795311 0.000000
149.71000671 130.40400696 180.00000000 0.609386 0.107193 -0.785594 0.000000
63.38090134 167.55900574 163.75000000 0.786696 0.423356 -0.449309 0.000000
107.81999969 198.15600586 68.75000000 -0.147760 -0.583578 0.798501 0.000000
238.95300293 135.13999939 155.00000000 -0.350978 0.231558 0.907301 0.000000
137.69000244 224.74699402 147.50000000 -0.553359 -0.650911 -0.519720 0.000000
104.17800140 238.22500610 98.75000000 0.165111 -0.840429 0.516157 0.000000
83.05079651 174.84399414 43.75000000 -0.452594 -0.117760 0.883907 0.000000
91.06449890 164.64500427 191.25000000 0.413372 -0.077763 -0.907236 0.000000
110.00599670 147.16000366 181.25000000 0.370211 0.433767 -0.821456 0.000000
129.67599487 152.25999451 78.75000000 -0.922520 0.149334 0.355889 0.000000
169.01600647 116.19799805 160.00000000 0.083460 0.980956 -0.175387 0.000000
169.74400330 144.97500610 188.75000000 0.745981 -0.370542 -0.553364 0.000000
139.87500000 206.89900208 101.25000000 -0.831955 -0.432491 0.347566 0.000000
161.00199890 176.30099487 168.75000000 -0.602049 0.602049 0.524474 0.000000
142.78900146 220.74000549 111.25000000 -0.661039 -0.329708 0.674033 0.000000
115.10600281 161.73100281 186.25000000 -0.000978 -0.000978 -0.999999 0.000000
190.14300537 133.31799316 193.75000000 -0.073657 -0.634031 -0.769792 0.000000
60.46680069 199.61300659 163.75000000 0.651471 -0.341247 -0.677595 0.000000
156.63099670 154.44500732 183.75000000 -0.000978 -0.000978 -0.999999 0.000000
138.41799927 229.84700012 137.50000000 -0.517038 -0.806202 -0.287593 0.000000
158.81599426 160.27400208 108.75000000 0.487936 0.445221 0.750797 0.000000
61.19530106 171.92999268 133.75000000 0.909495 0.310951 0.275914 0.000000
187.59300232 126.03299713 110.00000000 -0.421099 -0.614172 0.667434 0.000000
120.93399811 181.39999390 191.25000000 -0.885520 0.305196 -0.350299 0.000000
95.07129669 209.08399963 180.00000000 0.055702 -0.755552 -0.652717 0.000000
252.43099976 160.27400208 155.00000000 -0.664677 -0.457070 0.591010 0.000000
112.91999817 148.61700439 58.75000000 -0.626303 -0.088642 0.774524 0.000000
88.87899780 139.14700317 161.25000000 0.350682 0.849430 -0.394323 0.000000
194.14999390 159.54499817 125.00000000 -0.827109 -0.292381 0.480005 0.000000
63.38090134 198.15600586 111.25000000 0.960094 -0.001211 0.279674 0.000000
72.48729706 209.81300354 67.50000000 0.927983 -0.370408 -0.040575 0.000000
231.66799927 150.80299377 151.25000000 -0.999999 -0.000978 -0.000978 0.000000
98.34970093 166.83000183 188.75000000 -0.448565 0.750895 -0.484713 0.000000
165.37300110 158.81599426 183.75000000 0.091439 -0.266589 -0.959463 0.000000
209.81300354 161.00199890 176.25000000 -0.275200 -0.003637 -0.961380 0.000000
95.43560028 193.05700684 188.75000000 -0.496178 0.610552 -0.617279 0.000000
136.96099854 171.92999268 81.25000000 -0.818545 0.289543 0.496135 0.000000
94.70709991 163.91600037 191.25000000 -0.122527 0.014350 -0.992361 0.000000
180.67199707 163.18800354 108.75000000 0.063817 -0.424994 0.902944 0.000000
160.27400208 156.63099670 183.75000000 -0.000978 -0.000978 -0.999999 0.000000
70.66609955 206.16999817 168.75000000 0.602049 -0.602049 -0.524474 0.000000
104.90599823 182.85800171 201.25000000 -0.298834 -0.301778 -0.905333 0.000000
120.20500183 120.56900024 135.00000000 0.140620 0.986701 -0.081536 0.000000
146.43200684 135.50399780 178.75000000 0.341373 0.072492 -0.937128 0.000000
144.24600220 179.94299316 138.75000000 -0.462029 -0.873045 -0.155953 0.000000
207.99099731 171.20100403 172.50000000 -0.298117 -0.506325 -0.809173 0.000000
206.89900208 160.27400208 176.25000000 -0.388499 -0.040825 -0.920544 0.000000
174.47999573 183.58599854 125.00000000 0.247728 -0.855648 0.454420 0.000000
131.86099243 145.70300293 91.25000000 -0.855090 -0.160421 0.493038 0.000000
66.29499817 214.54800415 140.00000000 0.791825 -0.528412 -0.306257 0.000000
115.83399963 123.84799957 153.75000000 0.225929 0.905172 -0.360028 0.000000
112.19100189 197.42799377 68.75000000 -0.232883 -0.476420 0.847815 0.000000
132.58999634 219.28300476 161.25000000 -0.397638 -0.697930 -0.595633 0.000000
71.75879669 208.35600281 82.50000000 -0.001337 -0.862174 -0.506611 0.000000
131.86099243 221.46899414 158.75000000 -0.272896 -0.703784 -0.655908 0.000000
106.36299896 130.76899719 70.00000000 0.286351 0.862116 0.418042 0.000000
131.13299561 166.83000183 76.25000000 -0.735885 0.233789 0.635466 0.000000
78.67970276 178.48599243 43.75000000 -0.624074 -0.132560 0.770039 0.000000
147.88900757 161.73100281 113.75000000 0.395304 0.430514 0.811414 0.000000
102.35600281 130.40400696 97.50000000 0.553269 0.818718 0.153603 0.000000
236.40299988 167.55900574 162.50000000 -0.700263 -0.496368 -0.513080 0.000000
136.23199463 204.71299744 86.25000000 -0.733998 -0.598491 0.321023 0.000000
92.52149963 140.23899841 165.00000000 0.251670 0.786273 -0.564303 0.000000
144.24600220 196.69900513 158.75000000 -0.398197 0.912707 0.091681 0.000000
147.88900757 180.67199707 131.25000000 -0.391421 -0.910509 -0.133279 0.000000
220.74000549 168.28700256 156.25000000 0.293873 -0.548034 0.783133 0.000000
69.93750000 204.71299744 91.25000000 0.942299 -0.326332 0.074702 0.000000
72.48729706 165.37300110 172.50000000 -0.077186 0.315284 -0.945853 0.000000
112.19100189 124.21199799 107.50000000 0.277964 0.949375 0.146368 0.000000
89.60749817 140.23899841 77.50000000 0.611849 0.747816 0.257704 0.000000
126.03299713 132.58999634 168.75000000 0.115743 0.578717 -0.807273 0.000000
240.41000366 150.80299377 163.75000000 -0.367570 -0.280553 -0.886669 0.000000
199.24899292 142.06100464 130.00000000 -0.633675 -0.424113 0.646981 0.000000
121.66200256 211.99800110 173.75000000 -0.246405 -0.370345 -0.895616 0.000000
209.08399963 120.20500183 121.25000000 -0.532481 -0.586575 0.610241 0.000000
213.45500183 152.25999451 143.75000000 -0.460052 -0.252188 0.851325 0.000000
145.70300293 155.17399597 113.75000000 0.711000 -0.640382 0.290499 0.000000
95.43560028 222.19700623 78.75000000 -0.054602 -0.387538 0.920235 0.000000
131.86099243 192.32800293 178.75000000 -0.482029 -0.478716 -0.733811 0.000000
184.31500244 145.70300293 108.75000000 -0.203503 0.082635 0.975581 0.000000
201.79899597 135.86799622 127.50000000 -0.468716 -0.491903 0.733714 0.000000
104.17800140 159.54499817 186.25000000 -0.000978 -0.000978 -0.999999 0.000000
182.85800171 139.14700317 111.25000000 -0.525580 0.420134 0.739766 0.000000
91.06449890 174.84399414 191.25000000 0.362455 0.152539 -0.919433 0.000000
167.92300415 185.04299927 147.50000000 0.788367 -0.575462 0.217534 0.000000
223.65400696 159.90899658 152.50000000 -0.376925 -0.153876 0.913373 0.000000
225.83999634 136.96099854 171.25000000 -0.661805 0.162789 -0.731789 0.000000
238.95300293 165.37300110 161.25000000 -0.625990 -0.116911 -0.771018 0.000000
99.80670166 208.35600281 181.25000000 -0.006930 -0.752644 -0.658391 0.000000
159.54499817 167.55900574 183.75000000 -0.000978 -0.000978 -0.999999 0.000000
61.55960083 202.52699280 162.50000000 0.812752 -0.413561 -0.410368 0.000000
194.14999390 149.34599304 127.50000000 -0.968888 0.244964 -0.035343 0.000000
79.40820313 227.66099548 107.50000000 0.714531 -0.644510 0.272126 0.000000
201.79899597 167.19400024 147.50000000 -0.308480 -0.901825 0.302576 0.000000
55.36719894 192.32800293 148.75000000 0.999999 0.000978 0.000978 0.000000
168.28700256 179.21499634 121.25000000 0.834722 -0.493454 -0.244421 0.000000
166.10200500 181.03599548 162.50000000 0.840397 -0.444366 -0.310277 0.000000
60.46680069 180.67199707 121.25000000 0.927294 0.348596 0.136407 0.000000
109.27700043 154.44500732 186.25000000 0.292988 0.089850 -0.951885 0.000000
69.20899963 181.39999390 43.75000000 0.344667 0.690967 0.635428 0.000000
164.64500427 136.23199463 93.75000000 -0.747407 -0.145872 0.648154 0.000000
147.88900757 179.21499634 171.25000000 -0.323840 -0.138008 0.935992 0.000000
146.43200684 197.42799377 126.25000000 -0.843170 0.487671 -0.226365 0.000000
105.63500214 240.77499390 132.50000000 -0.119952 -0.953024 -0.278130 0.000000
103.44899750 204.34899902 182.50000000 0.141839 -0.198064 -0.969872 0.000000
219.28300476 130.40400696 143.75000000 -0.645867 -0.524450 0.554804 0.000000
111.09899902 125.30500031 155.00000000 0.230378 0.899501 -0.371246 0.000000
168.28700256 143.51800537 188.75000000 0.533772 -0.250546 -0.807660 0.000000
154.08099365 152.98800659 122.50000000 0.499287 -0.835198 -0.230557 0.000000
67.75199890 182.12899780 43.75000000 0.344667 0.690967 0.635428 0.000000
71.39459991 150.43899536 147.50000000 0.781725 0.623436 0.015273 0.000000
68.48049927 165.73699951 97.50000000 0.924420 0.361252 0.122249 0.000000
140.60400391 190.14300537 128.75000000 -0.000978 -0.000978 -0.999999 0.000000
115.83399963 168.28700256 106.25000000 -0.446363 0.164296 -0.879640 0.000000
57.91699982 191.60000610 127.50000000 0.997596 0.011563 0.068328 0.000000
183.58599854 159.54499817 183.75000000 -0.161810 -0.515119 -0.841707 0.000000
138.41799927 174.11500549 83.75000000 -0.740351 0.107876 0.663508 0.000000
153.71699524 160.27400208 111.25000000 0.413877 0.122059 0.902113 0.000000
99.07820129 134.04699707 163.75000000 0.542807 0.715443 -0.439889 0.000000
63.01660156 212.72700500 132.50000000 0.703149 -0.631697 -0.326404 0.000000
122.39099884 174.84399414 188.75000000 -0.229003 -0.761787 0.606002 0.000000
191.96400452 171.20100403 145.00000000 0.193915 -0.193915 0.961662 0.000000
187.22900391 166.46600342 180.00000000 0.079496 0.196906 0.977194 0.000000
75.76570129 222.92599487 106.25000000 0.737383 -0.620036 0.267995 0.000000
119.47699738 239.31799316 125.00000000 0.000978 0.000978 -0.999999 0.000000
162.09500122 145.70300293 100.00000000 -0.585990 -0.646437 0.488605 0.000000
217.09800720 162.45899963 151.25000000 -0.269323 -0.283725 0.920307 0.000000
173.38699341 187.95700073 158.75000000 -0.088795 -0.996003 0.009628 0.000000
175.57200623 181.39999390 173.75000000 -0.425318 0.747181 0.510710 0.000000
118.01999664 230.94000244 96.25000000 -0.433626 -0.760890 0.482715 0.000000
97.62110138 214.18400574 73.75000000 -0.562129 -0.366606 0.741358 0.000000
65.56639862 167.19400024 122.50000000 0.937461 0.281933 0.204158 0.000000
163.55200195 180.67199707 137.50000000 -0.068354 -0.950511 0.303080 0.000000
88.15039825 196.69900513 186.25000000 -0.000978 -0.000978 -0.999999 0.000000
174.84399414 138.41799927 193.75000000 0.564570 0.118780 -0.816794 0.000000
115.83399963 126.03299713 78.75000000 0.305774 0.914425 0.265198 0.000000
130.03999329 146.43200684 82.50000000 -0.962978 0.266461 0.040899 0.000000
95.07129669 135.50399780 160.00000000 0.556687 0.816375 -0.153723 0.000000
106.36299896 224.38299561 166.25000000 -0.181387 -0.608179 -0.772798 0.000000
185.04299927 152.98800659 111.25000000 -0.706951 0.020999 0.706951 0.000000
119.47699738 178.48599243 193.75000000 -0.849100 -0.271773 -0.452956 0.000000
90.70020294 139.87500000 55.00000000 0.864020 -0.001335 -0.503455 0.000000
171.56599426 158.81599426 185.00000000 0.272547 -0.386987 -0.880885 0.000000
123.11900330 194.51400757 181.25000000 -0.296897 -0.388249 -0.872419 0.000000
194.51400757 127.48999786 188.75000000 -0.339998 0.723920 -0.600284 0.000000
233.85400391 158.08799744 163.75000000 -0.864020 -0.001335 -0.503455 0.000000
96.52839661 134.77499390 162.50000000 0.626479 0.701330 -0.340088 0.000000
145.70300293 183.58599854 171.25000000 -0.345653 -0.440353 0.828621 0.000000
95.43560028 198.15600586 61.25000000 -0.355082 -0.496472 0.792106 0.000000
163.18800354 179.94299316 131.25000000 0.473827 -0.863517 -0.172703 0.000000
64.83789825 212.36199951 140.00000000 0.791825 -0.528412 -0.306257 0.000000
76.49420166 184.31500244 43.75000000 -0.559056 -0.131282 0.818670 0.000000
77.22270203 184.31500244 43.75000000 -0.554544 -0.127972 0.822255 0.000000
104.17800140 221.46899414 81.25000000 -0.393327 -0.415620 0.820094 0.000000
175.57200623 112.55599976 140.00000000 0.042960 0.998549 -0.032482 0.000000
69.57330322 226.56799316 137.50000000 0.708486 -0.705724 0.001381 0.000000
127.48999786 185.77200317 183.75000000 -0.261515 -0.645071 -0.717978 0.000000
99.07820129 166.83000183 193.75000000 0.361133 0.714095 -0.599709 0.000000
249.88099670 150.80299377 156.25000000 0.282193 -0.601054 0.747731 0.000000
122.39099884 182.85800171 193.75000000 0.350857 -0.935185 -0.048259 0.000000
74.30860138 224.01899719 155.00000000 0.733316 -0.586978 -0.343081 0.000000
223.65400696 158.81599426 171.25000000 -0.497427 -0.006704 -0.867480 0.000000
162.45899963 113.28399658 132.50000000 0.169280 0.983717 -0.060373 0.000000
192.69200134 158.81599426 122.50000000 -0.835233 -0.372788 0.404246 0.000000
169.74400330 138.41799927 146.25000000 0.487845 -0.847309 0.209939 0.000000
95.43560028 170.10800171 197.50000000 0.201881 0.979409 0.001154 0.000000
143.15299988 208.35600281 162.50000000 -0.423696 -0.535803 -0.730340 0.000000
179.94299316 181.76499939 127.50000000 -0.692396 -0.692396 0.202917 0.000000
115.10600281 238.22500610 103.75000000 -0.286351 -0.862116 0.418042 0.000000
101.99199677 186.50000000 196.25000000 -0.590642 -0.211274 -0.778784 0.000000
205.44200134 126.03299713 178.75000000 -0.450327 0.614387 -0.647869 0.000000
193.78500366 125.30500031 186.25000000 -0.237031 0.807145 -0.540679 0.000000
146.06700134 186.50000000 175.00000000 -0.975752 -0.185679 -0.115894 0.000000
217.09800720 117.65499878 150.00000000 -0.369447 0.925631 -0.081950 0.000000
169.74400330 134.41099548 140.00000000 0.045218 -0.875580 -0.480952 0.000000
102.72100067 128.94700623 101.25000000 0.692396 0.692396 0.202917 0.000000
171.20100403 150.07400513 143.75000000 0.301702 0.951325 -0.062908 0.000000
128.21899414 219.28300476 93.75000000 -0.413103 -0.320271 0.852509 0.000000
112.91999817 163.91600037 186.25000000 -0.612894 -0.698338 -0.369708 0.000000
201.07000732 158.08799744 138.75000000 -0.133853 -0.539826 0.831067 0.000000
96.16410065 169.74400330 51.25000000 -0.541947 -0.093439 0.835202 0.000000
145.70300293 150.43899536 97.50000000 -0.001212 -0.960742 0.277440 0.000000
233.85400391 144.24600220 151.25000000 0.000978 0.000978 0.999999 0.000000
91.79299927 209.81300354 178.75000000 0.149294 -0.637892 -0.755517 0.000000
148.61700439 203.61999512 162.50000000 -0.499747 -0.718905 -0.483144 0.000000
104.90599823 143.51800537 51.25000000 -0.887170 -0.442873 0.129587 0.000000
92.88580322 138.41799927 65.00000000 0.627623 0.776308 -0.058616 0.000000
130.03999329 146.43200684 87.50000000 -0.944935 0.218697 0.243455 0.000000
193.78500366 149.34599304 131.25000000 -0.986813 -0.028653 0.159311 0.000000
71.75879669 158.81599426 95.00000000 0.877615 0.471701 0.085382 0.000000
199.24899292 131.86099243 187.50000000 -0.736164 -0.176006 -0.653517 0.000000
72.12310028 208.72000122 75.00000000 0.966321 -0.193264 0.169917 0.000000
104.17800140 131.49699402 62.50000000 0.520335 0.853568 -0.025948 0.000000
93.25000000 206.89900208 66.25000000 -0.345023 -0.475400 0.809293 0.000000
76.85839844 150.07400513 102.50000000 0.802088 0.591088 0.085267 0.000000
182.12899780 118.01999664 173.75000000 0.068409 0.921509 -0.382285 0.000000
161.73100281 113.28399658 127.50000000 0.055290 0.998348 0.015648 0.000000
133.31799316 213.45500183 166.25000000 -0.333332 -0.668291 -0.665039 0.000000
127.48999786 152.98800659 73.75000000 -0.834268 0.136838 0.534108 0.000000
142.78900146 123.11900330 168.75000000 0.389922 0.761898 -0.517177 0.000000
174.11500549 188.32099915 145.00000000 -0.258266 -0.964441 0.056145 0.000000
75.03710175 169.74400330 178.75000000 0.492119 0.582816 -0.646641 0.000000
100.53500366 169.74400330 53.75000000 -0.519226 -0.062979 0.852314 0.000000
57.18849945 192.32800293 132.50000000 0.966491 0.020615 0.255872 0.000000
127.85500336 194.51400757 180.00000000 -0.354458 -0.133784 -0.925452 0.000000
78.31549835 186.50000000 45.00000000 -0.580155 -0.043547 0.813341 0.000000
80.13680267 147.52400208 92.50000000 0.738330 0.674369 0.009733 0.000000
98.34970093 166.83000183 51.25000000 -0.514230 -0.323185 0.794430 0.000000
219.28300476 152.25999451 173.75000000 -0.608734 -0.314862 -0.728220 0.000000
190.14300537 172.29400635 155.00000000 -0.232497 -0.968946 -0.084201 0.000000
65.56639862 171.56599426 105.00000000 0.918338 0.393950 0.038209 0.000000
107.09200287 165.37300110 56.25000000 -0.522645 -0.252793 0.814210 0.000000
147.16000366 139.87500000 178.75000000 0.449393 0.200225 -0.870607 0.000000
134.41099548 170.47300720 185.00000000 -0.444371 0.072915 -0.892870 0.000000
127.48999786 161.73100281 111.25000000 0.891275 0.313070 0.328049 0.000000
171.92999268 163.91600037 183.75000000 -0.095464 -0.197127 -0.975719 0.000000
209.81300354 126.39800262 175.00000000 -0.457825 0.431757 -0.777163 0.000000
135.86799622 224.38299561 105.00000000 -0.751589 -0.358750 0.553546 0.000000
75.76570129 187.22900391 43.75000000 -0.555375 -0.115157 0.823588 0.000000
156.63099670 114.74099731 137.50000000 -0.001211 0.960094 -0.279674 0.000000
124.57599640 238.58900452 125.00000000 -0.196558 -0.980491 0.001149 0.000000
146.06700134 182.85800171 115.00000000 -0.912587 -0.334085 0.235739 0.000000
80.50099945 200.34199524 52.50000000 -0.347541 -0.634711 0.690187 0.000000
188.68600464 150.07400513 113.75000000 -0.747617 0.058834 0.661519 0.000000
236.03900146 135.50399780 153.75000000 -0.338052 0.157201 0.927905 0.000000
207.99099731 134.77499390 132.50000000 -0.715033 -0.532542 0.452909 0.000000
214.54800415 161.00199890 150.00000000 -0.297713 -0.277381 0.913470 0.000000
175.57200623 178.85099792 117.50000000 0.135575 -0.788122 0.600403 0.000000
160.27400208 113.28399658 102.50000000 0.117573 0.986903 0.110448 0.000000
56.45999908 191.60000610 135.00000000 0.986455 -0.007910 0.163844 0.000000
245.50999451 146.06700134 162.50000000 -0.665569 -0.133114 -0.734369 0.000000
111.82700348 186.50000000 62.50000000 -0.217585 -0.375297 0.901005 0.000000
84.50789642 166.83000183 183.75000000 0.499043 0.297537 -0.813897 0.000000
172.65800476 120.20500183 173.75000000 0.170779 0.931647 -0.320731 0.000000
211.27000427 171.20100403 171.25000000 -0.435458 -0.669037 -0.602300 0.000000
163.55200195 178.48599243 150.00000000 0.393950 -0.918338 -0.038209 0.000000
88.15039825 237.86000061 122.50000000 0.359477 -0.922982 0.137406 0.000000
140.60400391 161.00199890 118.75000000 -0.176531 0.091309 0.980051 0.000000
112.19100189 169.74400330 61.25000000 -0.651775 0.129758 0.747230 0.000000
237.13200378 130.40400696 160.00000000 0.038884 0.981523 0.187350 0.000000
75.03710175 221.83299255 105.00000000 0.737383 -0.620036 0.267995 0.000000
75.40139771 183.58599854 182.50000000 0.578988 -0.327394 -0.746717 0.000000
69.93750000 188.68600464 43.75000000 -0.000978 -0.000978 0.999999 0.000000
210.54100037 135.50399780 138.75000000 -0.649259 -0.642617 0.406825 0.000000
146.79600525 169.01600647 100.00000000 -0.735945 0.349290 0.579984 0.000000
93.25000000 194.51400757 58.75000000 -0.471045 -0.428667 0.770948 0.000000
93.97859955 177.02900696 51.25000000 -0.601634 -0.249765 0.758719 0.000000
131.13299561 121.29799652 157.50000000 0.089236 0.936316 -0.339631 0.000000
139.14700317 118.38400269 82.50000000 0.302507 0.952710 0.028870 0.000000
154.44500732 159.54499817 111.25000000 0.307086 0.421279 0.853360 0.000000
112.91999817 231.30400085 157.50000000 -0.208171 -0.884359 -0.417819 0.000000
67.75199890 222.19700623 146.25000000 0.860947 -0.383499 -0.334214 0.000000
179.94299316 175.57200623 176.25000000 0.113305 0.864850 0.489078 0.000000
77.58699799 188.68600464 45.00000000 -0.521909 -0.092943 0.847923 0.000000
92.52149963 135.13999939 152.50000000 0.612222 0.758656 -0.222768 0.000000
116.56300354 168.28700256 196.25000000 -0.011768 0.417121 -0.908775 0.000000
105.99900055 152.98800659 182.50000000 0.511431 0.850454 0.123149 0.000000
146.79600525 223.65400696 120.00000000 -0.796710 -0.516828 0.313277 0.000000
201.07000732 164.64500427 178.75000000 0.000978 0.000978 -0.999999 0.000000
60.46680069 201.07000732 121.25000000 0.920366 -0.254142 0.297217 0.000000
206.16999817 166.10200500 148.75000000 -0.330161 -0.898689 0.288706 0.000000
67.02349854 200.34199524 96.25000000 0.951666 -0.280058 0.126092 0.000000
130.40400696 166.10200500 113.75000000 0.207697 0.832305 0.513937 0.000000
109.27700043 127.48999786 86.25000000 0.412736 0.910639 0.019654 0.000000
185.04299927 157.35899353 186.25000000 -0.095642 -0.509616 -0.855070 0.000000
179.57899475 170.47300720 112.50000000 -0.275879 -0.362371 0.890269 0.000000
69.93750000 225.11099243 146.25000000 0.682415 -0.626507 -0.376562 0.000000
75.03710175 201.07000732 178.75000000 0.615284 -0.471103 -0.632050 0.000000
72.48729706 155.90199280 102.50000000 0.871747 0.489940 0.004005 0.000000
208.35600281 149.34599304 178.75000000 -0.153561 -0.100359 -0.983030 0.000000
194.14999390 158.08799744 125.00000000 -0.921338 -0.122937 0.368812 0.000000
99.80670166 155.90199280 186.25000000 0.282541 0.046462 -0.958129 0.000000
156.63099670 162.45899963 111.25000000 0.396313 0.266720 0.878519 0.000000
142.78900146 224.38299561 143.75000000 -0.478154 -0.639216 -0.602306 0.000000
182.85800171 181.76499939 155.00000000 -0.692396 -0.692396 -0.202917 0.000000
141.33200073 196.69900513 128.75000000 0.019540 0.171260 -0.985032 0.000000
67.02349854 216.36900330 138.75000000 0.791825 -0.528412 -0.306257 0.000000
246.23800659 141.33200073 161.25000000 -0.879856 0.304391 -0.364966 0.000000
85.23639679 228.02499390 83.75000000 0.416710 -0.802850 0.426363 0.000000
163.18800354 133.31799316 91.25000000 -0.443099 -0.388711 0.807816 0.000000
214.91200256 149.34599304 143.75000000 -0.663062 -0.227291 0.713223 0.000000
205.44200134 160.27400208 178.75000000 -0.567871 -0.308730 -0.763026 0.000000
213.45500183 172.65800476 161.25000000 0.486351 -0.196037 0.851488 0.000000
121.66200256 193.05700684 183.75000000 -0.252473 -0.395890 -0.882909 0.000000
143.51800537 178.48599243 93.75000000 -0.964429 -0.114598 0.238210 0.000000
156.63099670 114.01300049 105.00000000 0.230505 0.972024 0.045125 0.000000
81.59380341 147.52400208 67.50000000 0.707106 0.707106 -0.001384 0.000000
139.14700317 116.92700195 117.50000000 0.242671 0.969464 0.035364 0.000000
182.85800171 128.94700623 108.75000000 -0.601092 -0.097514 0.793208 0.000000
118.74800110 164.64500427 193.75000000 -0.395502 0.411385 -0.821182 0.000000
72.12310028 180.67199707 181.25000000 0.600396 0.049444 -0.798173 0.000000
174.11500549 182.85800171 166.25000000 -0.805126 -0.339588 -0.486264 0.000000
120.56900024 164.64500427 192.50000000 -0.206771 0.552920 -0.807171 0.000000
107.09200287 185.04299927 196.25000000 -0.536401 -0.792734 0.289562 0.000000
193.05700684 119.47699738 108.75000000 -0.422889 -0.445573 0.789069 0.000000
116.56300354 121.66200256 118.75000000 0.165311 0.986241 0.001125 0.000000
126.76200104 177.75799561 188.75000000 -0.967419 0.219111 -0.126854 0.000000
112.55599976 190.14300537 190.00000000 0.327956 -0.874041 -0.358464 0.000000
170.83700562 186.50000000 132.50000000 0.314469 -0.598298 0.736987 0.000000
142.06100464 192.69200134 165.00000000 -0.912707 -0.398197 0.091681 0.000000
81.95800018 146.43200684 82.50000000 0.638749 0.768473 0.038071 0.000000
72.12310028 191.60000610 43.75000000 0.228692 -0.359790 0.904572 0.000000
72.85160065 191.60000610 43.75000000 0.228692 -0.359790 0.904572 0.000000
83.05079651 156.26699829 177.50000000 0.662386 0.445483 -0.602320 0.000000
74.30860138 191.60000610 43.75000000 -0.171576 0.007954 0.985139 0.000000
104.17800140 193.05700684 193.75000000 -0.387427 -0.621531 -0.680882 0.000000
75.76570129 191.60000610 43.75000000 -0.171576 0.007954 0.985139 0.000000
147.88900757 198.52099609 122.50000000 0.409292 0.820177 0.399737 0.000000
222.19700623 166.83000183 153.75000000 0.025836 -0.499045 0.866191 0.000000
200.34199524 112.55599976 145.00000000 -0.163690 0.973260 -0.161153 0.000000
140.96800232 176.30099487 85.00000000 -0.676140 0.413658 0.609689 0.000000
197.79200745 120.20500183 112.50000000 -0.500304 -0.180707 0.846783 0.000000
198.88499451 163.91600037 141.25000000 -0.629510 -0.394889 0.669164 0.000000
166.83000183 183.22200012 142.50000000 0.906820 -0.405353 0.115616 0.000000
134.04699707 164.64500427 113.75000000 0.218332 0.102225 0.970506 0.000000
166.10200500 153.71699524 108.75000000 -0.000978 -0.000978 0.999999 0.000000
161.73100281 147.88900757 186.25000000 0.546683 0.017812 -0.837151 0.000000
111.82700348 144.24600220 57.50000000 -0.764168 -0.012482 0.644897 0.000000
91.06449890 198.88499451 61.25000000 -0.157774 -0.947991 0.276441 0.000000
75.40139771 146.43200684 137.50000000 0.775042 0.629454 0.055666 0.000000
242.59599304 154.80999756 152.50000000 0.065948 -0.130739 0.989221 0.000000
126.03299713 186.50000000 183.75000000 -0.391726 -0.469104 -0.791512 0.000000
119.84100342 131.13299561 167.50000000 0.210191 0.686624 -0.695965 0.000000
138.41799927 229.11799622 140.00000000 -0.456496 -0.815966 -0.354699 0.000000
74.30860138 225.47599792 152.50000000 0.557745 -0.725562 -0.403090 0.000000
74.30860138 193.05700684 43.75000000 0.107104 -0.486966 0.866829 0.000000
135.50399780 128.94700623 76.25000000 0.488841 -0.401142 0.774674 0.000000
228.02499390 136.23199463 168.75000000 -0.477387 0.313531 -0.820853 0.000000
220.74000549 158.81599426 151.25000000 -0.157026 -0.177453 0.971521 0.000000
99.80670166 148.61700439 176.25000000 0.454062 -0.227785 -0.861360 0.000000
109.27700043 214.91200256 173.75000000 -0.208939 -0.626816 -0.750631 0.000000
187.95700073 152.25999451 113.75000000 -0.753749 -0.136364 0.642859 0.000000
136.96099854 192.32800293 176.25000000 -0.475973 -0.324168 -0.817536 0.000000
58.28129959 181.39999390 133.75000000 0.936812 0.235948 0.258286 0.000000
101.99199677 238.95300293 143.75000000 -0.001211 -0.960094 -0.279674 0.000000
71.03029633 206.16999817 67.50000000 0.928213 -0.372047 -0.001270 0.000000
96.89260101 130.76899719 110.00000000 0.480357 0.824587 0.298854 0.000000
169.01600647 186.50000000 131.25000000 0.315277 -0.680675 0.661273 0.000000
68.11620331 169.74400330 82.50000000 0.973256 0.229351 0.013072 0.000000
140.96800232 186.50000000 132.50000000 -0.754278 -0.491349 -0.435477 0.000000
105.63500214 224.38299561 83.75000000 -0.334169 -0.556948 0.760355 0.000000
127.48999786 209.81300354 83.75000000 -0.372397 -0.785097 0.494917 0.000000
139.14700317 185.04299927 178.75000000 -0.229631 -0.540944 -0.809104 0.000000
147.16000366 176.66499329 150.00000000 -0.133889 -0.988448 0.071019 0.000000
73.58010101 163.18800354 171.25000000 0.195979 0.264503 -0.944262 0.000000
92.15730286 131.86099243 142.50000000 0.515768 0.838683 -0.174913 0.000000
178.48599243 157.35899353 186.25000000 -0.156683 -0.331392 -0.930392 0.000000
72.85160065 151.16700745 160.00000000 0.692396 0.692396 -0.202917 0.000000
102.72100067 132.58999634 68.75000000 0.286351 0.862116 0.418042 0.000000
211.99800110 139.51100159 142.50000000 -0.716161 -0.496826 0.490180 0.000000
140.60400391 179.94299316 158.75000000 -0.837491 -0.545951 -0.023378 0.000000
118.74800110 173.38699341 63.75000000 -0.295721 0.261100 0.918899 0.000000
162.45899963 136.23199463 91.25000000 -0.418545 -0.325189 0.847981 0.000000
206.89900208 171.56599426 172.50000000 -0.255350 -0.463299 -0.848617 0.000000
129.67599487 137.69000244 83.75000000 -0.561055 -0.227204 0.795987 0.000000
65.20220184 177.02900696 100.00000000 0.985505 -0.089375 0.144191 0.000000
73.58010101 194.51400757 181.25000000 0.665691 -0.265323 -0.697466 0.000000
66.29499817 197.79200745 97.50000000 0.966321 -0.193264 0.169917 0.000000
225.11099243 151.53100586 153.75000000 -0.845199 0.210166 0.491395 0.000000
72.48729706 226.56799316 147.50000000 0.663563 -0.637086 -0.392180 0.000000
190.14300537 160.27400208 118.75000000 -0.842157 -0.368542 0.393634 0.000000
99.80670166 133.31799316 163.75000000 0.536866 0.725182 -0.431145 0.000000
73.58010101 230.57499695 137.50000000 0.595236 -0.795118 -0.116108 0.000000
174.11500549 171.20100403 178.75000000 -0.317305 0.273438 0.908047 0.000000
55.00299835 184.31500244 152.50000000 0.982491 -0.185877 -0.012700 0.000000
94.70709991 178.48599243 196.25000000 0.514730 -0.288060 -0.807512 0.000000
163.91600037 158.08799744 108.75000000 0.259433 0.033198 0.965190 0.000000
222.19700623 157.35899353 151.25000000 -0.337594 -0.144683 0.930106 0.000000
60.46680069 175.57200623 131.25000000 0.886261 0.378118 0.267522 0.000000
138.41799927 182.49299622 147.50000000 -0.927432 -0.186609 -0.324110 0.000000
150.07400513 181.39999390 173.75000000 0.234967 -0.824688 0.514470 0.000000
195.97099304 169.01600647 176.25000000 0.545014 -0.271722 0.793176 0.000000
75.76570129 207.26300049 175.00000000 0.642607 -0.632592 -0.432299 0.000000
122.39099884 217.09800720 88.75000000 -0.478315 -0.619292 0.622649 0.000000
125.30500031 166.10200500 111.25000000 0.236133 0.337540 0.911212 0.000000
154.44500732 169.01600647 183.75000000 -0.165306 -0.463734 -0.870416 0.000000
225.83999634 132.58999634 151.25000000 -0.834653 -0.290652 0.467841 0.000000
149.34599304 115.47000122 130.00000000 0.190927 0.980726 -0.041506 0.000000
56.09569931 191.60000610 141.25000000 0.960094 0.001211 0.279674 0.000000
141.33200073 195.97099304 86.25000000 -0.914048 -0.303714 0.268838 0.000000
64.47370148 194.51400757 170.00000000 0.815393 -0.235832 -0.528695 0.000000
190.87100220 135.50399780 193.75000000 -0.555778 0.186269 -0.810194 0.000000
