123.94499969 143.24200439 272.50000000 0.600067 -0.729461 0.328338 0.000000
89.06250000 189.25799561 407.50000000 0.111212 -0.518507 -0.847810 0.000000
146.95300293 151.40600586 452.50000000 0.158756 -0.254810 -0.953870 0.000000
258.28100586 92.03119659 427.50000000 -0.500913 0.461236 -0.732357 0.000000
172.92999268 113.55500031 277.50000000 -0.439544 -0.626727 0.643439 0.000000
215.97700500 158.08599854 457.50000000 0.593660 -0.449843 -0.667240 0.000000
71.99220276 154.37500000 317.50000000 0.873667 0.290210 0.390491 0.000000
235.27299500 122.46099854 447.50000000 -0.311191 0.813519 -0.491271 0.000000
210.78100586 125.43000031 457.50000000 -0.000978 -0.000978 -0.999999 0.000000
128.39799500 149.17999268 277.50000000 0.310956 -0.736305 0.600967 0.000000
132.85200500 169.21899414 307.50000000 0.100480 -0.873182 0.476924 0.000000
119.86299896 217.46099854 395.00000000 0.039906 -0.857295 -0.513276 0.000000
92.77339935 101.68000031 377.50000000 0.370367 0.925245 0.082154 0.000000
205.58599854 128.39799500 317.50000000 -0.944413 -0.224075 0.240571 0.000000
59.37500000 163.28100586 382.50000000 0.985403 0.074706 0.152969 0.000000
129.14100647 135.82000732 447.50000000 0.545914 0.026127 -0.837434 0.000000
71.25000000 141.01600647 422.50000000 0.913864 -0.001289 -0.406019 0.000000
107.61699677 197.79299927 330.00000000 -0.233547 -0.625405 0.744530 0.000000
63.82809830 172.55900574 355.00000000 0.792079 0.132261 0.595917 0.000000
96.48439789 135.07800293 437.50000000 -0.000978 -0.000978 -0.999999 0.000000
297.61700439 135.44900513 425.00000000 -0.427375 -0.459875 0.778374 0.000000
102.79299927 219.68800354 345.00000000 -0.628832 -0.534423 0.564768 0.000000
303.55499268 135.82000732 427.50000000 0.010969 0.961604 0.274222 0.000000
169.21899414 106.13300323 457.50000000 -0.076329 0.182946 -0.980155 0.000000
75.33200073 140.27299500 325.00000000 0.907875 0.306536 0.286003 0.000000
76.44529724 152.14799500 422.50000000 0.286072 0.158628 -0.944987 0.000000
146.95300293 172.92999268 317.50000000 -0.285901 -0.875855 0.388765 0.000000
173.67199707 143.98399353 457.50000000 -0.000978 -0.000978 -0.999999 0.000000
94.25779724 172.92999268 432.50000000 -0.565546 -0.810268 -0.153697 0.000000
201.87500000 131.36700439 457.50000000 -0.464415 0.308046 -0.830317 0.000000
87.20700073 142.50000000 285.00000000 0.897224 0.394081 0.199222 0.000000
234.53100586 135.07800293 457.50000000 0.300420 0.608872 -0.734181 0.000000
248.63299561 88.32029724 387.50000000 0.108403 0.989613 0.094415 0.000000
127.65599823 155.11700439 287.50000000 0.049565 -0.975581 0.213975 0.000000
141.01600647 104.64800262 287.50000000 0.353580 0.898005 0.261856 0.000000
230.07800293 163.28100586 452.50000000 -0.267623 -0.276210 -0.923085 0.000000
142.50000000 103.16400146 292.50000000 0.297713 0.913470 0.277381 0.000000
133.59399414 158.82800293 447.50000000 0.210520 -0.306597 -0.928267 0.000000
112.06999969 135.07800293 442.50000000 -0.000978 -0.000978 -0.999999 0.000000
127.65599823 214.49200439 357.50000000 -0.562521 -0.078724 0.823027 0.000000
287.96899414 139.53100586 442.50000000 -0.560752 -0.102877 -0.821567 0.000000
129.14100647 211.52299500 402.50000000 -0.029478 -0.759422 -0.649930 0.000000
287.96899414 109.84400177 427.50000000 -0.732695 0.307571 -0.607090 0.000000
141.01600647 141.75799561 277.50000000 -0.134502 -0.475818 0.869199 0.000000
148.43800354 198.16400146 367.50000000 -0.674325 -0.674325 0.300952 0.000000
218.94500732 164.39500427 430.00000000 -0.656738 -0.733281 0.176049 0.000000
125.43000031 92.40229797 360.00000000 0.236084 0.948432 0.211521 0.000000
135.07800293 189.25799561 427.50000000 0.264938 -0.639342 -0.721838 0.000000
109.84400177 145.46899414 442.50000000 0.000978 0.000978 -0.999999 0.000000
149.92199707 187.77299500 432.50000000 0.156349 -0.414541 -0.896499 0.000000
259.02301025 136.93400574 375.00000000 -0.529547 -0.795111 0.295598 0.000000
217.46099854 103.90599823 447.50000000 -0.507563 0.747382 -0.428718 0.000000
82.38279724 166.25000000 427.50000000 0.987866 -0.153466 0.023872 0.000000
137.30499268 107.24600220 285.00000000 0.277825 0.904034 0.324864 0.000000
118.75000000 172.18800354 437.50000000 -0.000978 -0.000978 -0.999999 0.000000
63.08589935 168.47700500 357.50000000 0.761701 0.281464 0.583600 0.000000
76.44529724 143.24200439 427.50000000 -0.000978 -0.000978 -0.999999 0.000000
256.42599487 101.68000031 435.00000000 -0.172048 0.750615 -0.637947 0.000000
200.39100647 138.78900146 387.50000000 -0.362869 -0.548372 0.753401 0.000000
225.25399780 129.14100647 455.00000000 -0.491558 0.475007 -0.729889 0.000000
149.17999268 151.40600586 452.50000000 0.075091 -0.118991 -0.990052 0.000000
296.87500000 120.23400116 382.50000000 -0.411780 -0.894356 -0.174826 0.000000
262.73400879 144.72700500 447.50000000 -0.850198 0.139017 -0.507777 0.000000
69.02339935 152.14799500 417.50000000 0.761969 -0.483399 -0.430963 0.000000
232.30499268 93.51560211 432.50000000 -0.453796 0.744225 -0.490100 0.000000
140.27299500 207.07000732 412.50000000 -0.090060 -0.899217 -0.428133 0.000000
146.21099854 215.97700500 397.50000000 -0.501698 -0.679558 -0.535257 0.000000
85.35160065 147.69500732 432.50000000 0.408947 0.035733 -0.911858 0.000000
66.05470276 150.66400146 412.50000000 0.857924 -0.283928 -0.428195 0.000000
209.29699707 161.05499268 392.50000000 -0.548352 -0.534854 0.642838 0.000000
92.03119659 160.31199646 297.50000000 -0.533362 -0.307280 0.788102 0.000000
259.76599121 101.30899811 335.00000000 -0.286592 0.920261 0.266429 0.000000
172.92999268 122.46099854 462.50000000 -0.000978 -0.000978 -0.999999 0.000000
71.99220276 213.00799561 312.50000000 0.563083 -0.617193 0.549555 0.000000
66.42579651 143.24200439 415.00000000 0.835393 0.130210 -0.534008 0.000000
63.08589935 197.42199707 342.50000000 0.989041 0.001110 0.147635 0.000000
197.42199707 97.22660065 287.50000000 -0.111782 0.953437 0.280113 0.000000
235.27299500 158.82800293 422.50000000 -0.238217 -0.956859 0.166352 0.000000
173.30099487 164.02299500 355.00000000 0.778804 0.582937 0.231620 0.000000
115.03900146 110.58599854 302.50000000 0.378419 0.886967 0.264744 0.000000
165.87899780 173.67199707 400.00000000 -0.346535 -0.346535 0.871681 0.000000
100.93800354 201.87500000 402.50000000 0.513277 -0.661370 -0.546934 0.000000
129.14100647 154.37500000 287.50000000 0.133704 -0.904967 0.403928 0.000000
293.16400146 124.68800354 432.50000000 -0.575760 0.663048 -0.478401 0.000000
205.58599854 85.72270203 385.00000000 -0.104516 0.994518 0.003232 0.000000
134.33599854 96.11329651 330.00000000 0.251641 0.948073 0.194511 0.000000
156.60200500 119.49199677 457.50000000 0.066097 0.011541 -0.997746 0.000000
230.07800293 142.87100220 370.00000000 0.424249 -0.840670 0.336581 0.000000
118.00800323 117.63700104 265.00000000 0.335999 0.927135 0.165908 0.000000
69.02339935 162.53900146 322.50000000 0.964803 0.226632 0.133389 0.000000
172.92999268 115.03900146 277.50000000 -0.325577 -0.707848 0.626858 0.000000
89.06250000 175.15600586 422.50000000 -0.000978 -0.000978 -0.999999 0.000000
147.69500732 209.29699707 402.50000000 -0.406430 -0.788572 -0.461485 0.000000
115.03900146 217.08999634 395.00000000 0.062888 -0.859473 -0.507298 0.000000
95.74220276 120.97699738 302.50000000 0.604969 0.724990 0.329246 0.000000
148.43800354 161.79699707 302.50000000 -0.615271 -0.684551 0.390936 0.000000
115.41000366 104.64800262 320.00000000 0.371498 0.882872 0.287272 0.000000
73.47660065 203.72999573 380.00000000 0.556270 -0.709037 -0.433393 0.000000
287.96899414 141.75799561 442.50000000 -0.387340 0.225335 -0.893975 0.000000
281.28900146 94.25779724 412.50000000 0.001338 0.860313 0.509765 0.000000
245.66400146 143.61300659 375.00000000 -0.248678 -0.869620 0.426521 0.000000
107.61699677 196.67999268 412.50000000 0.603284 -0.679733 -0.417147 0.000000
135.07800293 161.79699707 447.50000000 0.252789 -0.576233 -0.777208 0.000000
195.93800354 122.46099854 307.50000000 0.029119 -0.825025 0.564345 0.000000
186.28900146 146.95300293 377.50000000 0.000978 0.000978 0.999999 0.000000
242.69500732 140.27299500 362.50000000 -0.193013 -0.937295 0.290214 0.000000
140.27299500 94.62889862 330.00000000 0.243734 0.963331 0.112195 0.000000
84.23829651 166.99200439 290.00000000 -0.561415 -0.454796 0.691357 0.000000
245.66400146 154.74600220 415.00000000 -0.236084 -0.948432 0.211521 0.000000
106.87500000 213.00799561 397.50000000 0.519156 -0.660286 -0.542678 0.000000
77.92970276 190.00000000 402.50000000 0.259587 -0.571092 -0.778761 0.000000
282.77301025 136.56199646 417.50000000 -0.359205 -0.464572 0.809410 0.000000
141.01600647 128.39799500 452.50000000 0.718925 0.186274 -0.669663 0.000000
119.49199677 96.11329651 350.00000000 0.291051 0.932207 0.215125 0.000000
205.58599854 168.47700500 437.50000000 0.923364 -0.309691 0.226916 0.000000
250.85899353 131.36700439 452.50000000 0.065844 0.308561 -0.948923 0.000000
64.57029724 145.46899414 412.50000000 0.867287 -0.134654 -0.479252 0.000000
220.42999268 119.86299896 305.00000000 -0.231620 -0.778804 0.582937 0.000000
158.82800293 126.17199707 457.50000000 0.305064 0.101688 -0.946887 0.000000
250.85899353 118.00800323 447.50000000 -0.000978 -0.000978 -0.999999 0.000000
208.55499268 135.07800293 457.50000000 0.133204 0.722896 -0.677996 0.000000
138.78900146 220.05900574 395.00000000 0.008973 -0.926750 -0.375571 0.000000
252.34399414 110.58599854 442.50000000 -0.106996 0.138253 -0.984600 0.000000
194.45300293 86.09380341 417.50000000 0.001110 0.989041 0.147635 0.000000
72.73439789 132.85200500 352.50000000 0.867055 0.399120 0.298193 0.000000
224.88299561 159.57000732 422.50000000 -0.640455 -0.765978 -0.055630 0.000000
250.11700439 157.34399414 437.50000000 -0.643985 -0.756498 0.113993 0.000000
264.96099854 140.27299500 447.50000000 -0.421413 -0.069554 -0.904198 0.000000
82.38279724 161.05499268 287.50000000 -0.003055 0.041757 0.999123 0.000000
153.63299561 154.37500000 297.50000000 -0.567190 -0.742711 0.355916 0.000000
119.49199677 158.08599854 442.50000000 0.173613 -0.354284 -0.918880 0.000000
162.16799927 178.86700439 440.00000000 0.451660 -0.684990 -0.571658 0.000000
226.73800659 94.25779724 340.00000000 -0.365976 0.884065 0.290672 0.000000
233.78900146 151.40600586 457.50000000 -0.000978 -0.000978 -0.999999 0.000000
244.92199707 129.14100647 342.50000000 -0.020111 -0.883544 0.467916 0.000000
63.08589935 195.19500732 377.50000000 0.769934 -0.565893 -0.294902 0.000000
174.04299927 146.95300293 345.00000000 -0.893686 0.391813 -0.218652 0.000000
222.65600586 89.06250000 422.50000000 0.093625 0.972454 -0.213466 0.000000
216.71899414 111.32800293 292.50000000 -0.366895 -0.414135 0.832994 0.000000
244.92199707 95.74220276 432.50000000 -0.421888 0.839070 -0.343470 0.000000
215.23399353 142.12899780 365.00000000 -0.550557 -0.304801 -0.777163 0.000000
115.03900146 168.84800720 305.00000000 -0.123953 -0.535186 0.835590 0.000000
100.19499969 206.32800293 397.50000000 0.424506 -0.775821 -0.466794 0.000000
84.60939789 118.00800323 337.50000000 0.737775 0.599543 0.310219 0.000000
95.74220276 190.74200439 412.50000000 0.774410 -0.165187 -0.610739 0.000000
197.42199707 86.46479797 415.00000000 0.001110 0.989041 0.147635 0.000000
239.72700500 142.50000000 367.50000000 -0.187858 -0.933723 0.304747 0.000000
107.61699677 147.32400513 280.00000000 -0.047955 -0.993680 0.101487 0.000000
218.94500732 157.34399414 417.50000000 0.112348 -0.815619 0.567577 0.000000
83.86720276 128.39799500 312.50000000 0.919004 0.303458 0.251683 0.000000
103.90599823 157.34399414 297.50000000 0.146829 -0.896653 0.417678 0.000000
132.85200500 204.84399414 352.50000000 -0.818938 -0.195998 -0.539375 0.000000
236.01600647 107.61699677 442.50000000 0.197375 0.449658 -0.871120 0.000000
100.19499969 162.53900146 302.50000000 -0.207593 -0.410769 0.887792 0.000000
117.26599884 144.72700500 442.50000000 0.745068 -0.095146 -0.660168 0.000000
264.21899414 152.14799500 447.50000000 -0.574175 -0.100299 -0.812566 0.000000
146.95300293 186.28900146 432.50000000 0.130321 -0.708526 -0.693547 0.000000
69.76560211 200.76199341 305.00000000 0.685073 -0.330332 0.649273 0.000000
89.80470276 96.85549927 410.00000000 0.301984 0.953176 -0.016156 0.000000
243.43800354 108.35900116 442.50000000 -0.000978 -0.000978 -0.999999 0.000000
204.84399414 163.28100586 397.50000000 0.057418 -0.917352 0.393914 0.000000
98.71089935 198.90600586 407.50000000 0.441476 -0.725872 -0.527456 0.000000
62.34379959 188.51600647 382.50000000 0.753992 -0.606027 -0.253430 0.000000
146.21099854 171.81599426 445.00000000 -0.043476 -0.582015 -0.812015 0.000000
204.10200500 110.58599854 452.50000000 -0.060630 0.172380 -0.983163 0.000000
69.39450073 200.39100647 380.00000000 0.650660 -0.644037 -0.402316 0.000000
59.37500000 183.32000732 357.50000000 0.917072 -0.183414 0.354032 0.000000
165.87899780 139.53100586 300.00000000 -0.918983 -0.292863 0.264009 0.000000
221.54299927 164.02299500 435.00000000 -0.281045 -0.925879 0.252512 0.000000
260.50799561 130.62500000 447.50000000 -0.186426 0.066151 -0.980239 0.000000
117.26599884 152.14799500 287.50000000 0.180066 -0.803488 0.567435 0.000000
198.90600586 84.98049927 380.00000000 -0.208768 0.974663 0.080295 0.000000
126.91400146 192.22700500 422.50000000 0.169213 -0.714963 -0.678376 0.000000
244.17999268 95.74220276 432.50000000 -0.421888 0.839070 -0.343470 0.000000
291.67999268 112.81199646 427.50000000 -0.367050 0.388917 -0.844996 0.000000
104.64800262 172.92999268 307.50000000 -0.220015 -0.700616 0.678771 0.000000
259.76599121 140.64500427 400.00000000 -0.607761 -0.693407 0.387056 0.000000
217.46099854 130.62500000 322.50000000 -0.154854 -0.845060 0.511755 0.000000
113.55500031 227.10899353 357.50000000 0.000978 0.000978 0.999999 0.000000
79.41410065 170.70300293 287.50000000 0.222440 -0.617542 0.754428 0.000000
90.54689789 125.43000031 302.50000000 0.663730 0.630626 0.402210 0.000000
230.07800293 130.62500000 452.50000000 -0.181308 0.215717 -0.959476 0.000000
213.75000000 141.75799561 462.50000000 -0.000978 -0.000978 -0.999999 0.000000
252.34399414 99.45310211 432.50000000 -0.452342 0.720765 -0.525247 0.000000
149.55099487 146.95300293 285.00000000 -0.564945 -0.419153 0.710737 0.000000
261.25000000 120.60500336 325.00000000 -0.703222 -0.703222 0.104673 0.000000
183.69099426 142.50000000 360.00000000 -0.024427 -0.982880 0.182618 0.000000
195.93800354 90.91799927 325.00000000 0.048498 0.963743 0.262387 0.000000
231.56199646 127.65599823 452.50000000 0.146492 0.213904 -0.965808 0.000000
132.10899353 100.93800354 312.50000000 0.243082 0.949242 0.199626 0.000000
212.26600647 93.51560211 322.50000000 0.000978 0.000978 0.999999 0.000000
139.53100586 178.12500000 437.50000000 -0.198558 -0.771143 -0.604908 0.000000
170.33200073 147.69500732 320.00000000 -0.874212 -0.349380 0.337174 0.000000
95.74220276 187.03100586 312.50000000 -0.685668 -0.507964 0.521376 0.000000
109.84400177 178.86700439 312.50000000 0.000978 0.000978 0.999999 0.000000
90.54689789 192.22700500 407.50000000 0.446819 -0.627555 -0.637595 0.000000
95.74220276 180.35200500 422.50000000 -0.385983 -0.898685 -0.208285 0.000000
172.18800354 149.55099487 355.00000000 -0.915429 0.348121 0.201996 0.000000
215.23399353 88.69139862 355.00000000 -0.217287 0.947044 0.236419 0.000000
145.46899414 147.69500732 452.50000000 -0.000978 -0.000978 -0.999999 0.000000
83.86720276 149.17999268 432.50000000 0.631551 -0.009674 -0.775274 0.000000
138.78900146 202.61700439 357.50000000 -0.512147 -0.676705 0.528938 0.000000
135.82000732 190.00000000 337.50000000 -0.525883 -0.673735 0.519162 0.000000
181.09399414 82.75389862 410.00000000 -0.164165 0.986138 0.024108 0.000000
86.09380341 164.76600647 287.50000000 -0.654460 -0.329666 0.680443 0.000000
145.83999634 184.06199646 340.00000000 -0.550532 -0.722470 0.418272 0.000000
215.97700500 138.04699707 382.50000000 -0.960533 0.159430 -0.227945 0.000000
138.78900146 99.82420349 310.00000000 0.284039 0.905098 0.316416 0.000000
205.58599854 96.48439789 442.50000000 -0.277032 0.840381 -0.465847 0.000000
173.30099487 157.34399414 435.00000000 -0.646427 -0.753421 -0.120369 0.000000
97.96880341 216.71899414 387.50000000 -0.255135 -0.824163 -0.505631 0.000000
132.10899353 224.51199341 365.00000000 -0.380364 -0.816429 0.434474 0.000000
138.04699707 178.12500000 322.50000000 -0.249188 -0.821856 0.512306 0.000000
57.89059830 174.41400146 387.50000000 0.965730 -0.124735 -0.227609 0.000000
267.18798828 122.08999634 335.00000000 -0.001110 -0.989041 -0.147635 0.000000
100.19499969 199.64799500 327.50000000 -0.745935 -0.526253 0.408215 0.000000
261.25000000 109.10199738 437.50000000 -0.583662 0.316753 -0.747667 0.000000
66.79689789 147.69500732 417.50000000 0.817585 -0.209363 -0.536397 0.000000
239.72700500 153.63299561 457.50000000 -0.168687 -0.618519 -0.767450 0.000000
175.15600586 154.37500000 337.50000000 0.000978 0.000978 0.999999 0.000000
140.64500427 184.80499268 335.00000000 -0.420852 -0.794943 0.436977 0.000000
276.09399414 121.71900177 332.50000000 -0.001110 -0.989041 0.147635 0.000000
290.93798828 139.53100586 427.50000000 0.117777 -0.971348 0.206427 0.000000
190.00000000 126.17199707 462.50000000 -0.307896 0.428580 -0.849423 0.000000
230.82000732 106.13300323 442.50000000 -0.447076 0.712996 -0.540148 0.000000
129.14100647 207.81199646 407.50000000 -0.194750 -0.904504 -0.379401 0.000000
72.73439789 217.46099854 317.50000000 0.660713 -0.719789 0.212983 0.000000
118.00800323 148.43800354 442.50000000 0.607725 -0.132243 -0.783059 0.000000
295.39099121 103.16400146 377.50000000 0.745076 -0.373353 -0.552693 0.000000
130.62500000 149.17999268 447.50000000 -0.000978 -0.000978 -0.999999 0.000000
82.38279724 176.64100647 417.50000000 0.251069 -0.715310 -0.652148 0.000000
138.78900146 118.75000000 447.50000000 0.301050 -0.082105 -0.950067 0.000000
122.83200073 227.10899353 360.00000000 -0.239838 -0.899024 0.366378 0.000000
66.42579651 150.66400146 370.00000000 0.000978 0.000978 0.999999 0.000000
252.34399414 152.89100647 442.50000000 -0.511966 -0.426364 -0.745725 0.000000
98.71089935 206.32800293 397.50000000 0.419449 -0.765454 -0.487998 0.000000
83.86720276 117.26599884 337.50000000 0.737775 0.599543 0.310219 0.000000
89.80470276 194.08200073 405.00000000 0.541807 -0.545183 -0.639704 0.000000
240.46899414 118.00800323 447.50000000 -0.000978 -0.000978 -0.999999 0.000000
120.23400116 198.90600586 417.50000000 0.201512 -0.604536 -0.770668 0.000000
119.49199677 135.82000732 442.50000000 -0.000978 -0.000978 -0.999999 0.000000
161.79699707 156.60200500 452.50000000 -0.064042 -0.335894 -0.939720 0.000000
135.82000732 117.26599884 447.50000000 0.076759 -0.147614 -0.986062 0.000000
126.17199707 150.29299927 280.00000000 -0.217381 -0.973914 0.065091 0.000000
95.74220276 165.50799561 297.50000000 0.000978 0.000978 0.999999 0.000000
206.32800293 150.66400146 457.50000000 0.146809 -0.825989 -0.544233 0.000000
103.16400146 217.46099854 342.50000000 -0.706239 -0.580538 0.405219 0.000000
262.36300659 144.72700500 450.00000000 -0.735535 0.092125 -0.671194 0.000000
92.03119659 192.22700500 407.50000000 0.574720 -0.507304 -0.642136 0.000000
254.57000732 105.01999664 440.00000000 -0.610045 0.343252 -0.714159 0.000000
83.86720276 175.89799500 292.50000000 -0.728697 -0.149360 0.668350 0.000000
124.68800354 226.36700439 382.50000000 -0.149324 -0.832371 -0.533723 0.000000
271.64099121 106.13300323 327.50000000 -0.392106 0.907365 0.151463 0.000000
162.53900146 187.77299500 387.50000000 -0.829744 0.001358 0.558142 0.000000
150.66400146 99.08200073 300.00000000 0.598970 0.598970 0.531480 0.000000
215.97700500 132.85200500 457.50000000 -0.000978 -0.000978 -0.999999 0.000000
154.37500000 192.96899414 372.50000000 -0.865747 -0.320250 0.384606 0.000000
66.79689789 194.45300293 307.50000000 0.892680 -0.445654 -0.067191 0.000000
126.17199707 186.28900146 427.50000000 -0.091874 -0.762696 -0.640198 0.000000
100.93800354 202.61700439 332.50000000 -0.372060 -0.709700 0.598246 0.000000
71.99220276 210.41000366 310.00000000 0.380982 -0.544494 0.747248 0.000000
92.77339935 210.03900146 332.50000000 0.000978 0.000978 0.999999 0.000000
103.16400146 229.33599854 352.50000000 -0.474195 -0.655160 0.588136 0.000000
204.10200500 123.20300293 307.50000000 0.200988 -0.929043 0.310618 0.000000
210.78100586 148.43800354 392.50000000 -0.865227 -0.298618 0.402752 0.000000
154.37500000 144.72700500 287.50000000 -0.580704 -0.510009 0.634566 0.000000
234.53100586 92.77339935 432.50000000 -0.106957 0.795587 -0.596324 0.000000
118.00800323 224.14100647 387.50000000 -0.163879 -0.386185 -0.907747 0.000000
179.60899353 88.69139862 335.00000000 -0.001110 0.989041 0.147635 0.000000
253.82800293 141.38699341 385.00000000 0.000978 0.000978 0.999999 0.000000
135.82000732 93.51560211 442.50000000 -0.432839 0.864160 0.256666 0.000000
171.44500732 138.78900146 327.50000000 -0.871607 -0.337347 0.355665 0.000000
151.40600586 187.77299500 357.50000000 -0.751821 -0.536549 0.383249 0.000000
106.13300323 93.51560211 397.50000000 0.240792 0.832803 0.498455 0.000000
72.36329651 179.60899353 295.00000000 0.839080 0.243901 0.486268 0.000000
112.81199646 203.35899353 407.50000000 0.335921 -0.718903 -0.608552 0.000000
61.97269821 205.58599854 355.00000000 0.908977 -0.387130 -0.154569 0.000000
204.84399414 166.62100220 440.00000000 -0.736611 -0.374022 -0.563483 0.000000
207.81199646 135.07800293 392.50000000 -0.570499 -0.570499 -0.590814 0.000000
192.22700500 139.53100586 462.50000000 -0.000978 -0.000978 -0.999999 0.000000
101.68000031 197.42199707 407.50000000 0.133753 -0.545299 -0.827502 0.000000
169.96099854 155.85899353 327.50000000 -0.799227 -0.464741 0.381120 0.000000
198.16400146 138.78900146 372.50000000 0.495008 -0.867978 0.039765 0.000000
103.16400146 100.93800354 362.50000000 0.380394 0.903977 0.195259 0.000000
108.35900116 90.91799927 410.00000000 0.167679 0.977506 0.127933 0.000000
112.06999969 118.75000000 442.50000000 -0.000978 -0.000978 -0.999999 0.000000
111.32800293 102.79299927 335.00000000 0.392106 0.907365 0.151463 0.000000
170.70300293 159.94099426 430.00000000 -0.732990 -0.679322 -0.035308 0.000000
114.29699707 88.69139862 420.00000000 0.395456 0.789298 0.469705 0.000000
287.96899414 123.20300293 402.50000000 -0.885728 0.311283 0.344366 0.000000
163.28100586 157.34399414 317.50000000 -0.691333 -0.639280 0.336720 0.000000
75.70310211 229.70700073 335.00000000 0.655434 -0.752960 0.058803 0.000000
89.06250000 233.04699707 337.50000000 -0.411259 -0.254589 0.875243 0.000000
67.91020203 201.87500000 310.00000000 0.854875 -0.326182 0.403476 0.000000
62.71480179 135.07800293 405.00000000 0.917072 0.183414 -0.354032 0.000000
98.71089935 229.33599854 347.50000000 -0.630782 -0.427733 0.647425 0.000000
281.28900146 144.35499573 445.00000000 -0.345744 0.482766 -0.804610 0.000000
183.32000732 157.71499634 370.00000000 -0.668903 0.471082 0.575022 0.000000
162.16799927 143.24200439 295.00000000 -0.802657 -0.329010 0.497488 0.000000
151.40600586 145.46899414 287.50000000 -0.518403 -0.232282 0.822984 0.000000
264.96099854 122.46099854 332.50000000 -0.282865 -0.845503 0.452893 0.000000
219.68800354 136.56199646 342.50000000 -0.227097 -0.898133 0.376542 0.000000
161.05499268 138.04699707 287.50000000 -0.886229 -0.443828 0.132720 0.000000
136.56199646 88.32029724 432.50000000 0.075854 0.981285 -0.176992 0.000000
224.14100647 151.40600586 392.50000000 0.405070 -0.880393 0.246630 0.000000
244.92199707 101.30899811 440.00000000 -0.301550 0.513109 -0.803608 0.000000
293.16400146 120.97699738 387.50000000 -0.292780 -0.953147 -0.076097 0.000000
174.41400146 148.43800354 337.50000000 -0.992091 0.124701 0.014346 0.000000
148.80900574 122.46099854 455.00000000 0.465806 0.097102 -0.879543 0.000000
185.54699707 85.72270203 355.00000000 -0.206494 0.978191 -0.022419 0.000000
190.00000000 139.53100586 462.50000000 -0.000978 -0.000978 -0.999999 0.000000
79.78520203 105.39099884 405.00000000 0.703222 0.703222 -0.104673 0.000000
197.42199707 131.36700439 322.50000000 0.472118 -0.619970 0.626691 0.000000
92.03119659 100.56600189 430.00000000 0.508995 0.673620 -0.535873 0.000000
161.79699707 167.73399353 437.50000000 -0.798501 0.147760 -0.583578 0.000000
126.91400146 175.89799500 312.50000000 -0.265610 -0.717307 0.644145 0.000000
86.83589935 116.15200043 335.00000000 0.654134 0.657429 0.374026 0.000000
274.60900879 123.57399750 345.00000000 -0.195779 -0.916018 0.350116 0.000000
239.72700500 102.42199707 442.50000000 -0.090011 0.052229 -0.994570 0.000000
211.52299500 116.52300262 297.50000000 -0.182326 -0.888292 0.421538 0.000000
110.58599854 146.21099854 277.50000000 0.332784 -0.725631 0.602258 0.000000
97.59770203 104.64800262 355.00000000 0.361477 0.873952 0.324872 0.000000
227.10899353 123.57399750 315.00000000 -0.441087 -0.684101 0.580903 0.000000
230.07800293 158.08599854 412.50000000 0.214153 -0.926105 0.310593 0.000000
169.96099854 185.54699707 417.50000000 -0.749799 0.278588 0.600158 0.000000
168.47700500 123.94499969 287.50000000 -0.558202 -0.764109 0.323339 0.000000
153.63299561 86.83589935 432.50000000 0.315874 0.947621 0.047317 0.000000
212.26600647 152.14799500 397.50000000 -0.925844 0.211257 0.313341 0.000000
103.90599823 147.69500732 277.50000000 -0.028474 -0.874569 0.484064 0.000000
271.26998901 95.00000000 365.00000000 -0.249641 0.916312 0.313133 0.000000
115.03900146 129.14100647 442.50000000 -0.000978 -0.000978 -0.999999 0.000000
155.11700439 140.27299500 282.50000000 -0.530460 -0.641604 0.554036 0.000000
137.30499268 193.33999634 425.00000000 0.444998 -0.811841 -0.378009 0.000000
302.07000732 132.85200500 432.50000000 -0.842686 0.286049 -0.456133 0.000000
123.94499969 184.06199646 322.50000000 -0.084482 -0.831928 0.548414 0.000000
285.00000000 138.78900146 417.50000000 -0.423187 -0.488544 0.763044 0.000000
191.48399353 121.71900177 457.50000000 -0.450272 0.345998 -0.823128 0.000000
141.38699341 120.23400116 450.00000000 0.523770 -0.178592 -0.832929 0.000000
142.50000000 183.69099426 335.00000000 -0.528725 -0.748072 0.401045 0.000000
100.93800354 178.12500000 307.50000000 -0.672649 -0.481422 0.561939 0.000000
86.09380341 136.56199646 437.50000000 0.795211 -0.001369 -0.606331 0.000000
82.38279724 164.76600647 427.50000000 -0.000978 -0.000978 -0.999999 0.000000
226.36700439 121.71900177 312.50000000 -0.141421 -0.914337 0.379457 0.000000
125.43000031 95.00000000 442.50000000 0.098173 0.860791 -0.499401 0.000000
282.77301025 101.68000031 422.50000000 -0.395581 0.620681 -0.676957 0.000000
123.20300293 166.25000000 302.50000000 0.357576 -0.449751 0.818452 0.000000
71.25000000 168.47700500 302.50000000 0.931919 0.280563 0.229808 0.000000
164.02299500 182.57800293 437.50000000 -0.177538 -0.399821 -0.899235 0.000000
164.39500427 198.90600586 395.00000000 -0.689611 -0.562709 0.455845 0.000000
119.49199677 96.48439789 347.50000000 0.283245 0.936243 0.207899 0.000000
123.20300293 104.27700043 310.00000000 0.297217 0.920366 0.254142 0.000000
74.21880341 121.34799957 420.00000000 0.715033 0.452909 -0.532542 0.000000
285.74200439 101.68000031 367.50000000 -0.554866 0.758694 0.341331 0.000000
185.54699707 140.27299500 342.50000000 0.199996 -0.923388 0.327654 0.000000
89.06250000 169.21899414 427.50000000 0.489456 -0.650926 -0.580283 0.000000
147.69500732 106.13300323 277.50000000 0.184012 0.798397 0.573325 0.000000
91.28910065 158.08599854 292.50000000 -0.761160 -0.558398 0.329890 0.000000
149.92199707 174.41400146 322.50000000 -0.109239 -0.934602 0.338506 0.000000
64.94139862 178.12500000 340.00000000 0.989004 0.115598 0.092245 0.000000
271.64099121 127.65599823 362.50000000 -0.250918 -0.928538 0.273600 0.000000
264.21899414 118.75000000 442.50000000 -0.000978 -0.000978 -0.999999 0.000000
66.42579651 147.69500732 370.00000000 -0.000978 -0.000978 0.999999 0.000000
155.48800659 185.54699707 365.00000000 -0.774507 -0.568606 0.277175 0.000000
75.70310211 168.47700500 292.50000000 0.905248 -0.092316 0.414733 0.000000
215.23399353 167.73399353 422.50000000 -0.579380 -0.813387 0.052158 0.000000
257.53900146 136.56199646 372.50000000 -0.462939 -0.820018 0.336539 0.000000
178.86700439 143.98399353 457.50000000 0.508695 -0.262904 -0.819824 0.000000
184.80499268 89.06250000 432.50000000 0.768194 0.384909 -0.511588 0.000000
86.83589935 161.05499268 287.50000000 -0.651856 -0.510368 0.560899 0.000000
79.78520203 207.81199646 310.00000000 -0.567510 -0.187141 0.801817 0.000000
80.89839935 143.98399353 302.50000000 0.825355 0.480805 0.296000 0.000000
155.85899353 112.81199646 457.50000000 0.460756 0.307691 -0.832484 0.000000
127.65599823 174.41400146 437.50000000 -0.369626 -0.924742 -0.090714 0.000000
81.64060211 221.91400146 362.50000000 0.530256 -0.661557 -0.530256 0.000000
233.04699707 137.67599487 460.00000000 -0.330030 0.548976 -0.767923 0.000000
84.60939789 210.78100586 382.50000000 0.578220 -0.800496 -0.157696 0.000000
77.18750000 171.44500732 417.50000000 -0.000978 -0.000978 -0.999999 0.000000
105.39099884 90.91799927 410.00000000 0.233652 0.966528 0.105973 0.000000
178.12500000 122.46099854 297.50000000 -0.345386 -0.806962 0.479084 0.000000
59.74610138 198.16400146 355.00000000 0.913864 -0.001289 0.406019 0.000000
296.87500000 135.07800293 422.50000000 -0.574453 -0.503699 0.645206 0.000000
297.24600220 112.06999969 420.00000000 -0.607094 0.168049 -0.776657 0.000000
102.42199707 97.96880341 377.50000000 0.341001 0.909821 0.236524 0.000000
190.00000000 156.97300720 425.00000000 0.313930 -0.939071 -0.139977 0.000000
172.18800354 165.50799561 367.50000000 -0.577502 -0.814716 0.052243 0.000000
129.88299561 215.60499573 400.00000000 0.035274 -0.664563 -0.746399 0.000000
160.31199646 85.35160065 427.50000000 -0.001289 0.913864 -0.406019 0.000000
64.94139862 203.35899353 330.00000000 0.972869 -0.216882 0.080556 0.000000
93.88670349 153.63299561 290.00000000 -0.618106 -0.684038 0.387347 0.000000
87.57810211 220.42999268 367.50000000 -0.000978 -0.000978 -0.999999 0.000000
78.67189789 147.69500732 427.50000000 0.677231 -0.323187 -0.660990 0.000000
201.87500000 130.62500000 457.50000000 -0.000978 -0.000978 -0.999999 0.000000
75.33200073 124.68800354 355.00000000 0.854198 0.447728 0.264358 0.000000
300.21499634 128.39799500 420.00000000 -0.511251 -0.588866 0.625987 0.000000
97.96880341 96.48439789 427.50000000 0.469694 0.799923 -0.373511 0.000000
83.86720276 204.84399414 387.50000000 0.573957 -0.577344 -0.580730 0.000000
205.95700073 104.64800262 450.00000000 -0.322901 0.637689 -0.699348 0.000000
239.72700500 160.68400574 435.00000000 -0.326634 -0.757855 0.564771 0.000000
154.37500000 192.22700500 427.50000000 0.022467 -0.905278 -0.424225 0.000000
159.57000732 91.28910065 322.50000000 0.001110 0.989041 0.147635 0.000000
204.84399414 93.14450073 320.00000000 0.001110 0.989041 -0.147635 0.000000
221.91400146 105.39099884 447.50000000 -0.099932 0.824078 -0.557592 0.000000
109.84400177 176.64100647 432.50000000 0.123214 -0.758582 -0.639822 0.000000
143.98399353 183.32000732 437.50000000 0.082684 -0.625206 -0.776068 0.000000
281.28900146 150.66400146 437.50000000 -0.291055 -0.870117 0.397724 0.000000
155.85899353 168.47700500 317.50000000 -0.744469 -0.473753 0.470451 0.000000
170.70300293 159.94099426 435.00000000 -0.658792 -0.739828 -0.136560 0.000000
195.19500732 102.42199707 452.50000000 -0.082973 0.717648 -0.691446 0.000000
166.99200439 95.74220276 302.50000000 -0.142764 0.924498 0.353444 0.000000
129.14100647 154.00399780 285.00000000 -0.304873 -0.944167 0.124904 0.000000
134.33599854 224.14100647 367.50000000 -0.467746 -0.845010 0.259177 0.000000
74.21880341 200.39100647 302.50000000 0.265902 0.306587 0.913948 0.000000
82.38279724 112.81199646 362.50000000 0.457051 0.871483 0.177824 0.000000
95.74220276 126.91400146 287.50000000 0.665264 0.658726 0.351430 0.000000
181.83599854 111.32800293 277.50000000 -0.250936 -0.912362 0.323461 0.000000
103.90599823 193.71099854 412.50000000 0.601764 -0.719181 -0.347360 0.000000
222.65600586 92.40229797 435.00000000 -0.095919 0.848958 -0.519682 0.000000
174.41400146 141.01600647 352.50000000 -0.633633 -0.492452 0.596657 0.000000
85.35160065 132.10899353 307.50000000 0.871409 0.277335 0.404637 0.000000
155.85899353 130.62500000 457.50000000 -0.000978 -0.000978 -0.999999 0.000000
74.21880341 172.92999268 417.50000000 -0.000978 -0.000978 -0.999999 0.000000
136.56199646 177.38299561 317.50000000 -0.203340 -0.871243 0.446753 0.000000
136.19099426 208.55499268 360.00000000 -0.632218 -0.504088 0.588384 0.000000
102.42199707 232.30499268 367.50000000 0.408919 -0.747221 -0.523876 0.000000
264.96099854 137.30499268 447.50000000 -0.648993 -0.223629 -0.727185 0.000000
126.91400146 106.50399780 300.00000000 0.303476 0.913331 0.271531 0.000000
131.36700439 161.05499268 447.50000000 0.452342 -0.525247 -0.720765 0.000000
261.99200439 91.28910065 367.50000000 -0.139709 0.877144 0.459456 0.000000
129.14100647 172.92999268 442.50000000 0.380547 -0.550405 -0.743128 0.000000
278.32000732 132.85200500 412.50000000 0.060896 -0.822802 0.565057 0.000000
166.25000000 137.30499268 457.50000000 -0.000978 -0.000978 -0.999999 0.000000
82.01170349 103.90599823 395.00000000 0.664369 0.736032 0.129888 0.000000
204.10200500 152.89100647 382.50000000 0.000978 0.000978 0.999999 0.000000
293.16400146 138.78900146 437.50000000 -0.735954 0.213162 -0.642599 0.000000
158.08599854 195.19500732 377.50000000 -0.000978 -0.000978 0.999999 0.000000
137.30499268 104.64800262 452.50000000 -0.000978 -0.000978 -0.999999 0.000000
244.92199707 133.59399414 347.50000000 -0.131622 -0.803041 0.581206 0.000000
173.30099487 145.46899414 355.00000000 -0.951670 -0.306385 -0.021259 0.000000
186.28900146 122.46099854 307.50000000 -0.296177 -0.845114 0.445041 0.000000
117.26599884 210.03900146 347.50000000 -0.203609 -0.444373 0.872397 0.000000
149.92199707 193.71099854 362.50000000 -0.854390 -0.450885 0.258304 0.000000
87.57810211 136.56199646 437.50000000 -0.000978 -0.000978 -0.999999 0.000000
178.86700439 85.72270203 350.00000000 -0.066688 0.978491 0.195213 0.000000
166.62100220 167.73399353 415.00000000 -0.586224 -0.717591 -0.376037 0.000000
106.13300323 227.47999573 375.00000000 0.247419 -0.804501 -0.539965 0.000000
190.74200439 149.17999268 382.50000000 -0.953712 -0.001227 0.300720 0.000000
233.78900146 147.32400513 380.00000000 -0.018065 -0.969486 0.244479 0.000000
86.46479797 141.75799561 290.00000000 0.873627 0.443488 0.200237 0.000000
69.39450073 166.99200439 315.00000000 0.961055 0.222186 0.164339 0.000000
129.88299561 199.64799500 347.50000000 -0.460846 -0.703747 0.540704 0.000000
215.97700500 89.06250000 352.50000000 -0.318643 0.921636 0.221479 0.000000
95.74220276 163.28100586 432.50000000 0.524260 -0.215512 -0.823837 0.000000
121.71900177 92.03119659 367.50000000 0.273850 0.961546 0.020876 0.000000
238.24200439 110.58599854 447.50000000 0.076948 0.738993 -0.669304 0.000000
171.44500732 95.74220276 447.50000000 -0.119883 0.779979 -0.614215 0.000000
104.64800262 109.10199738 437.50000000 0.137075 0.829821 -0.540932 0.000000
96.48439789 100.19499969 377.50000000 0.373370 0.914405 0.156393 0.000000
138.78900146 98.71089935 452.50000000 -0.000978 -0.000978 -0.999999 0.000000
102.42199707 207.81199646 337.50000000 -0.740667 -0.476732 0.473433 0.000000
155.85899353 194.45300293 422.50000000 0.373404 -0.818311 -0.436962 0.000000
162.53900146 83.49610138 365.00000000 -0.877353 0.437939 0.196114 0.000000
202.61700439 95.00000000 442.50000000 -0.118621 0.876084 -0.467340 0.000000
272.38299561 92.77339935 372.50000000 -0.428803 0.834045 0.347126 0.000000
185.54699707 91.66020203 320.00000000 0.097730 0.935802 0.338709 0.000000
161.05499268 136.56199646 457.50000000 -0.000978 -0.000978 -0.999999 0.000000
83.86720276 123.57399750 325.00000000 0.764119 0.609125 0.212341 0.000000
146.95300293 147.69500732 282.50000000 -0.643535 -0.370321 0.669869 0.000000
109.10199738 172.18800354 437.50000000 0.020962 -0.747630 -0.663784 0.000000
203.35899353 90.54689789 432.50000000 0.384909 0.768194 -0.511588 0.000000
77.92970276 218.94500732 362.50000000 0.554767 -0.628960 -0.544649 0.000000
214.49200439 152.14799500 457.50000000 0.045109 -0.479801 -0.876217 0.000000
161.05499268 133.59399414 457.50000000 0.220835 -0.507158 -0.833080 0.000000
109.10199738 123.20300293 442.50000000 0.000978 0.000978 -0.999999 0.000000
90.54689789 227.10899353 337.50000000 -0.745396 -0.169200 0.644791 0.000000
225.62500000 104.64800262 447.50000000 -0.046014 0.547984 -0.835222 0.000000
151.40600586 157.34399414 452.50000000 0.209541 -0.539913 -0.815222 0.000000
215.23399353 126.17199707 312.50000000 -0.346921 -0.766453 0.540551 0.000000
205.58599854 129.14100647 457.50000000 -0.000978 -0.000978 -0.999999 0.000000
96.85549927 164.02299500 435.00000000 0.450944 -0.325245 -0.831183 0.000000
290.93798828 96.85549927 405.00000000 -0.448721 0.893448 0.019973 0.000000
149.17999268 192.96899414 427.50000000 -0.137633 -0.557930 -0.818396 0.000000
175.15600586 138.41799927 340.00000000 -0.216018 -0.949663 0.226886 0.000000
100.19499969 155.85899353 437.50000000 -0.000978 -0.000978 -0.999999 0.000000
83.49610138 120.23400116 335.00000000 0.733011 0.593852 0.331716 0.000000
149.92199707 106.87500000 452.50000000 -0.000978 -0.000978 -0.999999 0.000000
173.67199707 129.88299561 307.50000000 -0.566746 -0.767901 0.298540 0.000000
92.03119659 132.10899353 437.50000000 -0.000978 -0.000978 -0.999999 0.000000
138.04699707 87.94920349 365.00000000 0.209925 0.977717 0.001160 0.000000
112.81199646 210.03900146 402.50000000 0.519633 -0.734085 -0.437152 0.000000
168.84800720 151.40600586 320.00000000 -0.862323 -0.347089 0.368685 0.000000
165.50799561 91.28910065 442.50000000 -0.078922 0.929674 -0.359831 0.000000
104.64800262 181.83599854 312.50000000 -0.302356 -0.796258 0.523979 0.000000
190.00000000 151.40600586 377.50000000 -0.555964 0.439792 0.705327 0.000000
195.19500732 115.03900146 292.50000000 -0.065541 -0.863183 0.500618 0.000000
174.41400146 96.48439789 292.50000000 0.108914 0.980227 0.165207 0.000000
267.92999268 135.07800293 447.50000000 -0.000978 -0.000978 -0.999999 0.000000
106.87500000 95.00000000 432.50000000 0.437456 0.731295 -0.523297 0.000000
71.25000000 171.44500732 297.50000000 0.912061 0.144749 0.383656 0.000000
215.97700500 135.44900513 335.00000000 -0.165787 -0.929244 0.330181 0.000000
134.33599854 220.42999268 392.50000000 0.194233 -0.784581 -0.588818 0.000000
276.83599854 138.41799927 445.00000000 -0.799171 0.312995 -0.513185 0.000000
96.48439789 123.57399750 295.00000000 0.598159 0.769061 0.225281 0.000000
153.63299561 102.42199707 282.50000000 0.236180 0.899246 0.368207 0.000000
89.80470276 227.10899353 337.50000000 -0.745396 -0.169200 0.644791 0.000000
272.38299561 97.96880341 427.50000000 -0.478703 0.357026 -0.802107 0.000000
78.67189789 223.77000427 355.00000000 0.703222 -0.703222 -0.104673 0.000000
197.42199707 87.94920349 425.00000000 -0.116866 0.941644 -0.315672 0.000000
158.08599854 92.77339935 447.50000000 -0.073535 0.883813 -0.462025 0.000000
228.22300720 159.57000732 455.00000000 -0.423893 -0.195079 -0.884454 0.000000
129.51199341 198.90600586 345.00000000 -0.538895 -0.730063 0.420239 0.000000
105.39099884 188.88699341 320.00000000 -0.094922 -0.491608 0.865628 0.000000
172.18800354 99.45310211 457.50000000 0.147167 0.819082 -0.554478 0.000000
161.05499268 180.35200500 437.50000000 0.513737 -0.624906 -0.587850 0.000000
146.21099854 143.98399353 452.50000000 0.316137 -0.023931 -0.948412 0.000000
77.92970276 127.65599823 337.50000000 0.818350 0.558837 0.134180 0.000000
92.77339935 198.90600586 402.50000000 0.401507 -0.708833 -0.579955 0.000000
187.77299500 126.91400146 317.50000000 -0.553915 -0.279325 0.784319 0.000000
62.34379959 199.64799500 347.50000000 0.968805 -0.068577 0.238149 0.000000
92.03119659 199.64799500 402.50000000 0.388518 -0.666267 -0.636508 0.000000
91.28910065 146.95300293 437.50000000 0.192260 -0.100472 -0.976187 0.000000
170.33200073 161.05499268 430.00000000 -0.775646 -0.630822 -0.020888 0.000000
202.61700439 171.07400513 425.00000000 -0.204742 -0.914895 0.347918 0.000000
136.56199646 214.86300659 400.00000000 0.427137 -0.599987 -0.676439 0.000000
208.55499268 124.68800354 312.50000000 0.017707 -0.976228 0.216021 0.000000
201.87500000 141.01600647 372.50000000 0.230461 -0.928913 -0.289843 0.000000
69.76560211 220.80099487 340.00000000 0.890895 -0.454052 -0.011914 0.000000
99.08200073 124.68800354 285.00000000 0.711118 0.637277 0.296968 0.000000
80.15619659 105.76200104 395.00000000 0.703222 0.703222 0.104673 0.000000
185.54699707 83.49610138 410.00000000 -0.138927 0.990272 -0.007780 0.000000
95.00000000 97.22660065 427.50000000 0.474320 0.806504 -0.352946 0.000000
203.35899353 141.01600647 462.50000000 -0.000978 -0.000978 -0.999999 0.000000
194.45300293 145.46899414 462.50000000 0.148671 -0.240769 -0.959128 0.000000
218.20300293 110.58599854 292.50000000 -0.629510 -0.394889 0.669164 0.000000
208.55499268 159.94099426 455.00000000 0.012295 -0.834710 -0.550553 0.000000
69.39450073 133.59399414 360.00000000 0.930306 0.349034 0.112723 0.000000
199.64799500 126.17199707 457.50000000 -0.233701 0.139698 -0.962220 0.000000
143.98399353 155.85899353 447.50000000 0.116483 -0.614852 -0.779993 0.000000
179.60899353 157.71499634 420.00000000 -0.300416 -0.901248 -0.312255 0.000000
175.15600586 162.53900146 352.50000000 0.778804 0.582937 0.231620 0.000000
120.23400116 194.45300293 332.50000000 0.000978 0.000978 0.999999 0.000000
76.44529724 113.55500031 417.50000000 0.764711 0.263313 -0.588118 0.000000
83.86720276 215.97700500 372.50000000 0.600808 -0.699571 -0.386821 0.000000
101.68000031 164.02299500 437.50000000 0.405761 -0.009075 -0.913934 0.000000
96.48439789 223.39799500 372.50000000 0.588063 -0.621763 -0.517293 0.000000
226.36700439 89.80470276 427.50000000 0.053622 0.963949 -0.260628 0.000000
106.13300323 224.51199341 380.00000000 0.326278 -0.821212 -0.468138 0.000000
233.04699707 87.20700073 385.00000000 -0.081711 0.990892 0.107030 0.000000
73.10549927 169.96099854 295.00000000 0.878920 0.059331 0.473265 0.000000
213.00799561 126.91400146 457.50000000 -0.000978 -0.000978 -0.999999 0.000000
303.55499268 133.59399414 427.50000000 -0.931498 0.363728 0.003802 0.000000
105.39099884 173.30099487 435.00000000 0.176214 -0.718647 -0.672678 0.000000
159.94099426 176.64100647 360.00000000 -0.783011 -0.607020 0.135722 0.000000
87.57810211 184.80499268 412.50000000 -0.489456 -0.650926 -0.580283 0.000000
106.87500000 190.00000000 417.50000000 0.162228 -0.762623 -0.626170 0.000000
211.52299500 86.83589935 362.50000000 -0.083460 0.980956 0.175387 0.000000
80.89839935 150.66400146 427.50000000 0.736236 -0.317371 -0.597689 0.000000
139.53100586 144.72700500 452.50000000 -0.000978 -0.000978 -0.999999 0.000000
133.59399414 179.60899353 322.50000000 -0.249425 -0.819539 0.515891 0.000000
281.28900146 146.95300293 427.50000000 -0.156684 -0.865424 0.475910 0.000000
65.31250000 139.53100586 382.50000000 0.896224 0.359971 0.259238 0.000000
85.35160065 169.21899414 292.50000000 -0.733483 -0.229898 0.639648 0.000000
95.74220276 99.08200073 430.00000000 0.467746 0.784972 -0.406243 0.000000
169.96099854 82.01170349 410.00000000 0.070490 0.996616 -0.042294 0.000000
250.11700439 110.58599854 442.50000000 -0.000978 -0.000978 -0.999999 0.000000
171.44500732 139.53100586 327.50000000 -0.863599 -0.214029 0.456495 0.000000
147.69500732 141.01600647 452.50000000 0.526831 -0.411946 -0.743472 0.000000
246.40600586 132.85200500 452.50000000 0.159679 0.694986 -0.701069 0.000000
132.10899353 143.24200439 272.50000000 -0.310576 -0.334582 0.889718 0.000000
138.41799927 223.39799500 370.00000000 -0.471927 -0.695384 0.541966 0.000000
166.25000000 136.56199646 457.50000000 -0.000978 -0.000978 -0.999999 0.000000
67.16799927 146.21099854 360.00000000 0.978476 0.171511 0.114752 0.000000
63.45700073 131.36700439 405.00000000 0.917072 0.183414 -0.354032 0.000000
148.43800354 113.55500031 452.50000000 0.153302 -0.057342 -0.986514 0.000000
147.69500732 96.48439789 452.50000000 0.488755 0.522117 -0.698936 0.000000
111.32800293 199.64799500 332.50000000 -0.409482 -0.628315 0.661471 0.000000
160.31199646 147.69500732 457.50000000 0.497267 -0.279031 -0.821503 0.000000
275.35198975 90.17579651 405.00000000 -0.258100 0.957723 -0.127085 0.000000
158.08599854 204.84399414 387.50000000 -0.799490 -0.532470 0.278015 0.000000
132.10899353 189.25799561 427.50000000 0.000978 0.000978 -0.999999 0.000000
279.06201172 107.98799896 430.00000000 -0.104379 0.754175 -0.648325 0.000000
264.96099854 124.68800354 342.50000000 -0.152004 -0.948346 0.278451 0.000000
207.07000732 94.62889862 440.00000000 -0.272530 0.782932 -0.559237 0.000000
70.13670349 116.52300262 395.00000000 0.899846 0.428564 0.081303 0.000000
142.50000000 207.81199646 362.50000000 -0.676269 -0.268916 0.685816 0.000000
70.87889862 208.55499268 370.00000000 0.688109 -0.681782 -0.248352 0.000000
146.95300293 106.13300323 452.50000000 -0.000978 -0.000978 -0.999999 0.000000
99.45310211 182.20700073 310.00000000 -0.362202 -0.676875 0.640819 0.000000
107.61699677 184.06199646 317.50000000 -0.175654 -0.655266 0.734692 0.000000
151.40600586 167.73399353 312.50000000 0.000978 0.000978 0.999999 0.000000
115.78099823 151.40600586 442.50000000 0.150614 0.123675 -0.980826 0.000000
96.48439789 202.98800659 400.00000000 0.237849 -0.678893 -0.694645 0.000000
279.06201172 126.91400146 392.50000000 -0.571011 -0.817161 -0.078711 0.000000
303.18399048 120.97699738 415.00000000 -0.819006 -0.392805 0.418250 0.000000
220.80099487 165.50799561 450.00000000 0.550557 -0.304801 -0.777163 0.000000
64.57029724 185.17599487 330.00000000 0.939071 0.313930 0.139977 0.000000
149.17999268 85.35160065 372.50000000 0.209925 0.977717 -0.001160 0.000000
64.19920349 205.58599854 340.00000000 0.890265 -0.222935 0.397150 0.000000
128.39799500 195.19500732 422.50000000 0.104640 -0.720688 -0.685317 0.000000
183.32000732 93.51560211 447.50000000 -0.305110 0.470964 -0.827708 0.000000
241.21099854 155.85899353 452.50000000 -0.640892 -0.576971 -0.506322 0.000000
70.13670349 118.00800323 405.00000000 0.902913 0.391884 -0.176563 0.000000
71.99220276 123.20300293 372.50000000 0.915795 0.401391 -0.014289 0.000000
72.73439789 214.86300659 360.00000000 0.651465 -0.664593 -0.365936 0.000000
215.97700500 155.11700439 402.50000000 -0.602681 -0.797544 0.026446 0.000000
109.84400177 148.06599426 285.00000000 0.096200 -0.973249 0.208643 0.000000
210.78100586 87.20700073 405.00000000 -0.239742 0.960277 -0.142797 0.000000
166.25000000 178.12500000 427.50000000 -0.892680 0.445654 -0.067191 0.000000
250.85899353 86.83589935 402.50000000 0.091302 0.995725 -0.013964 0.000000
87.20700073 100.93800354 420.00000000 0.567881 0.795649 -0.210839 0.000000
114.29699707 93.51560211 377.50000000 0.313930 0.939071 0.139977 0.000000
248.63299561 100.19499969 327.50000000 -0.691826 0.691826 0.206770 0.000000
114.29699707 152.14799500 442.50000000 -0.000978 -0.000978 -0.999999 0.000000
105.39099884 109.84400177 317.50000000 0.408479 0.858576 0.309827 0.000000
157.34399414 187.40199280 375.00000000 -0.924524 -0.247207 0.290075 0.000000
162.53900146 147.69500732 302.50000000 -0.757970 -0.365189 0.540480 0.000000
117.63700104 95.74220276 355.00000000 0.310618 0.929043 0.200988 0.000000
128.39799500 122.46099854 442.50000000 0.515340 -0.280383 -0.809821 0.000000
287.22698975 132.10899353 417.50000000 -0.331376 -0.526679 0.782815 0.000000
118.75000000 109.84400177 442.50000000 0.298545 -0.087347 -0.950390 0.000000
103.90599823 199.64799500 407.50000000 0.346546 -0.720750 -0.600354 0.000000
74.96089935 213.00799561 312.50000000 0.484483 -0.662182 0.571656 0.000000
189.25799561 138.78900146 337.50000000 0.105080 -0.895282 0.432930 0.000000
223.39799500 96.85549927 440.00000000 -0.141386 0.575962 -0.805157 0.000000
97.96880341 200.39100647 402.50000000 0.394043 -0.776735 -0.491338 0.000000
103.90599823 193.33999634 415.00000000 0.560105 -0.604101 -0.566873 0.000000
303.18399048 115.03900146 415.00000000 -0.823517 0.251845 -0.508325 0.000000
112.06999969 136.56199646 442.50000000 -0.000978 -0.000978 -0.999999 0.000000
79.41410065 208.55499268 377.50000000 0.468716 -0.733714 -0.491903 0.000000
213.00799561 97.96880341 297.50000000 -0.269552 0.961613 0.051403 0.000000
