246.75399780 123.73000336 196.25000000 0.339227 -0.582692 0.738509 0.000000
54.08789825 183.82800293 185.00000000 -0.785251 0.412864 0.461436 0.000000
112.41799927 193.72700500 206.25000000 0.055218 0.418846 0.906377 0.000000
190.89799500 151.65800476 197.50000000 0.000978 0.000978 -0.999999 0.000000
173.22300720 139.99200439 223.75000000 0.280356 -0.191968 0.940505 0.000000
178.52499390 161.20300293 212.50000000 -0.492141 0.699006 0.518833 0.000000
104.64099884 213.52299500 191.25000000 0.043947 0.755613 0.653542 0.000000
58.68360138 165.79899597 127.50000000 -0.944977 -0.314992 -0.088303 0.000000
162.61700439 146.35499573 163.75000000 0.022794 0.462583 -0.886283 0.000000
115.95300293 214.58399963 127.50000000 0.620468 0.556224 -0.552842 0.000000
166.85899353 158.37500000 213.75000000 -0.064520 0.057959 0.996232 0.000000
241.80499268 114.18599701 135.00000000 0.516545 0.764226 -0.386187 0.000000
164.03100586 156.25399780 181.25000000 -0.265235 0.732175 -0.627352 0.000000
73.53119659 198.32200623 115.00000000 -0.773767 0.553602 -0.307911 0.000000
57.62300110 181.00000000 135.00000000 -0.866180 0.288727 -0.407884 0.000000
93.32810211 159.78900146 218.75000000 -0.316874 0.026511 0.948097 0.000000
251.70300293 125.14399719 166.25000000 0.531895 0.698633 -0.478539 0.000000
94.03510284 226.60299683 157.50000000 0.001104 0.990125 -0.140185 0.000000
62.21870041 129.74000549 160.00000000 -0.777115 -0.617251 -0.122858 0.000000
190.89799500 113.47799683 117.50000000 -0.043891 0.765970 -0.641376 0.000000
89.79290009 104.28700256 147.50000000 -0.739197 -0.597478 -0.310817 0.000000
68.93550110 202.91799927 140.00000000 -0.746104 0.581735 -0.323903 0.000000
85.55079651 196.90800476 92.50000000 -0.663079 0.001379 -0.748548 0.000000
106.76200104 102.16600037 110.00000000 -0.365004 -0.884721 -0.289900 0.000000
94.74220276 97.57029724 156.25000000 -0.552091 -0.827412 -0.102883 0.000000
120.90200043 180.29299927 211.25000000 0.188564 0.532505 0.825156 0.000000
120.90200043 89.08589935 146.25000000 -0.139673 -0.982570 -0.122669 0.000000
183.82800293 156.60699463 195.00000000 0.510907 0.826964 -0.234741 0.000000
131.50799561 104.64099884 206.25000000 0.175245 -0.834286 0.522739 0.000000
137.16400146 183.12100220 198.75000000 0.688093 0.540764 0.483841 0.000000
76.35939789 183.12100220 86.25000000 -0.238799 -0.134406 -0.961722 0.000000
71.05660248 152.01199341 92.50000000 -0.992753 -0.119569 -0.012067 0.000000
82.01560211 120.90200043 103.75000000 -0.732970 -0.638799 -0.233860 0.000000
98.98429871 109.94300079 97.50000000 -0.511885 -0.800315 -0.312202 0.000000
153.42599487 135.04299927 226.25000000 0.229148 -0.097483 0.968498 0.000000
105.70099640 181.00000000 100.00000000 0.579138 0.521731 -0.626415 0.000000
136.45700073 132.56799316 137.50000000 0.091069 0.881271 -0.463753 0.000000
129.38699341 208.57400513 141.25000000 0.900907 0.183064 -0.393516 0.000000
101.81199646 117.36699677 213.75000000 0.107156 -0.620919 0.776516 0.000000
216.35099792 152.01199341 171.25000000 -0.012135 0.864253 -0.502912 0.000000
66.46089935 190.89799500 126.25000000 -0.898355 0.408343 -0.161905 0.000000
96.15619659 183.82800293 93.75000000 0.608647 0.125876 -0.783393 0.000000
82.01560211 135.04299927 61.25000000 -0.596065 -0.485247 -0.639720 0.000000
173.22300720 106.40799713 205.00000000 0.081911 -0.809053 0.582000 0.000000
140.69900513 159.08200073 173.75000000 0.856730 0.513485 -0.048442 0.000000
181.00000000 158.02099609 195.00000000 0.454185 0.835014 -0.310594 0.000000
140.69900513 114.53900146 96.25000000 -0.161163 0.850172 -0.501232 0.000000
63.98630142 131.50799561 195.00000000 -0.758789 -0.453962 0.467073 0.000000
136.45700073 152.01199341 123.75000000 0.984544 -0.126224 -0.121415 0.000000
90.50000000 116.30699921 97.50000000 -0.591733 -0.745680 -0.306290 0.000000
225.89599609 106.76200104 165.00000000 0.305428 -0.916284 0.259107 0.000000
143.52699280 108.88300323 208.75000000 0.194963 -0.766034 0.612520 0.000000
113.47799683 107.46900177 205.00000000 -0.657729 -0.405903 0.634535 0.000000
123.02300262 137.16400146 223.75000000 -0.350134 0.056389 0.935001 0.000000
260.18701172 135.04299927 198.75000000 0.760549 -0.073601 0.645096 0.000000
65.04689789 198.67599487 141.25000000 -0.722662 0.561339 -0.403308 0.000000
165.44500732 108.88300323 206.25000000 -0.229963 -0.730563 0.642958 0.000000
140.34599304 181.00000000 180.00000000 0.983664 -0.148091 -0.102340 0.000000
151.30499268 104.64099884 201.25000000 0.137950 -0.861101 0.489361 0.000000
159.43499756 95.44920349 175.00000000 0.314992 -0.944977 0.088303 0.000000
85.55079651 135.75000000 61.25000000 -0.137575 -0.418398 -0.897784 0.000000
252.41000366 124.79100037 167.50000000 0.525580 0.739766 -0.420134 0.000000
220.59399414 144.58799744 162.50000000 0.101628 0.737906 -0.667208 0.000000
231.19900513 132.21499634 206.25000000 0.164363 -0.393042 0.904711 0.000000
66.10739899 179.58599854 112.50000000 -0.921636 0.318643 -0.221479 0.000000
62.21870041 130.09399414 188.75000000 -0.898890 -0.233154 0.370994 0.000000
91.20700073 185.24200439 208.75000000 -0.291810 0.443119 0.847639 0.000000
94.74220276 111.71099854 206.25000000 -0.009741 -0.722215 0.691601 0.000000
57.26950073 164.03100586 193.75000000 -0.746347 -0.023805 0.665131 0.000000
205.74600220 144.94099426 216.25000000 0.333366 0.168775 0.927568 0.000000
94.74220276 202.91799927 98.75000000 0.261156 0.609364 -0.748647 0.000000
217.05900574 138.57800293 211.25000000 0.312114 -0.345286 0.885078 0.000000
92.62110138 198.67599487 201.25000000 -0.040238 0.356948 0.933257 0.000000
85.55079651 136.45700073 61.25000000 -0.000978 -0.000978 -0.999999 0.000000
238.26899719 130.80099487 156.25000000 0.556483 0.664081 -0.499322 0.000000
189.48399353 125.14399719 146.25000000 -0.210117 0.871762 -0.442587 0.000000
137.51800537 200.79699707 160.00000000 0.939536 0.001254 -0.342448 0.000000
67.52149963 169.68699646 100.00000000 -0.918161 0.156073 -0.364171 0.000000
71.05660248 150.59800720 207.50000000 -0.671632 0.004154 0.740873 0.000000
94.38860321 118.07399750 82.50000000 -0.615061 -0.780257 -0.113572 0.000000
89.79290009 108.17600250 201.25000000 -0.206099 -0.816762 0.538910 0.000000
165.44500732 169.33399963 200.00000000 -0.203006 0.813549 0.544910 0.000000
64.69329834 127.97299957 147.50000000 0.001330 0.871255 -0.490829 0.000000
223.42199707 117.72100067 127.50000000 0.220945 0.899874 -0.376045 0.000000
257.35900879 109.23600006 157.50000000 0.826358 0.075642 -0.558042 0.000000
50.19919968 170.39399719 151.25000000 -0.693374 0.693374 0.196122 0.000000
201.50399780 123.02300262 213.75000000 0.279493 -0.108910 0.953951 0.000000
154.83999634 131.15400696 145.00000000 -0.153196 0.983111 0.100120 0.000000
78.48040009 107.82199860 177.50000000 -0.579578 -0.809085 -0.097323 0.000000
79.89450073 135.39599609 82.50000000 -0.829217 -0.538472 -0.149823 0.000000
197.26199341 113.47799683 117.50000000 -0.023693 0.781872 -0.622989 0.000000
139.63900757 178.17199707 177.50000000 0.953713 -0.219260 -0.205808 0.000000
103.22699738 95.80269623 177.50000000 -0.368567 -0.878190 0.304864 0.000000
118.78099823 144.94099426 223.75000000 0.000978 0.000978 0.999999 0.000000
225.54299927 141.40600586 158.75000000 0.282723 0.784991 -0.551231 0.000000
136.10299683 174.63699341 162.50000000 0.990125 -0.001104 -0.140185 0.000000
231.19900513 126.55899811 203.75000000 0.196766 -0.403736 0.893466 0.000000
206.45300293 115.95300293 121.25000000 0.137495 0.866945 -0.479063 0.000000
200.79699707 96.50969696 137.50000000 0.090664 -0.987880 -0.125987 0.000000
82.01560211 150.59800720 216.25000000 -0.395578 0.124404 0.909968 0.000000
142.82000732 112.41799927 93.75000000 -0.210012 0.720263 -0.661148 0.000000
123.02300262 142.11300659 223.75000000 0.000978 0.000978 0.999999 0.000000
83.42970276 171.10200500 211.25000000 -0.403907 0.273809 0.872862 0.000000
95.44920349 157.66799927 81.25000000 0.543604 0.427944 -0.722052 0.000000
185.24200439 113.83200073 213.75000000 0.132198 -0.495378 0.858559 0.000000
45.60350037 168.27299500 170.00000000 -0.000978 -0.000978 0.999999 0.000000
84.13670349 139.28500366 61.25000000 -0.000978 -0.000978 -0.999999 0.000000
214.93699646 156.96099854 183.75000000 -0.186382 0.948234 -0.257125 0.000000
238.26899719 129.38699341 206.25000000 0.125503 -0.580268 0.804697 0.000000
82.01560211 139.99200439 61.25000000 -0.000978 -0.000978 -0.999999 0.000000
58.68360138 138.57800293 188.75000000 -0.877412 -0.329980 0.348227 0.000000
127.97299957 184.53500366 206.25000000 0.431630 0.530856 0.729306 0.000000
65.04689789 133.62899780 198.75000000 -0.725443 -0.243912 0.643614 0.000000
235.44099426 120.90200043 198.75000000 0.270292 -0.403173 0.874296 0.000000
131.50799561 146.00199890 150.00000000 0.750345 0.637258 -0.175743 0.000000
213.52299500 127.26599884 141.25000000 -0.023571 0.805563 -0.592041 0.000000
131.50799561 144.94099426 146.25000000 0.972674 -0.230212 -0.030132 0.000000
242.51199341 114.18599701 137.50000000 0.982705 0.102996 -0.153889 0.000000
178.17199707 143.52699280 221.25000000 0.326447 0.435783 0.838765 0.000000
133.27499390 89.08589935 145.00000000 0.147612 -0.978704 -0.142650 0.000000
106.76200104 96.86329651 133.75000000 -0.407314 -0.903420 -0.133892 0.000000
86.25779724 156.96099854 216.25000000 -0.347521 0.173057 0.921564 0.000000
86.25779724 179.58599854 208.75000000 -0.285705 0.452495 0.844761 0.000000
144.58799744 156.96099854 180.00000000 0.463681 0.719620 -0.516863 0.000000
228.37100220 156.60699463 195.00000000 0.001205 0.962562 0.271059 0.000000
86.25779724 170.04100037 212.50000000 -0.295364 0.283724 0.912283 0.000000
81.66210175 106.76200104 165.00000000 -0.784038 -0.575996 -0.231330 0.000000
215.64399719 125.14399719 138.75000000 0.029416 0.785832 -0.617740 0.000000
163.32400513 113.83200073 111.25000000 0.665813 0.646085 -0.373184 0.000000
97.57029724 127.97299957 218.75000000 0.000978 0.000978 0.999999 0.000000
128.67999268 214.22999573 176.25000000 0.534981 0.784106 0.314601 0.000000
120.90200043 103.58000183 207.50000000 -0.128714 -0.803350 0.581430 0.000000
103.22699738 226.60299683 147.50000000 -0.001189 0.968656 -0.248404 0.000000
229.07800293 127.97299957 206.25000000 0.209839 -0.444978 0.870610 0.000000
206.45300293 138.57800293 158.75000000 -0.369809 0.754281 -0.542496 0.000000
123.02300262 131.50799561 223.75000000 -0.250836 -0.120869 0.960454 0.000000
138.57800293 148.12300110 152.50000000 0.553602 -0.773767 -0.307911 0.000000
102.51899719 112.41799927 208.75000000 0.364165 -0.833954 0.414613 0.000000
145.64799500 118.78099823 218.75000000 0.213156 -0.698592 0.683033 0.000000
76.35939789 202.21099854 193.75000000 -0.209017 0.747815 0.630146 0.000000
113.12500000 181.00000000 106.25000000 0.390822 0.528182 -0.753845 0.000000
166.15199280 154.83999634 213.75000000 -0.070148 0.217829 0.973463 0.000000
135.75000000 131.50799561 136.25000000 0.202323 0.914043 -0.351555 0.000000
173.22300720 105.34799957 203.75000000 0.999999 -0.000978 -0.000978 0.000000
232.61300659 126.55899811 203.75000000 0.301172 -0.499851 0.812061 0.000000
87.67179871 212.46299744 115.00000000 -0.579271 0.773931 -0.255884 0.000000
163.32400513 163.67799377 187.50000000 -0.428632 0.628771 -0.648785 0.000000
90.50000000 125.14399719 216.25000000 -0.543804 -0.322432 0.774800 0.000000
162.97099304 161.20300293 212.50000000 -0.166415 0.005660 0.986039 0.000000
115.95300293 101.10500336 201.25000000 -0.475377 -0.727145 0.495254 0.000000
206.45300293 98.63079834 127.50000000 0.258047 -0.961576 -0.093718 0.000000
102.51899719 193.01899719 206.25000000 -0.250444 0.409409 0.877304 0.000000
48.78509903 168.97999573 181.25000000 -0.871255 -0.001330 0.490829 0.000000
70.70310211 127.97299957 201.25000000 -0.672513 -0.531637 0.514867 0.000000
88.02539825 124.43699646 85.00000000 -0.693374 -0.693374 -0.196122 0.000000
61.86520004 176.75799561 122.50000000 -0.713531 0.357582 -0.602501 0.000000
157.66799927 114.53900146 213.75000000 0.138982 -0.623178 0.769632 0.000000
98.27729797 104.28700256 197.50000000 0.031610 -0.847960 0.529116 0.000000
251.70300293 121.60900116 193.75000000 0.229440 -0.537412 0.811508 0.000000
114.53900146 196.55499268 203.75000000 0.131382 0.562432 0.816339 0.000000
163.32400513 93.68160248 130.00000000 0.248372 -0.964192 -0.092980 0.000000
108.17600250 191.60499573 206.25000000 0.000978 0.000978 0.999999 0.000000
61.86520004 180.29299927 195.00000000 -0.624846 0.181801 0.759287 0.000000
211.40199280 100.04499817 125.00000000 0.136573 -0.953360 -0.269169 0.000000
94.74220276 117.72100067 82.50000000 -0.615061 -0.780257 -0.113572 0.000000
106.05500031 194.43400574 106.25000000 0.382246 0.326981 -0.864275 0.000000
58.68360138 146.35499573 193.75000000 -0.846013 -0.139292 0.514646 0.000000
53.02730179 161.91000366 188.75000000 -0.973856 0.109042 0.199283 0.000000
96.86329651 152.71899414 221.25000000 -0.254337 0.173595 0.951408 0.000000
58.68360138 202.91799927 178.75000000 -0.737693 0.582048 0.342095 0.000000
182.41400146 99.33789825 182.50000000 0.086401 -0.979621 0.181321 0.000000
50.90620041 173.92999268 183.75000000 -0.851110 0.142096 0.505392 0.000000
129.03300476 193.01899719 200.00000000 0.565848 0.485253 0.666593 0.000000
226.95700073 111.35700226 192.50000000 0.123096 -0.992394 0.001089 0.000000
149.53700256 156.96099854 205.00000000 0.369573 0.923249 0.105008 0.000000
55.85540009 175.34399414 191.25000000 -0.750243 0.212802 0.625979 0.000000
144.23399353 112.41799927 213.75000000 0.223730 -0.655544 0.721254 0.000000
100.39800262 205.03900146 103.75000000 0.669324 0.322507 -0.669324 0.000000
222.71499634 158.02099609 187.50000000 0.128810 0.991274 0.028002 0.000000
149.89100647 156.60699463 207.50000000 0.367098 0.925197 0.096177 0.000000
226.95700073 113.12500000 121.25000000 0.284846 0.752693 -0.593562 0.000000
74.23829651 155.19299316 210.00000000 -0.651912 0.020939 0.758005 0.000000
141.40600586 122.31600189 111.25000000 0.001328 0.877641 -0.479317 0.000000
146.35499573 101.10500336 193.75000000 0.034793 -0.825285 0.563643 0.000000
106.05500031 171.10200500 93.75000000 0.513023 0.433843 -0.740667 0.000000
80.60150146 204.68499756 110.00000000 -0.797644 0.483080 -0.361106 0.000000
105.34799957 182.41400146 101.25000000 0.519633 0.437152 -0.734085 0.000000
183.12100220 128.67999268 218.75000000 0.349755 -0.024342 0.936525 0.000000
84.13670349 137.87100220 216.25000000 -0.549613 -0.099536 0.829469 0.000000
202.21099854 118.07399750 213.75000000 0.137117 -0.147000 0.979587 0.000000
108.17600250 170.39399719 96.25000000 0.630265 0.290275 -0.720074 0.000000
125.14399719 183.82800293 208.75000000 0.356391 0.520879 0.775674 0.000000
212.10899353 134.33599854 151.25000000 -0.112999 0.802730 -0.585538 0.000000
121.60900116 132.92199707 223.75000000 -0.271688 -0.003623 0.962379 0.000000
102.51899719 197.26199341 203.75000000 -0.060663 0.548786 0.833759 0.000000
235.44099426 130.44700623 152.50000000 0.476429 0.718794 -0.506310 0.000000
85.55079651 127.97299957 63.75000000 -0.666456 -0.630074 -0.398551 0.000000
122.31600189 164.38499451 102.50000000 0.549647 0.502582 -0.667308 0.000000
223.06799316 103.93399811 122.50000000 0.281853 -0.956240 -0.078507 0.000000
86.96479797 127.61900330 65.00000000 -0.787863 -0.497852 -0.362513 0.000000
137.87100220 91.20700073 131.25000000 -0.001127 -0.985809 -0.167869 0.000000
161.91000366 143.52699280 226.25000000 0.145732 0.150715 0.977777 0.000000
137.16400146 126.55899811 121.25000000 -0.295688 0.895978 -0.331348 0.000000
52.32030106 159.78900146 186.25000000 -0.896649 -0.107710 0.429440 0.000000
100.39800262 191.60499573 206.25000000 -0.160996 0.497757 0.852243 0.000000
105.34799957 219.88699341 181.25000000 0.429359 0.886371 0.173199 0.000000
258.42001343 118.78099823 165.00000000 0.746410 0.639123 -0.185453 0.000000
101.81199646 195.49400330 102.50000000 0.710479 0.169598 -0.682976 0.000000
182.41400146 134.33599854 221.25000000 0.361693 -0.396140 0.843950 0.000000
150.59800720 108.17600250 206.25000000 0.183200 -0.813044 0.552628 0.000000
78.12689972 122.31600189 112.50000000 -0.730233 -0.600702 -0.325448 0.000000
57.26950073 153.42599487 191.25000000 -0.865847 -0.110199 0.488023 0.000000
174.63699341 146.70899963 222.50000000 0.246672 0.243884 0.937909 0.000000
154.83999634 92.62110138 118.75000000 0.446689 -0.894688 -0.001310 0.000000
207.16000366 124.43699646 138.75000000 -0.155369 0.875585 -0.457395 0.000000
258.77301025 132.21499634 183.75000000 0.291111 0.765161 -0.574268 0.000000
183.12100220 156.60699463 195.00000000 0.510907 0.826964 -0.234741 0.000000
92.62110138 130.09399414 63.75000000 0.389995 0.571006 -0.722396 0.000000
114.53900146 98.27729797 193.75000000 -0.327084 -0.851038 0.410792 0.000000
125.14399719 168.97999573 218.75000000 0.179871 0.492044 0.851786 0.000000
248.16799927 134.33599854 176.25000000 0.834251 0.350354 -0.425767 0.000000
148.47700500 106.76200104 86.25000000 0.237291 0.702446 -0.671016 0.000000
118.07399750 162.61700439 96.25000000 0.597903 0.412404 -0.687340 0.000000
114.53900146 181.35299683 212.50000000 0.006573 0.445626 0.895195 0.000000
238.26899719 139.28500366 213.75000000 -0.233697 -0.220030 0.947086 0.000000
118.07399750 134.33599854 78.75000000 0.449834 0.001311 -0.893111 0.000000
101.10500336 201.50399780 201.25000000 0.073014 0.591274 0.803159 0.000000
131.50799561 178.17199707 208.75000000 0.281751 0.487228 0.826575 0.000000
155.54699707 93.68160248 162.50000000 0.214274 -0.964884 0.151940 0.000000
187.36300659 142.82000732 173.75000000 0.314751 0.627887 -0.711821 0.000000
91.91400146 131.15400696 65.00000000 0.286752 0.719283 -0.632776 0.000000
96.86329651 98.63079834 145.00000000 -0.519065 -0.812111 -0.266547 0.000000
127.26599884 96.86329651 191.25000000 0.075248 -0.938623 0.336637 0.000000
84.49019623 132.21499634 65.00000000 -0.924498 -0.353444 -0.142764 0.000000
251.35000610 125.85199738 167.50000000 0.525580 0.739766 -0.420134 0.000000
55.14839935 181.70700073 188.75000000 -0.735619 0.293286 0.610612 0.000000
245.69299316 116.66000366 145.00000000 0.606198 0.656297 -0.449221 0.000000
80.60150146 108.17600250 166.25000000 -0.792601 -0.570981 -0.213925 0.000000
129.74000549 113.12500000 87.50000000 0.839210 0.263312 -0.475809 0.000000
73.53119659 198.67599487 116.25000000 -0.773767 0.553602 -0.307911 0.000000
110.29699707 103.93399811 198.75000000 -0.490033 -0.624750 0.607910 0.000000
187.36300659 154.13299561 203.75000000 0.832741 0.501485 0.234640 0.000000
124.43699646 190.19099426 121.25000000 0.790757 0.285683 -0.541377 0.000000
94.74220276 101.45899963 142.50000000 -0.543654 -0.779609 -0.310887 0.000000
212.81599426 113.12500000 206.25000000 0.384253 -0.504231 0.773370 0.000000
130.80099487 194.43400574 136.25000000 0.943848 0.298413 -0.141780 0.000000
124.43699646 208.92799377 132.50000000 0.738212 0.531052 -0.415964 0.000000
124.43699646 189.13099670 205.00000000 0.395456 0.469705 0.789298 0.000000
120.19499969 200.44299316 200.00000000 0.354065 0.538373 0.764717 0.000000
129.74000549 167.56599426 217.50000000 0.313091 0.443934 0.839581 0.000000
231.19900513 142.11300659 213.75000000 -0.160642 -0.438509 0.884254 0.000000
122.31600189 108.88300323 213.75000000 -0.164742 -0.593976 0.787434 0.000000
84.84369659 214.22999573 123.75000000 -0.703133 0.708861 -0.055850 0.000000
66.10739899 166.85899353 105.00000000 -0.962562 -0.001205 -0.271059 0.000000
129.74000549 214.93699646 172.50000000 0.602478 0.754283 0.260916 0.000000
192.31199646 136.45700073 163.75000000 -0.264574 0.833951 -0.484279 0.000000
137.51800537 185.94900513 195.00000000 0.869201 0.417156 0.265463 0.000000
131.15400696 201.50399780 192.50000000 0.695538 0.475368 0.538750 0.000000
171.80900574 118.78099823 128.75000000 0.789924 0.408693 -0.457154 0.000000
108.17600250 219.88699341 128.75000000 0.296973 0.893903 -0.335773 0.000000
143.52699280 96.86329651 96.25000000 -0.051492 -0.960768 -0.272532 0.000000
129.03300476 127.97299957 85.00000000 0.877366 0.045169 -0.477692 0.000000
91.91400146 224.83599854 168.75000000 -0.254212 0.944021 0.210240 0.000000
261.95498657 114.53900146 165.00000000 0.251906 0.232421 -0.939427 0.000000
142.11300659 110.29699707 211.25000000 0.192926 -0.726946 0.659036 0.000000
65.40039825 161.20300293 107.50000000 -0.936894 0.021729 -0.348939 0.000000
51.96680069 153.42599487 147.50000000 -0.987913 -0.114216 -0.104797 0.000000
88.37889862 121.25599670 92.50000000 -0.664590 -0.661324 -0.347808 0.000000
238.26899719 141.05299377 170.00000000 0.580450 0.597373 -0.553374 0.000000
136.45700073 96.15619659 186.25000000 0.157741 -0.908078 0.387958 0.000000
141.40600586 139.28500366 161.25000000 0.626479 0.340088 -0.701330 0.000000
98.63079834 96.86329651 175.00000000 -0.368032 -0.852531 0.371138 0.000000
77.06639862 178.17199707 81.25000000 -0.561622 0.040414 -0.826406 0.000000
134.68899536 192.31199646 155.00000000 0.964229 -0.125208 -0.233635 0.000000
118.78099823 212.81599426 188.75000000 0.297873 0.850403 0.433690 0.000000
135.04299927 96.50969696 102.50000000 -0.145298 -0.974129 -0.173094 0.000000
68.58200073 203.27099609 187.50000000 -0.325920 0.692377 0.643732 0.000000
111.71099854 177.46499634 213.75000000 -0.041797 0.446283 0.893915 0.000000
54.44139862 186.65600586 183.75000000 -0.775309 0.377134 0.506622 0.000000
133.27499390 207.16000366 182.50000000 0.778256 0.577820 0.245848 0.000000
206.45300293 135.04299927 153.75000000 -0.400786 0.796744 -0.452293 0.000000
76.35939789 139.28500366 211.25000000 -0.624700 -0.202064 0.754268 0.000000
77.41989899 145.64799500 212.50000000 -0.561268 -0.001359 0.827633 0.000000
144.94099426 117.01399994 100.00000000 -0.101988 0.848939 -0.518557 0.000000
94.74220276 177.46499634 88.75000000 0.567048 0.224038 -0.792631 0.000000
124.43699646 176.75799561 213.75000000 0.177924 0.603724 0.777085 0.000000
77.06639862 205.39300537 120.00000000 -0.712647 0.632213 -0.304041 0.000000
69.99610138 127.97299957 198.75000000 -0.711934 -0.449730 0.539344 0.000000
107.46900177 91.20700073 153.75000000 -0.272362 -0.947169 -0.169379 0.000000
124.43699646 188.77699280 206.25000000 0.421191 0.469977 0.775706 0.000000
106.40799713 226.25000000 162.50000000 0.247312 0.962058 0.115240 0.000000
200.79699707 105.34799957 193.75000000 0.312114 -0.933568 0.176171 0.000000
119.48799896 197.26199341 118.75000000 0.707148 0.227353 -0.669517 0.000000
154.13299561 113.83200073 98.75000000 0.355416 0.789635 -0.500156 0.000000
180.29299927 99.33789825 182.50000000 0.076295 -0.979718 0.185287 0.000000
209.98800659 101.10500336 161.25000000 0.253272 -0.949433 0.185553 0.000000
159.43499756 159.08200073 207.50000000 -0.597578 0.797253 0.085368 0.000000
73.53119659 187.36300659 98.75000000 -0.858887 0.357483 -0.366768 0.000000
171.80900574 120.90200043 131.25000000 0.740803 0.557646 -0.374490 0.000000
127.97299957 202.21099854 196.25000000 0.687192 0.493240 0.533368 0.000000
96.86329651 115.95300293 83.75000000 -0.615061 -0.780257 -0.113572 0.000000
56.56250000 155.54699707 191.25000000 -0.864046 -0.062612 0.499505 0.000000
90.50000000 191.25199890 205.00000000 -0.144878 0.496096 0.856095 0.000000
205.03900146 123.02300262 213.75000000 0.213285 0.015319 0.976870 0.000000
106.05500031 96.50969696 135.00000000 -0.423598 -0.875636 -0.232006 0.000000
129.38699341 177.11099243 122.50000000 0.791462 0.425674 -0.438622 0.000000
133.98199463 113.12500000 97.50000000 0.282773 0.823322 -0.492118 0.000000
125.85199738 127.97299957 223.75000000 -0.095036 -0.054785 0.993965 0.000000
103.93399811 149.89100647 81.25000000 0.458699 0.548770 -0.698890 0.000000
108.88300323 215.29100037 120.00000000 0.459148 0.766337 -0.449345 0.000000
154.13299561 99.69139862 193.75000000 0.094515 -0.789562 0.606349 0.000000
86.61129761 108.88300323 142.50000000 -0.523987 -0.844442 0.111149 0.000000
219.17999268 149.89100647 168.75000000 0.054782 0.830152 -0.554839 0.000000
63.98630142 129.38699341 192.50000000 -0.777088 -0.428458 0.461040 0.000000
52.32030106 158.37500000 146.25000000 -0.920352 -0.016875 -0.390728 0.000000
141.05299377 185.94900513 177.50000000 0.990185 -0.139227 0.012252 0.000000
195.84800720 111.00399780 113.75000000 -0.088433 0.787196 -0.610330 0.000000
89.79290009 197.26199341 201.25000000 -0.195240 0.316035 0.928441 0.000000
155.89999390 147.76899719 165.00000000 0.261831 0.693456 -0.671240 0.000000
50.19919968 178.17199707 181.25000000 -0.881444 0.192770 0.431157 0.000000
150.59800720 120.90200043 108.75000000 0.156816 0.942258 -0.295904 0.000000
125.14399719 103.22699738 206.25000000 0.057263 -0.853363 0.518163 0.000000
92.62110138 188.77699280 206.25000000 -0.117022 0.435661 0.892471 0.000000
125.85199738 171.10200500 216.25000000 0.324291 0.528771 0.784370 0.000000
47.01760101 165.44500732 175.00000000 -0.974674 -0.193934 0.111356 0.000000
149.89100647 118.07399750 103.75000000 0.134448 0.898677 -0.417496 0.000000
85.55079651 134.33599854 216.25000000 -0.418076 -0.238258 0.876610 0.000000
57.62300110 165.44500732 135.00000000 -0.948761 -0.232766 -0.213710 0.000000
118.78099823 188.77699280 208.75000000 0.273989 0.478320 0.834350 0.000000
79.18750000 214.93699646 181.25000000 -0.375299 0.891520 0.253660 0.000000
93.32810211 207.16000366 196.25000000 -0.263882 0.316367 0.911196 0.000000
139.99200439 162.97099304 182.50000000 0.808234 0.559546 -0.183483 0.000000
55.85540009 200.79699707 176.25000000 -0.733060 0.583522 0.349463 0.000000
131.50799561 199.38299561 193.75000000 0.727018 0.468670 0.501791 0.000000
79.89450073 147.06199646 213.75000000 -0.637872 -0.004133 0.770131 0.000000
127.26599884 185.94900513 123.75000000 0.775198 0.238643 -0.584908 0.000000
225.54299927 149.89100647 171.25000000 0.508833 0.849033 -0.142239 0.000000
231.19900513 120.90200043 201.25000000 0.381354 -0.435605 0.815363 0.000000
74.23829651 133.62899780 206.25000000 -0.836949 0.168583 0.520669 0.000000
139.28500366 119.48799896 221.25000000 0.663079 0.001379 0.748548 0.000000
120.90200043 216.35099792 178.75000000 0.306601 0.899068 0.312526 0.000000
48.43159866 155.54699707 157.50000000 -0.949081 -0.308613 -0.063272 0.000000
80.60150146 216.70500183 142.50000000 -0.587107 0.758943 -0.281621 0.000000
54.44139862 194.43400574 153.75000000 -0.869349 0.304043 -0.389603 0.000000
229.78500366 139.99200439 211.25000000 -0.147256 -0.566711 0.810650 0.000000
226.95700073 145.64799500 213.75000000 0.000978 0.000978 0.999999 0.000000
56.56250000 141.40600586 186.25000000 -0.889934 -0.216232 0.401574 0.000000
95.80269623 171.80900574 215.00000000 -0.301575 0.172132 0.937775 0.000000
257.35900879 108.17600250 163.75000000 -0.033434 -0.897377 -0.439996 0.000000
68.58200073 194.08000183 122.50000000 -0.893466 0.403736 -0.196766 0.000000
204.33200073 145.64799500 216.25000000 0.236712 0.157367 0.958751 0.000000
258.77301025 126.91200256 195.00000000 0.504211 -0.406306 0.762028 0.000000
112.41799927 220.59399414 133.75000000 0.241258 0.961120 -0.134322 0.000000
163.32400513 113.12500000 211.25000000 -0.023805 -0.665131 0.746347 0.000000
67.87500000 213.87699890 172.50000000 -0.632906 0.774168 -0.009694 0.000000
135.75000000 181.70700073 158.75000000 0.839391 0.075275 -0.538290 0.000000
165.79899597 109.58999634 105.00000000 0.670407 0.692701 -0.265933 0.000000
244.63299561 132.92199707 206.25000000 0.424942 -0.654910 0.624914 0.000000
140.69900513 138.57800293 226.25000000 0.000978 0.000978 0.999999 0.000000
62.21870041 127.61900330 175.00000000 0.000978 0.000978 -0.999999 0.000000
131.86099243 202.91799927 190.00000000 0.693206 0.496102 0.522828 0.000000
84.13670349 196.55499268 93.75000000 -0.663079 0.001379 -0.748548 0.000000
229.43200684 120.19499969 202.50000000 0.371069 -0.418440 0.828985 0.000000
242.51199341 122.31600189 148.75000000 0.668762 0.595381 -0.445285 0.000000
188.07000732 100.04499817 182.50000000 0.156254 -0.967223 0.200160 0.000000
190.89799500 96.86329651 158.75000000 0.114523 -0.978991 0.168707 0.000000
76.35939789 164.03100586 208.75000000 -0.534130 0.090215 0.840575 0.000000
133.62899780 162.61700439 218.75000000 0.403161 0.222994 0.887544 0.000000
163.32400513 111.71099854 106.25000000 0.502517 0.803711 -0.318631 0.000000
127.97299957 190.19099426 126.25000000 0.773996 0.325303 -0.543239 0.000000
164.03100586 141.40600586 226.25000000 0.315485 0.001237 0.948930 0.000000
154.13299561 92.26750183 122.50000000 0.063865 -0.993823 -0.090755 0.000000
202.21099854 109.58999634 111.25000000 -0.110492 0.764603 -0.634960 0.000000
156.96099854 112.41799927 211.25000000 -0.001383 -0.681775 0.731560 0.000000
138.22500610 188.77699280 187.50000000 0.913403 0.220775 0.341985 0.000000
250.99600220 124.43699646 163.75000000 0.527122 0.684422 -0.503695 0.000000
202.91799927 131.86099243 215.00000000 0.532960 -0.117629 0.837924 0.000000
104.99400330 187.36300659 102.50000000 0.695560 0.290754 -0.657007 0.000000
166.85899353 104.99400330 202.50000000 -0.032019 -0.811620 0.583308 0.000000
142.82000732 160.85000610 212.50000000 0.659653 0.750444 0.041140 0.000000
54.08789825 161.20300293 142.50000000 -0.881680 0.062090 -0.467746 0.000000
119.48799896 145.64799500 86.25000000 0.443080 0.650408 -0.616968 0.000000
190.89799500 128.67999268 153.75000000 -0.430963 0.761969 -0.483399 0.000000
241.09800720 107.82199860 140.00000000 0.486136 -0.873420 0.028437 0.000000
129.74000549 149.89100647 102.50000000 0.815843 0.467328 -0.340595 0.000000
79.18750000 214.22999573 183.75000000 -0.300838 0.775176 0.555516 0.000000
91.91400146 175.34399414 86.25000000 0.564966 0.262812 -0.782140 0.000000
133.27499390 124.43699646 102.50000000 0.936055 -0.042843 -0.349236 0.000000
96.86329651 226.60299683 150.00000000 -0.232615 0.962949 -0.136450 0.000000
130.09399414 203.62500000 191.25000000 0.679374 0.541822 0.494853 0.000000
265.13699341 130.80099487 193.75000000 0.696270 0.677409 -0.237329 0.000000
60.45119858 147.76899719 130.00000000 -0.962562 -0.001205 -0.271059 0.000000
147.76899719 137.16400146 161.25000000 0.294690 0.324307 -0.898879 0.000000
207.86700439 147.76899719 213.75000000 0.680350 -0.070779 0.729462 0.000000
136.45700073 130.80099487 133.75000000 0.130369 0.987751 -0.085738 0.000000
48.07809830 166.85899353 156.25000000 -0.962562 0.001205 -0.271059 0.000000
113.83200073 172.51600647 101.25000000 0.522884 0.361001 -0.772185 0.000000
96.86329651 141.40600586 221.25000000 -0.000978 -0.000978 0.999999 0.000000
258.06600952 130.09399414 196.25000000 0.329637 -0.504806 0.797816 0.000000
246.75399780 113.47799683 185.00000000 0.267931 -0.803792 0.531161 0.000000
114.18599701 189.48399353 110.00000000 0.588628 0.211659 -0.780203 0.000000
214.22999573 107.11499786 185.00000000 0.294212 -0.930500 0.218196 0.000000
148.47700500 91.56050110 130.00000000 0.056557 -0.994741 -0.085390 0.000000
156.96099854 113.83200073 101.25000000 0.491343 0.779986 -0.387561 0.000000
112.41799927 115.95300293 211.25000000 -0.377983 -0.554702 0.741239 0.000000
267.96499634 122.66999817 185.00000000 0.398079 -0.797770 0.452875 0.000000
91.20700073 124.43699646 216.25000000 -0.546618 -0.318994 0.774242 0.000000
67.87500000 129.38699341 198.75000000 -0.703118 -0.512725 0.492684 0.000000
101.10500336 173.22300720 91.25000000 0.495489 0.552596 -0.670170 0.000000
169.68699646 147.06199646 223.75000000 0.086569 0.184112 0.979086 0.000000
185.24200439 153.42599487 188.75000000 0.513969 0.770144 -0.377776 0.000000
267.25799561 121.60900116 183.75000000 0.596176 -0.746419 0.295691 0.000000
191.25199890 129.38699341 155.00000000 -0.367235 0.797012 -0.479490 0.000000
125.14399719 125.85199738 78.75000000 0.486051 0.423862 -0.764261 0.000000
227.66400146 137.16400146 156.25000000 0.348380 0.685311 -0.639515 0.000000
202.91799927 109.58999634 111.25000000 0.046802 0.767263 -0.639622 0.000000
223.42199707 156.25399780 181.25000000 0.151969 0.924361 -0.349947 0.000000
124.79100037 219.17999268 157.50000000 0.531842 0.840282 -0.105215 0.000000
267.61099243 118.78099823 177.50000000 0.930766 0.264117 -0.252818 0.000000
189.48399353 117.36699677 216.25000000 -0.000978 -0.000978 0.999999 0.000000
67.87500000 127.97299957 196.25000000 -0.712925 -0.470298 0.520152 0.000000
127.97299957 207.86700439 138.75000000 0.802219 0.325653 -0.500394 0.000000
63.63280106 200.08999634 186.25000000 -0.650023 0.439476 0.619945 0.000000
77.06639862 206.80700684 122.50000000 -0.723596 0.648254 -0.237013 0.000000
129.38699341 125.14399719 223.75000000 -0.100359 -0.153561 0.983030 0.000000
158.37500000 130.09399414 126.25000000 0.602359 0.722506 -0.339334 0.000000
106.76200104 113.83200073 66.25000000 -0.614196 -0.377080 -0.693235 0.000000
156.96099854 125.85199738 118.75000000 0.500682 0.598459 -0.625431 0.000000
92.26750183 109.58999634 112.50000000 -0.553450 -0.798394 -0.237193 0.000000
240.39100647 121.60900116 198.75000000 0.197631 -0.577572 0.792056 0.000000
154.13299561 150.59800720 221.25000000 0.269366 0.817441 0.509149 0.000000
89.08589935 223.06799316 172.50000000 -0.292895 0.924404 0.244317 0.000000
108.88300323 152.01199341 221.25000000 -0.181430 0.243251 0.952844 0.000000
233.32000732 129.38699341 148.75000000 0.503001 0.725450 -0.469800 0.000000
89.08589935 124.43699646 213.75000000 -0.546618 -0.318994 0.774242 0.000000
59.39059830 194.43400574 146.25000000 -0.657957 0.453706 -0.601035 0.000000
170.74800110 166.15199280 202.50000000 0.609831 0.781948 -0.129088 0.000000
69.28900146 188.42399597 197.50000000 -0.504921 0.435844 0.745047 0.000000
121.60900116 219.53300476 150.00000000 0.533526 0.823715 -0.191948 0.000000
98.27729797 156.60699463 220.00000000 -0.233400 0.236162 0.943267 0.000000
138.22500610 182.41400146 167.50000000 0.989917 -0.051618 -0.131912 0.000000
182.41400146 139.99200439 171.25000000 0.377256 0.543837 -0.749613 0.000000
98.27729797 104.64099884 116.25000000 -0.450334 -0.885040 -0.117911 0.000000
67.87500000 165.44500732 98.75000000 -0.962562 -0.001205 -0.271059 0.000000
201.50399780 106.05500031 196.25000000 0.312114 -0.933568 0.176171 0.000000
67.87500000 201.14999390 140.00000000 -0.741819 0.586667 -0.324849 0.000000
126.55899811 113.83200073 218.75000000 -0.152316 -0.527929 0.835518 0.000000
122.31600189 139.99200439 223.75000000 0.000978 0.000978 0.999999 0.000000
133.27499390 133.62899780 130.00000000 0.793801 0.431660 -0.428426 0.000000
100.39800262 212.46299744 192.50000000 0.018120 0.754091 0.656519 0.000000
195.84800720 109.23600006 112.50000000 -0.082937 0.728972 -0.679501 0.000000
163.32400513 94.38860321 125.00000000 0.001104 -0.990125 -0.140185 0.000000
60.09759903 182.76800537 192.50000000 -0.651893 0.333262 0.681155 0.000000
81.30860138 176.75799561 208.75000000 -0.393887 0.393887 0.830485 0.000000
148.47700500 158.02099609 195.00000000 0.215735 0.968892 -0.121271 0.000000
121.60900116 125.85199738 223.75000000 -0.204688 -0.259638 0.943764 0.000000
146.35499573 112.41799927 211.25000000 0.162988 -0.696126 0.699173 0.000000
105.34799957 115.24600220 66.25000000 -0.854457 0.060134 -0.516030 0.000000
210.69500732 155.54699707 181.25000000 -0.165708 0.949791 -0.265402 0.000000
106.76200104 115.24600220 66.25000000 -0.849674 0.069045 -0.522768 0.000000
189.48399353 135.04299927 218.75000000 0.000978 0.000978 0.999999 0.000000
125.14399719 96.50969696 110.00000000 -0.457790 -0.886710 -0.064613 0.000000
224.12899780 140.34599304 157.50000000 0.219742 0.746498 -0.628056 0.000000
98.27729797 115.59999847 67.50000000 -0.624012 -0.756518 0.195678 0.000000
116.66000366 204.33200073 198.75000000 0.069231 0.532659 0.843494 0.000000
128.67999268 101.10500336 88.75000000 -0.144206 -0.860866 -0.487970 0.000000
69.99610138 137.16400146 111.25000000 -0.733998 -0.598491 -0.321023 0.000000
183.12100220 143.52699280 221.25000000 0.045572 -0.512336 0.857575 0.000000
138.57800293 162.97099304 177.50000000 0.844241 0.477844 -0.242738 0.000000
220.59399414 106.40799713 170.00000000 0.294802 -0.929543 0.221454 0.000000
88.37889862 101.81199646 158.75000000 -0.693374 -0.693374 -0.196122 0.000000
79.54100037 115.95300293 157.50000000 -0.751240 -0.580723 -0.313687 0.000000
49.49219894 179.58599854 178.75000000 -0.921336 0.071078 0.382214 0.000000
117.36699677 166.85899353 218.75000000 -0.006473 0.402643 0.915334 0.000000
117.01399994 164.73800659 97.50000000 0.600188 0.446379 -0.663717 0.000000
66.81439972 144.94099426 112.50000000 -0.797770 -0.398079 -0.452875 0.000000
125.14399719 211.04899597 187.50000000 0.388637 0.765892 0.512221 0.000000
207.86700439 128.67999268 213.75000000 0.000978 0.000978 0.999999 0.000000
246.39999390 128.67999268 165.00000000 0.612809 0.669274 -0.420164 0.000000
192.31199646 102.87300110 190.00000000 0.252345 -0.951353 0.176776 0.000000
200.79699707 124.43699646 141.25000000 -0.237856 0.855979 -0.459047 0.000000
100.39800262 173.22300720 216.25000000 -0.080874 0.415337 0.906065 0.000000
65.40039825 123.73000336 175.00000000 -0.773881 -0.613976 -0.155380 0.000000
94.03510284 111.35700226 102.50000000 -0.557961 -0.782410 -0.276610 0.000000
207.16000366 97.92379761 142.50000000 0.353958 -0.933873 -0.050939 0.000000
246.04699707 125.14399719 198.75000000 0.330290 -0.645937 0.688240 0.000000
96.15619659 188.07000732 93.75000000 0.644442 0.279845 -0.711605 0.000000
103.22699738 211.40199280 193.75000000 0.111149 0.721727 0.683195 0.000000
194.43400574 126.55899811 216.25000000 0.319423 -0.179937 0.930372 0.000000
122.66999817 220.59399414 160.00000000 0.505777 0.862638 0.006708 0.000000
65.75389862 195.14100647 191.25000000 -0.530422 0.500303 0.684361 0.000000
208.57400513 98.63079834 150.00000000 -0.000978 -0.000978 -0.999999 0.000000
199.38299561 146.35499573 216.25000000 0.000978 0.000978 0.999999 0.000000
241.80499268 139.63900757 172.50000000 0.597903 0.687340 -0.412404 0.000000
218.47300720 144.94099426 213.75000000 0.000978 0.000978 0.999999 0.000000
138.57800293 98.63079834 92.50000000 -0.132332 -0.974214 -0.182744 0.000000
77.77339935 195.84800720 101.25000000 -0.802453 0.533405 -0.267484 0.000000
185.24200439 127.97299957 156.25000000 -0.232803 0.844481 -0.482343 0.000000
208.57400513 151.65800476 202.50000000 -0.001205 0.962562 0.271059 0.000000
53.02730179 200.08999634 168.75000000 -0.871158 0.483977 0.082767 0.000000
141.40600586 96.15619659 98.75000000 -0.161162 -0.954983 -0.249068 0.000000
110.29699707 152.71899414 86.25000000 0.100564 0.803058 -0.587354 0.000000
88.37889862 173.22300720 81.25000000 0.596307 0.416916 -0.686002 0.000000
105.34799957 95.44920349 143.75000000 -0.305428 -0.916284 -0.259107 0.000000
217.05900574 147.41600037 165.00000000 0.006900 0.771473 -0.636224 0.000000
55.85540009 199.38299561 156.25000000 -0.762776 0.507973 -0.400171 0.000000
90.50000000 111.71099854 206.25000000 -0.156080 -0.741002 0.653112 0.000000
164.38499451 127.97299957 145.00000000 0.399503 0.915250 0.052109 0.000000
217.05900574 111.00399780 198.75000000 0.208903 -0.895507 0.392971 0.000000
205.74600220 127.97299957 213.75000000 0.072654 -0.040122 0.996550 0.000000
100.39800262 181.70700073 96.25000000 0.613500 0.343365 -0.711139 0.000000
58.68360138 178.17199707 193.75000000 -0.628642 0.226186 0.744076 0.000000
111.00399780 102.51899719 198.75000000 -0.579915 -0.643790 0.499232 0.000000
68.58200073 202.21099854 188.75000000 -0.287271 0.669230 0.685279 0.000000
230.49200439 155.89999390 212.50000000 0.515104 0.535239 0.669468 0.000000
129.38699341 106.76200104 211.25000000 0.225420 -0.854779 0.467481 0.000000
60.80469894 144.94099426 128.75000000 -0.963189 -0.184775 -0.195259 0.000000
98.98429871 176.75799561 213.75000000 0.078665 0.559237 0.825267 0.000000
227.66400146 112.06400299 120.00000000 0.206126 0.745462 -0.633875 0.000000
117.36699677 205.74600220 196.25000000 0.172973 0.545992 0.819740 0.000000
137.87100220 109.94300079 92.50000000 -0.251229 0.703126 -0.665205 0.000000
103.93399811 117.72100067 67.50000000 -0.255219 0.144139 -0.956079 0.000000
165.44500732 151.30499268 216.25000000 -0.142977 0.702846 0.696825 0.000000
266.55099487 120.19499969 176.25000000 0.868249 0.233238 -0.437886 0.000000
226.95700073 117.36699677 201.25000000 0.587263 -0.489667 0.644475 0.000000
147.06199646 147.76899719 161.25000000 0.624846 0.181801 -0.759287 0.000000
114.53900146 165.44500732 96.25000000 0.428238 0.386847 -0.816677 0.000000
65.04689789 205.74600220 151.25000000 -0.598344 0.675012 -0.431674 0.000000
218.47300720 128.32600403 142.50000000 0.043805 0.778601 -0.625989 0.000000
83.42970276 223.06799316 157.50000000 -0.513641 0.857876 0.014908 0.000000
257.35900879 113.47799683 180.00000000 0.200720 -0.866812 0.456452 0.000000
74.23829651 194.43400574 196.25000000 -0.503621 0.402571 0.764396 0.000000
56.56250000 185.94900513 186.25000000 -0.730769 0.414048 0.542716 0.000000
117.72100067 135.75000000 222.50000000 -0.217888 -0.083420 0.972402 0.000000
217.05900574 115.95300293 206.25000000 0.419988 -0.605912 0.675633 0.000000
74.23829651 162.61700439 76.25000000 -0.861105 0.175766 -0.477079 0.000000
60.09759903 129.74000549 180.00000000 -0.856730 -0.513485 0.048442 0.000000
120.19499969 170.74800110 217.50000000 -0.039198 0.452807 0.890746 0.000000
120.19499969 219.17999268 143.75000000 0.521688 0.806815 -0.277294 0.000000
67.16790009 189.83799744 195.00000000 -0.436142 0.472079 0.766108 0.000000
120.19499969 154.83999634 223.75000000 -0.065393 0.170021 0.983268 0.000000
256.65200806 111.71099854 176.25000000 0.693374 -0.693374 0.196122 0.000000
52.67380142 151.30499268 145.00000000 -0.921149 -0.254358 -0.294595 0.000000
101.81199646 149.18400574 221.25000000 0.000978 0.000978 0.999999 0.000000
185.94900513 131.50799561 218.75000000 0.132712 -0.130277 0.982556 0.000000
193.72700500 149.53700256 185.00000000 -0.105007 0.983689 -0.146045 0.000000
91.91400146 113.83200073 101.25000000 -0.599301 -0.740692 -0.303667 0.000000
200.08999634 129.38699341 148.75000000 -0.122566 0.863730 -0.488822 0.000000
118.78099823 219.17999268 141.25000000 0.529339 0.802647 -0.274879 0.000000
139.63900757 166.85899353 200.00000000 0.934439 0.214346 0.284394 0.000000
72.47070313 127.97299957 117.50000000 -0.830050 -0.481211 -0.281874 0.000000
218.82600403 118.07399750 207.50000000 0.374154 -0.260864 0.889920 0.000000
123.73000336 200.44299316 125.00000000 0.783201 0.379489 -0.492528 0.000000
77.41989899 108.88300323 175.00000000 -0.708247 -0.693273 -0.133264 0.000000
180.29299927 154.83999634 213.75000000 0.112560 0.114930 0.986976 0.000000
67.16790009 130.09399414 198.75000000 -0.697411 -0.510097 0.503407 0.000000
141.75999451 132.21499634 135.00000000 -0.185192 0.942421 -0.278474 0.000000
151.30499268 102.51899719 196.25000000 -0.077823 -0.847566 0.524953 0.000000
166.85899353 165.44500732 213.75000000 0.072151 0.530524 0.844594 0.000000
106.05500031 207.86700439 196.25000000 -0.023324 0.544695 0.838310 0.000000
106.76200104 163.32400513 218.75000000 -0.146258 0.280439 0.948663 0.000000
102.16600037 120.19499969 67.50000000 0.596412 0.394855 -0.698843 0.000000
48.07809830 174.63699341 158.75000000 -0.866180 0.288727 -0.407884 0.000000
239.68400574 129.03300476 205.00000000 0.093052 -0.297503 0.950175 0.000000
92.26750183 108.88300323 115.00000000 -0.540944 -0.809104 -0.229631 0.000000
156.60699463 156.96099854 207.50000000 -0.185116 0.890596 0.415417 0.000000
160.49600220 130.09399414 223.75000000 0.043560 -0.389399 0.920038 0.000000
108.88300323 143.52699280 78.75000000 0.192777 0.437058 -0.878531 0.000000
226.95700073 132.21499634 208.75000000 0.172088 -0.331585 0.927598 0.000000
161.20300293 116.66000366 213.75000000 0.067604 -0.648710 0.758027 0.000000
81.30860138 197.26199341 96.25000000 -0.521346 0.675571 -0.521346 0.000000
102.51899719 121.60900116 216.25000000 0.082609 -0.618841 0.781160 0.000000
113.12500000 165.44500732 218.75000000 0.006225 0.319954 0.947413 0.000000
225.18899536 114.53900146 122.50000000 0.180783 0.788456 -0.587924 0.000000
62.21870041 165.44500732 116.25000000 -0.928436 0.067740 -0.365264 0.000000
88.37889862 223.42199707 171.25000000 -0.292895 0.924404 0.244317 0.000000
61.15819931 147.06199646 127.50000000 -0.954378 -0.054645 -0.293557 0.000000
237.56199646 138.22500610 165.00000000 0.587918 0.664967 -0.460620 0.000000
96.15619659 214.58399963 112.50000000 -0.089144 0.861722 -0.499488 0.000000
74.94529724 215.64399719 153.75000000 -0.693374 0.693374 -0.196122 0.000000
170.74800110 124.43699646 135.00000000 0.660304 0.640445 -0.392211 0.000000
189.48399353 118.07399750 123.75000000 -0.105615 0.888578 -0.446401 0.000000
98.98429871 121.60900116 66.25000000 0.269072 0.309796 -0.911936 0.000000
231.90600586 120.19499969 136.25000000 0.326759 0.822423 -0.465671 0.000000
153.42599487 115.59999847 215.00000000 0.098398 -0.653540 0.750469 0.000000
135.75000000 162.26400757 122.50000000 0.921145 0.203592 -0.331726 0.000000
79.18750000 181.70700073 206.25000000 -0.335651 0.276505 0.900491 0.000000
224.12899780 131.86099243 147.50000000 0.155423 0.759009 -0.632256 0.000000
230.49200439 105.70099640 145.00000000 0.241081 -0.968070 0.068702 0.000000
179.58599854 147.06199646 173.75000000 0.573681 0.600758 -0.556759 0.000000
178.87899780 131.50799561 221.25000000 0.146206 -0.210899 0.966512 0.000000
131.50799561 161.91000366 218.75000000 0.411851 0.278113 0.867774 0.000000
252.41000366 135.04299927 203.75000000 0.351225 -0.404299 0.844502 0.000000
260.18701172 115.95300293 183.75000000 0.355498 -0.811429 0.463901 0.000000
226.60299683 139.28500366 157.50000000 0.312308 0.655361 -0.687725 0.000000
55.14839935 183.82800293 143.75000000 -0.904666 0.349298 -0.244070 0.000000
167.56599426 106.40799713 205.00000000 -0.104769 -0.736335 0.668456 0.000000
227.66400146 115.59999847 125.00000000 0.094092 0.814985 -0.571792 0.000000
115.24600220 118.07399750 213.75000000 -0.569967 -0.370724 0.733281 0.000000
141.05299377 178.87899780 185.00000000 0.988599 -0.127222 -0.080535 0.000000
73.53119659 209.63499451 185.00000000 0.023648 0.791522 0.610682 0.000000
159.78900146 129.03300476 162.50000000 0.213520 0.975919 -0.044634 0.000000
108.17600250 133.62899780 221.25000000 0.012653 -0.180592 0.983477 0.000000
48.07809830 180.29299927 176.25000000 -0.940626 0.058545 0.334358 0.000000
224.83599854 151.30499268 213.75000000 0.000978 0.000978 0.999999 0.000000
63.63280106 200.08999634 146.25000000 -0.700071 0.567041 -0.434011 0.000000
94.03510284 123.02300262 66.25000000 -0.051158 -0.981518 0.184406 0.000000
151.65800476 151.30499268 170.00000000 0.202104 0.950837 -0.234657 0.000000
143.52699280 137.16400146 226.25000000 0.000978 0.000978 0.999999 0.000000
67.52149963 130.09399414 132.50000000 -0.707914 -0.647190 -0.282846 0.000000
75.65229797 194.78700256 197.50000000 -0.481126 0.422412 0.768170 0.000000
74.94529724 136.10299683 97.50000000 -0.885969 -0.326410 -0.329418 0.000000
78.48040009 198.67599487 103.75000000 -0.767664 0.580892 -0.270661 0.000000
73.17769623 207.86700439 140.00000000 -0.733157 0.597207 -0.325308 0.000000
113.83200073 195.84800720 111.25000000 0.466274 0.224838 -0.855591 0.000000
91.20700073 134.33599854 218.75000000 -0.267880 -0.296840 0.916584 0.000000
82.72260284 185.94900513 83.75000000 0.761293 -0.001377 -0.648407 0.000000
133.27499390 187.36300659 145.00000000 0.989082 0.101835 -0.106517 0.000000
217.05900574 112.06400299 202.50000000 0.090592 -0.823954 0.559368 0.000000
142.11300659 94.03510284 111.25000000 -0.034905 -0.973716 -0.225074 0.000000
76.35939789 116.30699921 142.50000000 -0.707106 -0.707106 0.001384 0.000000
62.92580032 152.71899414 118.75000000 -0.951344 -0.128703 -0.279963 0.000000
258.06600952 116.30699921 185.00000000 0.285461 -0.799606 0.528339 0.000000
60.80469894 184.53500366 191.25000000 -0.647309 0.297152 0.701920 0.000000
72.82420349 121.25599670 135.00000000 -0.750271 -0.622366 -0.223054 0.000000
98.98429871 123.73000336 66.25000000 0.269072 0.309796 -0.911936 0.000000
71.76360321 187.36300659 102.50000000 -0.867574 0.354707 -0.348565 0.000000
77.41989899 126.55899811 207.50000000 -0.690173 -0.529746 0.492981 0.000000
70.70310211 117.01399994 187.50000000 -0.856234 -0.471004 0.212177 0.000000
95.44920349 159.78900146 218.75000000 -0.117786 0.115407 0.986310 0.000000
123.73000336 168.97999573 106.25000000 0.673248 0.392039 -0.626931 0.000000
71.05660248 165.44500732 87.50000000 -0.921753 0.197417 -0.333763 0.000000
