155.97599792 155.97599792 171.25000000 0.000978 0.000978 0.999999 0.000000
136.12500000 199.93299866 158.75000000 0.652205 0.162671 0.740382 0.000000
147.82299805 133.99800110 117.50000000 0.106892 0.962032 -0.251133 0.000000
212.69500732 160.93899536 143.75000000 -0.075346 0.831648 -0.550167 0.000000
95.00389862 247.43499756 101.25000000 -0.361698 0.814220 -0.454115 0.000000
212.69500732 155.97599792 158.75000000 0.000978 0.000978 0.999999 0.000000
102.44799805 148.17799377 32.50000000 -0.125062 0.563516 -0.816584 0.000000
113.43699646 130.09899902 162.50000000 0.104108 -0.626117 0.772748 0.000000
114.14600372 242.47300720 96.25000000 -0.761293 -0.001377 -0.648407 0.000000
140.37899780 116.98200226 161.25000000 -0.250568 -0.490375 0.834714 0.000000
73.73429871 237.86399841 117.50000000 -0.789456 0.589441 -0.171226 0.000000
102.09400177 214.46800232 160.00000000 0.048863 0.537498 0.841848 0.000000
124.78099823 110.60199738 101.25000000 0.169096 -0.975744 0.139034 0.000000
109.18399811 148.17799377 31.25000000 0.287200 0.694736 -0.659438 0.000000
129.74400330 131.51699829 62.50000000 -0.671037 -0.671037 -0.315307 0.000000
68.06250000 158.81199646 121.25000000 -0.894688 -0.446689 0.001310 0.000000
88.62300110 163.77499390 168.75000000 -0.402911 -0.001287 0.915238 0.000000
157.03999329 131.87100220 52.50000000 0.743578 0.506160 -0.436914 0.000000
113.43699646 153.85000610 171.25000000 0.000978 0.000978 0.999999 0.000000
71.60739899 155.26800537 106.25000000 -0.945328 -0.237361 -0.223641 0.000000
234.67399597 135.41600037 148.75000000 0.146520 -0.283630 0.947674 0.000000
212.69500732 107.05699921 156.25000000 0.195596 -0.759282 0.620671 0.000000
96.42179871 189.29899597 168.75000000 -0.156683 0.331392 0.930392 0.000000
144.63299561 191.42599487 116.25000000 0.877922 -0.234810 -0.417274 0.000000
147.82299805 98.54879761 150.00000000 -0.650132 -0.646824 0.398682 0.000000
132.58000183 116.27300262 158.75000000 -0.255043 -0.561720 0.787034 0.000000
113.08300018 145.34199524 170.00000000 -0.364588 0.003811 0.931161 0.000000
94.29489899 252.39799500 113.75000000 -0.432644 0.878577 -0.202294 0.000000
144.63299561 108.12000275 100.00000000 -0.273249 -0.888433 -0.368812 0.000000
72.31639862 209.85899353 88.75000000 -0.860457 0.404831 -0.309395 0.000000
105.63899994 169.44700623 43.75000000 0.669037 0.230324 -0.706641 0.000000
121.23600006 160.93899536 171.25000000 0.000978 0.000978 0.999999 0.000000
78.69719696 151.01400757 91.25000000 -0.847954 -0.379471 -0.370102 0.000000
68.06250000 197.80700684 148.75000000 -0.609157 0.194869 0.768735 0.000000
101.38500214 185.04499817 171.25000000 0.047748 0.157220 0.986409 0.000000
222.62100220 138.96099854 153.75000000 0.489862 -0.244163 0.836911 0.000000
84.36910248 221.91200256 151.25000000 -0.165942 0.689650 0.704874 0.000000
238.92799377 118.75499725 97.50000000 0.422425 0.901635 0.092795 0.000000
159.52099609 159.16700745 145.00000000 -0.022926 0.994568 0.101531 0.000000
158.10299683 155.97599792 171.25000000 0.109575 0.079586 0.990787 0.000000
72.67089844 162.35699463 155.00000000 -0.813521 -0.249480 0.525302 0.000000
144.63299561 168.38400269 90.00000000 0.177308 0.974564 0.137068 0.000000
178.66400146 153.85000610 131.25000000 0.704402 -0.547869 -0.451284 0.000000
180.08200073 98.19429779 137.50000000 -0.070865 -0.981300 -0.178964 0.000000
143.21499634 163.06599426 73.75000000 0.705479 0.705479 0.067807 0.000000
151.72300720 103.86599731 157.50000000 -0.342582 -0.729001 0.592618 0.000000
68.06250000 229.71099854 126.25000000 -0.906249 0.404800 0.121860 0.000000
86.14160156 243.89100647 105.00000000 -0.708532 0.624222 -0.329135 0.000000
160.93899536 139.31500244 122.50000000 0.175995 0.969900 -0.168287 0.000000
142.86000061 114.85500336 160.00000000 -0.223141 -0.625730 0.747443 0.000000
224.03900146 104.57499695 112.50000000 -0.085738 -0.987751 -0.130369 0.000000
113.43699646 238.21899414 91.25000000 -0.000978 -0.000978 -0.999999 0.000000
198.51600647 155.97599792 133.75000000 0.035781 0.910418 -0.412140 0.000000
82.95110321 244.24499512 130.00000000 -0.515637 0.774263 0.366926 0.000000
158.10299683 115.56400299 81.25000000 -0.030909 -0.888284 -0.458253 0.000000
135.77000427 190.71699524 95.00000000 0.821755 0.427567 -0.376704 0.000000
92.87689972 247.43499756 103.75000000 0.305428 0.916284 0.259107 0.000000
126.90799713 234.67399597 146.25000000 0.329708 0.661039 0.674033 0.000000
121.94499969 191.42599487 76.25000000 0.592692 0.723313 -0.354309 0.000000
66.29000092 160.93899536 140.00000000 -0.940976 -0.323419 0.099821 0.000000
127.97200012 201.35099792 162.50000000 0.494727 0.461635 0.736300 0.000000
170.15600586 129.38999939 75.00000000 -0.071812 0.995428 -0.062974 0.000000
164.48399353 145.34199524 168.75000000 0.000978 0.000978 0.999999 0.000000
84.36910248 187.88099670 48.75000000 -0.861678 -0.266891 -0.431602 0.000000
177.24600220 128.68099976 85.00000000 0.312114 0.933568 -0.176171 0.000000
173.70100403 98.19429779 140.00000000 0.000978 -0.999999 0.000978 0.000000
118.40000153 162.35699463 46.25000000 0.171405 0.229869 -0.958009 0.000000
129.03500366 157.39399719 171.25000000 0.000978 0.000978 0.999999 0.000000
125.84500122 112.72799683 152.50000000 -0.363101 -0.662125 0.655553 0.000000
110.60199738 223.33000183 156.25000000 0.296638 0.623741 0.723155 0.000000
136.12500000 179.37300110 166.25000000 0.273048 0.264471 0.924932 0.000000
79.40619659 175.82800293 163.75000000 -0.588273 -0.058119 0.806571 0.000000
130.45300293 223.33000183 153.75000000 0.275381 0.284032 0.918418 0.000000
201.35099792 159.52099609 138.75000000 -0.111459 0.890260 -0.441603 0.000000
111.30999756 113.43699646 146.25000000 -0.347726 -0.710145 0.612194 0.000000
199.93299866 144.63299561 161.25000000 0.202294 0.432644 0.878577 0.000000
158.81199646 117.33699799 77.50000000 -0.174325 -0.877485 -0.446800 0.000000
105.63899994 246.72599792 98.75000000 0.102383 0.834926 -0.540755 0.000000
231.12899780 133.28900146 148.75000000 0.397609 -0.066044 0.915175 0.000000
143.92399597 133.28900146 171.25000000 0.000978 0.000978 0.999999 0.000000
163.77499390 146.75999451 126.25000000 -0.001355 -0.556887 -0.830587 0.000000
219.07600403 142.50599670 131.25000000 0.235688 0.358655 -0.903226 0.000000
152.43200684 142.50599670 58.75000000 0.890396 0.330719 -0.312761 0.000000
91.10440063 168.02900696 47.50000000 -0.927209 -0.370620 0.054076 0.000000
221.20300293 103.15699768 125.00000000 -0.001065 -0.995500 -0.094759 0.000000
236.09199524 112.01899719 143.75000000 0.621989 -0.428555 0.655340 0.000000
172.28300476 147.46899414 168.75000000 0.000978 0.000978 0.999999 0.000000
158.81199646 138.25199890 128.75000000 -0.000978 -0.000978 -0.999999 0.000000
91.45890045 227.93800354 150.00000000 -0.439871 0.348428 0.827714 0.000000
131.16200256 128.68099976 35.00000000 -0.595437 -0.795386 -0.113207 0.000000
98.54879761 193.55299377 168.75000000 0.000978 0.000978 0.999999 0.000000
74.79779816 145.34199524 115.00000000 -0.867276 -0.432884 -0.245854 0.000000
120.52700043 243.18200684 101.25000000 0.431219 0.617693 -0.657651 0.000000
137.54299927 167.32000732 73.75000000 0.781163 0.548882 -0.297510 0.000000
148.88699341 141.79699707 53.75000000 -0.231478 0.464468 -0.854803 0.000000
155.97599792 160.22999573 116.25000000 0.208636 0.266667 -0.940935 0.000000
232.54699707 108.47499847 146.25000000 0.646052 -0.416861 0.639409 0.000000
162.35699463 147.11399841 125.00000000 0.041592 -0.433360 -0.900261 0.000000
192.84399414 149.59599304 161.25000000 0.453758 0.457034 0.764999 0.000000
86.49600220 137.89700317 155.00000000 -0.660225 -0.319568 0.679691 0.000000
139.66999817 111.66500092 157.50000000 -0.173096 -0.558424 0.811295 0.000000
118.40000153 174.41000366 171.25000000 0.000978 0.000978 0.999999 0.000000
85.78710175 247.78999329 127.50000000 -0.499646 0.755203 0.424290 0.000000
150.30499268 188.58999634 128.75000000 0.787390 -0.268750 -0.554788 0.000000
197.45199585 123.36299896 165.00000000 0.528695 0.235832 0.815393 0.000000
204.89599609 144.27799988 130.00000000 -0.023827 0.150906 -0.988261 0.000000
247.78999329 138.96099854 147.50000000 0.521435 0.174808 0.835193 0.000000
84.36910248 224.03900146 76.25000000 -0.620875 0.720860 -0.308018 0.000000
130.45300293 124.07199860 78.75000000 -0.334093 -0.881342 -0.334093 0.000000
119.10900116 224.74800110 153.75000000 0.228124 0.506771 0.831350 0.000000
151.01400757 151.36799622 65.00000000 0.444292 0.516964 -0.731678 0.000000
87.55950165 177.24600220 45.00000000 -0.342376 -0.342376 -0.874961 0.000000
232.54699707 104.93000031 111.25000000 0.001207 -0.961751 -0.273924 0.000000
99.25779724 218.36700439 73.75000000 0.326920 0.212712 -0.920802 0.000000
231.12899780 133.99800110 133.75000000 0.159755 0.299028 -0.940777 0.000000
121.23600006 174.41000366 171.25000000 0.352578 -0.087139 0.931717 0.000000
219.78500366 150.65899658 135.00000000 0.412404 0.687340 -0.597903 0.000000
92.16790009 200.64199829 56.25000000 0.273259 0.432024 -0.859468 0.000000
118.40000153 111.66500092 102.50000000 -0.125804 -0.857493 -0.498879 0.000000
205.60499573 105.63899994 158.75000000 0.370351 -0.803228 0.466546 0.000000
177.95500183 102.80300140 111.25000000 -0.122669 -0.982570 0.139673 0.000000
75.15229797 229.71099854 101.25000000 -0.739981 0.601937 -0.300166 0.000000
162.71200562 131.87100220 65.00000000 0.428195 0.857924 -0.283928 0.000000
164.48399353 124.78099823 136.25000000 0.385458 0.479000 -0.788657 0.000000
149.59599304 114.85500336 83.75000000 -0.185817 -0.747873 -0.637305 0.000000
213.40400696 135.41600037 156.25000000 0.175080 0.519255 0.836494 0.000000
111.30999756 205.25100708 165.00000000 0.070765 0.467607 0.881099 0.000000
219.78500366 109.53800201 97.50000000 0.095652 -0.902453 -0.420036 0.000000
77.63379669 152.43200684 157.50000000 -0.843386 -0.275989 0.461010 0.000000
92.16790009 241.40899658 140.00000000 -0.307916 0.646462 0.698050 0.000000
211.98599243 160.93899536 143.75000000 -0.075346 0.831648 -0.550167 0.000000
149.59599304 123.00900269 65.00000000 -0.224975 -0.907156 -0.355605 0.000000
146.75999451 155.97599792 171.25000000 0.000978 0.000978 0.999999 0.000000
86.49600220 161.64799500 168.75000000 -0.472255 0.031123 0.880912 0.000000
87.91400146 209.14999390 61.25000000 -0.560899 0.510368 -0.651856 0.000000
104.93000031 250.97999573 103.75000000 0.108011 0.688018 -0.717610 0.000000
181.50000000 127.97200012 112.50000000 -0.552852 0.705592 -0.443278 0.000000
87.20500183 190.71699524 166.25000000 -0.617632 -0.340594 0.708891 0.000000
129.74400330 139.66999817 171.25000000 0.122059 -0.413877 0.902113 0.000000
143.92399597 206.31399536 113.75000000 0.641265 0.123492 -0.757317 0.000000
219.07600403 146.75999451 131.25000000 0.395143 0.249014 -0.884225 0.000000
80.11519623 165.19299316 163.75000000 -0.575187 -0.106300 0.811086 0.000000
77.98819733 177.95500183 163.75000000 -0.627778 0.040911 0.777316 0.000000
163.06599426 139.66999817 138.75000000 -0.250361 0.757381 0.603070 0.000000
175.82800293 166.61099243 123.75000000 0.275739 0.390254 -0.878448 0.000000
176.53700256 136.83399963 123.75000000 -0.288727 0.866180 -0.407884 0.000000
124.07199860 131.51699829 35.00000000 -0.193934 -0.974674 -0.111356 0.000000
133.99800110 216.94900513 153.75000000 0.490751 0.247683 0.835354 0.000000
218.36700439 143.92399597 153.75000000 0.852163 -0.251533 0.458857 0.000000
248.85299683 112.72799683 128.75000000 0.870891 0.470948 -0.140560 0.000000
89.68650055 123.36299896 140.00000000 -0.693374 -0.693374 0.196122 0.000000
99.25779724 175.82800293 43.75000000 0.452159 -0.452159 -0.768833 0.000000
107.05699921 136.12500000 76.25000000 -0.398079 -0.797770 -0.452875 0.000000
180.79100037 166.61099243 153.75000000 0.398079 0.797770 0.452875 0.000000
70.54389954 149.59599304 135.00000000 -0.891150 -0.403733 0.207005 0.000000
95.71279907 230.06500244 77.50000000 0.155524 0.620586 -0.768560 0.000000
168.02900696 161.64799500 118.75000000 -0.409841 0.409841 -0.814899 0.000000
149.59599304 133.99800110 83.75000000 0.790370 0.428319 0.438017 0.000000
199.22500610 109.89299774 93.75000000 -0.011707 -0.914445 -0.404541 0.000000
175.11900330 103.51200104 113.75000000 -0.246081 -0.968407 0.040401 0.000000
62.74509811 171.57400513 132.50000000 -0.968070 -0.241081 -0.068702 0.000000
77.27929688 153.14100647 158.75000000 -0.619788 -0.369900 0.692124 0.000000
209.14999390 152.43200684 133.75000000 -0.260877 0.918112 -0.298351 0.000000
105.63899994 148.17799377 168.75000000 0.000978 0.000978 0.999999 0.000000
184.33599854 103.15699768 165.00000000 0.102051 -0.896095 0.431971 0.000000
97.13079834 185.75399780 171.25000000 -0.184288 0.364291 0.912869 0.000000
147.82299805 184.33599854 132.50000000 0.875267 -0.483595 -0.006661 0.000000
115.56400299 219.78500366 158.75000000 -0.119738 0.275003 0.953958 0.000000
156.68499756 126.90799713 168.75000000 0.251335 -0.637031 0.728713 0.000000
127.61699677 138.25199890 168.75000000 -0.089187 -0.741276 0.665248 0.000000
198.51600647 118.40000153 166.25000000 0.437861 0.447627 0.779685 0.000000
121.94499969 119.10900116 156.25000000 -0.377408 -0.680652 0.627914 0.000000
200.64199829 146.75999451 158.75000000 0.714954 0.340377 0.610724 0.000000
106.34799957 133.28900146 81.25000000 -0.354854 -0.711344 -0.606686 0.000000
79.05169678 226.16600037 90.00000000 -0.718888 0.560237 -0.411502 0.000000
74.08879852 184.33599854 80.00000000 -0.867765 -0.092014 -0.488383 0.000000
128.32600403 168.02900696 168.75000000 0.302060 0.190701 0.934020 0.000000
207.02299500 121.94499969 161.25000000 0.467160 0.228289 0.854193 0.000000
161.64799500 114.14600372 83.75000000 -0.059573 -0.868655 -0.491822 0.000000
67.35350037 184.33599854 151.25000000 -0.750353 -0.043972 0.659573 0.000000
82.24210358 224.74800110 81.25000000 -0.601629 0.645201 -0.470913 0.000000
74.44329834 194.97099304 78.75000000 -0.961751 0.001207 -0.273924 0.000000
253.10699463 105.63899994 121.25000000 0.623822 0.781506 -0.009682 0.000000
92.87689972 217.65800476 156.25000000 -0.000978 -0.000978 0.999999 0.000000
116.98200226 158.10299683 171.25000000 0.000978 0.000978 0.999999 0.000000
150.30499268 143.21499634 128.75000000 0.330684 -0.405204 -0.852325 0.000000
135.41600037 119.81800079 161.25000000 -0.123509 -0.438671 0.890120 0.000000
68.77140045 218.36700439 141.25000000 -0.591894 0.445171 0.671925 0.000000
231.12899780 107.76599884 101.25000000 0.212902 -0.850097 0.481671 0.000000
76.92479706 183.62699890 72.50000000 -0.878120 -0.418933 -0.231084 0.000000
116.98200226 159.52099609 46.25000000 -0.144579 0.331843 -0.932189 0.000000
85.07810211 156.68499756 166.25000000 -0.247624 -0.250422 0.935934 0.000000
151.72300720 138.96099854 171.25000000 0.516839 -0.218017 0.827856 0.000000
211.27699280 115.20999908 87.50000000 0.075688 -0.818288 -0.569803 0.000000
86.49600220 241.40899658 100.00000000 -0.451893 0.785548 -0.422738 0.000000
109.53800201 218.36700439 82.50000000 0.601147 0.201407 -0.773342 0.000000
78.69719696 226.87500000 91.25000000 -0.718888 0.560237 -0.411502 0.000000
116.62799835 135.41600037 35.00000000 -0.567764 -0.821356 -0.054945 0.000000
151.36799622 142.50599670 82.50000000 0.299172 -0.747129 0.593544 0.000000
179.37300110 103.51200104 166.25000000 -0.000978 -0.000978 0.999999 0.000000
130.45300293 221.91200256 96.25000000 0.689973 0.486155 -0.536274 0.000000
184.33599854 160.93899536 141.25000000 0.911303 -0.115127 -0.395314 0.000000
149.59599304 109.53800201 95.00000000 -0.115912 -0.871485 -0.476527 0.000000
133.99800110 99.25779724 123.75000000 -0.001377 -0.761293 -0.648407 0.000000
178.66400146 155.26800537 128.75000000 0.736855 -0.515963 -0.436838 0.000000
122.65399933 114.85500336 153.75000000 -0.478877 -0.589774 0.650264 0.000000
147.46899414 107.76599884 98.75000000 -0.336808 -0.762250 -0.552752 0.000000
187.52600098 160.22999573 155.00000000 0.446401 0.105615 0.888578 0.000000
153.85000610 117.69100189 76.25000000 -0.244540 -0.874643 -0.418568 0.000000
153.14100647 149.59599304 86.25000000 0.870944 -0.347459 0.347459 0.000000
81.53320313 225.45700073 146.25000000 -0.492552 0.627038 0.603503 0.000000
118.40000153 121.23600006 156.25000000 -0.172211 -0.647695 0.742182 0.000000
67.35350037 168.73800659 108.75000000 -0.932559 -0.199934 -0.300600 0.000000
149.59599304 123.71800232 60.00000000 -0.215631 -0.963153 -0.160743 0.000000
148.88699341 130.45300293 106.25000000 0.536817 0.813685 -0.223033 0.000000
175.82800293 152.07699585 127.50000000 0.792923 -0.579854 -0.187197 0.000000
78.69719696 152.43200684 91.25000000 -0.847954 -0.379471 -0.370102 0.000000
140.37899780 150.30499268 171.25000000 -0.288141 0.259470 0.921765 0.000000
234.67399597 112.72799683 146.25000000 0.668952 -0.384854 0.635917 0.000000
86.49600220 127.26300049 130.00000000 -0.798729 -0.589081 -0.122541 0.000000
126.19899750 207.73199463 88.75000000 0.742522 0.092266 -0.663437 0.000000
134.70700073 159.52099609 56.25000000 0.641983 0.503813 -0.577953 0.000000
75.15229797 168.02900696 161.25000000 -0.803792 -0.267931 0.531161 0.000000
229.35600281 160.22999573 152.50000000 0.359776 0.891228 0.276176 0.000000
168.02900696 131.16200256 128.75000000 0.057959 -0.064520 -0.996232 0.000000
233.96499634 151.72300720 141.25000000 0.056615 0.487441 -0.871318 0.000000
69.83489990 155.97599792 115.00000000 -0.990125 -0.001104 -0.140185 0.000000
235.02799988 121.23600006 122.50000000 0.757267 0.567548 -0.323165 0.000000
168.73800659 122.30000305 132.50000000 0.563396 -0.824722 0.049174 0.000000
205.60499573 103.15699768 115.00000000 0.158628 -0.944987 -0.286072 0.000000
61.32709885 204.18699646 137.50000000 -0.955786 0.199736 0.215823 0.000000
60.97259903 182.20899963 123.75000000 -0.944977 0.314992 -0.088303 0.000000
141.08799744 157.39399719 61.25000000 0.614416 0.621150 -0.486483 0.000000
152.78599548 133.28900146 47.50000000 0.683825 0.546726 -0.483192 0.000000
63.09960175 171.22000122 122.50000000 -0.973595 -0.224303 0.042436 0.000000
70.89839935 172.99200439 93.75000000 -0.865099 -0.288366 -0.410426 0.000000
158.81199646 163.06599426 118.75000000 0.279075 0.738352 -0.613965 0.000000
134.70700073 211.27699280 156.25000000 0.593369 -0.802121 -0.067201 0.000000
133.99800110 172.63800049 75.00000000 0.501122 0.832138 -0.237535 0.000000
180.08200073 125.48999786 76.25000000 0.890077 0.300682 -0.342568 0.000000
129.03500366 176.53700256 168.75000000 0.157201 0.270063 0.949923 0.000000
229.00199890 106.70200348 147.50000000 0.508502 -0.528640 0.679680 0.000000
146.75999451 192.13499451 118.75000000 0.809726 -0.266788 -0.522655 0.000000
126.55400085 229.71099854 150.00000000 0.289476 0.331042 0.898117 0.000000
125.13600159 213.40400696 92.50000000 0.265554 0.560964 -0.784092 0.000000
142.15100098 218.36700439 110.00000000 0.816204 0.084931 -0.571487 0.000000
193.90699768 129.03500366 100.00000000 -0.277787 0.753992 -0.595257 0.000000
112.01899719 138.60600281 35.00000000 -0.598153 -0.782899 -0.171117 0.000000
129.74400330 138.96099854 33.75000000 0.153957 0.563511 -0.811636 0.000000
87.20500183 126.55400085 130.00000000 -0.707106 -0.707106 0.001384 0.000000
187.17199707 158.81199646 156.25000000 -0.006842 0.811489 0.584327 0.000000
124.78099823 99.61229706 132.50000000 -0.205921 -0.971490 0.117488 0.000000
129.03500366 114.85500336 93.75000000 -0.001377 -0.761293 -0.648407 0.000000
104.22100067 154.91299438 170.00000000 -0.026256 -0.298813 0.953951 0.000000
80.82420349 232.90100098 95.00000000 -0.549866 0.794250 -0.258484 0.000000
188.58999634 102.44799805 112.50000000 -0.001207 -0.961751 -0.273924 0.000000
157.39399719 124.07199860 166.25000000 -0.022321 -0.408351 0.912552 0.000000
166.61099243 141.08799744 138.75000000 -0.270609 0.758022 0.593441 0.000000
97.13079834 184.33599854 48.75000000 -0.446689 0.894688 -0.001310 0.000000
110.60199738 139.31500244 35.00000000 -0.598153 -0.782899 -0.171117 0.000000
159.52099609 102.80300140 111.25000000 0.034860 -0.974881 -0.219979 0.000000
135.41600037 234.67399597 141.25000000 0.449988 0.529691 0.718984 0.000000
168.73800659 109.89299774 166.25000000 -0.405056 -0.401880 0.821232 0.000000
102.80300140 247.43499756 138.75000000 -0.147995 0.889409 0.432491 0.000000
109.89299774 215.53100586 158.75000000 0.961751 -0.001207 0.273924 0.000000
248.14399719 126.90799713 133.75000000 0.805227 0.537337 -0.250757 0.000000
107.05699921 124.78099823 156.25000000 -0.223271 -0.719776 0.657322 0.000000
246.72599792 117.33699799 137.50000000 0.729043 -0.304170 0.613169 0.000000
132.58000183 165.90199280 168.75000000 0.112429 0.570904 0.813283 0.000000
111.30999756 183.62699890 171.25000000 0.000978 0.000978 0.999999 0.000000
133.99800110 204.89599609 98.75000000 0.412646 0.137549 -0.900447 0.000000
161.64799500 148.17799377 168.75000000 0.416967 -0.181606 0.890594 0.000000
72.31639862 195.67999268 83.75000000 0.001331 -0.869469 -0.493986 0.000000
100.32099915 153.14100647 65.00000000 -0.693374 -0.693374 -0.196122 0.000000
172.99200439 124.42700195 105.00000000 0.360572 0.925423 0.116535 0.000000
129.03500366 245.30799866 111.25000000 0.427560 0.781963 -0.453571 0.000000
160.93899536 101.73899841 117.50000000 0.024190 -0.984864 -0.171631 0.000000
242.11799622 147.46899414 145.00000000 0.864061 0.278877 -0.419077 0.000000
99.25779724 247.43499756 138.75000000 -0.207182 0.842337 0.497538 0.000000
144.98699951 196.38900757 115.00000000 0.841875 -0.296129 -0.451170 0.000000
172.28300476 147.46899414 126.25000000 0.821908 -0.562813 -0.087805 0.000000
131.87100220 140.37899780 33.75000000 0.270317 0.586477 -0.763527 0.000000
69.48040009 215.53100586 143.75000000 -0.635026 0.435018 0.638359 0.000000
62.74509811 212.69500732 127.50000000 -0.977215 0.210166 -0.029685 0.000000
84.36910248 177.95500183 58.75000000 -0.715356 -0.618029 -0.326047 0.000000
80.11519623 151.01400757 88.75000000 -0.787266 -0.368679 -0.494255 0.000000
154.55900574 108.47499847 161.25000000 0.000978 0.000978 0.999999 0.000000
82.95110321 247.08099365 120.00000000 -0.532678 0.845367 -0.040124 0.000000
61.68159866 182.91799927 118.75000000 -0.961751 0.001207 -0.273924 0.000000
119.81800079 112.37400055 100.00000000 -0.125673 -0.859487 -0.495469 0.000000
126.19899750 141.08799744 33.75000000 0.352867 0.564262 -0.746387 0.000000
117.69100189 135.77000427 47.50000000 -0.350147 -0.870015 0.347089 0.000000
92.87689972 199.22500610 61.25000000 -0.000978 -0.000978 -0.999999 0.000000
66.29000092 177.95500183 107.50000000 -0.948270 -0.115384 -0.295754 0.000000
116.27300262 172.99200439 53.75000000 0.506804 0.601093 -0.617930 0.000000
124.07199860 130.45300293 71.25000000 -0.624670 -0.671064 -0.399325 0.000000
99.25779724 191.42599487 168.75000000 -0.065836 0.125898 0.989856 0.000000
124.78099823 176.53700256 168.75000000 0.404959 -0.456588 0.792171 0.000000
147.46899414 164.83900452 120.00000000 0.502517 0.803711 0.318631 0.000000
205.60499573 107.76599884 161.25000000 0.497666 -0.732446 0.464599 0.000000
200.64199829 100.32099915 140.00000000 0.001065 -0.995500 -0.094759 0.000000
91.45890045 148.88699341 76.25000000 -0.585469 -0.335712 -0.737918 0.000000
165.90199280 165.90199280 151.25000000 -0.745957 0.631194 0.212466 0.000000
144.63299561 154.55900574 61.25000000 0.506666 0.627862 -0.590830 0.000000
160.22999573 162.35699463 136.25000000 -0.311419 0.701902 0.640587 0.000000
109.89299774 182.91799927 56.25000000 0.658221 0.631693 -0.409523 0.000000
129.74400330 108.47499847 103.75000000 -0.140982 -0.814728 -0.562444 0.000000
215.53100586 106.70200348 155.00000000 0.199973 -0.872476 0.445866 0.000000
222.62100220 156.68499756 158.75000000 0.807895 -0.134896 0.573680 0.000000
182.20899963 103.15699768 107.50000000 0.001207 -0.961751 -0.273924 0.000000
128.32600403 141.79699707 33.75000000 0.229199 0.597165 -0.768675 0.000000
60.97259903 204.89599609 136.25000000 -0.955786 0.199736 0.215823 0.000000
99.96669769 243.89100647 93.75000000 -0.073897 0.923038 -0.377545 0.000000
69.48040009 224.03900146 106.25000000 -0.796717 0.482519 -0.363893 0.000000
160.93899536 114.50099945 82.50000000 -0.099657 -0.921482 -0.375419 0.000000
71.60739899 187.17199707 83.75000000 -0.862735 -0.104099 -0.494825 0.000000
129.74400330 176.53700256 168.75000000 0.412939 0.278848 0.867021 0.000000
185.04499817 104.22100067 166.25000000 0.102051 -0.896095 0.431971 0.000000
146.75999451 217.65800476 146.25000000 0.582260 0.452127 0.675688 0.000000
151.01400757 109.89299774 161.25000000 0.000978 0.000978 0.999999 0.000000
238.21899414 153.49499512 147.50000000 0.398079 0.797770 -0.452875 0.000000
69.83489990 186.46299744 87.50000000 -0.877485 -0.174325 -0.446800 0.000000
217.65800476 143.92399597 131.25000000 -0.028223 0.458289 -0.888355 0.000000
88.26850128 126.90799713 105.00000000 -0.523690 -0.778284 -0.346441 0.000000
116.27300262 136.83399963 48.75000000 -0.350147 -0.870015 0.347089 0.000000
87.91400146 127.61699677 146.25000000 -0.644561 -0.631236 0.431373 0.000000
171.22000122 137.54299927 137.50000000 -0.952948 0.173385 -0.248653 0.000000
77.27929688 224.39300537 145.00000000 -0.521642 0.575663 0.629684 0.000000
249.56199646 107.05699921 123.75000000 0.480576 -0.316707 0.817767 0.000000
197.80700684 138.96099854 163.75000000 0.611504 0.161558 0.774572 0.000000
165.90199280 164.48399353 121.25000000 0.826718 0.441021 0.349340 0.000000
128.32600403 214.11300659 93.75000000 0.320053 0.167647 -0.932449 0.000000
135.41600037 151.01400757 171.25000000 0.000978 0.000978 0.999999 0.000000
145.34199524 183.62699890 121.25000000 0.834265 -0.549190 0.048910 0.000000
128.32600403 239.63699341 103.75000000 0.494925 0.662697 -0.562034 0.000000
85.78710175 179.37300110 168.75000000 -0.650629 0.297201 0.698823 0.000000
148.88699341 205.60499573 118.75000000 0.799385 0.094301 -0.593373 0.000000
79.40619659 226.16600037 146.25000000 -0.486439 0.607628 0.627826 0.000000
202.76899719 122.65399933 86.25000000 -0.276884 0.914732 -0.294280 0.000000
136.12500000 165.54800415 170.00000000 -0.189010 0.285584 0.939530 0.000000
124.78099823 197.09800720 83.75000000 0.617163 0.205721 -0.759466 0.000000
65.93550110 189.29899597 98.75000000 -0.963479 -0.120273 -0.239253 0.000000
180.79100037 146.75999451 166.25000000 0.357073 0.394495 0.846683 0.000000
164.13000488 165.90199280 142.50000000 -0.879492 0.467099 0.091175 0.000000
80.11519623 140.37899780 151.25000000 -0.766255 -0.465635 0.442761 0.000000
94.29489899 199.22500610 61.25000000 -0.000978 -0.000978 -0.999999 0.000000
171.57400513 129.74400330 136.25000000 0.629654 -0.229675 0.742149 0.000000
131.87100220 180.43600464 77.50000000 0.791487 0.435399 -0.428924 0.000000
192.84399414 158.45799255 137.50000000 -0.237774 0.829908 -0.504694 0.000000
99.96669769 115.56400299 141.25000000 -0.606140 0.606140 0.514965 0.000000
149.59599304 164.48399353 103.75000000 0.892121 0.446748 0.067356 0.000000
62.03609848 174.41000366 132.50000000 -0.968070 -0.241081 -0.068702 0.000000
108.47499847 135.41600037 76.25000000 -0.420239 -0.666070 -0.616239 0.000000
130.80799866 129.03500366 67.50000000 -0.343419 -0.797052 -0.496760 0.000000
153.14100647 161.64799500 168.75000000 0.243623 0.737156 0.630276 0.000000
120.52700043 129.03500366 163.75000000 -0.285254 -0.744209 0.603973 0.000000
76.92479706 176.53700256 77.50000000 -0.886915 -0.404220 -0.223580 0.000000
80.82420349 163.77499390 78.75000000 -0.836099 -0.277666 -0.473117 0.000000
182.20899963 128.32600403 111.25000000 -0.540148 0.712996 -0.447076 0.000000
118.40000153 216.24000549 88.75000000 0.482580 0.339240 -0.807486 0.000000
94.29489899 202.76899719 163.75000000 -0.357162 0.212562 0.909534 0.000000
123.36299896 138.25199890 168.75000000 -0.172601 -0.740809 0.649162 0.000000
144.63299561 224.03900146 143.75000000 0.001378 0.660161 0.751123 0.000000
190.00799561 126.90799713 166.25000000 0.108830 0.101809 0.988833 0.000000
133.99800110 115.91899872 90.00000000 -0.234667 -0.855398 -0.461764 0.000000
242.47300720 129.03500366 133.75000000 0.207629 0.416731 -0.885000 0.000000
80.11519623 135.41600037 146.25000000 -0.700985 -0.397500 0.592126 0.000000
136.83399963 186.81700134 162.50000000 0.614797 0.191645 0.765047 0.000000
166.61099243 98.90329742 152.50000000 -0.001207 -0.961751 0.273924 0.000000
155.62199402 150.30499268 72.50000000 0.943559 0.331183 -0.003749 0.000000
177.24600220 108.47499847 171.25000000 -0.170047 0.063024 0.983419 0.000000
174.76499939 136.83399963 125.00000000 -0.288727 0.866180 -0.407884 0.000000
138.96099854 237.50999451 133.75000000 0.679723 0.613570 0.401880 0.000000
151.01400757 138.25199890 51.25000000 0.661536 0.581147 -0.473961 0.000000
97.13079834 142.50599670 163.75000000 -0.779549 -0.356688 0.514857 0.000000
145.34199524 135.41600037 171.25000000 0.000978 0.000978 0.999999 0.000000
83.66010284 224.03900146 78.75000000 -0.655439 0.632208 -0.413175 0.000000
130.45300293 126.90799713 71.25000000 -0.340595 -0.815843 -0.467328 0.000000
71.96189880 175.82800293 157.50000000 -0.572072 0.713854 -0.403913 0.000000
104.22100067 245.30799866 96.25000000 0.107782 0.719041 -0.686559 0.000000
116.98200226 133.99800110 73.75000000 -0.537660 -0.652271 -0.534289 0.000000
87.20500183 171.57400513 61.25000000 -0.726826 -0.508282 -0.461924 0.000000
137.54299927 120.52700043 161.25000000 -0.215223 -0.423024 0.880187 0.000000
112.72799683 158.81199646 171.25000000 0.000978 0.000978 0.999999 0.000000
151.72300720 212.69500732 141.25000000 0.887260 0.267824 0.375552 0.000000
214.82200623 153.85000610 136.25000000 0.586210 0.676396 -0.445921 0.000000
228.29299927 104.57499695 112.50000000 -0.001207 -0.961751 -0.273924 0.000000
89.68650055 171.57400513 45.00000000 -0.606140 -0.606140 -0.514965 0.000000
87.91400146 216.94900513 66.25000000 -0.133173 0.528300 -0.838549 0.000000
147.11399841 160.22999573 75.00000000 0.696378 0.716316 -0.044147 0.000000
205.96000671 130.45300293 160.00000000 0.272733 0.241644 0.931249 0.000000
126.19899750 234.31900024 95.00000000 0.880828 0.409861 0.236974 0.000000
161.64799500 141.08799744 136.25000000 -0.229655 0.757706 0.610852 0.000000
170.15600586 130.45300293 86.25000000 0.072647 0.990534 -0.116466 0.000000
149.59599304 147.82299805 60.00000000 0.311709 0.948062 0.063377 0.000000
126.90799713 193.55299377 166.25000000 0.366525 -0.385241 0.846906 0.000000
172.99200439 140.73300171 135.00000000 -0.932385 -0.179787 -0.313583 0.000000
109.18399811 116.98200226 148.75000000 -0.384753 -0.675382 0.629146 0.000000
101.38500214 252.39799500 131.25000000 -0.199635 0.848074 0.490832 0.000000
171.57400513 146.75999451 126.25000000 0.821908 -0.562813 -0.087805 0.000000
116.27300262 171.57400513 171.25000000 0.000978 0.000978 0.999999 0.000000
90.04100037 156.68499756 73.75000000 -0.244163 -0.489862 -0.836911 0.000000
68.41699982 177.95500183 152.50000000 -0.770352 0.006915 0.637581 0.000000
121.23600006 145.69599915 35.00000000 0.223927 0.674913 -0.703100 0.000000
102.09400177 174.41000366 46.25000000 0.187866 -0.777431 -0.600256 0.000000
139.66999817 153.85000610 56.25000000 0.606140 0.606140 -0.514965 0.000000
94.29489899 243.89100647 96.25000000 -0.374364 0.769795 -0.516978 0.000000
151.72300720 158.81199646 103.75000000 0.905034 0.188489 0.381294 0.000000
84.36910248 220.49400330 153.75000000 -0.347474 0.693317 0.631326 0.000000
146.05099487 131.87100220 171.25000000 -0.000978 -0.000978 0.999999 0.000000
194.26199341 137.89700317 125.00000000 0.563083 0.617193 -0.549555 0.000000
116.27300262 249.56199646 136.25000000 0.233515 0.647260 0.725621 0.000000
139.31500244 218.36700439 150.00000000 0.503423 0.473517 0.722736 0.000000
155.26800537 161.64799500 153.75000000 0.108446 0.955110 -0.275688 0.000000
214.82200623 113.43699646 161.25000000 0.171095 -0.404015 0.898609 0.000000
148.88699341 167.67500305 155.00000000 0.870129 0.316550 -0.377719 0.000000
84.36910248 171.22000122 67.50000000 -0.671037 -0.671037 -0.315307 0.000000
152.43200684 143.92399597 83.75000000 0.799835 -0.600218 -0.001367 0.000000
229.00199890 110.95600128 95.00000000 -0.887494 -0.443035 -0.126785 0.000000
114.85500336 185.75399780 63.75000000 0.112866 0.405482 -0.907108 0.000000
113.79199982 119.81800079 92.50000000 -0.220095 -0.644675 -0.732088 0.000000
120.52700043 152.43200684 171.25000000 0.000978 0.000978 0.999999 0.000000
99.25779724 154.20399475 57.50000000 -0.746199 -0.663128 -0.058722 0.000000
153.14100647 148.88699341 123.75000000 0.126747 -0.645666 -0.753028 0.000000
221.91200256 103.86599731 120.00000000 0.037724 -0.996979 -0.067902 0.000000
239.63699341 136.83399963 136.25000000 0.337977 0.406507 -0.848837 0.000000
160.22999573 109.89299774 163.75000000 -0.763861 -0.395774 0.509784 0.000000
226.16600037 148.17799377 156.25000000 0.554571 -0.520859 0.648966 0.000000
220.49400330 153.14100647 138.75000000 0.265048 0.620561 -0.738007 0.000000
151.01400757 132.58000183 81.25000000 0.799069 0.448572 0.400339 0.000000
228.29299927 151.01400757 156.25000000 -0.016212 -0.094032 0.995437 0.000000
115.56400299 170.86500549 51.25000000 0.556548 0.610681 -0.563315 0.000000
141.08799744 167.67500305 85.00000000 0.699981 0.526239 -0.482803 0.000000
210.56799316 143.92399597 156.25000000 0.701570 -0.478268 0.528261 0.000000
144.63299561 98.90329742 127.50000000 0.001207 -0.961751 -0.273924 0.000000
90.04100037 146.05099487 81.25000000 -0.775444 -0.492577 -0.395037 0.000000
143.92399597 174.41000366 116.25000000 0.975145 -0.015366 0.221033 0.000000
159.52099609 153.85000610 171.25000000 0.164934 -0.014787 0.986194 0.000000
150.30499268 156.68499756 171.25000000 0.000978 0.000978 0.999999 0.000000
136.12500000 243.89100647 123.75000000 0.693374 0.693374 -0.196122 0.000000
73.73429871 149.59599304 148.75000000 -0.729219 -0.451421 0.514256 0.000000
99.25779724 157.39399719 171.25000000 -0.199272 -0.262489 0.944135 0.000000
74.44329834 145.34199524 146.25000000 -0.660809 -0.496027 0.563285 0.000000
137.54299927 127.61699677 58.75000000 -0.356984 -0.933352 -0.037646 0.000000
191.42599487 112.01899719 88.75000000 0.282295 -0.790112 -0.544089 0.000000
194.26199341 148.88699341 161.25000000 0.406599 0.253562 0.877715 0.000000
111.30999756 148.17799377 33.75000000 0.526543 0.651029 -0.546730 0.000000
112.01899719 148.17799377 33.75000000 0.526543 0.651029 -0.546730 0.000000
148.88699341 157.74899292 115.00000000 0.531886 -0.633198 -0.562279 0.000000
230.41999817 103.86599731 140.00000000 0.087003 -0.932944 0.349352 0.000000
188.58999634 101.02999878 125.00000000 0.151027 -0.977307 -0.148531 0.000000
196.38900757 110.60199738 91.25000000 -0.028284 -0.882186 -0.470050 0.000000
76.57029724 207.02299500 156.25000000 -0.602581 0.154778 0.782905 0.000000
136.12500000 123.71800232 72.50000000 -0.444275 -0.816893 -0.367840 0.000000
174.41000366 111.30999756 93.75000000 0.835547 -0.420134 0.354045 0.000000
103.51200104 207.73199463 71.25000000 0.557618 0.681534 -0.473892 0.000000
87.20500183 204.89599609 161.25000000 -0.411666 0.443953 0.795887 0.000000
105.63899994 124.78099823 156.25000000 -0.289962 -0.706481 0.645605 0.000000
165.90199280 124.07199860 168.75000000 0.000978 0.000978 0.999999 0.000000
152.43200684 159.87600708 140.00000000 -0.001207 0.961751 -0.273924 0.000000
197.09800720 132.58000183 163.75000000 0.000978 0.000978 0.999999 0.000000
169.44700623 157.39399719 161.25000000 0.000978 0.000978 0.999999 0.000000
109.89299774 148.88699341 33.75000000 0.367277 0.559893 -0.742716 0.000000
68.06250000 157.03999329 132.50000000 -0.947732 -0.315911 -0.044765 0.000000
124.78099823 117.69100189 156.25000000 -0.354309 -0.592692 0.723313 0.000000
104.93000031 205.60499573 163.75000000 0.017707 0.524395 0.851291 0.000000
224.03900146 154.55900574 156.25000000 0.590033 0.128654 0.797063 0.000000
77.27929688 209.85899353 71.25000000 -0.924682 0.240788 -0.294930 0.000000
69.48040009 232.90100098 120.00000000 -0.812488 0.579129 -0.066877 0.000000
103.51200104 190.71699524 168.75000000 0.019139 0.353435 0.935263 0.000000
80.11519623 146.75999451 93.75000000 -0.847525 -0.275330 -0.453756 0.000000
209.14999390 112.37400055 92.50000000 -0.001207 -0.961751 -0.273924 0.000000
210.56799316 112.37400055 92.50000000 -0.001207 -0.961751 -0.273924 0.000000
95.71279907 209.14999390 66.25000000 -0.000978 -0.000978 -0.999999 0.000000
67.35350037 175.11900330 103.75000000 -0.965970 -0.242445 -0.090123 0.000000
109.89299774 121.94499969 153.75000000 0.244163 -0.489862 0.836911 0.000000
228.29299927 151.01400757 141.25000000 0.276436 0.423054 -0.862907 0.000000
154.55900574 121.94499969 63.75000000 -0.211319 -0.954300 -0.211319 0.000000
77.27929688 212.69500732 153.75000000 -0.514538 0.445050 0.732927 0.000000
99.96669769 185.75399780 51.25000000 -0.446689 0.894688 -0.001310 0.000000
174.41000366 116.98200226 78.75000000 0.174669 -0.929240 -0.325583 0.000000
146.75999451 217.65800476 116.25000000 0.809821 0.515340 -0.280383 0.000000
70.18939972 181.50000000 153.75000000 -0.716700 -0.021038 0.697064 0.000000
172.28300476 104.22100067 113.75000000 0.000978 0.000978 -0.999999 0.000000
143.21499634 179.37300110 161.25000000 0.200810 0.304726 0.931030 0.000000
110.60199738 142.50599670 168.75000000 -0.363475 0.048551 0.930338 0.000000
113.43699646 197.80700684 166.25000000 0.388621 0.317963 0.864797 0.000000
135.06100464 138.25199890 120.00000000 -0.719417 -0.307402 0.622851 0.000000
140.37899780 204.89599609 108.75000000 0.724602 0.111135 -0.680148 0.000000
229.00199890 155.26800537 156.25000000 0.112952 0.065033 0.991470 0.000000
137.54299927 180.08200073 86.25000000 0.826630 0.451891 -0.335376 0.000000
156.68499756 133.99800110 106.25000000 -0.160590 0.937463 -0.308827 0.000000
182.20899963 170.86500549 143.75000000 0.623563 0.740382 0.251004 0.000000
116.98200226 165.90199280 171.25000000 0.000978 0.000978 0.999999 0.000000
194.26199341 159.16700745 142.50000000 -0.036715 0.950792 -0.307646 0.000000
113.43699646 231.12899780 151.25000000 0.183932 0.582197 0.791970 0.000000
177.24600220 162.35699463 123.75000000 0.314418 0.276395 -0.908156 0.000000
172.28300476 103.51200104 163.75000000 -0.770133 0.168609 0.615195 0.000000
248.14399719 108.47499847 118.75000000 0.642686 0.764697 0.046818 0.000000
131.87100220 125.84500122 72.50000000 -0.413968 -0.800553 -0.433297 0.000000
180.08200073 146.05099487 133.75000000 0.349763 0.574262 -0.740196 0.000000
119.81800079 180.79100037 63.75000000 0.424946 0.553917 -0.715959 0.000000
68.06250000 156.33099365 137.50000000 -0.000978 -0.000978 0.999999 0.000000
238.21899414 114.14600372 143.75000000 0.675027 -0.318898 0.665314 0.000000
156.68499756 163.06599426 133.75000000 0.001207 0.961751 0.273924 0.000000
143.92399597 171.57400513 133.75000000 0.842116 0.443629 0.306649 0.000000
234.67399597 141.08799744 136.25000000 0.228634 0.523251 -0.820936 0.000000
135.06100464 198.51600647 160.00000000 0.621102 0.347230 0.702612 0.000000
236.09199524 154.55900574 153.75000000 0.472263 0.702554 0.532339 0.000000
129.03500366 113.43699646 156.25000000 -0.209614 -0.666108 0.715795 0.000000
119.81800079 197.80700684 166.25000000 0.000978 0.000978 0.999999 0.000000
179.37300110 124.07199860 171.25000000 0.000978 0.000978 0.999999 0.000000
146.05099487 141.44200134 127.50000000 0.351795 -0.463224 -0.813427 0.000000
124.07199860 207.02299500 161.25000000 0.308232 0.547790 0.777766 0.000000
161.64799500 106.70200348 100.00000000 -0.051758 -0.958160 -0.281515 0.000000
224.03900146 145.34199524 133.75000000 0.428991 0.416137 -0.801746 0.000000
149.24099731 207.73199463 147.50000000 0.606140 0.606140 0.514965 0.000000
65.93550110 223.33000183 126.25000000 -0.921754 0.367875 0.122625 0.000000
86.49600220 163.06599426 73.75000000 -0.766968 -0.426820 -0.479150 0.000000
208.44099426 112.01899719 93.75000000 0.243791 -0.943484 -0.224508 0.000000
85.43260193 188.58999634 47.50000000 -0.484006 0.346632 -0.803483 0.000000
116.27300262 233.25599670 148.75000000 0.138298 0.426300 0.893947 0.000000
241.76400757 116.62799835 100.00000000 0.430960 0.875341 0.219208 0.000000
117.69100189 208.44099426 163.75000000 0.438212 0.732558 0.520893 0.000000
148.88699341 224.74800110 136.25000000 0.773962 0.480671 0.412236 0.000000
136.83399963 232.19200134 142.50000000 0.552085 0.568969 0.609489 0.000000
103.51200104 227.93800354 152.50000000 0.067672 0.465419 0.882500 0.000000
162.35699463 158.10299683 118.75000000 -0.082016 -0.804328 -0.588498 0.000000
78.34269714 138.25199890 145.00000000 -0.846336 -0.427050 0.318346 0.000000
128.32600403 158.81199646 51.25000000 0.393713 0.719885 -0.571625 0.000000
84.36910248 141.08799744 91.25000000 -0.522193 -0.260317 -0.812127 0.000000
214.82200623 163.77499390 148.75000000 0.123192 0.938157 -0.323549 0.000000
209.14999390 133.28900146 121.25000000 0.180389 0.955395 -0.233838 0.000000
216.94900513 140.73300171 155.00000000 0.925266 -0.154443 0.346453 0.000000
65.93550110 168.02900696 146.25000000 -0.866578 -0.223778 0.446055 0.000000
118.40000153 131.16200256 163.75000000 -0.389995 -0.722396 0.571006 0.000000
180.08200073 98.19429779 147.50000000 0.001065 -0.995500 0.094759 0.000000
97.83979797 222.97500610 155.00000000 -0.060708 0.408766 0.910618 0.000000
112.72799683 169.44700623 171.25000000 0.000978 0.000978 0.999999 0.000000
136.12500000 127.97200012 50.00000000 -0.282299 -0.958822 0.031090 0.000000
221.20300293 131.87100220 153.75000000 0.499154 0.200566 0.842982 0.000000
102.09400177 233.96499634 83.75000000 -0.000978 -0.000978 -0.999999 0.000000
148.17799377 151.72300720 103.75000000 0.756764 -0.431733 0.490830 0.000000
89.33200073 196.74299622 165.00000000 -0.750666 0.229413 0.619573 0.000000
81.53320313 243.89100647 128.75000000 -0.552484 0.800096 0.233684 0.000000
141.08799744 149.59599304 121.25000000 0.055821 -0.728534 -0.682732 0.000000
102.09400177 152.43200684 33.75000000 -0.156023 0.194706 -0.968373 0.000000
230.06500244 122.65399933 100.00000000 0.314992 0.944977 -0.088303 0.000000
90.39550018 123.36299896 125.00000000 -0.775451 -0.608524 -0.168444 0.000000
221.91200256 116.27300262 156.25000000 0.594936 0.106708 0.796659 0.000000
78.69719696 187.17199707 161.25000000 -0.667033 0.133407 0.732987 0.000000
139.66999817 194.26199341 158.75000000 0.634012 0.185752 0.750683 0.000000
86.49600220 127.97200012 112.50000000 -0.707106 -0.707106 0.001384 0.000000
107.05699921 152.43200684 33.75000000 0.351259 0.354327 -0.866643 0.000000
123.36299896 216.24000549 93.75000000 0.641433 0.377605 -0.667816 0.000000
104.93000031 210.21400452 162.50000000 -0.014436 0.421260 0.906825 0.000000
109.18399811 250.97999573 103.75000000 -0.001378 0.660161 -0.751123 0.000000
104.22100067 119.81800079 148.75000000 -0.419970 -0.732889 0.535256 0.000000
224.74800110 147.46899414 136.25000000 0.377256 0.543837 -0.749613 0.000000
131.16200256 114.85500336 156.25000000 -0.255725 -0.575774 0.776588 0.000000
170.51100159 167.32000732 160.00000000 -0.608912 0.725203 0.321415 0.000000
151.01400757 103.15699768 110.00000000 -0.132110 -0.968379 -0.211633 0.000000
95.00389862 252.39799500 123.75000000 -0.434019 0.866525 0.246498 0.000000
233.25599670 111.30999756 146.25000000 0.717849 -0.293885 0.631129 0.000000
100.67600250 153.14100647 33.75000000 -0.000978 -0.000978 -0.999999 0.000000
224.03900146 162.35699463 148.75000000 0.137416 0.823019 -0.551142 0.000000
109.18399811 116.98200226 98.75000000 0.001331 -0.869469 -0.493986 0.000000
143.21499634 210.56799316 111.25000000 0.711779 -0.142958 -0.687702 0.000000
118.40000153 241.76400757 98.75000000 0.399325 0.671064 -0.624670 0.000000
119.10900116 167.32000732 51.25000000 0.564228 0.480515 -0.671381 0.000000
236.09199524 129.74400330 146.25000000 0.566662 -0.173776 0.805416 0.000000
154.20399475 151.01400757 85.00000000 0.920118 0.099805 0.378711 0.000000
117.33699799 231.12899780 92.50000000 0.531702 0.086954 -0.842456 0.000000
246.37199402 110.60199738 115.00000000 0.722145 0.683749 0.104851 0.000000
234.67399597 102.44799805 120.00000000 0.091401 -0.986414 -0.136507 0.000000
154.55900574 135.77000427 112.50000000 -0.348852 0.825563 -0.443563 0.000000
90.75000000 144.98699951 80.00000000 -0.775444 -0.492577 -0.395037 0.000000
132.58000183 168.02900696 63.75000000 0.491188 0.541481 -0.682299 0.000000
221.91200256 146.05099487 133.75000000 0.435399 0.428924 -0.791487 0.000000
166.61099243 103.86599731 107.50000000 0.013118 -0.971923 -0.234931 0.000000
144.63299561 174.41000366 131.25000000 0.875148 0.286660 0.389797 0.000000
134.70700073 242.47300720 116.25000000 0.693374 0.693374 -0.196122 0.000000
119.81800079 182.91799927 168.75000000 0.257630 -0.171304 0.950937 0.000000
123.36299896 181.50000000 66.25000000 0.450720 0.440957 -0.776150 0.000000
141.79699707 114.14600372 88.75000000 -0.277666 -0.836099 -0.473117 0.000000
188.58999634 130.09899902 107.50000000 -0.307514 0.922541 -0.233138 0.000000
71.60739899 163.06599426 98.75000000 -0.888465 -0.197599 -0.414227 0.000000
185.75399780 125.48999786 168.75000000 0.435570 0.302264 0.847889 0.000000
196.38900757 138.96099854 163.75000000 0.471890 0.166117 0.865867 0.000000
131.87100220 166.61099243 168.75000000 0.078846 0.362156 0.928777 0.000000
141.79699707 199.93299866 156.25000000 0.750549 0.239737 0.615795 0.000000
243.89100647 116.98200226 96.25000000 0.432384 0.869289 0.239544 0.000000
137.54299927 144.63299561 43.75000000 0.414001 0.626821 -0.660074 0.000000
172.28300476 160.22999573 121.25000000 0.443399 0.407927 -0.798118 0.000000
119.10900116 138.96099854 168.75000000 0.000978 0.000978 0.999999 0.000000
112.01899719 109.53800201 140.00000000 -0.343893 -0.833823 0.431829 0.000000
178.66400146 111.30999756 171.25000000 -0.152243 0.030906 0.987860 0.000000
145.34199524 158.10299683 171.25000000 -0.000978 -0.000978 0.999999 0.000000
141.79699707 194.97099304 156.25000000 0.724605 0.129981 0.676796 0.000000
140.73300171 173.70100403 165.00000000 0.774818 0.438792 0.455104 0.000000
124.07199860 228.29299927 151.25000000 0.118952 0.571262 0.812102 0.000000
112.01899719 184.33599854 171.25000000 0.171559 0.112316 0.978751 0.000000
248.49899292 105.63899994 130.00000000 0.939691 -0.083264 0.331734 0.000000
229.35600281 124.78099823 115.00000000 0.539495 0.837148 -0.090154 0.000000
179.37300110 153.85000610 131.25000000 0.704402 -0.547869 -0.451284 0.000000
106.34799957 192.13499451 168.75000000 0.000978 0.000978 0.999999 0.000000
143.21499634 124.42700195 65.00000000 -0.155926 -0.869982 -0.467779 0.000000
108.47499847 144.27799988 52.50000000 -0.693374 -0.693374 0.196122 0.000000
102.80300140 112.01899719 116.25000000 -0.703118 -0.512725 -0.492684 0.000000
199.22500610 149.59599304 131.25000000 -0.000978 -0.000978 -0.999999 0.000000
154.91299438 143.92399597 75.00000000 0.871023 -0.373731 0.318816 0.000000
141.08799744 194.97099304 108.75000000 0.797770 0.398079 -0.452875 0.000000
88.62300110 128.32600403 101.25000000 -0.531069 -0.778152 -0.335328 0.000000
111.30999756 226.87500000 88.75000000 0.669919 -0.251813 -0.698426 0.000000
146.05099487 101.38500214 151.25000000 -0.647028 -0.593249 0.478969 0.000000
180.43600464 163.77499390 125.00000000 0.535839 0.219556 -0.815274 0.000000
107.76599884 154.20399475 35.00000000 0.330222 0.401538 -0.854237 0.000000
100.67600250 213.40400696 73.75000000 0.353528 0.231321 -0.906371 0.000000
95.71279907 155.26800537 71.25000000 -0.655910 -0.384955 -0.649301 0.000000
152.43200684 136.12500000 126.25000000 0.479800 0.875738 0.053617 0.000000
99.25779724 116.62799835 107.50000000 -0.565470 -0.798401 -0.206879 0.000000
135.41600037 152.43200684 171.25000000 0.000978 0.000978 0.999999 0.000000
147.46899414 182.91799927 156.25000000 0.578118 0.006834 0.815925 0.000000
74.08879852 146.75999451 115.00000000 -0.867276 -0.432884 -0.245854 0.000000
97.13079834 180.79100037 171.25000000 0.000978 0.000978 0.999999 0.000000
148.17799377 154.20399475 65.00000000 0.512397 0.465966 -0.721336 0.000000
87.20500183 210.56799316 158.75000000 -0.115168 0.141838 0.983168 0.000000
73.02539825 204.54200745 85.00000000 -0.893781 0.134991 -0.427707 0.000000
103.51200104 155.26800537 33.75000000 0.128200 0.314428 -0.940585 0.000000
140.73300171 238.21899414 130.00000000 -0.414691 0.909687 -0.022380 0.000000
182.20899963 120.52700043 171.25000000 0.000978 0.000978 0.999999 0.000000
128.32600403 111.30999756 98.75000000 0.309607 -0.934374 0.176323 0.000000
