176.91799927 301.99700928 155.00000000 -0.681427 -0.530743 0.503954 0.000000
181.67399597 290.58300781 147.50000000 -0.661490 -0.540301 0.520103 0.000000
152.66299438 228.28100586 47.50000000 -0.834710 -0.012295 0.550553 0.000000
117.94499969 336.71499634 141.25000000 0.562402 -0.813021 0.150670 0.000000
107.48200226 322.44699097 156.25000000 0.839567 -0.514477 -0.174475 0.000000
176.44200134 251.10899353 82.50000000 -0.525758 -0.489038 0.696003 0.000000
194.03900146 252.06100464 133.75000000 -0.481089 -0.869387 -0.112778 0.000000
139.82200623 271.08401489 176.25000000 -0.000978 -0.000978 -0.999999 0.000000
224.47700500 230.18400574 148.75000000 -0.258278 0.885312 -0.386671 0.000000
164.55299377 219.72099304 78.75000000 -0.430843 0.782021 -0.450353 0.000000
158.84599304 210.20899963 91.25000000 0.108352 0.322381 0.940389 0.000000
269.18200684 154.08999634 143.75000000 -0.313133 0.249641 0.916312 0.000000
150.28500366 298.66799927 121.25000000 -0.301430 -0.649606 0.697963 0.000000
214.48899841 258.71899414 150.00000000 0.934187 -0.001261 -0.356781 0.000000
135.06599426 255.86500549 176.25000000 -0.000978 -0.000978 -0.999999 0.000000
119.84799957 247.30499268 173.75000000 0.225639 0.097062 -0.969364 0.000000
102.72699738 211.63600159 102.50000000 0.942140 0.313151 0.119616 0.000000
116.51899719 303.42401123 167.50000000 0.260853 0.110311 -0.959055 0.000000
155.51699829 212.11099243 82.50000000 -0.889934 0.216232 0.401574 0.000000
171.21099854 177.86900330 156.25000000 -0.000978 -0.000978 -0.999999 0.000000
119.84799957 288.20498657 168.75000000 0.189487 0.321425 -0.927783 0.000000
246.35400391 116.51899719 132.50000000 -0.182454 0.818779 -0.544345 0.000000
169.30900574 280.11999512 117.50000000 -0.573400 -0.680390 0.456379 0.000000
152.66299438 145.52900696 122.50000000 0.637283 0.745297 -0.195968 0.000000
194.99000549 209.25799561 166.25000000 -0.000978 -0.000978 -0.999999 0.000000
127.93299866 172.16200256 117.50000000 0.771229 0.617285 -0.155453 0.000000
192.61199951 253.01199341 132.50000000 -0.485522 -0.866493 -0.116010 0.000000
126.50599670 222.57400513 166.25000000 0.192289 0.472525 -0.860084 0.000000
155.99200439 294.38800049 120.00000000 -0.508687 -0.708827 0.488674 0.000000
108.43399811 279.16900635 167.50000000 0.353087 0.115878 -0.928387 0.000000
167.40600586 187.38099670 156.25000000 -0.422278 0.448164 -0.787928 0.000000
114.14099884 257.76800537 173.75000000 0.215818 0.001167 -0.976433 0.000000
106.53099823 286.30300903 166.25000000 0.465583 0.001319 -0.885003 0.000000
165.97999573 259.67001343 80.00000000 -0.492386 -0.562966 0.663796 0.000000
191.18600464 255.86500549 163.75000000 -0.507705 0.231612 -0.829814 0.000000
188.33200073 185.47900391 121.25000000 0.994568 0.022926 -0.101531 0.000000
118.89600372 311.03298950 166.25000000 0.070305 -0.354177 -0.932532 0.000000
151.23599243 316.73999023 141.25000000 -0.537660 -0.652271 0.534289 0.000000
123.65200043 300.09500122 97.50000000 -0.392232 -0.657030 0.643790 0.000000
240.64700317 179.77099609 126.25000000 -0.446108 -0.050170 0.893572 0.000000
282.49798584 166.45500183 143.75000000 -0.603859 -0.542965 -0.583561 0.000000
188.33200073 273.46200562 142.50000000 -0.916747 0.304620 0.258422 0.000000
200.69700623 152.18800354 98.75000000 -0.224476 -0.346127 0.910937 0.000000
170.25999451 301.99700928 147.50000000 -0.609391 -0.575630 0.545245 0.000000
124.12799835 334.81298828 140.00000000 -0.624375 -0.597448 0.503202 0.000000
268.23001099 171.21099854 138.75000000 -0.269064 -0.013392 0.963029 0.000000
93.21489716 264.42599487 73.75000000 0.984874 -0.084554 0.151244 0.000000
203.55099487 182.62500000 163.75000000 -0.000978 -0.000978 -0.999999 0.000000
132.21299744 323.87399292 135.00000000 -0.350353 -0.604563 0.715372 0.000000
215.91600037 217.34300232 150.00000000 -0.311656 -0.718585 0.621697 0.000000
253.96299744 155.04100037 163.75000000 -0.163623 0.163623 -0.972859 0.000000
116.99400330 332.91000366 131.25000000 -0.076482 -0.883019 0.463064 0.000000
137.91999817 333.38598633 150.00000000 -0.357521 -0.729735 0.582808 0.000000
133.16400146 174.06399536 133.75000000 0.677188 0.593995 -0.434265 0.000000
122.22599792 177.86900330 110.00000000 0.760243 0.643953 -0.085764 0.000000
122.70099640 300.57000732 168.75000000 0.255177 -0.079981 -0.963581 0.000000
184.05200195 200.69700623 105.00000000 -0.715583 -0.566848 0.408196 0.000000
185.95399475 233.03700256 167.50000000 -0.346040 0.139243 -0.927829 0.000000
148.38299561 297.71701050 173.75000000 -0.000978 -0.000978 -0.999999 0.000000
230.18400574 130.31100464 148.75000000 0.026606 0.628734 -0.777165 0.000000
177.86900330 186.42999268 93.75000000 -0.527322 0.092889 0.844573 0.000000
109.38500214 225.42799377 153.75000000 0.563093 0.469522 -0.680055 0.000000
188.33200073 183.57600403 111.25000000 0.912248 0.399194 0.091911 0.000000
102.72699738 297.71701050 81.25000000 0.474292 -0.707278 0.524218 0.000000
116.99400330 319.59399414 163.75000000 0.230818 -0.319705 -0.918973 0.000000
165.97999573 301.52200317 172.50000000 -0.544329 -0.057668 -0.836888 0.000000
219.72099304 151.23599243 163.75000000 -0.000978 -0.000978 -0.999999 0.000000
167.88200378 227.33000183 70.00000000 -0.913953 0.006482 0.405769 0.000000
110.81199646 246.35400391 30.00000000 0.005378 -0.100035 0.994969 0.000000
122.70099640 340.99499512 157.50000000 0.777202 -0.608179 0.161477 0.000000
253.96299744 203.55099487 136.25000000 -0.426925 -0.489083 0.760614 0.000000
198.79499817 118.42099762 115.00000000 0.518028 0.832168 -0.197848 0.000000
178.82000732 147.43200684 148.75000000 0.428764 0.384135 -0.817681 0.000000
163.60200500 307.22900391 146.25000000 -0.688180 -0.394424 0.608965 0.000000
138.39599609 193.08799744 152.50000000 0.293463 0.247654 -0.923335 0.000000
253.96299744 146.47999573 158.75000000 -0.292885 0.454049 -0.841462 0.000000
185.47900391 256.81600952 101.25000000 -0.688330 -0.717809 0.104650 0.000000
133.16400146 308.17999268 171.25000000 0.257721 -0.408435 -0.875649 0.000000
219.72099304 152.18800354 163.75000000 -0.000978 -0.000978 -0.999999 0.000000
108.43399811 208.78199768 55.00000000 0.834436 0.473935 0.281253 0.000000
200.69700623 119.37200165 122.50000000 0.378329 0.851629 -0.362760 0.000000
140.77299500 217.81799316 168.75000000 0.014401 0.129610 -0.991461 0.000000
153.13900757 283.44900513 176.25000000 -0.000978 -0.000978 -0.999999 0.000000
146.00500488 251.10899353 52.50000000 -0.513143 -0.644373 0.566981 0.000000
91.31250000 272.51098633 110.00000000 0.990807 -0.133227 -0.023511 0.000000
237.79299927 224.00100708 152.50000000 0.428629 -0.892859 -0.138130 0.000000
161.69900513 281.54699707 108.75000000 -0.550231 -0.661287 0.509847 0.000000
149.33399963 335.76400757 166.25000000 -0.188188 -0.888421 -0.418681 0.000000
225.42799377 184.52699280 123.75000000 -0.495042 -0.498376 0.711727 0.000000
200.69700623 241.59800720 153.75000000 0.013628 -0.303533 -0.952723 0.000000
175.96699524 290.58300781 140.00000000 -0.627411 -0.650710 0.427705 0.000000
222.57400513 119.84799957 96.25000000 -0.275852 0.154746 0.948662 0.000000
213.06300354 142.67599487 98.75000000 -0.360053 -0.242485 0.900868 0.000000
273.93798828 152.18800354 151.25000000 -0.705763 0.430100 -0.562950 0.000000
187.38099670 186.42999268 108.75000000 -0.920710 0.137482 0.365229 0.000000
223.52499390 262.04800415 150.00000000 -0.623338 -0.472124 -0.623338 0.000000
102.25099945 315.78900146 127.50000000 0.942140 0.313151 0.119616 0.000000
126.50599670 182.62500000 66.25000000 0.419900 0.783057 0.458810 0.000000
156.94299316 175.96699524 153.75000000 0.391110 0.111943 -0.913511 0.000000
129.35899353 177.86900330 133.75000000 0.733626 0.591111 -0.335233 0.000000
156.94299316 283.44900513 176.25000000 -0.331272 -0.013855 -0.943433 0.000000
183.57600403 269.18200684 168.75000000 -0.290656 0.106530 -0.950879 0.000000
169.30900574 295.81399536 138.75000000 -0.606632 -0.626797 0.489002 0.000000
138.39599609 272.98599243 75.00000000 -0.480711 -0.759622 0.438054 0.000000
148.38299561 285.35198975 176.25000000 -0.000978 -0.000978 -0.999999 0.000000
116.99400330 191.18600464 66.25000000 0.677001 0.580048 0.453006 0.000000
253.96299744 192.13699341 131.25000000 -0.364399 -0.143805 0.920073 0.000000
121.27400208 233.98800659 167.50000000 0.131891 0.367907 -0.920461 0.000000
153.61399841 214.01400757 55.00000000 -0.800658 0.264797 0.537428 0.000000
158.84599304 242.07299805 175.00000000 -0.405148 0.600281 -0.689578 0.000000
127.45700073 241.59800720 173.75000000 -0.000978 -0.000978 -0.999999 0.000000
146.47999573 298.66799927 118.75000000 -0.285960 -0.863996 0.414412 0.000000
154.08999634 237.79299927 173.75000000 -0.307611 0.368225 -0.877374 0.000000
172.63800049 272.98599243 172.50000000 -0.372469 -0.011520 -0.927973 0.000000
232.08599854 204.50199890 128.75000000 0.090390 -0.088102 0.992002 0.000000
200.69700623 223.52499390 116.25000000 -0.208616 0.522301 0.826850 0.000000
105.58000183 310.08200073 98.75000000 0.472438 -0.731036 0.492330 0.000000
264.42599487 196.89300537 138.75000000 -0.489491 -0.233309 0.840217 0.000000
265.37701416 134.11500549 146.25000000 -0.593004 0.565973 -0.572731 0.000000
163.12600708 224.47700500 97.50000000 -0.960330 -0.015944 0.278410 0.000000
213.06300354 139.82200623 98.75000000 -0.322701 -0.261373 0.909697 0.000000
176.91799927 274.88900757 171.25000000 -0.118749 -0.046369 -0.991841 0.000000
163.60200500 267.27899170 91.25000000 -0.410302 -0.723384 0.555309 0.000000
187.85600281 279.64498901 142.50000000 -0.798268 -0.414454 0.437031 0.000000
98.44629669 265.37701416 162.50000000 0.546168 -0.156261 -0.822972 0.000000
259.19400024 124.60399628 140.00000000 -0.505430 0.742505 -0.439576 0.000000
223.52499390 150.28500366 163.75000000 -0.000978 -0.000978 -0.999999 0.000000
118.89600372 303.42401123 98.75000000 -0.424983 -0.725943 0.540737 0.000000
182.62500000 289.63198853 147.50000000 -0.661490 -0.540301 0.520103 0.000000
118.89600372 310.08200073 166.25000000 0.070305 -0.354177 -0.932532 0.000000
121.27400208 208.30700684 32.50000000 0.503407 0.697411 0.510097 0.000000
169.30900574 262.52301025 86.25000000 -0.827435 -0.529016 0.188396 0.000000
243.50000000 144.57800293 161.25000000 -0.219592 0.643203 -0.733532 0.000000
129.35899353 173.58900452 92.50000000 0.602938 0.779111 0.171617 0.000000
233.98800659 160.27200317 120.00000000 -0.703572 -0.393803 0.591528 0.000000
119.84799957 194.99000549 141.25000000 0.579961 0.653928 -0.485823 0.000000
253.96299744 122.70099640 128.75000000 -0.521683 -0.130055 0.843168 0.000000
222.57400513 233.03700256 123.75000000 -0.542236 0.289298 0.788851 0.000000
169.30900574 232.08599854 168.75000000 -0.022523 0.430596 -0.902264 0.000000
212.11099243 201.64799500 126.25000000 -0.070032 -0.115955 0.990782 0.000000
119.37200165 265.37701416 45.00000000 -0.601764 -0.719181 0.347360 0.000000
93.21489716 289.63198853 117.50000000 0.960571 -0.275339 0.038622 0.000000
212.11099243 237.79299927 108.75000000 -0.495952 0.193286 0.846565 0.000000
112.23799896 196.41700745 67.50000000 0.923812 0.273563 0.267834 0.000000
122.70099640 209.25799561 31.25000000 0.492213 0.666924 0.559410 0.000000
256.34100342 178.82000732 157.50000000 -0.236647 -0.106172 -0.965777 0.000000
115.09200287 318.64300537 113.75000000 -0.512226 -0.769152 0.382137 0.000000
210.20899963 221.14700317 122.50000000 -0.611251 0.332378 0.718260 0.000000
222.09899902 177.86900330 117.50000000 -0.388613 -0.388613 0.835440 0.000000
261.57199097 161.69900513 138.75000000 -0.415245 0.175069 0.892705 0.000000
258.71899414 122.70099640 133.75000000 -0.566618 0.822510 -0.049210 0.000000
159.79699707 270.60800171 92.50000000 -0.449097 -0.727504 0.518699 0.000000
183.10099792 266.32800293 130.00000000 -0.898297 -0.186603 0.397797 0.000000
199.74600220 212.58700562 132.50000000 0.136217 0.633186 0.761919 0.000000
181.19799805 260.62100220 102.50000000 -0.628505 -0.765850 0.135853 0.000000
199.74600220 197.84399414 163.75000000 -0.000978 -0.000978 -0.999999 0.000000
157.89500427 253.96299744 176.25000000 -0.000978 -0.000978 -0.999999 0.000000
176.91799927 198.79499817 161.25000000 0.231259 0.035113 -0.972258 0.000000
140.77299500 274.88900757 176.25000000 -0.000978 -0.000978 -0.999999 0.000000
153.13900757 294.38800049 117.50000000 -0.521346 -0.675571 0.521346 0.000000
117.47000122 211.16000366 32.50000000 0.544649 0.628960 0.554767 0.000000
163.12600708 214.96499634 67.50000000 -0.571634 0.814759 -0.096961 0.000000
90.83689880 263.47500610 87.50000000 0.965944 0.079548 -0.246221 0.000000
247.30499268 119.84799957 121.25000000 -0.757988 -0.182223 0.626297 0.000000
116.99400330 337.19000244 145.00000000 0.626989 -0.760584 0.168513 0.000000
133.16400146 217.81799316 168.75000000 0.113540 0.359772 -0.926106 0.000000
223.05000305 238.74400330 122.50000000 -0.797005 0.183691 0.575362 0.000000
250.15800476 115.09200287 126.25000000 -0.810166 0.483563 0.331359 0.000000
226.37899780 161.69900513 163.75000000 -0.000978 -0.000978 -0.999999 0.000000
158.36999512 180.72300720 77.50000000 0.392367 -0.512845 0.763569 0.000000
185.00300598 261.57199097 140.00000000 -0.683787 -0.408948 0.604315 0.000000
199.74600220 221.62300110 116.25000000 -0.103490 0.578669 0.808970 0.000000
180.72300720 208.78199768 110.00000000 -0.842160 -0.511258 0.171413 0.000000
268.23001099 169.30900574 138.75000000 -0.237687 0.148390 0.959940 0.000000
98.44629669 241.59800720 155.00000000 0.724602 0.297231 -0.621776 0.000000
107.95800018 204.50199890 65.00000000 0.869601 0.408242 0.277726 0.000000
99.87310028 275.83999634 58.75000000 0.830278 -0.409604 0.377974 0.000000
242.54899597 136.01800537 121.25000000 -0.747731 -0.282193 0.601054 0.000000
145.52900696 159.32099915 132.50000000 0.707012 0.530675 -0.467460 0.000000
139.82200623 190.23399353 151.25000000 0.295434 0.437737 -0.849179 0.000000
95.11720276 280.59600830 161.25000000 0.703437 0.101755 -0.703437 0.000000
215.91600037 198.79499817 126.25000000 -0.171630 -0.235492 0.956602 0.000000
185.47900391 243.50000000 86.25000000 -0.634852 -0.123402 0.762715 0.000000
93.69039917 259.67001343 67.50000000 0.935644 -0.187685 0.298906 0.000000
135.06599426 213.06300354 31.25000000 -0.706605 0.098425 0.700729 0.000000
241.59800720 147.43200684 163.75000000 0.021774 0.357349 -0.933717 0.000000
145.52900696 252.06100464 53.75000000 -0.560220 -0.597455 0.573760 0.000000
175.96699524 285.82699585 130.00000000 -0.477933 -0.565135 0.672460 0.000000
201.64799500 207.35499573 163.75000000 -0.000978 -0.000978 -0.999999 0.000000
254.43899536 185.47900391 160.00000000 -0.635932 -0.478207 -0.605729 0.000000
234.93899536 202.60000610 128.75000000 0.000978 0.000978 0.999999 0.000000
240.64700317 193.08799744 128.75000000 -0.357483 -0.366768 0.858887 0.000000
214.96499634 208.30700684 161.25000000 -0.000978 -0.000978 -0.999999 0.000000
102.72699738 222.09899902 50.00000000 0.856721 0.426054 0.290701 0.000000
102.25099945 242.54899597 160.00000000 0.676577 0.283107 -0.679776 0.000000
211.16000366 194.03900146 121.25000000 -0.401604 -0.171294 0.899651 0.000000
158.36999512 282.49798584 107.50000000 -0.452511 -0.727664 0.515498 0.000000
130.31100464 170.25999451 121.25000000 0.758047 0.608000 -0.236010 0.000000
113.66500092 214.96499634 32.50000000 0.676574 0.606755 0.417248 0.000000
142.67599487 257.76800537 56.25000000 -0.507076 -0.684468 0.523811 0.000000
115.09200287 214.48899841 32.50000000 0.575630 0.609391 0.545245 0.000000
115.09200287 202.12399292 50.00000000 0.743238 0.482858 0.463082 0.000000
186.42999268 230.18400574 113.75000000 0.080124 0.496208 0.864499 0.000000
184.52699280 258.71899414 168.75000000 -0.284831 -0.239485 -0.928180 0.000000
233.03700256 143.62699890 113.75000000 -0.679001 -0.301599 0.669324 0.000000
93.21489716 259.19400024 132.50000000 0.919813 0.317127 -0.231029 0.000000
146.47999573 315.78900146 171.25000000 -0.030484 -0.136612 -0.990155 0.000000
136.01800537 214.96499634 163.75000000 0.040447 0.829864 -0.556497 0.000000
122.70099640 328.15399170 163.75000000 -0.000978 -0.000978 -0.999999 0.000000
242.54899597 217.34300232 145.00000000 -0.296090 -0.606585 0.737825 0.000000
127.45700073 299.61898804 173.75000000 0.196509 -0.242587 -0.950019 0.000000
212.11099243 211.63600159 127.50000000 0.186244 0.721888 0.666477 0.000000
188.33200073 235.89100647 166.25000000 -0.615498 0.085446 -0.783493 0.000000
154.56500244 202.60000610 85.00000000 -0.906554 0.080674 0.414308 0.000000
174.06399536 283.44900513 126.25000000 -0.639399 -0.373120 0.672273 0.000000
134.11500549 171.68699646 87.50000000 0.586610 0.666830 0.459594 0.000000
225.42799377 224.47700500 138.75000000 -0.047009 0.951622 -0.303655 0.000000
133.63999939 256.81600952 47.50000000 -0.497209 -0.615191 0.611820 0.000000
135.06599426 250.15800476 176.25000000 -0.000978 -0.000978 -0.999999 0.000000
112.23799896 216.86700439 31.25000000 0.721882 0.605084 0.335797 0.000000
226.37899780 203.55099487 161.25000000 -0.000978 -0.000978 -0.999999 0.000000
168.35699463 232.08599854 96.25000000 -0.001261 0.934187 -0.356781 0.000000
111.28700256 261.57199097 171.25000000 0.637892 0.149294 -0.755517 0.000000
114.14099884 216.86700439 31.25000000 0.548146 0.645970 0.531280 0.000000
145.52900696 296.76599121 113.75000000 -0.578922 -0.662823 0.474884 0.000000
192.13699341 277.74200439 146.25000000 -0.838927 -0.289980 0.460557 0.000000
110.33599854 329.58099365 142.50000000 0.714418 -0.684210 0.146508 0.000000
127.45700073 301.99700928 172.50000000 0.444379 -0.374297 -0.813898 0.000000
218.77000427 199.74600220 126.25000000 -0.154776 -0.182917 0.970868 0.000000
181.67399597 252.06100464 88.75000000 -0.641604 -0.530460 0.554036 0.000000
170.25999451 292.01000977 133.75000000 -0.632391 -0.622326 0.461293 0.000000
149.33399963 183.10099792 152.50000000 -0.351477 0.874888 -0.333218 0.000000
105.58000183 276.79098511 166.25000000 0.658474 -0.175695 -0.731808 0.000000
121.75000000 306.27700806 168.75000000 0.227370 -0.159027 -0.960736 0.000000
170.25999451 155.51699829 150.00000000 0.608398 0.225621 -0.760886 0.000000
163.60200500 316.26501465 155.00000000 -0.687800 -0.547228 0.476941 0.000000
132.21299744 330.05700684 143.75000000 -0.384265 -0.740731 0.551052 0.000000
202.12399292 249.20700073 115.00000000 -0.977346 -0.140688 0.158118 0.000000
112.23799896 302.47299194 91.25000000 -0.526503 -0.719167 0.453424 0.000000
133.16400146 185.47900391 61.25000000 0.053806 0.933072 0.355643 0.000000
232.08599854 146.47999573 113.75000000 -0.647419 -0.337571 0.683296 0.000000
121.75000000 202.60000610 151.25000000 0.908638 0.267763 -0.320438 0.000000
116.04299927 302.47299194 166.25000000 0.352946 0.474320 -0.806504 0.000000
134.11500549 218.77000427 31.25000000 -0.590940 0.088135 0.801887 0.000000
216.86700439 161.69900513 163.75000000 -0.000978 -0.000978 -0.999999 0.000000
149.80999756 196.89300537 60.00000000 -0.983981 0.147777 0.099720 0.000000
114.14099884 199.27099609 55.00000000 0.705841 0.549725 0.446756 0.000000
194.99000549 120.32299805 115.00000000 0.514788 0.857075 0.020374 0.000000
165.50399780 217.81799316 66.25000000 -0.425027 0.635040 0.645040 0.000000
167.40600586 231.61000061 95.00000000 -0.001261 0.934187 -0.356781 0.000000
94.16600037 255.38999939 157.50000000 0.643514 0.475495 -0.599829 0.000000
94.64160156 269.18200684 67.50000000 0.934187 0.001261 0.356781 0.000000
222.57400513 181.67399597 163.75000000 0.001203 -0.265967 -0.963981 0.000000
241.59800720 219.24499512 147.50000000 -0.311919 -0.631920 0.709495 0.000000
265.85299683 190.23399353 152.50000000 -0.258582 0.198383 -0.945399 0.000000
215.91600037 258.71899414 128.75000000 0.641578 -0.677677 0.359349 0.000000
187.38099670 207.35499573 163.75000000 -0.088289 0.463870 -0.881493 0.000000
200.69700623 146.00500488 155.00000000 0.263156 0.512298 -0.817496 0.000000
137.44400024 219.72099304 32.50000000 -0.616632 0.226358 0.754008 0.000000
277.74200439 165.50399780 151.25000000 -0.669398 -0.095210 -0.736778 0.000000
269.65701294 150.28500366 145.00000000 -0.358340 0.349112 0.865860 0.000000
188.33200073 198.79499817 163.75000000 0.251346 0.501150 -0.828054 0.000000
212.11099243 242.54899597 153.75000000 0.558559 -0.528184 -0.639558 0.000000
115.09200287 332.91000366 133.75000000 0.470333 -0.822690 0.319323 0.000000
176.91799927 221.14700317 112.50000000 -0.839653 -0.012248 0.542985 0.000000
198.79499817 202.60000610 163.75000000 -0.000978 -0.000978 -0.999999 0.000000
215.91600037 212.11099243 161.25000000 -0.391439 0.001283 -0.920203 0.000000
174.53999329 152.18800354 110.00000000 -0.790828 0.237714 -0.563989 0.000000
194.03900146 251.58500671 112.50000000 -0.560283 -0.804548 0.196939 0.000000
119.84799957 223.52499390 166.25000000 0.154835 0.308300 -0.938604 0.000000
208.30700684 154.08999634 101.25000000 -0.104109 -0.293876 0.950157 0.000000
200.69700623 146.47999573 156.25000000 0.263156 0.512298 -0.817496 0.000000
108.43399811 229.23199463 156.25000000 0.591141 0.405685 -0.697116 0.000000
175.01600647 277.74200439 171.25000000 -0.232055 0.100177 -0.967530 0.000000
184.52699280 257.76800537 101.25000000 -0.683103 -0.683103 -0.258343 0.000000
181.19799805 276.79098511 170.00000000 -0.373780 0.129225 -0.918471 0.000000
120.79900360 182.14900208 87.50000000 0.683103 0.683103 0.258343 0.000000
210.20899963 148.85800171 160.00000000 0.314526 0.488385 -0.813974 0.000000
151.23599243 185.47900391 76.25000000 -0.753874 0.639055 0.152588 0.000000
228.28100586 134.59100342 152.50000000 0.265966 0.683229 -0.680044 0.000000
134.11500549 327.20300293 138.75000000 -0.111914 -0.832811 0.542127 0.000000
117.94499969 299.14401245 92.50000000 -0.547492 -0.700590 0.457630 0.000000
111.28700256 282.02200317 57.50000000 -0.698823 -0.297201 0.650629 0.000000
163.12600708 242.54899597 65.00000000 -0.746963 -0.421911 0.513845 0.000000
261.09698486 124.60399628 137.50000000 -0.911816 0.287404 0.293240 0.000000
170.25999451 204.50199890 96.25000000 -0.564166 -0.273391 0.779086 0.000000
214.01400757 257.76800537 131.25000000 0.786318 -0.591640 0.177948 0.000000
122.70099640 290.10699463 168.75000000 -0.376623 0.600294 -0.705551 0.000000
247.30499268 121.75000000 123.75000000 -0.751067 -0.271527 0.601806 0.000000
189.28300476 131.26199341 138.75000000 0.269980 0.778363 -0.566800 0.000000
231.13499451 196.89300537 161.25000000 -0.000978 -0.000978 -0.999999 0.000000
230.65899658 243.50000000 145.00000000 -0.968313 -0.025450 -0.248441 0.000000
161.22399902 140.77299500 110.00000000 0.453062 0.859151 0.237895 0.000000
92.73930359 247.30499268 90.00000000 0.964982 0.226067 -0.133056 0.000000
106.53099823 241.59800720 163.75000000 0.640012 0.340362 -0.688868 0.000000
213.06300354 236.36599731 110.00000000 -0.648815 0.351373 0.674964 0.000000
193.08799744 270.13299561 153.75000000 -0.496133 0.623951 0.603769 0.000000
142.67599487 257.29199219 55.00000000 -0.481238 -0.558370 0.675746 0.000000
109.38500214 311.98400879 101.25000000 -0.237299 -0.636463 0.733897 0.000000
167.40600586 184.52699280 156.25000000 0.180746 0.031485 -0.983026 0.000000
210.20899963 225.42799377 158.75000000 -0.059654 -0.489717 -0.869838 0.000000
110.33599854 325.77600098 122.50000000 0.278369 -0.910894 0.304603 0.000000
179.77099609 226.37899780 113.75000000 -0.485539 0.335897 0.807109 0.000000
177.39399719 229.23199463 112.50000000 -0.413988 0.306259 0.857216 0.000000
185.47900391 212.11099243 166.25000000 -0.017748 0.216520 -0.976117 0.000000
235.41499329 119.84799957 107.50000000 -0.650185 -0.085819 0.754913 0.000000
124.60399628 182.14900208 70.00000000 0.492223 0.793649 0.357543 0.000000
95.11720276 253.01199341 53.75000000 0.913793 -0.392807 0.103370 0.000000
160.27200317 322.44699097 157.50000000 -0.633848 -0.593497 0.495982 0.000000
127.45700073 288.20498657 86.25000000 -0.611907 -0.719032 0.329489 0.000000
257.76800537 128.88400269 135.00000000 -0.705005 -0.077042 0.705005 0.000000
138.87100220 328.15399170 166.25000000 0.166014 -0.210459 -0.963404 0.000000
116.04299927 326.25201416 163.75000000 0.214835 -0.196154 -0.956750 0.000000
174.06399536 264.42599487 96.25000000 -0.564506 -0.771227 0.294179 0.000000
218.77000427 175.01600647 163.75000000 -0.000978 -0.000978 -0.999999 0.000000
146.47999573 202.12399292 160.00000000 0.009720 0.726247 -0.687365 0.000000
134.11500549 228.28100586 31.25000000 -0.705619 -0.159333 0.690445 0.000000
205.92900085 176.91799927 110.00000000 -0.549053 -0.549053 0.630144 0.000000
190.71000671 256.81600952 165.00000000 -0.688823 0.244319 -0.682518 0.000000
165.50399780 193.08799744 158.75000000 -0.000978 -0.000978 -0.999999 0.000000
144.57800293 305.32598877 173.75000000 -0.034483 -0.110122 -0.993320 0.000000
190.23399353 253.48699951 157.50000000 -0.974431 -0.162615 -0.155052 0.000000
146.95599365 205.45300293 47.50000000 -0.806885 -0.079106 0.585387 0.000000
101.77500153 301.52200317 161.25000000 0.667610 -0.536442 -0.516262 0.000000
137.91999817 229.70799255 172.50000000 0.478935 0.401006 -0.780907 0.000000
125.55500031 297.71701050 173.75000000 0.441193 -0.371112 -0.817083 0.000000
160.74800110 145.52900696 136.25000000 0.000978 0.999999 0.000978 0.000000
152.66299438 305.32598877 130.00000000 -0.565386 -0.616017 0.548509 0.000000
182.14900208 135.06599426 120.00000000 0.835795 0.194266 0.513525 0.000000
97.49510193 233.03700256 100.00000000 0.951751 0.296532 -0.078989 0.000000
147.43200684 333.86099243 158.75000000 -0.463907 -0.634732 0.617985 0.000000
113.18900299 225.42799377 158.75000000 0.652613 0.384959 -0.652613 0.000000
142.67599487 196.89300537 156.25000000 -0.707106 0.707106 -0.001384 0.000000
240.64700317 154.08999634 163.75000000 -0.000978 -0.000978 -0.999999 0.000000
100.34899902 219.72099304 125.00000000 0.922541 0.307514 -0.233138 0.000000
159.32099915 279.64498901 105.00000000 -0.502850 -0.693299 0.516215 0.000000
177.86900330 289.15600586 141.25000000 -0.628407 -0.621704 0.467535 0.000000
225.42799377 231.13499451 148.75000000 -0.258278 0.885312 -0.386671 0.000000
137.91999817 302.47299194 113.75000000 -0.403947 -0.783559 0.472082 0.000000
98.92189789 231.13499451 48.75000000 0.935878 0.280345 0.213397 0.000000
253.96299744 166.45500183 163.75000000 -0.001059 -0.085761 -0.996315 0.000000
164.55299377 237.79299927 63.75000000 -0.829903 -0.261180 0.492997 0.000000
232.08599854 172.16200256 163.75000000 -0.000978 -0.000978 -0.999999 0.000000
107.95800018 202.60000610 67.50000000 0.870699 0.379692 0.312598 0.000000
237.79299927 184.52699280 163.75000000 -0.000978 -0.000978 -0.999999 0.000000
246.35400391 138.87100220 126.25000000 -0.481264 -0.481264 0.732646 0.000000
134.11500549 300.09500122 107.50000000 -0.472606 -0.686364 0.552765 0.000000
179.77099609 168.35699463 121.25000000 0.256035 -0.510518 -0.820864 0.000000
165.02799988 318.64300537 160.00000000 -0.667489 -0.543070 0.509444 0.000000
221.14700317 214.01400757 145.00000000 0.001065 -0.995500 -0.094759 0.000000
152.18800354 292.01000977 173.75000000 -0.000978 -0.000978 -0.999999 0.000000
130.31100464 184.52699280 61.25000000 0.140135 0.901674 0.409080 0.000000
173.58900452 146.47999573 120.00000000 -0.925874 0.006403 0.377777 0.000000
280.59600830 160.74800110 148.75000000 -0.706293 0.453689 -0.543430 0.000000
102.72699738 316.73999023 146.25000000 0.837029 -0.471893 -0.276947 0.000000
224.47700500 243.50000000 123.75000000 -0.839993 0.063316 0.538890 0.000000
248.25599670 136.96899414 153.75000000 -0.294267 0.651247 -0.699488 0.000000
102.72699738 250.15800476 163.75000000 0.489492 0.247048 -0.836280 0.000000
230.65899658 147.43200684 112.50000000 -0.562382 -0.315639 0.764263 0.000000
221.62300110 244.45100403 118.75000000 -0.807811 0.052345 0.587113 0.000000
95.11720276 237.31700134 60.00000000 0.982790 0.170764 -0.070455 0.000000
135.06599426 183.10099792 145.00000000 0.510097 0.503407 -0.697411 0.000000
185.47900391 177.86900330 158.75000000 -0.000978 -0.000978 -0.999999 0.000000
185.00300598 235.89100647 85.00000000 -0.401873 0.739775 0.539658 0.000000
112.23799896 292.48498535 75.00000000 -0.487610 -0.815840 0.310871 0.000000
181.67399597 231.13499451 113.75000000 -0.197354 0.455546 0.868061 0.000000
99.87310028 311.03298950 148.75000000 0.774201 -0.495034 -0.394404 0.000000
205.45300293 236.84199524 156.25000000 0.047290 -0.436415 -0.898502 0.000000
153.61399841 327.20300293 155.00000000 -0.632031 -0.500569 0.591581 0.000000
194.03900146 222.57400513 116.25000000 -0.014894 0.510451 0.859778 0.000000
114.14099884 189.75900269 100.00000000 0.855044 0.517419 -0.034312 0.000000
224.00100708 220.67199707 132.50000000 -0.680131 0.732984 -0.012518 0.000000
227.33000183 154.08999634 113.75000000 -0.842282 -0.384281 0.378007 0.000000
213.06300354 214.01400757 126.25000000 -0.294678 0.404609 0.865711 0.000000
155.04100037 331.00799561 168.75000000 -0.292209 -0.440633 -0.848797 0.000000
190.23399353 239.69500732 163.75000000 -0.616629 -0.267893 -0.740272 0.000000
131.26199341 187.85600281 55.00000000 0.514470 0.824688 0.234967 0.000000
101.30000305 314.83801270 145.00000000 0.788868 -0.506097 -0.348644 0.000000
98.44629669 228.28100586 132.50000000 0.769978 -0.256659 0.584175 0.000000
105.10500336 210.20899963 65.00000000 0.965746 0.242388 0.092641 0.000000
230.18400574 205.45300293 161.25000000 -0.162678 -0.152590 -0.974809 0.000000
126.50599670 320.54501343 128.75000000 -0.548528 -0.717561 0.429211 0.000000
186.42999268 257.76800537 111.25000000 -0.615257 -0.753025 0.233265 0.000000
233.98800659 161.69900513 163.75000000 -0.000978 -0.000978 -0.999999 0.000000
223.52499390 212.11099243 158.75000000 -0.124277 -0.255095 -0.958896 0.000000
133.63999939 165.50399780 100.00000000 0.795806 0.605475 0.009654 0.000000
242.07299805 113.18900299 112.50000000 -0.311293 -0.397167 0.863340 0.000000
162.17500305 243.50000000 65.00000000 -0.737039 -0.440245 0.512794 0.000000
168.35699463 154.08999634 93.75000000 -0.592768 0.589390 0.548859 0.000000
188.33200073 185.47900391 111.25000000 0.483142 -0.874060 0.050929 0.000000
187.85600281 183.57600403 120.00000000 0.978856 0.202399 0.029591 0.000000
107.48200226 238.74400330 31.25000000 0.708772 -0.216526 0.671386 0.000000
220.67199707 196.89300537 126.25000000 -0.150753 -0.202292 0.967652 0.000000
181.67399597 225.42799377 168.75000000 -0.271495 0.254437 -0.928199 0.000000
217.81799316 229.23199463 148.75000000 -0.217984 0.921803 -0.320565 0.000000
92.26370239 257.76800537 148.75000000 0.417520 0.101259 0.903008 0.000000
168.35699463 171.21099854 86.25000000 -0.679996 0.015359 0.733055 0.000000
94.64160156 250.15800476 155.00000000 0.613416 0.282012 -0.737692 0.000000
116.99400330 259.67001343 173.75000000 -0.000978 -0.000978 -0.999999 0.000000
96.06839752 232.56199646 67.50000000 0.961971 0.270049 0.041067 0.000000
216.86700439 224.47700500 153.75000000 -0.559769 -0.063771 0.826191 0.000000
100.82399750 232.08599854 156.25000000 0.979436 0.185692 0.078889 0.000000
222.57400513 130.31100464 148.75000000 0.145308 0.615687 -0.774477 0.000000
202.60000610 208.30700684 133.75000000 -0.001211 0.279674 0.960094 0.000000
127.93299866 291.05899048 170.00000000 0.372487 -0.429549 -0.822642 0.000000
256.81600952 165.50399780 163.75000000 -0.265339 -0.088446 -0.960090 0.000000
257.76800537 187.38099670 156.25000000 -0.609449 -0.357826 -0.707483 0.000000
192.13699341 188.33200073 161.25000000 -0.000978 -0.000978 -0.999999 0.000000
114.61599731 196.89300537 132.50000000 0.793466 0.568523 -0.217240 0.000000
205.45300293 117.94499969 123.75000000 0.227076 0.548381 -0.804807 0.000000
147.43200684 262.52301025 176.25000000 -0.000978 -0.000978 -0.999999 0.000000
106.05599976 241.59800720 32.50000000 0.656224 -0.169004 0.735397 0.000000
104.15299988 237.79299927 160.00000000 0.637865 0.308436 -0.705688 0.000000
161.69900513 311.03298950 146.25000000 -0.657267 -0.526150 0.539598 0.000000
182.62500000 297.71701050 158.75000000 -0.793769 -0.527595 0.302614 0.000000
156.94299316 276.79098511 176.25000000 -0.127169 -0.219655 -0.967254 0.000000
257.76800537 122.22599792 135.00000000 -0.625087 0.754735 -0.199102 0.000000
91.78810120 286.30300903 130.00000000 0.958320 -0.273256 0.083388 0.000000
106.53099823 242.54899597 31.25000000 0.622628 -0.185106 0.760310 0.000000
281.54699707 163.12600708 147.50000000 -0.819282 -0.102954 -0.564072 0.000000
191.18600464 280.59600830 148.75000000 -0.736300 -0.461635 0.494727 0.000000
115.09200287 311.03298950 166.25000000 0.249535 -0.043023 -0.967410 0.000000
91.31250000 282.49798584 123.75000000 0.977346 -0.140688 0.158118 0.000000
159.79699707 200.22200012 160.00000000 -0.048576 0.368914 -0.928193 0.000000
177.39399719 161.69900513 110.00000000 -0.009707 -0.747451 0.664246 0.000000
200.69700623 249.20700073 136.25000000 -0.313283 -0.888886 -0.334269 0.000000
165.50399780 210.20899963 163.75000000 -0.332877 0.029334 -0.942514 0.000000
259.19400024 194.99000549 135.00000000 -0.620325 -0.337027 0.708245 0.000000
106.53099823 302.47299194 86.25000000 0.264216 -0.745183 0.612284 0.000000
188.33200073 292.01000977 163.75000000 -0.849263 -0.288225 -0.442356 0.000000
194.99000549 251.58500671 132.50000000 -0.505023 -0.857827 -0.095314 0.000000
96.06839752 296.29000854 107.50000000 0.935517 -0.329943 0.126274 0.000000
106.05599976 258.71899414 167.50000000 0.546841 0.040352 -0.836263 0.000000
254.43899536 165.50399780 132.50000000 -0.627839 0.152067 0.763344 0.000000
113.18900299 305.32598877 96.25000000 -0.576689 -0.610513 0.542866 0.000000
90.83689880 267.27899170 155.00000000 0.625115 -0.311750 -0.715571 0.000000
209.25799561 166.45500183 106.25000000 0.000978 0.000978 0.999999 0.000000
183.57600403 158.84599304 156.25000000 0.355443 0.331035 -0.874115 0.000000
153.13900757 293.91198730 116.25000000 -0.554426 -0.635315 0.537574 0.000000
108.43399811 244.45100403 31.25000000 0.619222 -0.195139 0.760582 0.000000
238.74400330 224.00100708 152.50000000 -0.473101 -0.807617 0.352038 0.000000
238.74400330 194.99000549 161.25000000 -0.123218 -0.044087 -0.991400 0.000000
225.42799377 153.13900757 163.75000000 -0.000978 -0.000978 -0.999999 0.000000
205.45300293 158.84599304 161.25000000 0.261619 0.020686 -0.964949 0.000000
131.73699951 187.38099670 145.00000000 0.591614 0.474296 -0.651948 0.000000
192.61199951 282.49798584 165.00000000 -0.825622 -0.185652 -0.532805 0.000000
205.45300293 126.50599670 138.75000000 0.284575 0.767876 -0.573920 0.000000
214.96499634 107.95800018 107.50000000 0.237573 0.954319 0.181200 0.000000
171.68699646 292.01000977 137.50000000 -0.623520 -0.676445 0.391974 0.000000
107.48200226 245.40199280 31.25000000 0.635942 -0.272546 0.722009 0.000000
206.40400696 215.44000244 137.50000000 0.217811 0.913076 0.344747 0.000000
142.67599487 210.20899963 166.25000000 0.055166 0.587024 -0.807688 0.000000
109.38500214 245.40199280 31.25000000 0.554730 -0.406583 0.725923 0.000000
191.18600464 254.43899536 122.50000000 -0.382241 -0.923858 -0.019436 0.000000
215.91600037 133.16400146 96.25000000 -0.266779 -0.187430 0.945357 0.000000
110.33599854 264.42599487 171.25000000 0.633232 0.004139 -0.773951 0.000000
116.04299927 231.13499451 166.25000000 0.253430 0.606027 -0.753992 0.000000
193.08799744 273.46200562 150.00000000 -0.525468 0.613327 0.589673 0.000000
121.75000000 245.40199280 31.25000000 -0.313577 -0.593383 0.741327 0.000000
139.34700012 160.74800110 115.00000000 0.788070 0.606770 -0.103809 0.000000
160.74800110 287.25399780 173.75000000 -0.220878 -0.152916 -0.963239 0.000000
157.41900635 175.01600647 152.50000000 0.245489 0.388319 -0.888225 0.000000
132.68800354 338.61700439 152.50000000 -0.545301 -0.606077 0.579066 0.000000
278.21798706 161.69900513 150.00000000 -0.601568 0.138823 -0.786666 0.000000
202.12399292 229.23199463 112.50000000 0.140135 0.409080 0.901674 0.000000
190.23399353 161.69900513 101.25000000 0.409130 0.054998 0.910817 0.000000
194.03900146 227.33000183 111.25000000 -0.006540 0.427740 0.903878 0.000000
222.57400513 261.57199097 151.25000000 -0.623338 -0.472124 -0.623338 0.000000
124.60399628 302.47299194 168.75000000 0.430520 -0.107981 -0.896099 0.000000
208.78199768 253.01199341 122.50000000 0.001333 -0.867668 0.497143 0.000000
156.94299316 309.13101196 173.75000000 -0.132213 -0.284458 -0.949528 0.000000
243.50000000 133.16400146 151.25000000 -0.120714 0.704910 -0.698949 0.000000
221.14700317 164.55299377 112.50000000 -0.510356 -0.601311 0.614786 0.000000
122.70099640 180.72300720 86.25000000 0.600449 0.775516 0.195031 0.000000
185.47900391 202.60000610 123.75000000 -0.924511 -0.093399 0.369534 0.000000
199.74600220 208.30700684 133.75000000 -0.001211 0.279674 0.960094 0.000000
188.33200073 143.62699890 148.75000000 0.311994 0.635305 -0.706433 0.000000
147.43200684 279.64498901 93.75000000 -0.466525 -0.687246 0.556820 0.000000
150.28500366 261.57199097 176.25000000 -0.000978 -0.000978 -0.999999 0.000000
214.01400757 146.95599365 160.00000000 0.330798 0.470081 -0.818289 0.000000
243.50000000 203.55099487 158.75000000 -0.077503 -0.011679 -0.996924 0.000000
189.75900269 191.18600464 122.50000000 0.812738 -0.557349 -0.169759 0.000000
180.72300720 272.51098633 127.50000000 -0.330430 -0.662488 0.672254 0.000000
253.96299744 123.17700195 140.00000000 -0.162569 0.718647 -0.676105 0.000000
265.37701416 198.79499817 153.75000000 -0.207103 0.104179 -0.972756 0.000000
92.26370239 252.53599548 107.50000000 0.988476 0.143841 -0.047180 0.000000
263.47500610 150.28500366 158.75000000 -0.543278 0.417779 -0.728224 0.000000
233.51300049 175.01600647 122.50000000 -0.460756 -0.307691 0.832484 0.000000
144.57800293 264.42599487 176.25000000 -0.000978 -0.000978 -0.999999 0.000000
139.82200623 327.20300293 143.75000000 -0.292823 -0.731258 0.616049 0.000000
117.94499969 247.30499268 31.25000000 -0.085196 -0.459499 0.884082 0.000000
118.89600372 247.30499268 31.25000000 -0.232006 -0.423598 0.875636 0.000000
123.65200043 315.78900146 118.75000000 -0.473690 -0.684591 0.554033 0.000000
139.82200623 276.79098511 176.25000000 -0.000978 -0.000978 -0.999999 0.000000
118.89600372 309.13101196 166.25000000 0.212342 -0.242481 -0.946633 0.000000
149.33399963 220.19599915 45.00000000 -0.572003 0.375326 0.729345 0.000000
91.31250000 248.73100281 152.50000000 0.685820 0.589507 -0.426770 0.000000
179.77099609 202.60000610 101.25000000 -0.692674 -0.395105 0.603403 0.000000
147.43200684 260.62100220 176.25000000 -0.000978 -0.000978 -0.999999 0.000000
195.94099426 165.50399780 161.25000000 0.235484 -0.055481 -0.970293 0.000000
117.94499969 333.86099243 161.25000000 0.446185 -0.363617 -0.817742 0.000000
176.91799927 219.72099304 111.25000000 -0.840228 -0.256523 0.477716 0.000000
168.35699463 216.86700439 101.25000000 -0.579955 -0.401507 0.708833 0.000000
146.95599365 317.69100952 137.50000000 -0.546953 -0.647929 0.530123 0.000000
215.91600037 173.11300659 113.75000000 -0.414997 -0.244204 0.876437 0.000000
224.47700500 170.25999451 116.25000000 -0.443662 -0.257659 0.858356 0.000000
168.35699463 245.40199280 171.25000000 -0.618309 0.493636 -0.611570 0.000000
172.16200256 315.78900146 163.75000000 -0.739390 -0.584070 0.334910 0.000000
173.11300659 303.42401123 151.25000000 -0.626415 -0.579138 0.521731 0.000000
94.64160156 294.86300659 147.50000000 0.975967 -0.187734 -0.110651 0.000000
95.11720276 237.31700134 57.50000000 0.985139 0.150920 0.081996 0.000000
269.18200684 194.99000549 141.25000000 -0.545056 -0.219558 0.809140 0.000000
152.18800354 301.52200317 123.75000000 -0.527859 -0.615555 0.585198 0.000000
120.79900360 339.09298706 145.00000000 -0.112652 -0.871270 0.477701 0.000000
125.55500031 260.62100220 46.25000000 -0.395384 -0.743191 0.539757 0.000000
222.57400513 259.19400024 127.50000000 -0.197466 -0.836592 0.511000 0.000000
216.86700439 253.96299744 153.75000000 0.542218 -0.182753 -0.820123 0.000000
215.91600037 140.77299500 156.25000000 -0.052886 0.710392 -0.701816 0.000000
107.48200226 232.56199646 157.50000000 0.746965 0.456753 -0.483136 0.000000
215.91600037 224.47700500 123.75000000 -0.322089 0.257963 0.910886 0.000000
179.77099609 170.25999451 156.25000000 0.345322 0.163573 -0.924120 0.000000
146.47999573 325.77600098 170.00000000 0.151136 -0.500362 -0.852523 0.000000
106.05599976 201.64799500 75.00000000 0.938202 0.310908 0.152030 0.000000
244.45100403 131.26199341 121.25000000 -0.689415 -0.258332 0.676736 0.000000
105.58000183 292.96099854 68.75000000 0.535108 -0.834183 0.133411 0.000000
206.40400696 234.93899536 156.25000000 -0.076982 -0.384912 -0.919737 0.000000
110.33599854 250.15800476 31.25000000 0.415981 -0.481233 0.771605 0.000000
160.27200317 296.76599121 130.00000000 -0.646536 -0.616465 0.449401 0.000000
185.95399475 267.27899170 145.00000000 -0.922630 0.265453 0.279802 0.000000
153.13900757 176.91799927 78.75000000 0.240718 0.221461 0.944992 0.000000
113.18900299 249.68299866 32.50000000 -0.043202 -0.253040 0.966491 0.000000
140.77299500 303.42401123 173.75000000 0.062206 -0.057841 -0.996386 0.000000
93.69039917 253.01199341 122.50000000 0.946268 0.298469 -0.124474 0.000000
264.90100098 149.33399963 155.00000000 -0.799433 0.435908 -0.413389 0.000000
111.28700256 293.43701172 75.00000000 -0.481440 -0.790593 0.378390 0.000000
142.67599487 219.72099304 168.75000000 -0.399167 0.263601 -0.878168 0.000000
253.01199341 146.95599365 160.00000000 -0.286389 0.459770 -0.840590 0.000000
141.72500610 190.71000671 152.50000000 0.261570 0.328789 -0.907457 0.000000
107.48200226 319.59399414 161.25000000 0.452866 -0.794530 -0.404517 0.000000
132.21299744 196.89300537 151.25000000 0.361001 0.522884 -0.772185 0.000000
212.11099243 181.67399597 163.75000000 -0.000978 -0.000978 -0.999999 0.000000
194.99000549 208.30700684 128.75000000 -0.555442 -0.124571 0.822172 0.000000
118.89600372 192.13699341 136.25000000 0.536634 0.687092 -0.489825 0.000000
173.11300659 311.03298950 171.25000000 -0.356680 -0.524530 -0.773077 0.000000
236.84199524 186.42999268 163.75000000 0.074460 -0.320049 -0.944470 0.000000
246.35400391 168.35699463 128.75000000 -0.152252 -0.089913 0.984243 0.000000
208.30700684 213.06300354 131.25000000 -0.154776 0.970868 -0.182917 0.000000
230.65899658 250.15800476 145.00000000 -0.964202 -0.087655 -0.250261 0.000000
186.42999268 211.16000366 166.25000000 -0.087564 0.299287 -0.950137 0.000000
124.12799835 247.30499268 175.00000000 0.180333 0.204026 -0.962213 0.000000
185.47900391 162.64999390 158.75000000 0.067596 0.279311 -0.957819 0.000000
92.73930359 260.62100220 135.00000000 0.919813 0.317127 -0.231029 0.000000
157.89500427 272.98599243 93.75000000 -0.415784 -0.747754 0.517676 0.000000
253.01199341 140.77299500 156.25000000 -0.312380 0.568692 -0.760926 0.000000
104.15299988 284.39999390 165.00000000 0.309837 0.122057 -0.942923 0.000000
158.84599304 206.40400696 163.75000000 -0.255672 0.563106 -0.785839 0.000000
118.89600372 337.66598511 153.75000000 0.770808 -0.600891 0.211625 0.000000
268.70599365 144.57800293 150.00000000 -0.934187 0.001261 -0.356781 0.000000
246.35400391 116.51899719 120.00000000 -0.664827 -0.076767 0.743042 0.000000
178.34500122 174.06399536 95.00000000 -0.592565 0.164350 0.788579 0.000000
126.50599670 290.58300781 90.00000000 -0.583297 -0.702270 0.408143 0.000000
164.55299377 145.52900696 138.75000000 0.519720 0.553359 -0.650911 0.000000
219.72099304 135.06599426 151.25000000 -0.014935 0.520018 -0.854025 0.000000
136.96899414 313.88699341 126.25000000 -0.432538 -0.785696 0.442258 0.000000
110.81199646 247.30499268 167.50000000 0.463449 0.053317 -0.884518 0.000000
155.04100037 221.62300110 51.25000000 -0.744577 0.212958 0.632657 0.000000
123.17700195 205.45300293 35.00000000 0.249885 0.755943 0.605068 0.000000
183.57600403 156.94299316 156.25000000 0.259684 0.285509 -0.922523 0.000000
189.75900269 253.96299744 165.00000000 -0.665205 0.251229 -0.703126 0.000000
94.64160156 242.54899597 105.00000000 -0.000978 -0.000978 -0.999999 0.000000
105.10500336 206.40400696 110.00000000 -0.000978 -0.000978 -0.999999 0.000000
120.79900360 199.27099609 45.00000000 0.259891 0.763922 0.590661 0.000000
243.50000000 158.84599304 126.25000000 -0.296904 -0.452351 0.840968 0.000000
96.06839752 280.59600830 161.25000000 0.591338 0.141504 -0.793912 0.000000
244.92700195 124.60399628 120.00000000 -0.809597 -0.206608 0.549424 0.000000
206.40400696 214.48899841 137.50000000 0.217811 0.913076 0.344747 0.000000
139.82200623 246.35400391 176.25000000 -0.000978 -0.000978 -0.999999 0.000000
114.14099884 295.81399536 83.75000000 -0.528010 -0.685575 0.501191 0.000000
248.73100281 167.40600586 130.00000000 -0.288794 -0.095393 0.952627 0.000000
215.91600037 143.62699890 158.75000000 0.106248 0.563260 -0.819420 0.000000
168.35699463 191.18600464 158.75000000 0.065095 0.365329 -0.928600 0.000000
136.96899414 169.78399658 135.00000000 0.628536 0.381081 -0.678027 0.000000
204.50199890 151.23599243 98.75000000 -0.241459 -0.355603 0.902909 0.000000
214.96499634 199.74600220 126.25000000 -0.093675 -0.211081 0.972970 0.000000
165.50399780 137.91999817 123.75000000 0.406708 0.860994 -0.305415 0.000000
187.38099670 193.08799744 161.25000000 -0.000978 -0.000978 -0.999999 0.000000
196.89300537 158.36999512 160.00000000 0.423630 0.398053 -0.813690 0.000000
136.96899414 256.81600952 176.25000000 -0.000978 -0.000978 -0.999999 0.000000
206.40400696 151.71200562 160.00000000 0.241234 0.564955 -0.789070 0.000000
136.96899414 337.66598511 163.75000000 -0.043633 -0.601004 -0.798054 0.000000
141.72500610 212.11099243 166.25000000 0.097759 0.485961 -0.868496 0.000000
119.37200165 184.52699280 75.00000000 0.610950 0.782549 0.119823 0.000000
129.35899353 284.87600708 82.50000000 -0.504017 -0.691558 0.517412 0.000000
168.35699463 220.67199707 103.75000000 -0.999999 -0.000978 -0.000978 0.000000
111.76300049 194.03900146 100.00000000 0.824129 0.561321 -0.075700 0.000000
254.91400146 193.08799744 156.25000000 -0.348522 0.050908 -0.935917 0.000000
214.96499634 217.81799316 133.75000000 -0.194176 0.333075 -0.922690 0.000000
224.47700500 141.72500610 103.75000000 -0.669003 0.156252 0.726650 0.000000
154.08999634 175.96699524 151.25000000 0.349593 0.224842 -0.909522 0.000000
117.94499969 318.16699219 117.50000000 -0.614830 -0.690653 0.380766 0.000000
233.98800659 123.17700195 107.50000000 -0.779708 -0.177828 0.600360 0.000000
172.16200256 207.35499573 98.75000000 -0.445995 -0.288585 0.847235 0.000000
142.67599487 337.19000244 165.00000000 0.125269 -0.485237 -0.865363 0.000000
194.99000549 116.51899719 102.50000000 0.498363 0.836701 -0.227083 0.000000
221.62300110 254.43899536 122.50000000 -0.612521 -0.278419 0.739798 0.000000
113.18900299 324.35000610 118.75000000 0.176020 -0.885921 0.429141 0.000000
95.11720276 265.37701416 146.25000000 0.866925 0.023064 0.497905 0.000000
226.37899780 126.50599670 146.25000000 0.018188 0.731725 -0.681357 0.000000
124.60399628 178.34500122 122.50000000 0.724386 0.566697 -0.392581 0.000000
194.99000549 279.16900635 152.50000000 -0.737035 -0.367701 0.567076 0.000000
174.06399536 145.52900696 123.75000000 -0.508396 -0.020336 0.860883 0.000000
134.11500549 285.35198975 88.75000000 -0.556774 -0.706355 0.437109 0.000000
143.62699890 257.76800537 56.25000000 -0.507076 -0.684468 0.523811 0.000000
210.20899963 125.55500031 96.25000000 0.000978 0.000978 0.999999 0.000000
103.67800140 303.89898682 92.50000000 0.408492 -0.776298 0.480100 0.000000
133.16400146 167.88200378 122.50000000 0.683103 0.683103 -0.258343 0.000000
236.84199524 125.55500031 143.75000000 -0.072687 0.825216 -0.560121 0.000000
163.12600708 292.96099854 127.50000000 -0.612638 -0.652702 0.445707 0.000000
173.11300659 235.89100647 78.75000000 -0.528610 0.378973 0.759573 0.000000
103.20200348 208.30700684 95.00000000 0.912909 0.388857 -0.124044 0.000000
215.91600037 195.94099426 123.75000000 -0.369700 -0.436341 0.820322 0.000000
115.09200287 194.99000549 58.75000000 0.810529 0.515791 0.277493 0.000000
135.06599426 337.66598511 163.75000000 0.152551 -0.284852 -0.946355 0.000000
116.99400330 311.98400879 166.25000000 -0.000978 -0.000978 -0.999999 0.000000
188.33200073 259.67001343 168.75000000 -0.459279 0.001316 -0.888291 0.000000
116.99400330 211.16000366 33.75000000 0.575853 0.602873 0.552211 0.000000
136.01800537 211.16000366 33.75000000 -0.847260 0.266018 0.459766 0.000000
184.52699280 170.25999451 158.75000000 0.213937 0.169312 -0.962062 0.000000
