186.21899414 247.76499939 397.50000000 -0.702740 -0.702740 0.110959 0.000000
187.00799561 206.73399353 422.50000000 -0.000978 -0.000978 -0.999999 0.000000
203.57800293 126.64399719 370.00000000 -0.001116 0.987889 0.155160 0.000000
115.99199677 161.75799561 402.50000000 0.751308 0.429084 -0.501420 0.000000
121.51599884 250.13299561 402.50000000 -0.000978 -0.000978 -0.999999 0.000000
183.06199646 185.42999268 357.50000000 -0.435822 -0.652898 0.619502 0.000000
268.28100586 136.50799561 392.50000000 -0.000978 -0.000978 -0.999999 0.000000
209.89100647 149.13299561 327.50000000 0.000978 0.000978 0.999999 0.000000
142.82000732 155.44500732 427.50000000 0.000978 0.000978 -0.999999 0.000000
115.99199677 151.89399719 355.00000000 -0.000978 -0.000978 0.999999 0.000000
159.39100647 266.70300293 397.50000000 0.249479 -0.334098 -0.908922 0.000000
148.34399414 215.41400146 337.50000000 -0.546304 -0.057580 0.835606 0.000000
101.78900146 213.04699707 387.50000000 0.762904 0.351487 -0.542618 0.000000
164.12500000 265.12500000 397.50000000 0.236758 -0.338433 -0.910719 0.000000
225.67199707 160.17999268 362.50000000 -0.250108 -0.596169 0.762908 0.000000
228.82800293 173.59399414 412.50000000 -0.000978 -0.000978 -0.999999 0.000000
134.92999268 267.49200439 377.50000000 0.397500 -0.700985 0.592126 0.000000
98.23819733 210.67999268 365.00000000 0.778506 -0.453451 -0.433948 0.000000
186.21899414 141.24200439 417.50000000 -0.000978 -0.000978 -0.999999 0.000000
119.93699646 145.97599792 352.50000000 0.824228 0.550954 0.130760 0.000000
243.03100586 163.33599854 407.50000000 -0.000978 -0.000978 -0.999999 0.000000
141.24200439 153.07800293 422.50000000 0.208856 0.623475 -0.753430 0.000000
254.07800293 178.32800293 402.50000000 -0.000978 -0.000978 -0.999999 0.000000
151.50000000 153.86700439 332.50000000 -0.670261 -0.241294 0.701803 0.000000
153.86700439 185.42999268 332.50000000 0.000978 0.000978 0.999999 0.000000
223.30499268 129.01199341 355.00000000 -0.001116 0.987889 0.155160 0.000000
184.64100647 235.92999268 377.50000000 -0.617790 -0.617790 0.486489 0.000000
161.75799561 238.29699707 417.50000000 -0.453578 -0.120859 -0.882984 0.000000
125.85500336 208.31199646 420.00000000 0.527947 -0.445196 -0.723237 0.000000
156.23399353 209.89100647 342.50000000 0.000978 0.000978 0.999999 0.000000
132.56199646 184.64100647 322.50000000 0.000978 0.000978 0.999999 0.000000
258.81201172 145.18699646 392.50000000 -0.000978 -0.000978 -0.999999 0.000000
134.14100647 245.39799500 347.50000000 0.076467 -0.627605 0.774768 0.000000
163.33599854 228.03900146 357.50000000 0.289696 -0.450811 0.844302 0.000000
164.91400146 124.67199707 342.50000000 -0.254430 0.643187 0.722202 0.000000
187.79699707 120.33200073 380.00000000 -0.001116 0.987889 0.155160 0.000000
224.09399414 127.43399811 365.00000000 0.078192 0.988486 0.129542 0.000000
179.90600586 134.53500366 410.00000000 0.623130 0.521808 -0.582602 0.000000
130.98399353 216.20300293 422.50000000 0.702740 -0.702740 -0.110959 0.000000
98.63279724 213.83599854 362.50000000 0.778506 -0.453451 -0.433948 0.000000
222.51499939 196.47599792 407.50000000 -0.000978 -0.000978 -0.999999 0.000000
252.50000000 187.79699707 402.50000000 0.920694 -0.346498 -0.179613 0.000000
147.55499268 129.40600586 392.50000000 0.000978 0.000978 0.999999 0.000000
253.28900146 146.76600647 347.50000000 0.157914 -0.937873 0.308962 0.000000
178.32800293 235.92999268 412.50000000 -0.000978 -0.000978 -0.999999 0.000000
250.13299561 149.52699280 355.00000000 -0.203631 -0.953427 0.222511 0.000000
129.40600586 250.92199707 402.50000000 -0.000978 -0.000978 -0.999999 0.000000
165.70300293 209.10099792 427.50000000 -0.000978 -0.000978 -0.999999 0.000000
137.29699707 190.95300293 327.50000000 0.000978 0.000978 0.999999 0.000000
112.83599854 250.13299561 362.50000000 0.773951 -0.633232 0.004139 0.000000
173.59399414 127.82800293 337.50000000 0.000978 0.000978 0.999999 0.000000
265.91400146 179.11700439 387.50000000 0.000978 0.000978 0.999999 0.000000
153.86700439 127.43399811 390.00000000 0.200390 0.947423 -0.249465 0.000000
209.10099792 172.01600647 362.50000000 0.000978 0.000978 0.999999 0.000000
195.68699646 171.22599792 422.50000000 -0.230185 0.944172 -0.235698 0.000000
123.88300323 256.44500732 397.50000000 0.514556 -0.747996 -0.419207 0.000000
165.70300293 172.01600647 362.50000000 -0.755099 0.376734 0.536561 0.000000
153.47300720 261.17999268 370.00000000 -0.557646 -0.374490 0.740803 0.000000
110.86299896 244.60899353 355.00000000 0.718846 -0.642677 0.265005 0.000000
189.37500000 170.43699646 362.50000000 0.236974 0.409861 0.880828 0.000000
103.36699677 194.10899353 342.50000000 0.953933 -0.001225 0.300017 0.000000
160.17999268 162.94099426 360.00000000 -0.918405 -0.356922 0.170702 0.000000
183.85099792 248.55499268 382.50000000 -0.342437 0.528929 0.776512 0.000000
141.24200439 193.32000732 427.50000000 0.000000 0.000000 0.000000 0.000000
285.64001465 150.71099854 377.50000000 0.000978 0.000978 0.999999 0.000000
153.86700439 212.25799561 427.50000000 -0.000978 -0.000978 -0.999999 0.000000
242.24200439 165.70300293 407.50000000 -0.000978 -0.000978 -0.999999 0.000000
252.50000000 185.03500366 390.00000000 -0.001116 -0.987889 0.155160 0.000000
159.39100647 192.53100586 337.50000000 0.000978 0.000978 0.999999 0.000000
136.50799561 165.70300293 427.50000000 -0.000978 -0.000978 -0.999999 0.000000
236.71899414 150.31599426 340.00000000 -0.315473 -0.806913 0.499367 0.000000
157.02299500 250.13299561 362.50000000 0.000978 0.000978 0.999999 0.000000
148.34399414 133.35099792 407.50000000 0.390312 0.779004 -0.490724 0.000000
212.25799561 200.42199707 377.50000000 0.699504 -0.172963 0.693381 0.000000
163.33599854 182.27299500 337.50000000 0.615195 0.770133 -0.168609 0.000000
159.39100647 215.41400146 352.50000000 0.000978 0.000978 0.999999 0.000000
281.69500732 165.70300293 392.50000000 0.000978 0.000978 -0.999999 0.000000
172.01600647 205.94500732 357.50000000 -0.105080 -0.432930 0.895282 0.000000
127.03900146 224.88299561 337.50000000 0.000978 0.000978 0.999999 0.000000
122.30500031 187.00799561 322.50000000 0.489573 -0.690081 0.533016 0.000000
123.09400177 187.00799561 322.50000000 0.489573 -0.690081 0.533016 0.000000
198.84399414 210.67999268 417.50000000 0.000978 0.000978 -0.999999 0.000000
193.32000732 143.21499634 355.00000000 -0.623185 -0.778622 0.073401 0.000000
147.55499268 177.14399719 330.00000000 -0.761544 -0.315840 0.565947 0.000000
215.41400146 149.13299561 327.50000000 0.000978 0.000978 0.999999 0.000000
167.28100586 148.34399414 337.50000000 0.000978 0.000978 0.999999 0.000000
102.57800293 228.82800293 352.50000000 0.917980 -0.281899 0.279008 0.000000
225.27699280 186.21899414 380.00000000 -0.640782 -0.417756 0.644110 0.000000
175.17199707 201.21099854 357.50000000 -0.499233 -0.034194 0.865793 0.000000
179.11700439 209.89100647 422.50000000 -0.336641 -0.024137 -0.941324 0.000000
171.22599792 121.51599884 352.50000000 -0.422463 0.843368 0.332047 0.000000
127.03900146 145.97599792 332.50000000 0.715247 0.681980 0.152727 0.000000
132.56199646 187.00799561 322.50000000 -0.000978 -0.000978 0.999999 0.000000
133.35099792 187.00799561 322.50000000 -0.000978 -0.000978 0.999999 0.000000
177.53900146 196.87100220 430.00000000 0.039209 -0.952409 -0.302292 0.000000
104.55100250 228.82800293 395.00000000 0.862199 -0.211426 -0.460339 0.000000
117.56999969 250.13299561 397.50000000 -0.000978 -0.000978 -0.999999 0.000000
153.86700439 187.40199280 435.00000000 0.384004 -0.670771 -0.634513 0.000000
267.09799194 146.76600647 365.00000000 -0.589538 -0.555754 0.586160 0.000000
243.82000732 162.54699707 372.50000000 -0.000978 -0.000978 0.999999 0.000000
128.61700439 160.17999268 417.50000000 0.284427 0.477153 -0.831521 0.000000
123.09400177 187.79699707 322.50000000 0.489573 -0.690081 0.533016 0.000000
261.96899414 172.80499268 382.50000000 -0.846774 -0.360230 0.391418 0.000000
285.64001465 168.07000732 392.50000000 -0.000978 -0.000978 -0.999999 0.000000
145.97599792 186.21899414 332.50000000 0.000978 0.000978 0.999999 0.000000
143.60899353 218.57000732 337.50000000 0.000978 0.000978 0.999999 0.000000
172.80499268 171.22599792 437.50000000 -0.000978 -0.000978 -0.999999 0.000000
167.28100586 149.92199707 337.50000000 -0.293797 -0.679104 0.672682 0.000000
179.11700439 200.42199707 362.50000000 -0.646916 -0.352119 0.676396 0.000000
219.75399780 178.32800293 370.00000000 -0.831357 -0.012286 0.555603 0.000000
231.98399353 124.67199707 372.50000000 0.001116 0.987889 0.155160 0.000000
171.22599792 254.07800293 372.50000000 0.000978 0.000978 0.999999 0.000000
175.17199707 228.03900146 417.50000000 -0.209556 -0.137561 -0.968072 0.000000
172.80499268 217.78100586 422.50000000 -0.000978 -0.000978 -0.999999 0.000000
140.45300293 258.02301025 362.50000000 0.000978 0.000978 0.999999 0.000000
180.69500732 234.35099792 412.50000000 0.000978 0.000978 -0.999999 0.000000
278.93301392 139.66400146 370.00000000 -0.739121 -0.594195 0.317226 0.000000
191.74200439 185.42999268 362.50000000 -0.465993 -0.475873 0.745919 0.000000
213.83599854 130.98399353 407.50000000 -0.069108 0.847631 -0.526067 0.000000
101.00000000 219.35899353 347.50000000 0.987835 -0.001119 0.155503 0.000000
128.22300720 136.50799561 350.00000000 0.586216 0.781106 0.214998 0.000000
124.67199707 165.70300293 417.50000000 0.172369 0.139657 -0.975082 0.000000
110.46900177 171.62100220 330.00000000 -0.000978 -0.000978 0.999999 0.000000
105.33999634 183.06199646 340.00000000 0.987889 0.001116 0.155160 0.000000
143.60899353 244.60899353 412.50000000 -0.038571 -0.416299 -0.908409 0.000000
240.66400146 188.19099426 400.00000000 0.113062 -0.993413 0.018661 0.000000
103.36699677 207.52299500 327.50000000 0.000978 0.000978 0.999999 0.000000
144.39799500 198.05499268 332.50000000 0.000978 0.000978 0.999999 0.000000
211.46899414 162.54699707 417.50000000 -0.000978 -0.000978 -0.999999 0.000000
163.33599854 253.28900146 407.50000000 -0.000978 -0.000978 -0.999999 0.000000
122.30500031 236.71899414 342.50000000 0.104245 -0.492667 0.863952 0.000000
133.35099792 243.82000732 347.50000000 0.076467 -0.627605 0.774768 0.000000
274.59399414 129.40600586 347.50000000 -0.737900 -0.219966 0.638058 0.000000
148.73800659 238.29699707 415.00000000 0.114556 -0.842497 -0.526379 0.000000
174.38299561 242.24200439 372.50000000 -0.000978 -0.000978 0.999999 0.000000
287.21899414 163.33599854 392.50000000 -0.000978 -0.000978 -0.999999 0.000000
255.65600586 157.81199646 372.50000000 -0.322020 -0.707150 0.629477 0.000000
151.50000000 194.89799500 432.50000000 -0.000978 -0.000978 -0.999999 0.000000
209.10099792 134.14100647 347.50000000 0.336885 0.897864 0.283458 0.000000
187.79699707 179.90600586 357.50000000 0.000978 0.000978 0.999999 0.000000
248.55499268 177.53900146 382.50000000 0.000978 0.000978 0.999999 0.000000
258.02301025 156.23399353 397.50000000 -0.000978 -0.000978 -0.999999 0.000000
147.55499268 251.71099854 407.50000000 -0.053560 -0.346178 -0.936639 0.000000
196.47599792 172.01600647 422.50000000 -0.461681 0.194470 -0.865466 0.000000
161.75799561 190.16400146 337.50000000 0.000978 0.000978 0.999999 0.000000
116.78099823 255.65600586 387.50000000 0.670021 -0.670021 -0.319598 0.000000
157.02299500 243.03100586 412.50000000 -0.000978 -0.000978 -0.999999 0.000000
231.98399353 175.96099854 382.50000000 0.225717 -0.299536 0.927001 0.000000
228.82800293 142.03100586 407.50000000 -0.000978 -0.000978 -0.999999 0.000000
104.94499969 231.98399353 347.50000000 0.671037 -0.671037 0.315307 0.000000
158.60099792 234.35099792 417.50000000 -0.000978 -0.000978 -0.999999 0.000000
277.75000000 153.86700439 372.50000000 -0.801357 -0.567184 0.190075 0.000000
125.46099854 159.39100647 412.50000000 0.394323 0.350682 -0.849430 0.000000
109.68000031 240.66400146 392.50000000 0.947241 -0.316601 -0.049990 0.000000
126.25000000 225.67199707 337.50000000 0.000978 0.000978 0.999999 0.000000
114.41400146 233.56199646 402.50000000 -0.000978 -0.000978 -0.999999 0.000000
235.92999268 127.43399811 355.00000000 -0.258638 0.941885 0.214379 0.000000
234.35099792 149.92199707 337.50000000 -0.192364 -0.928119 0.318734 0.000000
157.41799927 168.07000732 340.00000000 -0.288989 -0.887928 0.357867 0.000000
274.59399414 146.76600647 367.50000000 -0.410704 -0.134079 0.901856 0.000000
221.72599792 144.39799500 327.50000000 0.000978 0.000978 0.999999 0.000000
276.96099854 129.40600586 352.50000000 -0.724826 -0.001381 0.688930 0.000000
198.44900513 201.21099854 410.00000000 -0.987889 -0.001116 0.155160 0.000000
119.14800262 198.05499268 417.50000000 -0.000978 -0.000978 -0.999999 0.000000
170.43699646 220.93699646 422.50000000 -0.000978 -0.000978 -0.999999 0.000000
164.91400146 153.86700439 342.50000000 -0.153487 -0.944012 0.292033 0.000000
146.76600647 269.85900879 377.50000000 0.000978 0.000978 0.999999 0.000000
121.51599884 168.07000732 412.50000000 -0.000978 -0.000978 -0.999999 0.000000
255.65600586 182.27299500 402.50000000 -0.000978 -0.000978 -0.999999 0.000000
102.57800293 233.16799927 380.00000000 0.934570 -0.355111 0.021794 0.000000
177.53900146 164.12500000 437.50000000 -0.000978 -0.000978 -0.999999 0.000000
172.01600647 264.73001099 385.00000000 -0.312705 -0.938116 0.148842 0.000000
164.12500000 166.49200439 362.50000000 0.000978 0.000978 0.999999 0.000000
157.02299500 194.10899353 432.50000000 -0.000978 -0.000978 -0.999999 0.000000
164.91400146 251.71099854 407.50000000 -0.000978 -0.000978 -0.999999 0.000000
262.75799561 128.61700439 347.50000000 -0.429536 0.860600 -0.273619 0.000000
110.46900177 167.28100586 352.50000000 0.894456 0.108121 0.433888 0.000000
243.82000732 124.27700043 375.00000000 0.040782 0.998642 0.032417 0.000000
155.44500732 182.27299500 337.50000000 0.000978 0.000978 0.999999 0.000000
170.04299927 185.42999268 435.00000000 0.133185 -0.674905 -0.725785 0.000000
206.73399353 126.64399719 370.00000000 -0.081546 0.953957 0.288646 0.000000
168.85899353 153.86700439 437.50000000 -0.000978 -0.000978 -0.999999 0.000000
162.54699707 149.92199707 432.50000000 -0.000978 -0.000978 -0.999999 0.000000
212.25799561 138.87500000 337.50000000 0.197529 0.785522 0.586462 0.000000
223.30499268 157.81199646 352.50000000 -0.330449 -0.892662 0.306525 0.000000
187.79699707 239.08599854 402.50000000 0.261616 -0.418889 -0.869534 0.000000
232.77299500 142.82000732 407.50000000 -0.000978 -0.000978 -0.999999 0.000000
183.06199646 176.75000000 357.50000000 0.000978 0.000978 0.999999 0.000000
188.58599854 167.28100586 367.50000000 0.691522 0.682071 0.237858 0.000000
273.80499268 142.03100586 367.50000000 -0.430171 -0.689271 0.582974 0.000000
112.04699707 218.57000732 407.50000000 -0.000978 -0.000978 -0.999999 0.000000
167.28100586 210.67999268 357.50000000 -0.536119 -0.152965 0.830168 0.000000
103.76200104 183.06199646 350.00000000 0.702740 0.702740 -0.110959 0.000000
133.35099792 143.60899353 327.50000000 0.389944 0.781505 0.487025 0.000000
269.85900879 160.17999268 392.50000000 -0.000978 -0.000978 -0.999999 0.000000
219.35899353 183.06199646 372.50000000 -0.355271 -0.352195 0.865876 0.000000
157.02299500 160.17999268 342.50000000 -0.541270 -0.723348 0.428712 0.000000
192.13699341 237.50799561 400.00000000 -0.894688 -0.446689 0.001310 0.000000
129.40600586 213.83599854 332.50000000 -0.385241 -0.366525 0.846906 0.000000
106.52300262 191.34800720 325.00000000 0.977237 0.135693 0.163080 0.000000
158.99600220 161.75799561 350.00000000 -0.788893 -0.575846 0.214591 0.000000
217.78100586 125.85500336 400.00000000 -0.168049 0.607094 -0.776657 0.000000
224.09399414 199.63299561 387.50000000 -0.843368 -0.422463 0.332047 0.000000
152.28900146 176.75000000 437.50000000 0.903843 0.001300 -0.427862 0.000000
230.40600586 144.39799500 407.50000000 -0.000978 -0.000978 -0.999999 0.000000
120.72599792 157.81199646 407.50000000 0.837352 0.394325 -0.378615 0.000000
156.62899780 269.07000732 395.00000000 -0.216336 -0.848704 -0.482597 0.000000
157.81199646 205.15600586 427.50000000 -0.052909 -0.745020 -0.664941 0.000000
143.60899353 175.96099854 432.50000000 -0.000978 -0.000978 -0.999999 0.000000
143.21499634 129.40600586 385.00000000 -0.001347 0.844879 0.534955 0.000000
161.75799561 123.88300323 342.50000000 -0.344601 0.632040 0.694101 0.000000
238.29699707 153.86700439 357.50000000 -0.504525 -0.842872 0.187139 0.000000
216.99200439 160.17999268 357.50000000 -0.374766 -0.827015 0.419042 0.000000
224.88299561 136.50799561 407.50000000 -0.000978 -0.000978 -0.999999 0.000000
168.07000732 236.71899414 412.50000000 -0.174851 -0.182622 -0.967510 0.000000
249.34399414 149.13299561 352.50000000 -0.316352 -0.879428 0.355707 0.000000
224.09399414 152.68400574 340.00000000 -0.097426 -0.967933 0.231545 0.000000
281.69500732 160.96899414 382.50000000 -0.113334 -0.415559 0.902478 0.000000
157.81199646 230.40600586 357.50000000 -0.000978 -0.000978 0.999999 0.000000
131.37899780 191.74200439 325.00000000 -0.468045 -0.655934 0.592186 0.000000
158.60099792 175.96099854 337.50000000 0.000978 0.000978 0.999999 0.000000
106.12899780 192.53100586 325.00000000 0.000978 0.000978 -0.999999 0.000000
185.42999268 182.27299500 432.50000000 -0.000978 -0.000978 -0.999999 0.000000
214.62500000 125.85500336 375.00000000 0.043776 0.959318 0.278915 0.000000
248.55499268 140.45300293 402.50000000 -0.000978 -0.000978 -0.999999 0.000000
121.51599884 153.07800293 402.50000000 0.498730 -0.498730 -0.708898 0.000000
200.42199707 176.75000000 422.50000000 -0.000978 -0.000978 -0.999999 0.000000
125.46099854 245.39799500 347.50000000 0.000978 0.000978 0.999999 0.000000
159.39100647 202.00000000 342.50000000 0.000978 0.000978 0.999999 0.000000
175.17199707 140.05900574 415.00000000 -0.461585 0.504600 -0.729602 0.000000
204.36700439 132.56199646 407.50000000 -0.000978 -0.000978 -0.999999 0.000000
170.83200073 194.10899353 350.00000000 -0.671745 -0.351400 0.652132 0.000000
124.67199707 192.53100586 322.50000000 -0.000978 -0.000978 0.999999 0.000000
165.70300293 154.65600586 437.50000000 -0.000978 -0.000978 -0.999999 0.000000
112.44100189 205.94500732 410.00000000 0.552899 -0.828631 -0.087602 0.000000
258.02301025 187.00799561 392.50000000 -0.129060 -0.936028 0.327406 0.000000
127.82800293 192.53100586 322.50000000 0.001225 -0.953933 -0.300017 0.000000
113.62500000 246.97599792 392.50000000 0.724826 -0.001381 -0.688930 0.000000
264.73001099 166.49200439 380.00000000 -0.541751 -0.773241 0.329552 0.000000
106.52300262 191.74200439 402.50000000 0.223382 0.667022 -0.710761 0.000000
148.34399414 125.85500336 380.00000000 0.305910 0.920602 -0.242717 0.000000
238.29699707 137.29699707 407.50000000 -0.000978 -0.000978 -0.999999 0.000000
286.42999268 163.33599854 392.50000000 -0.000978 -0.000978 -0.999999 0.000000
117.17600250 160.17999268 330.00000000 0.881839 0.471120 -0.020133 0.000000
230.40600586 132.16799927 345.00000000 0.323266 0.868681 0.375356 0.000000
265.12500000 154.65600586 392.50000000 -0.428867 0.003911 -0.903359 0.000000
119.93699646 254.07800293 397.50000000 0.630097 -0.640126 -0.439564 0.000000
278.53900146 146.76600647 392.50000000 -0.000978 -0.000978 -0.999999 0.000000
119.93699646 193.32000732 322.50000000 0.000978 0.000978 0.999999 0.000000
119.54299927 145.97599792 355.00000000 0.824228 0.550954 0.130760 0.000000
206.73399353 149.92199707 332.50000000 0.171294 -0.899651 0.401604 0.000000
236.71899414 149.13299561 337.50000000 -0.218975 -0.928171 0.300914 0.000000
116.38700104 149.92199707 370.00000000 -0.000978 -0.000978 -0.999999 0.000000
120.72599792 211.46899414 327.50000000 0.000978 0.000978 0.999999 0.000000
266.70300293 161.36300659 375.00000000 -0.012419 -0.793434 0.608529 0.000000
108.10099792 244.21499634 365.00000000 0.770765 -0.630890 0.088878 0.000000
124.67199707 145.18699646 337.50000000 -0.000978 -0.000978 0.999999 0.000000
196.08200073 221.72599792 385.00000000 -0.623465 -0.290096 0.726041 0.000000
267.49200439 145.97599792 392.50000000 -0.000978 -0.000978 -0.999999 0.000000
190.16400146 175.17199707 362.50000000 0.000978 0.000978 0.999999 0.000000
245.39799500 149.92199707 347.50000000 -0.335286 -0.927948 0.162774 0.000000
179.90600586 238.29699707 372.50000000 -0.897696 -0.425668 0.113792 0.000000
222.51499939 187.79699707 377.50000000 -0.747816 -0.611849 0.257704 0.000000
172.01600647 216.99200439 422.50000000 -0.000978 -0.000978 -0.999999 0.000000
146.76600647 249.34399414 407.50000000 -0.000978 -0.000978 -0.999999 0.000000
106.12899780 194.10899353 325.00000000 0.943424 0.102459 0.315362 0.000000
266.70300293 141.63699341 355.00000000 -0.453971 -0.644940 0.614787 0.000000
115.99199677 194.10899353 322.50000000 0.000978 0.000978 0.999999 0.000000
216.99200439 144.39799500 407.50000000 -0.000978 -0.000978 -0.999999 0.000000
126.64399719 231.98399353 340.00000000 -0.354264 -0.706895 0.612207 0.000000
168.07000732 205.15600586 352.50000000 -0.907024 -0.243918 0.343238 0.000000
274.19900513 179.11700439 395.00000000 -0.631142 -0.604214 -0.486400 0.000000
152.28900146 171.22599792 332.50000000 -0.512862 0.068850 0.855706 0.000000
121.51599884 194.10899353 322.50000000 0.000978 0.000978 0.999999 0.000000
220.14799500 147.16000366 410.00000000 0.437752 0.728486 -0.526955 0.000000
163.72999573 268.28100586 385.00000000 -0.284356 -0.949190 0.134836 0.000000
224.09399414 132.95700073 345.00000000 0.106248 0.912076 0.396015 0.000000
151.50000000 152.28900146 427.50000000 -0.000978 -0.000978 -0.999999 0.000000
133.35099792 263.94100952 370.00000000 0.240832 -0.915740 0.321590 0.000000
175.17199707 202.78900146 427.50000000 -0.051670 -0.278513 -0.959042 0.000000
272.22601318 175.17199707 397.50000000 -0.000978 -0.000978 -0.999999 0.000000
127.82800293 222.51499939 337.50000000 0.000978 0.000978 0.999999 0.000000
117.96499634 149.13299561 385.00000000 0.803565 0.572259 -0.163717 0.000000
138.87500000 203.57800293 332.50000000 -0.191178 -0.510309 0.838472 0.000000
189.37500000 167.67599487 365.00000000 0.720931 0.455761 0.522054 0.000000
164.91400146 228.03900146 422.50000000 -0.022351 -0.411519 -0.911127 0.000000
263.54699707 150.71099854 367.50000000 -0.311510 -0.429295 0.847742 0.000000
164.91400146 209.89100647 427.50000000 -0.000978 -0.000978 -0.999999 0.000000
156.23399353 248.16000366 410.00000000 -0.671037 0.671037 -0.315307 0.000000
202.00000000 193.32000732 402.50000000 0.000978 0.000978 0.999999 0.000000
174.38299561 150.71099854 337.50000000 0.000978 0.000978 0.999999 0.000000
267.49200439 162.54699707 377.50000000 -0.054116 -0.509246 0.858918 0.000000
207.52299500 125.46099854 397.50000000 0.157309 0.925754 -0.343851 0.000000
143.60899353 254.86700439 407.50000000 -0.000978 -0.000978 -0.999999 0.000000
184.64100647 183.85099792 432.50000000 -0.000978 -0.000978 -0.999999 0.000000
160.96899414 153.86700439 337.50000000 -0.446799 -0.624180 0.640914 0.000000
125.46099854 187.00799561 422.50000000 -0.000978 -0.000978 -0.999999 0.000000
131.77299500 171.22599792 422.50000000 -0.000978 -0.000978 -0.999999 0.000000
142.03100586 223.30499268 342.50000000 0.000978 0.000978 0.999999 0.000000
276.56600952 166.49200439 395.00000000 -0.552577 0.549197 -0.626930 0.000000
147.55499268 258.02301025 402.50000000 0.343110 -0.179321 -0.922019 0.000000
185.42999268 153.47300720 375.00000000 0.241009 -0.723027 0.647416 0.000000
250.13299561 178.32800293 382.50000000 0.000978 0.000978 0.999999 0.000000
198.05499268 172.80499268 422.50000000 -0.457638 0.228064 -0.859392 0.000000
124.67199707 172.80499268 417.50000000 0.435083 0.322803 -0.840536 0.000000
148.34399414 201.60499573 430.00000000 0.641993 -0.457609 -0.615174 0.000000
113.62500000 249.34399414 392.50000000 0.724826 -0.001381 -0.688930 0.000000
124.67199707 264.33599854 387.50000000 0.420193 -0.760272 -0.495403 0.000000
125.46099854 250.92199707 352.50000000 -0.065799 -0.855388 0.513793 0.000000
178.32800293 175.17199707 437.50000000 -0.000978 -0.000978 -0.999999 0.000000
203.57800293 160.96899414 417.50000000 -0.000978 -0.000978 -0.999999 0.000000
160.17999268 121.51599884 352.50000000 0.001116 0.987889 0.155160 0.000000
235.13999939 157.81199646 407.50000000 -0.000978 -0.000978 -0.999999 0.000000
118.35900116 248.55499268 352.50000000 0.607332 -0.482837 0.630885 0.000000
145.18699646 187.00799561 432.50000000 -0.000978 -0.000978 -0.999999 0.000000
149.92199707 230.40600586 347.50000000 0.000978 0.000978 0.999999 0.000000
276.17199707 160.96899414 392.50000000 -0.000978 -0.000978 -0.999999 0.000000
121.51599884 219.35899353 332.50000000 0.000978 0.000978 0.999999 0.000000
188.97999573 174.38299561 430.00000000 -0.813124 -0.225953 -0.536447 0.000000
127.03900146 139.26899719 345.00000000 0.702740 0.702740 -0.110959 0.000000
175.17199707 148.34399414 432.50000000 -0.000978 -0.000978 -0.999999 0.000000
158.60099792 221.72599792 352.50000000 0.000978 0.000978 0.999999 0.000000
213.04699707 206.73399353 402.50000000 0.764409 0.427218 0.482871 0.000000
169.64799500 186.21899414 432.50000000 0.077422 -0.397976 -0.914123 0.000000
115.20300293 216.99200439 407.50000000 0.463734 -0.165306 -0.870416 0.000000
172.01600647 140.05900574 425.00000000 -0.329890 0.761160 -0.558398 0.000000
151.50000000 205.94500732 427.50000000 -0.107115 -0.410374 -0.905605 0.000000
274.59399414 145.97599792 392.50000000 -0.000978 -0.000978 -0.999999 0.000000
144.39799500 132.56199646 332.50000000 0.253184 0.759551 0.599149 0.000000
171.22599792 228.03900146 417.50000000 -0.000978 -0.000978 -0.999999 0.000000
202.00000000 150.71099854 417.50000000 -0.000978 -0.000978 -0.999999 0.000000
128.61700439 217.78100586 417.50000000 0.199435 -0.672512 -0.712708 0.000000
149.52699280 156.23399353 430.00000000 0.581422 0.731256 -0.356670 0.000000
121.51599884 230.40600586 337.50000000 0.000978 0.000978 0.999999 0.000000
193.32000732 202.78900146 402.50000000 -0.498730 -0.498730 0.708898 0.000000
201.21099854 216.20300293 397.50000000 -0.729436 0.195853 0.655412 0.000000
240.66400146 183.45700073 405.00000000 -0.340456 -0.682542 -0.646704 0.000000
174.38299561 247.76499939 372.50000000 -0.372037 0.250495 0.893779 0.000000
162.54699707 214.62500000 427.50000000 -0.625719 -0.155299 -0.764433 0.000000
263.54699707 169.64799500 397.50000000 -0.000978 -0.000978 -0.999999 0.000000
147.55499268 238.29699707 412.50000000 0.014133 -0.376443 -0.926332 0.000000
115.99199677 196.47599792 322.50000000 -0.000978 -0.000978 0.999999 0.000000
131.37899780 216.99200439 420.00000000 0.313526 -0.867168 -0.386937 0.000000
229.61700439 156.23399353 407.50000000 -0.399977 0.209512 -0.892257 0.000000
123.09400177 181.48399353 417.50000000 0.894334 0.352674 -0.275294 0.000000
190.95300293 217.78100586 377.50000000 -0.722599 -0.153003 0.674122 0.000000
245.39799500 145.97599792 402.50000000 -0.215667 -0.968589 -0.123785 0.000000
102.18399811 203.57800293 340.00000000 0.961772 0.259283 0.088131 0.000000
166.49200439 212.25799561 357.50000000 -0.356833 -0.265033 0.895783 0.000000
141.24200439 178.32800293 327.50000000 0.000978 0.000978 0.999999 0.000000
168.07000732 213.04699707 427.50000000 -0.000978 -0.000978 -0.999999 0.000000
106.52300262 192.53100586 402.50000000 0.223382 0.667022 -0.710761 0.000000
261.17999268 135.71899414 392.50000000 -0.000978 -0.000978 -0.999999 0.000000
258.02301025 181.48399353 387.50000000 -0.515784 -0.529225 0.673712 0.000000
119.14800262 154.65600586 337.50000000 0.811680 0.517661 0.270560 0.000000
211.46899414 128.22300720 365.00000000 0.001116 0.987889 0.155160 0.000000
158.60099792 166.88699341 360.00000000 -0.607019 -0.328600 0.723567 0.000000
197.26600647 190.16400146 377.50000000 -0.114772 -0.935732 0.333515 0.000000
191.74200439 202.00000000 387.50000000 -0.710286 -0.127104 0.692342 0.000000
139.66400146 229.61700439 417.50000000 -0.000978 -0.000978 -0.999999 0.000000
204.36700439 150.71099854 417.50000000 -0.000978 -0.000978 -0.999999 0.000000
269.85900879 164.12500000 397.50000000 0.205238 0.615715 -0.760771 0.000000
166.88699341 237.50799561 365.00000000 -0.680660 -0.136733 0.719726 0.000000
276.96099854 147.55499268 372.50000000 -0.835431 -0.385463 0.391756 0.000000
103.36699677 173.59399414 372.50000000 0.704203 0.701238 0.111190 0.000000
186.61300659 130.19500732 345.00000000 -0.617790 0.617790 0.486489 0.000000
181.48399353 250.92199707 402.50000000 0.555009 -0.831835 0.004071 0.000000
100.21099854 209.10099792 352.50000000 0.987889 -0.001116 0.155160 0.000000
142.82000732 251.71099854 357.50000000 -0.000978 -0.000978 0.999999 0.000000
118.35900116 197.26600647 322.50000000 0.000978 0.000978 0.999999 0.000000
115.20300293 229.61700439 407.50000000 0.885432 -0.443434 -0.139201 0.000000
252.50000000 158.20700073 370.00000000 -0.314265 -0.875995 0.365883 0.000000
232.77299500 130.19500732 347.50000000 0.057735 0.911677 0.406831 0.000000
175.17199707 199.63299561 357.50000000 -0.046689 -0.911102 0.409529 0.000000
138.08599854 188.58599854 327.50000000 0.000978 0.000978 0.999999 0.000000
119.14800262 213.04699707 327.50000000 0.000978 0.000978 0.999999 0.000000
264.33599854 145.58200073 360.00000000 -0.461643 -0.806677 0.368995 0.000000
149.92199707 201.21099854 337.50000000 -0.762204 -0.270970 0.587895 0.000000
197.26600647 212.25799561 417.50000000 -0.082694 -0.642689 -0.761651 0.000000
183.06199646 241.45300293 377.50000000 -0.000978 -0.000978 0.999999 0.000000
115.99199677 209.10099792 412.50000000 0.256608 -0.471728 -0.843579 0.000000
167.28100586 203.57800293 427.50000000 -0.000978 -0.000978 -0.999999 0.000000
189.37500000 228.82800293 382.50000000 -0.774507 -0.277175 0.568606 0.000000
218.57000732 126.64399719 370.00000000 0.117430 0.963959 0.238732 0.000000
221.72599792 196.47599792 407.50000000 -0.000978 -0.000978 -0.999999 0.000000
248.55499268 125.85500336 390.00000000 -0.318205 0.715557 -0.621872 0.000000
171.22599792 226.46099854 417.50000000 -0.000978 -0.000978 -0.999999 0.000000
106.52300262 198.05499268 322.50000000 0.793494 -0.079205 0.603401 0.000000
206.73399353 147.16000366 415.00000000 -0.399535 0.644893 -0.651525 0.000000
195.68699646 188.58599854 367.50000000 -0.476303 -0.440294 0.761102 0.000000
170.43699646 239.87500000 412.50000000 -0.000978 -0.000978 -0.999999 0.000000
157.02299500 270.64801025 387.50000000 -0.256407 -0.944730 0.204303 0.000000
175.96099854 148.34399414 337.50000000 -0.396466 -0.470904 0.788076 0.000000
129.40600586 134.92999268 352.50000000 0.584944 0.805568 0.094346 0.000000
112.83599854 231.19500732 337.50000000 0.248939 -0.886939 0.389061 0.000000
163.33599854 128.61700439 337.50000000 0.264286 0.836133 0.480661 0.000000
220.93699646 164.91400146 412.50000000 0.000978 0.000978 -0.999999 0.000000
258.81201172 149.92199707 362.50000000 0.000978 0.000978 0.999999 0.000000
243.82000732 154.65600586 407.50000000 -0.152322 -0.214813 -0.964704 0.000000
140.45300293 190.16400146 327.50000000 0.000978 0.000978 0.999999 0.000000
192.53100586 139.66400146 342.50000000 -0.645945 0.645945 0.406829 0.000000
102.18399811 178.32800293 375.00000000 0.976197 0.211167 0.049474 0.000000
250.92199707 128.61700439 347.50000000 0.000000 0.000000 0.000000 0.000000
123.88300323 198.05499268 322.50000000 -0.686624 0.210191 0.695965 0.000000
166.49200439 208.31199646 427.50000000 -0.000978 -0.000978 -0.999999 0.000000
160.17999268 208.31199646 347.50000000 -0.000978 -0.000978 0.999999 0.000000
125.46099854 146.76600647 402.50000000 0.701428 0.589200 -0.401052 0.000000
157.81199646 185.42999268 437.50000000 -0.000978 -0.000978 -0.999999 0.000000
171.22599792 145.97599792 432.50000000 -0.476675 0.677380 -0.560302 0.000000
193.32000732 211.46899414 417.50000000 -0.301824 -0.516736 -0.801178 0.000000
104.55100250 198.84399414 325.00000000 0.880643 0.176713 0.439591 0.000000
168.85899353 182.27299500 437.50000000 0.100736 -0.608794 -0.786907 0.000000
106.52300262 198.84399414 322.50000000 0.704238 -0.471157 0.531092 0.000000
249.34399414 138.08599854 397.50000000 -0.000978 -0.000978 -0.999999 0.000000
180.69500732 249.73800659 380.00000000 -0.839763 0.048905 0.540746 0.000000
208.31199646 132.56199646 352.50000000 0.182612 0.856642 0.482511 0.000000
220.14799500 164.12500000 362.50000000 -0.370724 -0.733281 0.569967 0.000000
231.98399353 186.21899414 392.50000000 -0.958232 -0.192710 0.211316 0.000000
172.01600647 250.92199707 407.50000000 -0.334787 -0.409531 -0.848647 0.000000
250.92199707 147.16000366 350.00000000 -0.210889 -0.927064 0.309965 0.000000
228.03900146 151.50000000 407.50000000 0.000000 0.000000 0.000000 0.000000
265.91400146 162.54699707 377.50000000 -0.054116 -0.509246 0.858918 0.000000
173.59399414 181.48399353 347.50000000 -0.457162 0.358403 0.813972 0.000000
153.86700439 209.89100647 342.50000000 0.000978 0.000978 0.999999 0.000000
179.11700439 208.31199646 427.50000000 -0.000978 -0.000978 -0.999999 0.000000
194.89799500 216.20300293 412.50000000 -0.243256 -0.528346 -0.813436 0.000000
232.37899780 171.22599792 410.00000000 -0.757393 -0.455093 -0.468237 0.000000
195.68699646 181.48399353 362.50000000 -0.587453 -0.328521 0.739576 0.000000
250.92199707 178.32800293 402.50000000 -0.000978 -0.000978 -0.999999 0.000000
121.51599884 191.74200439 417.50000000 -0.000978 -0.000978 -0.999999 0.000000
223.30499268 202.78900146 392.50000000 -0.672495 -0.669254 0.315991 0.000000
116.78099823 222.51499939 407.50000000 0.306259 -0.413988 -0.857216 0.000000
133.35099792 244.60899353 347.50000000 0.076467 -0.627605 0.774768 0.000000
100.21099854 220.54299927 360.00000000 0.889169 -0.445287 0.105352 0.000000
205.94500732 134.53500366 350.00000000 0.280989 0.885040 0.371146 0.000000
132.56199646 206.73399353 422.50000000 -0.000978 -0.000978 -0.999999 0.000000
226.85499573 193.32000732 385.00000000 -0.609239 -0.582236 0.538358 0.000000
108.10099792 218.17599487 400.00000000 0.934528 -0.059147 -0.350941 0.000000
140.45300293 228.03900146 417.50000000 0.412110 -0.227627 -0.882242 0.000000
107.31199646 199.63299561 322.50000000 0.704238 -0.471157 0.531092 0.000000
144.39799500 192.53100586 332.50000000 -0.061887 0.732567 0.677876 0.000000
254.07800293 138.08599854 397.50000000 -0.488243 0.776972 -0.397407 0.000000
195.68699646 202.00000000 422.50000000 -0.000978 -0.000978 -0.999999 0.000000
164.51899719 245.39799500 365.00000000 -0.687864 -0.434704 0.581270 0.000000
116.38700104 257.23400879 380.00000000 0.822094 -0.569351 0.001359 0.000000
155.44500732 204.36700439 337.50000000 -0.909359 -0.364608 0.200318 0.000000
283.27301025 167.28100586 382.50000000 0.000978 0.000978 0.999999 0.000000
275.38299561 156.23399353 372.50000000 -0.328237 -0.171801 0.928841 0.000000
167.28100586 164.91400146 367.50000000 0.001372 -0.621510 0.783405 0.000000
159.39100647 207.52299500 347.50000000 -0.000978 -0.000978 0.999999 0.000000
106.12899780 178.32800293 345.00000000 0.806807 0.576712 0.128322 0.000000
263.54699707 142.03100586 392.50000000 -0.000978 -0.000978 -0.999999 0.000000
218.57000732 179.90600586 367.50000000 -0.481364 -0.163399 0.861156 0.000000
228.82800293 162.15199280 365.00000000 -0.153003 -0.674122 0.722599 0.000000
186.21899414 215.41400146 372.50000000 -0.454123 0.079159 0.887415 0.000000
187.00799561 125.06600189 360.00000000 -0.312705 0.938116 0.148842 0.000000
244.60899353 145.97599792 407.50000000 -0.850419 -0.509085 -0.132741 0.000000
214.62500000 126.25000000 402.50000000 -0.101447 0.671906 -0.733656 0.000000
190.95300293 179.11700439 427.50000000 -0.000978 -0.000978 -0.999999 0.000000
173.98800659 213.83599854 365.00000000 -0.473263 -0.437236 0.764753 0.000000
176.75000000 137.29699707 412.50000000 -0.390230 0.520851 -0.759234 0.000000
113.62500000 162.54699707 347.50000000 0.916154 0.256176 0.308279 0.000000
214.62500000 163.33599854 417.50000000 0.000000 0.000000 0.000000 0.000000
282.48400879 152.28900146 392.50000000 -0.000978 -0.000978 -0.999999 0.000000
247.76499939 178.32800293 402.50000000 -0.000978 -0.000978 -0.999999 0.000000
174.38299561 177.53900146 352.50000000 0.061438 0.778696 0.624386 0.000000
106.12899780 194.10899353 330.00000000 0.903843 -0.001300 -0.427862 0.000000
258.81201172 154.65600586 367.50000000 -0.298630 -0.846377 0.440983 0.000000
141.24200439 228.03900146 417.50000000 0.412110 -0.227627 -0.882242 0.000000
147.55499268 160.17999268 332.50000000 -0.720057 -0.480593 0.500548 0.000000
201.21099854 205.94500732 417.50000000 0.194081 -0.573074 -0.796190 0.000000
113.62500000 218.57000732 327.50000000 -0.476671 0.162802 0.863875 0.000000
287.21899414 164.12500000 382.50000000 0.000978 0.000978 0.999999 0.000000
115.59799957 157.81199646 400.00000000 0.857536 0.280732 -0.431069 0.000000
134.14100647 144.00399780 410.00000000 0.248563 0.789461 -0.561221 0.000000
167.28100586 119.54299927 380.00000000 0.653517 0.660101 -0.370381 0.000000
143.60899353 132.56199646 397.50000000 0.361422 0.912839 -0.189996 0.000000
152.28900146 269.46499634 395.00000000 -0.020583 -0.832928 -0.552998 0.000000
134.92999268 189.37500000 427.50000000 -0.000978 -0.000978 -0.999999 0.000000
187.00799561 187.00799561 432.50000000 -0.000978 -0.000978 -0.999999 0.000000
192.53100586 212.25799561 387.50000000 -0.364608 0.909359 -0.200318 0.000000
169.64799500 217.78100586 362.50000000 -0.001361 -0.575560 0.817758 0.000000
228.82800293 171.22599792 377.50000000 0.195998 -0.539375 0.818938 0.000000
102.18399811 229.61700439 390.00000000 0.946193 -0.220459 -0.236891 0.000000
155.44500732 266.70300293 377.50000000 -0.113266 -0.861683 0.494644 0.000000
164.12500000 228.43299866 420.00000000 0.067006 -0.805498 -0.588798 0.000000
244.60899353 164.91400146 407.50000000 -0.000978 -0.000978 -0.999999 0.000000
176.75000000 171.22599792 437.50000000 -0.000978 -0.000978 -0.999999 0.000000
123.88300323 200.42199707 322.50000000 -0.735582 -0.006926 0.677400 0.000000
251.71099854 154.65600586 402.50000000 -0.000978 -0.000978 -0.999999 0.000000
227.25000000 164.91400146 412.50000000 -0.000978 -0.000978 -0.999999 0.000000
125.85500336 200.42199707 325.00000000 -0.673154 0.001382 0.739501 0.000000
142.03100586 128.22300720 345.00000000 0.216364 0.869933 0.443174 0.000000
108.89099884 220.14799500 327.50000000 0.192857 -0.292754 0.936537 0.000000
149.92199707 135.71899414 412.50000000 -0.000978 -0.000978 -0.999999 0.000000
137.29699707 180.69500732 427.50000000 -0.000978 -0.000978 -0.999999 0.000000
149.92199707 238.29699707 417.50000000 -0.271131 -0.607271 -0.746800 0.000000
172.01600647 189.37500000 432.50000000 -0.000978 -0.000978 -0.999999 0.000000
108.10099792 201.21099854 322.50000000 0.708393 -0.525045 0.471707 0.000000
261.96899414 138.08599854 392.50000000 -0.000978 -0.000978 -0.999999 0.000000
130.19500732 200.42199707 422.50000000 -0.000978 -0.000978 -0.999999 0.000000
160.96899414 151.10499573 335.00000000 -0.446799 -0.624180 0.640914 0.000000
120.72599792 228.82800293 337.50000000 -0.059547 -0.210236 0.975836 0.000000
165.70300293 239.08599854 412.50000000 -0.081609 -0.237293 -0.968004 0.000000
115.99199677 239.08599854 342.50000000 0.254812 -0.691633 0.675806 0.000000
157.02299500 229.61700439 357.50000000 -0.000978 -0.000978 0.999999 0.000000
114.41400146 201.21099854 322.50000000 0.000978 0.000978 0.999999 0.000000
115.20300293 201.21099854 322.50000000 0.000978 0.000978 0.999999 0.000000
108.10099792 228.82800293 337.50000000 0.000978 0.000978 0.999999 0.000000
178.32800293 256.05099487 400.00000000 -0.273378 -0.507702 -0.817009 0.000000
210.67999268 150.71099854 332.50000000 0.215535 -0.895865 0.388550 0.000000
225.67199707 163.33599854 412.50000000 -0.000978 -0.000978 -0.999999 0.000000
203.57800293 168.85899353 422.50000000 -0.000978 -0.000978 -0.999999 0.000000
242.24200439 149.92199707 407.50000000 -0.000978 -0.000978 -0.999999 0.000000
99.42179871 209.89100647 382.50000000 0.977777 0.145732 -0.150715 0.000000
274.98800659 178.32800293 395.00000000 -0.631142 -0.604214 -0.486400 0.000000
123.09400177 201.21099854 322.50000000 -0.735582 -0.006926 0.677400 0.000000
107.31199646 220.93699646 397.50000000 0.802721 0.141481 -0.579329 0.000000
124.67199707 201.21099854 322.50000000 -0.735582 -0.006926 0.677400 0.000000
261.17999268 154.65600586 367.50000000 -0.091681 -0.398197 0.912707 0.000000
194.10899353 202.00000000 402.50000000 -0.498730 -0.498730 0.708898 0.000000
108.89099884 234.35099792 397.50000000 0.495510 -0.369615 -0.786037 0.000000
181.48399353 172.80499268 437.50000000 -0.289697 0.006112 -0.957099 0.000000
238.29699707 147.94900513 330.00000000 -0.340456 -0.682542 0.646704 0.000000
228.03900146 147.55499268 407.50000000 -0.000978 -0.000978 -0.999999 0.000000
234.35099792 124.67199707 372.50000000 -0.001116 0.987889 0.155160 0.000000
112.83599854 220.14799500 407.50000000 0.306601 -0.079586 -0.948505 0.000000
108.89099884 202.00000000 322.50000000 0.708393 -0.525045 0.471707 0.000000
154.26199341 243.03100586 360.00000000 -0.850665 -0.377900 0.365459 0.000000
178.32800293 133.35099792 407.50000000 0.640914 0.446799 -0.624180 0.000000
127.03900146 143.21499634 400.00000000 0.756480 0.566150 -0.327432 0.000000
217.78100586 150.71099854 412.50000000 -0.000978 -0.000978 -0.999999 0.000000
148.34399414 209.10099792 427.50000000 -0.000978 -0.000978 -0.999999 0.000000
259.60101318 176.75000000 382.50000000 0.000978 0.000978 0.999999 0.000000
255.65600586 184.64100647 387.50000000 -0.544897 -0.350869 -0.761563 0.000000
203.97300720 192.53100586 375.00000000 0.445057 -0.891500 0.084575 0.000000
185.42999268 245.00399780 385.00000000 -0.804939 -0.581263 0.119196 0.000000
215.41400146 201.21099854 402.50000000 0.987889 -0.001116 -0.155160 0.000000
180.69500732 154.65600586 432.50000000 0.000978 0.999999 0.000978 0.000000
191.34800720 240.66400146 395.00000000 -0.973543 -0.222977 -0.049957 0.000000
183.06199646 160.17999268 432.50000000 -0.000978 -0.000978 -0.999999 0.000000
175.17199707 158.60099792 367.50000000 -0.606486 -0.310482 0.731966 0.000000
102.57800293 187.40199280 395.00000000 0.985941 -0.151955 -0.069499 0.000000
167.28100586 156.23399353 357.50000000 -0.598531 -0.798517 0.064281 0.000000
109.68000031 232.77299500 397.50000000 0.440008 -0.443255 -0.780973 0.000000
107.31199646 216.20300293 397.50000000 0.892650 -0.144252 -0.427044 0.000000
233.56199646 187.79699707 397.50000000 -0.370268 -0.900059 0.229771 0.000000
268.28100586 186.21899414 402.50000000 0.103989 -0.491453 -0.864673 0.000000
231.98399353 130.19500732 347.50000000 0.057735 0.911677 0.406831 0.000000
271.43701172 140.84800720 360.00000000 -0.651948 -0.591614 0.474296 0.000000
129.40600586 216.99200439 417.50000000 0.199435 -0.672512 -0.712708 0.000000
122.30500031 237.50799561 407.50000000 0.759551 -0.253184 -0.599149 0.000000
262.75799561 178.32800293 387.50000000 0.000978 0.000978 0.999999 0.000000
160.17999268 131.77299500 412.50000000 -0.026256 0.953951 -0.298813 0.000000
142.82000732 165.70300293 427.50000000 0.231798 -0.271133 -0.934215 0.000000
286.42999268 160.17999268 392.50000000 -0.357159 0.119053 -0.926425 0.000000
153.07800293 214.62500000 342.50000000 -0.927221 0.319392 -0.195575 0.000000
110.46900177 166.49200439 397.50000000 0.824309 0.392301 -0.408184 0.000000
151.50000000 173.59399414 332.50000000 -0.512862 0.068850 0.855706 0.000000
252.50000000 175.96099854 382.50000000 0.000978 0.000978 0.999999 0.000000
165.70300293 176.75000000 437.50000000 -0.000978 -0.000978 -0.999999 0.000000
149.13299561 218.57000732 422.50000000 -0.000978 -0.000978 -0.999999 0.000000
182.27299500 216.99200439 422.50000000 -0.000978 -0.000978 -0.999999 0.000000
211.46899414 175.96099854 417.50000000 -0.000978 -0.000978 -0.999999 0.000000
161.75799561 189.37500000 337.50000000 0.000978 0.000978 0.999999 0.000000
269.85900879 165.70300293 382.50000000 0.000978 0.000978 0.999999 0.000000
144.39799500 138.87500000 412.50000000 0.559720 0.617214 -0.552956 0.000000
128.61700439 150.71099854 412.50000000 0.689339 0.657051 -0.305117 0.000000
143.60899353 255.65600586 362.50000000 0.000978 0.000978 0.999999 0.000000
249.34399414 146.76600647 402.50000000 -0.000978 -0.000978 -0.999999 0.000000
159.39100647 268.28100586 382.50000000 -0.670021 -0.670021 0.319598 0.000000
247.76499939 153.07800293 402.50000000 -0.272151 0.450510 -0.850279 0.000000
275.38299561 129.40600586 372.50000000 -0.384606 0.865747 -0.320250 0.000000
161.36300659 190.16400146 435.00000000 -0.428289 -0.668264 -0.608270 0.000000
108.10099792 175.56599426 335.00000000 0.839562 0.542761 -0.023359 0.000000
271.43701172 174.38299561 397.50000000 -0.000978 -0.000978 -0.999999 0.000000
109.68000031 226.46099854 402.50000000 0.271226 -0.128336 -0.953922 0.000000
158.60099792 257.23400879 402.50000000 -0.000978 -0.000978 -0.999999 0.000000
205.94500732 133.35099792 352.50000000 0.192875 0.850742 0.488915 0.000000
126.25000000 149.92199707 407.50000000 0.719334 0.456852 -0.523303 0.000000
192.92599487 199.63299561 400.00000000 -0.970376 0.015593 0.241095 0.000000
148.34399414 151.50000000 427.50000000 -0.000978 -0.000978 -0.999999 0.000000
215.41400146 161.75799561 357.50000000 -0.199973 -0.872476 0.445866 0.000000
110.46900177 203.57800293 322.50000000 0.000978 0.000978 0.999999 0.000000
279.32800293 128.61700439 367.50000000 -0.908563 0.400549 0.118630 0.000000
212.25799561 191.74200439 412.50000000 0.020383 -0.509585 -0.860179 0.000000
140.45300293 189.37500000 327.50000000 0.000978 0.000978 0.999999 0.000000
100.60500336 228.03900146 380.00000000 0.952050 -0.304807 -0.026341 0.000000
188.58599854 245.00399780 395.00000000 -0.702740 -0.702740 0.110959 0.000000
166.49200439 250.13299561 407.50000000 -0.000978 -0.000978 -0.999999 0.000000
187.79699707 120.72599792 377.50000000 0.001116 0.987889 0.155160 0.000000
126.25000000 138.08599854 377.50000000 0.702740 0.702740 -0.110959 0.000000
217.78100586 155.44500732 412.50000000 -0.676796 -0.129981 -0.724605 0.000000
134.14100647 192.53100586 327.50000000 -0.137571 -0.242387 0.960376 0.000000
236.71899414 171.22599792 377.50000000 0.200334 -0.331048 0.922103 0.000000
160.96899414 255.65600586 367.50000000 0.000978 0.000978 0.999999 0.000000
177.53900146 248.55499268 402.50000000 -0.000978 -0.000978 -0.999999 0.000000
169.64799500 233.56199646 417.50000000 -0.054698 -0.396226 -0.916522 0.000000
198.05499268 141.24200439 417.50000000 -0.000978 -0.000978 -0.999999 0.000000
237.50799561 160.17999268 407.50000000 -0.000978 -0.000978 -0.999999 0.000000
122.69899750 261.17999268 390.00000000 -0.094576 -0.598009 -0.795890 0.000000
145.18699646 179.90600586 327.50000000 -0.229595 0.213293 0.949627 0.000000
185.42999268 239.87500000 402.50000000 -0.492477 -0.372991 -0.786349 0.000000
156.23399353 131.77299500 412.50000000 0.264229 0.757878 -0.596493 0.000000
254.07800293 178.32800293 382.50000000 -0.092324 -0.149876 0.984385 0.000000
121.91000366 157.81199646 410.00000000 0.616506 0.485477 -0.619865 0.000000
226.46099854 172.80499268 377.50000000 0.000978 0.000978 0.999999 0.000000
278.53900146 140.45300293 387.50000000 -0.000978 -0.000978 -0.999999 0.000000
123.09400177 258.02301025 367.50000000 0.365669 -0.710020 0.601795 0.000000
187.79699707 171.22599792 432.50000000 -0.165337 -0.293781 -0.941465 0.000000
106.52300262 207.52299500 402.50000000 0.000978 0.000978 -0.999999 0.000000
153.07800293 251.71099854 362.50000000 0.000978 0.000978 0.999999 0.000000
164.12500000 153.86700439 437.50000000 -0.000978 -0.000978 -0.999999 0.000000
158.60099792 141.24200439 427.50000000 0.430908 0.252497 -0.866351 0.000000
213.04699707 176.75000000 362.50000000 0.317672 -0.335739 0.886772 0.000000
162.54699707 151.50000000 432.50000000 -0.000978 -0.000978 -0.999999 0.000000
227.25000000 172.01600647 377.50000000 -0.279285 -0.847114 0.452103 0.000000
194.50399780 207.52299500 420.00000000 -0.441635 -0.517722 -0.732750 0.000000
120.72599792 261.57400513 385.00000000 0.709210 -0.668505 -0.223879 0.000000
127.03900146 140.84800720 390.00000000 0.527732 0.789207 -0.314088 0.000000
254.86700439 132.56199646 392.50000000 -0.000978 -0.000978 -0.999999 0.000000
139.66400146 132.56199646 337.50000000 0.252483 0.896241 0.364698 0.000000
281.30099487 134.14100647 375.00000000 -0.698690 0.715358 0.009723 0.000000
275.38299561 169.64799500 397.50000000 -0.223613 0.133134 -0.965543 0.000000
122.30500031 261.17999268 372.50000000 0.423853 -0.823894 0.376229 0.000000
192.92599487 214.62500000 380.00000000 -0.897441 -0.047234 0.438599 0.000000
