123.69499969 219.95100403 270.00000000 0.570043 0.352420 -0.742193 0.000000
110.62899780 323.17599487 247.50000000 0.489456 -0.580283 -0.650926 0.000000
154.18400574 248.26199341 212.50000000 0.158991 0.743473 0.649592 0.000000
152.44099426 309.23800659 267.50000000 -0.015374 -0.218783 -0.975653 0.000000
183.80099487 260.45700073 222.50000000 -0.962407 -0.088189 0.256897 0.000000
116.72699738 337.54901123 240.00000000 0.590138 -0.603665 -0.536028 0.000000
87.10939789 243.03500366 222.50000000 0.883366 0.100030 -0.457885 0.000000
206.44900513 181.18800354 222.50000000 -0.000978 -0.000978 -0.999999 0.000000
112.37100220 219.51600647 262.50000000 -0.266083 0.240742 -0.933404 0.000000
199.47999573 223.00000000 262.50000000 -0.284458 0.132213 -0.949528 0.000000
139.37500000 349.30899048 242.50000000 0.429772 -0.508811 -0.745927 0.000000
156.79699707 259.58599854 277.50000000 -0.138205 -0.063876 -0.988342 0.000000
87.98049927 277.87899780 212.50000000 0.704652 0.351509 -0.616366 0.000000
117.59799957 305.75399780 192.50000000 -0.403542 -0.284764 0.869519 0.000000
159.41000366 150.69900513 217.50000000 0.802086 0.563752 -0.197084 0.000000
205.57800293 149.82800293 247.50000000 -0.000978 -0.000978 -0.999999 0.000000
176.39599609 286.58999634 262.00000000 -0.524731 -0.285214 -0.802066 0.000000
181.18800354 189.02699280 257.50000000 -0.000978 -0.000978 -0.999999 0.000000
128.05099487 221.25799561 272.50000000 0.298545 -0.087347 -0.950390 0.000000
157.66799927 272.65200806 202.50000000 -0.453274 -0.882240 0.127260 0.000000
135.02000427 285.71899414 197.50000000 -0.392190 -0.303680 0.868312 0.000000
116.72699738 215.16000366 262.50000000 -0.000978 -0.000978 -0.999999 0.000000
183.80099487 316.20700073 237.50000000 -0.771229 -0.155453 0.617285 0.000000
123.69499969 182.92999268 242.50000000 0.575851 0.790835 -0.207306 0.000000
178.57400513 168.12100220 207.50000000 0.691755 -0.001381 -0.722131 0.000000
114.98400116 194.68899536 250.00000000 0.369900 0.692124 -0.619788 0.000000
118.46900177 330.14498901 247.50000000 0.539808 -0.453439 -0.709225 0.000000
234.32400513 205.57800293 257.50000000 -0.581932 0.335543 -0.740788 0.000000
100.17600250 266.55499268 257.50000000 0.695697 -0.123646 -0.707614 0.000000
200.35200500 269.16799927 242.50000000 -0.596177 -0.151672 0.788396 0.000000
90.59380341 229.09800720 157.50000000 0.996098 0.083279 0.029202 0.000000
93.64260101 207.32000732 220.00000000 0.947226 0.315742 -0.055416 0.000000
126.74400330 292.68798828 192.00000000 -0.680133 -0.395503 0.617249 0.000000
83.62500000 250.87500000 197.50000000 0.894688 -0.446689 0.001310 0.000000
168.12100220 178.57400513 222.50000000 -0.107580 -0.635164 0.764849 0.000000
154.18400574 163.76600647 232.50000000 -0.000978 -0.000978 -0.999999 0.000000
161.15199280 354.53500366 237.50000000 -0.391886 -0.900903 -0.186543 0.000000
196.86700439 256.10198975 257.50000000 -0.000978 -0.000978 -0.999999 0.000000
114.98400116 332.75799561 242.50000000 0.691209 -0.487026 -0.533888 0.000000
189.02699280 258.71499634 232.50000000 -0.915752 0.006458 0.401691 0.000000
155.92599487 236.93800354 277.50000000 -0.000978 -0.000978 -0.999999 0.000000
158.53900146 317.07800293 262.50000000 -0.000978 -0.000978 -0.999999 0.000000
130.66400146 352.35699463 222.00000000 0.539721 -0.808808 -0.233518 0.000000
163.76600647 152.44099426 207.50000000 -0.000978 -0.000978 -0.999999 0.000000
120.21099854 194.25399780 252.50000000 0.431157 0.614274 -0.660886 0.000000
160.28100586 180.31599426 252.50000000 0.061575 0.625777 -0.777568 0.000000
199.47999573 182.05900574 217.50000000 -0.000978 -0.000978 -0.999999 0.000000
210.80499268 178.57400513 252.50000000 -0.000978 -0.000978 -0.999999 0.000000
224.74200439 206.44900513 257.50000000 -0.000978 -0.000978 -0.999999 0.000000
101.91799927 216.03100586 252.50000000 0.834271 0.500563 -0.231147 0.000000
108.01599884 267.86099243 262.00000000 0.456850 -0.318696 -0.830494 0.000000
155.92599487 178.13900757 250.00000000 0.143043 0.739308 -0.657999 0.000000
155.92599487 251.74600220 187.50000000 -0.437109 -0.556774 0.706355 0.000000
94.07810211 291.81600952 227.50000000 0.924721 -0.252976 -0.284420 0.000000
135.89100647 202.09399414 267.50000000 -0.000978 -0.000978 -0.999999 0.000000
210.80499268 215.16000366 257.50000000 -0.000978 -0.000978 -0.999999 0.000000
200.35200500 256.97299194 242.50000000 0.000978 0.000978 0.999999 0.000000
98.43360138 213.41799927 242.50000000 0.799472 0.493088 -0.343087 0.000000
186.41400146 321.86898804 240.00000000 -0.602308 -0.100628 0.791896 0.000000
121.08200073 210.80499268 197.50000000 -0.745967 0.536112 0.395116 0.000000
174.21899414 240.42199707 272.50000000 -0.000978 -0.000978 -0.999999 0.000000
97.56250000 310.54501343 230.00000000 0.906235 -0.395680 -0.148912 0.000000
182.05900574 325.78900146 247.50000000 -0.732641 -0.579259 -0.357346 0.000000
91.02929688 272.65200806 240.00000000 0.964234 -0.133310 -0.229087 0.000000
203.83599854 159.84599304 222.00000000 0.961689 -0.243350 -0.126230 0.000000
195.12500000 276.13699341 237.50000000 -0.900001 -0.122535 0.418310 0.000000
108.01599884 196.86700439 242.50000000 0.765033 0.562949 -0.312750 0.000000
150.69900513 190.77000427 202.50000000 -0.000978 -0.000978 -0.999999 0.000000
94.51370239 287.46099854 232.00000000 0.966744 -0.193349 -0.167396 0.000000
191.64100647 241.29299927 222.50000000 -0.459594 -0.666830 0.586610 0.000000
184.67199707 173.34800720 252.50000000 -0.000978 -0.000978 -0.999999 0.000000
168.12100220 223.00000000 222.50000000 -0.756831 0.191894 0.624807 0.000000
200.35200500 267.42599487 242.50000000 -0.780991 0.037994 0.623386 0.000000
84.93160248 255.22999573 182.00000000 0.999999 0.000978 0.000978 0.000000
163.76600647 324.04699707 227.50000000 -0.644658 -0.523469 0.557132 0.000000
141.98800659 221.25799561 272.50000000 0.379040 0.726903 -0.572662 0.000000
95.38480377 259.58599854 250.00000000 0.920496 0.060119 -0.386100 0.000000
90.15820313 233.45300293 160.00000000 0.995675 0.091494 0.016146 0.000000
141.11700439 356.27700806 222.50000000 -0.769071 -0.395104 -0.502416 0.000000
116.72699738 267.42599487 272.50000000 0.707717 0.497900 -0.501230 0.000000
151.57000732 206.44900513 272.50000000 0.044540 0.438653 -0.897552 0.000000
179.44500732 162.02299500 207.50000000 0.255106 -0.383405 -0.887649 0.000000
233.45300293 210.36900330 252.00000000 0.962994 -0.262407 -0.061521 0.000000
135.89100647 266.55499268 187.50000000 -0.439907 -0.213243 0.872358 0.000000
212.54699707 166.37899780 252.50000000 -0.000978 -0.000978 -0.999999 0.000000
137.63299561 217.77299500 207.50000000 -0.391886 -0.186543 0.900903 0.000000
118.46900177 282.23400879 267.50000000 -0.000978 -0.000978 -0.999999 0.000000
86.23829651 223.87100220 197.50000000 0.965003 0.186733 -0.184121 0.000000
222.12899780 162.02299500 252.50000000 -0.000978 -0.000978 -0.999999 0.000000
162.45899963 189.02699280 220.00000000 -0.918306 0.335617 -0.209939 0.000000
185.10699463 273.52301025 222.00000000 -0.625194 -0.067550 0.777540 0.000000
202.09399414 153.31199646 222.50000000 0.774370 -0.346132 -0.529663 0.000000
112.37100220 271.78100586 172.50000000 0.403161 -0.887544 0.222994 0.000000
182.05900574 324.04699707 247.50000000 -0.694966 -0.172596 -0.698021 0.000000
187.28500366 282.23400879 257.50000000 -0.339304 -0.363869 -0.867451 0.000000
143.72999573 209.93400574 207.50000000 0.001201 -0.263117 0.964763 0.000000
177.70300293 197.73800659 227.50000000 -0.345052 -0.019099 0.938389 0.000000
159.41000366 331.01599121 257.50000000 -0.000978 -0.000978 -0.999999 0.000000
170.73399353 312.28698730 260.00000000 -0.740878 -0.363112 -0.565021 0.000000
91.02929688 249.13299561 232.00000000 0.943366 0.133610 -0.303659 0.000000
174.21899414 323.17599487 252.50000000 -0.588875 -0.288852 -0.754845 0.000000
109.75800323 195.99600220 197.50000000 0.131644 0.280574 0.950762 0.000000
103.66000366 199.47999573 227.50000000 0.690352 0.708479 -0.146530 0.000000
135.02000427 338.85501099 252.50000000 -0.388069 -0.282369 -0.877308 0.000000
166.37899780 246.52000427 197.50000000 -0.466723 0.560402 0.684192 0.000000
227.35499573 218.64500427 257.50000000 0.163575 0.055309 -0.984979 0.000000
206.44900513 151.57000732 247.50000000 -0.000978 -0.000978 -0.999999 0.000000
194.25399780 282.23400879 252.50000000 -0.795008 -0.268139 -0.544118 0.000000
100.17600250 236.06599426 157.50000000 -0.000978 -0.000978 0.999999 0.000000
218.64500427 189.02699280 252.50000000 -0.000978 -0.000978 -0.999999 0.000000
132.40600586 325.78900146 257.50000000 -0.000978 -0.000978 -0.999999 0.000000
189.02699280 314.46499634 242.50000000 -0.766759 0.613713 0.188246 0.000000
84.93160248 230.83999634 180.00000000 0.927432 -0.186609 0.324110 0.000000
129.79299927 255.22999573 172.50000000 -0.355443 -0.331035 0.874115 0.000000
164.63699341 295.30099487 267.50000000 -0.000978 -0.000978 -0.999999 0.000000
162.89500427 226.48399353 222.50000000 0.000978 0.000978 0.999999 0.000000
169.86300659 257.84399414 202.50000000 -0.276604 -0.679518 0.679518 0.000000
197.73800659 209.93400574 257.50000000 -0.000978 -0.000978 -0.999999 0.000000
174.21899414 291.81600952 262.50000000 -0.915492 -0.214142 -0.340615 0.000000
194.25399780 201.22300720 222.50000000 -0.426542 0.179060 -0.886566 0.000000
239.11500549 215.16000366 242.00000000 0.769539 0.020949 -0.638256 0.000000
141.98800659 277.87899780 197.50000000 -0.517450 -0.448016 0.729059 0.000000
185.54299927 204.70700073 232.50000000 -0.108515 0.539683 0.834845 0.000000
121.95300293 193.81799316 252.00000000 0.593662 0.597045 -0.539539 0.000000
119.77500153 340.59799194 240.00000000 0.601359 -0.628310 -0.493552 0.000000
182.92999268 155.92599487 242.50000000 0.235408 0.578388 -0.781057 0.000000
118.03299713 340.59799194 212.00000000 0.701680 -0.701680 0.123651 0.000000
99.30470276 238.67999268 257.50000000 0.810263 0.173520 -0.559790 0.000000
157.66799927 317.94900513 262.50000000 -0.272362 -0.169379 -0.947169 0.000000
165.50799561 202.96499634 267.50000000 -0.245205 0.390842 -0.887196 0.000000
229.09800720 187.28500366 237.50000000 0.697122 -0.140027 -0.703145 0.000000
162.02299500 269.60400391 202.00000000 -0.645485 -0.567959 0.510658 0.000000
144.60200500 229.96899414 197.50000000 -0.496764 0.859618 0.119511 0.000000
148.08599854 178.57400513 202.50000000 -0.000978 -0.000978 -0.999999 0.000000
147.21499634 160.28100586 222.50000000 -0.000978 -0.000978 -0.999999 0.000000
162.89500427 249.13299561 277.50000000 -0.211393 0.112658 -0.970887 0.000000
162.89500427 282.23400879 212.50000000 -0.985955 -0.164518 0.028762 0.000000
121.95300293 180.75199890 232.00000000 -0.001317 0.886654 -0.462431 0.000000
143.72999573 337.98400879 252.50000000 0.055144 -0.306498 -0.950273 0.000000
94.51370239 304.88299561 222.00000000 0.903752 -0.330641 -0.271860 0.000000
89.72270203 238.67999268 157.50000000 0.918973 0.230818 0.319705 0.000000
173.34800720 297.04299927 262.50000000 -0.000978 -0.000978 -0.999999 0.000000
99.30470276 238.67999268 157.50000000 -0.731323 0.338906 0.591869 0.000000
152.44099426 164.63699341 207.50000000 0.769944 0.049812 -0.636164 0.000000
237.80900574 183.80099487 252.50000000 0.981308 -0.157253 0.110930 0.000000
101.91799927 238.67999268 157.50000000 0.000978 0.000978 0.999999 0.000000
237.80900574 202.96499634 252.50000000 0.372878 0.019354 -0.927679 0.000000
141.98800659 347.13101196 242.00000000 0.295951 -0.587102 -0.753475 0.000000
243.03500366 221.69299316 252.00000000 -0.464296 0.070684 -0.882855 0.000000
126.30899811 328.83801270 252.00000000 0.411844 -0.583859 -0.699638 0.000000
148.95700073 248.26199341 207.50000000 -0.716257 0.666539 -0.206643 0.000000
107.58000183 238.67999268 160.00000000 -0.391913 0.542775 0.742832 0.000000
143.72999573 335.37100220 217.50000000 -0.488782 -0.213369 0.845911 0.000000
125.43800354 227.35499573 172.50000000 0.000978 0.000978 0.999999 0.000000
240.42199707 223.00000000 247.50000000 -0.000978 -0.000978 -0.999999 0.000000
168.12100220 294.42999268 222.50000000 0.000978 0.000978 0.999999 0.000000
168.99200439 283.10501099 217.50000000 -0.389840 -0.225077 0.892953 0.000000
97.56250000 284.84799194 247.50000000 0.823280 -0.394984 -0.407674 0.000000
204.70700073 215.16000366 257.50000000 -0.000978 -0.000978 -0.999999 0.000000
91.02929688 202.96499634 182.00000000 0.955786 0.268774 0.119309 0.000000
114.98400116 303.57598877 190.00000000 -0.592154 -0.037797 0.804938 0.000000
94.07810211 301.39801025 227.50000000 0.936133 -0.069979 -0.344613 0.000000
203.83599854 164.63699341 252.50000000 -0.000978 -0.000978 -0.999999 0.000000
217.77299500 179.44500732 227.50000000 0.920098 0.387480 0.057256 0.000000
97.12699890 314.46499634 192.00000000 0.894013 -0.446332 0.039105 0.000000
220.38699341 218.64500427 227.50000000 0.665322 0.258824 -0.700255 0.000000
162.89500427 186.41400146 207.50000000 -0.682310 0.032491 0.730340 0.000000
175.96099854 316.20700073 232.50000000 -0.114632 0.082211 0.990000 0.000000
228.22700500 157.66799927 252.50000000 0.489555 -0.861443 0.135100 0.000000
173.34800720 166.37899780 242.50000000 0.271518 0.532050 -0.801998 0.000000
207.32000732 211.67599487 257.50000000 -0.000978 -0.000978 -0.999999 0.000000
128.05099487 325.78900146 202.50000000 -0.525943 0.178311 0.831619 0.000000
196.86700439 278.75000000 252.50000000 -0.603585 -0.239866 -0.760361 0.000000
162.89500427 183.80099487 257.50000000 -0.000978 -0.000978 -0.999999 0.000000
90.15820313 286.58999634 212.00000000 0.980910 -0.024552 -0.192908 0.000000
148.52099609 236.06599426 212.00000000 -0.814228 -0.380823 0.438185 0.000000
160.28100586 196.86700439 207.50000000 -0.344315 0.170049 0.923326 0.000000
201.22300720 245.64799500 237.50000000 -0.662761 -0.662761 0.348563 0.000000
178.57400513 225.61300659 272.50000000 -0.251435 -0.090619 -0.963623 0.000000
183.36500549 159.41000366 210.00000000 0.843014 0.253365 -0.474483 0.000000
117.16200256 230.83999634 270.00000000 0.730765 0.247797 -0.636065 0.000000
102.78900146 189.02699280 207.50000000 0.641827 0.693823 -0.326601 0.000000
110.62899780 227.35499573 262.50000000 0.318324 -0.034242 -0.947363 0.000000
181.18800354 288.33200073 262.50000000 -0.475973 -0.324168 -0.817536 0.000000
155.05499268 242.16400146 277.50000000 -0.000978 -0.000978 -0.999999 0.000000
106.27300262 187.72099304 210.00000000 0.638117 0.753311 -0.159150 0.000000
172.91200256 210.80499268 270.00000000 -0.366521 0.632783 -0.682091 0.000000
135.02000427 216.03100586 272.50000000 -0.000978 -0.000978 -0.999999 0.000000
139.81100464 283.10501099 200.00000000 -0.237899 -0.498821 0.833415 0.000000
121.08200073 282.23400879 187.50000000 -0.638354 -0.467456 0.611546 0.000000
84.06050110 251.74600220 210.00000000 0.999999 0.000978 0.000978 0.000000
192.51199341 140.24600220 232.50000000 0.256038 0.771255 -0.582761 0.000000
175.96099854 255.22999573 272.50000000 -0.136743 -0.049411 -0.989374 0.000000
178.13900757 327.53100586 250.00000000 -0.569421 -0.244929 -0.784709 0.000000
193.38299561 270.03900146 257.50000000 -0.549613 -0.099536 -0.829469 0.000000
132.40600586 351.05099487 232.50000000 -0.419420 -0.419420 -0.805093 0.000000
99.30470276 288.33200073 172.50000000 -0.220141 -0.212038 0.952144 0.000000
135.89100647 266.55499268 277.50000000 -0.000978 -0.000978 -0.999999 0.000000
175.08999634 337.98400879 247.50000000 -0.000978 -0.000978 -0.999999 0.000000
165.50799561 283.10501099 267.50000000 -0.000978 -0.000978 -0.999999 0.000000
115.41999817 337.98400879 202.00000000 0.886654 -0.001317 0.462431 0.000000
133.27699280 210.80499268 207.50000000 0.000978 0.000978 0.999999 0.000000
118.90399933 201.22300720 202.00000000 -0.502687 0.200773 0.840831 0.000000
121.08200073 273.08801270 180.00000000 -0.531639 -0.332475 0.778987 0.000000
195.12500000 233.45300293 217.50000000 0.000978 0.000978 0.999999 0.000000
157.66799927 170.73399353 217.50000000 0.000978 0.000978 0.999999 0.000000
109.75800323 300.52700806 257.50000000 0.000978 0.000978 -0.999999 0.000000
128.92199707 318.82000732 262.50000000 0.463825 -0.272747 -0.842897 0.000000
162.02299500 341.46899414 227.50000000 -0.305322 -0.039274 0.951439 0.000000
203.83599854 177.70300293 222.50000000 0.800653 0.210536 -0.560918 0.000000
111.50000000 245.64799500 272.50000000 0.615186 0.126002 -0.778248 0.000000
114.11299896 217.77299500 262.50000000 -0.000978 -0.000978 -0.999999 0.000000
170.73399353 189.02699280 222.50000000 0.000978 0.000978 0.999999 0.000000
199.47999573 253.48800659 242.50000000 -0.345778 0.417749 0.840192 0.000000
102.78900146 243.03500366 157.50000000 0.000978 0.000978 0.999999 0.000000
159.41000366 302.26998901 267.50000000 -0.000978 -0.000978 -0.999999 0.000000
135.02000427 301.39801025 202.50000000 0.000978 0.000978 0.999999 0.000000
190.77000427 175.08999634 212.50000000 0.161398 -0.100722 -0.981736 0.000000
172.47700500 336.24200439 232.50000000 0.000978 0.000978 0.999999 0.000000
188.15600586 229.96899414 267.50000000 -0.252695 0.085078 -0.963798 0.000000
178.57400513 332.75799561 247.50000000 -0.211501 -0.287138 -0.934248 0.000000
168.12100220 250.87500000 272.50000000 -0.504805 -0.113617 -0.855724 0.000000
132.40600586 310.98001099 202.50000000 0.000978 0.000978 0.999999 0.000000
111.06400299 243.03500366 160.00000000 -0.472501 0.235491 0.849286 0.000000
157.66799927 175.96099854 217.50000000 0.215717 0.181308 0.959476 0.000000
158.53900146 302.26998901 217.50000000 -0.558202 -0.323339 0.764109 0.000000
158.53900146 217.77299500 272.50000000 -0.245853 0.391875 -0.886561 0.000000
117.59799957 324.04699707 192.50000000 0.000978 0.000978 0.999999 0.000000
243.03500366 202.96499634 252.50000000 -0.559663 0.407778 -0.721453 0.000000
186.41400146 299.65600586 252.50000000 -0.888350 0.323173 -0.326179 0.000000
168.12100220 258.27899170 200.00000000 -0.475119 -0.521798 0.708511 0.000000
126.30899811 214.28900146 267.50000000 0.288645 0.485235 -0.825367 0.000000
107.14499664 243.90600586 157.50000000 -0.180692 0.207071 0.961495 0.000000
174.21899414 204.70700073 267.50000000 -0.000978 -0.000978 -0.999999 0.000000
151.57000732 161.15199280 207.50000000 0.711743 -0.086228 -0.697128 0.000000
180.31599426 309.23800659 232.50000000 -0.220109 -0.052291 0.974073 0.000000
94.94920349 251.31100464 250.00000000 0.934528 0.059147 -0.350941 0.000000
152.44099426 278.75000000 202.50000000 0.473198 -0.140368 0.869701 0.000000
175.08999634 241.29299927 272.50000000 -0.000978 -0.000978 -0.999999 0.000000
172.47700500 260.45700073 272.50000000 -0.000978 -0.000978 -0.999999 0.000000
87.98049927 244.34199524 160.00000000 0.956831 0.204177 0.206846 0.000000
140.24600220 209.06199646 207.50000000 0.000978 0.000978 0.999999 0.000000
189.89799500 234.32400513 267.50000000 -0.626727 0.319031 -0.710938 0.000000
136.76199341 247.39100647 277.50000000 -0.000978 -0.000978 -0.999999 0.000000
114.11299896 192.51199341 247.50000000 0.685073 0.649273 -0.330332 0.000000
145.47300720 335.37100220 252.50000000 -0.236002 -0.522907 -0.819067 0.000000
94.94920349 296.17199707 227.50000000 0.942302 -0.053142 -0.330519 0.000000
186.41400146 245.21299744 220.00000000 -0.485227 -0.213137 0.848014 0.000000
232.14599609 203.83599854 240.00000000 0.828097 -0.114973 -0.548669 0.000000
121.08200073 228.22700500 272.50000000 0.641178 0.272063 -0.717546 0.000000
184.67199707 224.74200439 227.50000000 0.000978 0.000978 0.999999 0.000000
216.90199280 176.83200073 252.50000000 -0.000978 -0.000978 -0.999999 0.000000
145.47300720 172.04100037 240.00000000 0.220328 0.864825 -0.451148 0.000000
209.06199646 151.13499451 232.00000000 0.680805 -0.185953 -0.708467 0.000000
174.21899414 308.80300903 230.00000000 -0.673002 0.006938 0.739608 0.000000
225.61300659 168.99200439 237.50000000 0.520873 -0.259659 -0.813184 0.000000
148.95700073 244.77699280 182.50000000 -0.652983 -0.592553 0.471692 0.000000
101.91799927 245.64799500 157.50000000 0.000978 0.000978 0.999999 0.000000
115.85500336 238.67999268 272.50000000 0.673807 0.155960 -0.722261 0.000000
103.66000366 245.64799500 157.50000000 0.000978 0.000978 0.999999 0.000000
103.66000366 211.67599487 172.50000000 -0.424525 0.386366 0.818841 0.000000
191.20500183 143.72999573 202.00000000 0.742667 0.619677 -0.253863 0.000000
189.02699280 164.63699341 212.50000000 0.701936 0.701936 0.120715 0.000000
107.14499664 245.64799500 157.50000000 -0.157587 0.113609 0.980948 0.000000
102.78900146 250.00399780 262.50000000 0.930832 0.173922 -0.321408 0.000000
222.56399536 173.34800720 232.00000000 0.741944 -0.126892 -0.658345 0.000000
148.08599854 213.41799927 272.50000000 -0.000978 -0.000978 -0.999999 0.000000
225.61300659 165.07200623 240.00000000 0.699884 -0.234343 -0.674719 0.000000
196.86700439 182.92999268 217.50000000 0.444897 0.223197 -0.867324 0.000000
185.54299927 154.18400574 242.50000000 0.456025 0.485658 -0.745773 0.000000
193.38299561 225.17799377 262.00000000 0.001378 0.753685 -0.657235 0.000000
148.08599854 182.05900574 202.50000000 -0.000978 -0.000978 -0.999999 0.000000
175.96099854 301.83401489 260.00000000 -0.578215 -0.438244 -0.688193 0.000000
113.24199677 303.14099121 257.50000000 0.259476 -0.045936 -0.964656 0.000000
166.37899780 185.54299927 257.50000000 -0.000978 -0.000978 -0.999999 0.000000
195.56100464 174.21899414 212.00000000 0.676100 -0.136419 -0.724071 0.000000
209.93400574 173.34800720 227.50000000 0.726775 -0.120386 -0.676243 0.000000
231.71099854 178.57400513 252.50000000 -0.000978 -0.000978 -0.999999 0.000000
112.37100220 269.16799927 267.50000000 0.525326 -0.045741 -0.849670 0.000000
233.45300293 205.57800293 257.50000000 0.576776 -0.389447 -0.718095 0.000000
150.26400757 232.58200073 212.00000000 -0.468494 -0.143594 0.871719 0.000000
199.47999573 271.78100586 242.50000000 -0.493319 -0.292859 0.819066 0.000000
109.75800323 213.41799927 257.50000000 0.746283 0.436567 -0.502464 0.000000
150.69900513 175.08999634 242.50000000 0.292729 0.418403 -0.859796 0.000000
165.07200623 167.25000000 212.00000000 0.389707 -0.151631 0.908370 0.000000
154.18400574 333.62899780 222.50000000 -0.253902 0.121092 0.959620 0.000000
184.67199707 290.07400513 232.50000000 -0.683284 -0.420610 0.596834 0.000000
207.32000732 199.47999573 252.50000000 -0.000978 -0.000978 -0.999999 0.000000
198.60899353 229.09800720 262.50000000 -0.196437 -0.716143 -0.669740 0.000000
189.02699280 307.49600220 252.50000000 0.003987 0.482476 -0.875900 0.000000
228.22700500 174.21899414 237.50000000 -0.000978 -0.000978 -0.999999 0.000000
165.50799561 328.40200806 257.50000000 -0.471927 -0.541966 -0.695384 0.000000
101.48200226 194.25399780 212.00000000 0.682885 0.656932 -0.319545 0.000000
87.10939789 250.87500000 222.50000000 0.886654 0.001317 -0.462431 0.000000
123.69499969 266.55499268 272.50000000 -0.000978 -0.000978 -0.999999 0.000000
189.02699280 279.62100220 232.50000000 -0.000978 -0.000978 0.999999 0.000000
217.77299500 192.51199341 252.50000000 -0.000978 -0.000978 -0.999999 0.000000
89.28710175 296.17199707 182.00000000 0.933873 -0.353958 0.050939 0.000000
175.96099854 268.29699707 267.50000000 -0.000978 -0.000978 -0.999999 0.000000
103.22499847 199.47999573 180.00000000 -0.600362 0.735565 0.313862 0.000000
101.91799927 248.26199341 157.50000000 0.001187 0.243373 0.969932 0.000000
133.27699280 277.87899780 192.50000000 -0.245530 -0.429301 0.869146 0.000000
103.66000366 248.26199341 157.50000000 -0.120914 0.120914 0.985271 0.000000
182.92999268 163.76600647 212.50000000 -0.683271 0.692695 -0.230898 0.000000
194.25399780 155.05499268 247.50000000 0.061502 0.446914 -0.892460 0.000000
202.96499634 178.57400513 217.50000000 0.547779 0.826809 0.127766 0.000000
84.93160248 261.32800293 190.00000000 0.985368 0.001129 -0.170436 0.000000
220.38699341 215.16000366 227.50000000 0.665322 0.258824 -0.700255 0.000000
146.77900696 244.77699280 202.00000000 -0.949487 0.248578 -0.191527 0.000000
204.70700073 241.29299927 252.50000000 -0.155606 0.054989 -0.986287 0.000000
154.18400574 250.87500000 187.50000000 -0.250728 -0.023014 0.967784 0.000000
141.11700439 252.61700439 177.50000000 -0.424472 -0.546694 0.721768 0.000000
112.37100220 247.82600403 160.00000000 -0.599785 -0.067279 0.797328 0.000000
153.31199646 196.86700439 267.50000000 -0.224007 0.312469 -0.923138 0.000000
112.80699921 248.26199341 160.00000000 -0.599785 -0.067279 0.797328 0.000000
112.37100220 333.62899780 237.50000000 0.679244 -0.629904 -0.376627 0.000000
148.95700073 206.44900513 272.50000000 -0.044650 0.445143 -0.894346 0.000000
185.54299927 290.07400513 232.50000000 -0.556509 -0.261794 0.788518 0.000000
184.67199707 229.96899414 227.50000000 -0.067579 0.628339 0.774999 0.000000
94.07810211 266.11898804 242.00000000 0.840722 0.187327 -0.508030 0.000000
197.73800659 169.86300659 217.50000000 0.301575 -0.172132 -0.937775 0.000000
159.41000366 211.67599487 272.50000000 -0.000978 -0.000978 -0.999999 0.000000
179.44500732 251.74600220 272.50000000 -0.081398 -0.099741 -0.991678 0.000000
117.59799957 219.51600647 172.50000000 -0.374022 0.503553 0.778808 0.000000
127.18000031 243.03500366 277.50000000 -0.000978 -0.000978 -0.999999 0.000000
190.77000427 264.81201172 232.50000000 -0.629798 0.731327 0.261755 0.000000
108.01599884 249.13299561 157.50000000 -0.280580 0.073028 0.957048 0.000000
222.12899780 194.25399780 252.50000000 -0.000978 -0.000978 -0.999999 0.000000
202.52900696 155.05499268 222.00000000 0.867478 -0.252825 -0.428440 0.000000
181.62300110 337.11300659 240.00000000 -0.752285 -0.469149 0.462565 0.000000
92.77149963 199.47999573 192.00000000 0.867404 0.483166 -0.118999 0.000000
137.63299561 335.37100220 252.50000000 0.003769 -0.345470 -0.938422 0.000000
184.67199707 261.32800293 267.50000000 -0.000978 -0.000978 -0.999999 0.000000
159.41000366 219.51600647 217.50000000 -0.878214 -0.421960 0.225145 0.000000
125.43800354 304.01199341 197.50000000 0.000978 0.000978 0.999999 0.000000
169.86300659 188.15600586 222.50000000 0.000978 0.000978 0.999999 0.000000
239.55099487 217.77299500 247.50000000 0.875783 0.121438 -0.467180 0.000000
146.34399414 283.10501099 202.50000000 -0.595998 -0.423341 0.682326 0.000000
195.12500000 166.37899780 252.50000000 -0.000978 -0.000978 -0.999999 0.000000
88.41600037 217.77299500 210.00000000 0.971381 0.228342 -0.065417 0.000000
104.53099823 205.57800293 177.50000000 -0.555399 0.326800 0.764679 0.000000
168.99200439 276.13699341 267.50000000 -0.831626 0.165728 -0.530031 0.000000
195.99600220 156.79699707 247.50000000 0.000978 0.000978 -0.999999 0.000000
180.31599426 254.79499817 270.00000000 -0.489765 -0.424244 -0.761674 0.000000
135.02000427 289.63900757 200.00000000 -0.493940 -0.487287 0.720121 0.000000
157.66799927 334.50000000 222.50000000 -0.289025 0.001220 0.957321 0.000000
147.21499634 350.17999268 242.50000000 0.819933 -0.001360 -0.572458 0.000000
96.25589752 290.07400513 170.00000000 -0.648815 -0.351373 0.674964 0.000000
174.21899414 310.10900879 257.50000000 -0.590919 -0.390105 -0.706140 0.000000
130.66400146 349.30899048 212.50000000 0.033900 -0.877339 0.478672 0.000000
182.92999268 195.12500000 257.50000000 -0.000978 -0.000978 -0.999999 0.000000
174.21899414 296.17199707 227.50000000 0.000978 0.000978 0.999999 0.000000
195.99600220 285.71899414 242.50000000 0.000978 0.000978 0.999999 0.000000
102.35399628 317.94900513 232.00000000 0.820421 -0.449089 -0.353876 0.000000
192.51199341 142.42399597 202.00000000 0.742667 0.619677 -0.253863 0.000000
156.79699707 160.71699524 212.00000000 0.420710 0.532900 -0.734181 0.000000
108.88700104 184.67199707 207.50000000 0.595992 0.757242 -0.267169 0.000000
131.53500366 284.41198730 192.00000000 -0.655334 -0.275846 0.703169 0.000000
216.03100586 150.69900513 247.50000000 -0.343482 0.301484 -0.889453 0.000000
92.33589935 247.39100647 242.50000000 0.966682 -0.138097 -0.215535 0.000000
138.50399780 271.78100586 277.50000000 -0.000978 -0.000978 -0.999999 0.000000
121.95300293 296.17199707 192.50000000 0.000978 0.000978 0.999999 0.000000
94.51370239 263.94100952 242.00000000 0.840722 0.187327 -0.508030 0.000000
184.67199707 178.57400513 212.50000000 0.603204 0.116511 -0.789032 0.000000
135.02000427 341.46899414 212.50000000 -0.844761 -0.285705 0.452495 0.000000
164.63699341 311.85198975 222.50000000 -0.739218 0.067726 0.670052 0.000000
215.16000366 187.28500366 227.50000000 0.834363 0.509129 -0.211250 0.000000
132.40600586 299.65600586 267.50000000 -0.000978 -0.000978 -0.999999 0.000000
107.14499664 251.74600220 157.50000000 -0.279262 0.070134 0.957650 0.000000
175.96099854 180.31599426 227.50000000 -0.000978 -0.000978 0.999999 0.000000
85.80269623 224.74200439 182.00000000 0.987101 0.158621 0.021682 0.000000
126.30899811 172.91200256 212.00000000 0.708486 0.705724 0.001381 0.000000
124.56600189 248.26199341 277.50000000 0.779429 0.380802 -0.497474 0.000000
175.96099854 192.51199341 257.50000000 -0.000978 -0.000978 -0.999999 0.000000
141.11700439 297.04299927 207.50000000 0.000978 0.000978 0.999999 0.000000
202.09399414 193.38299561 222.50000000 -0.000978 -0.000978 -0.999999 0.000000
87.54489899 274.39498901 210.00000000 0.961553 0.083003 -0.261777 0.000000
162.02299500 222.12899780 222.50000000 -0.423961 -0.033226 0.905071 0.000000
214.28900146 175.96099854 252.50000000 -0.000978 -0.000978 -0.999999 0.000000
99.30470276 195.12500000 182.50000000 0.124708 0.872953 0.471595 0.000000
152.44099426 252.61700439 187.50000000 -0.418850 -0.346689 0.839269 0.000000
106.27300262 252.61700439 157.50000000 -0.337949 0.094840 0.936374 0.000000
117.59799957 198.17399597 252.00000000 0.428449 0.537629 -0.726213 0.000000
181.18800354 297.04299927 232.50000000 -0.126610 -0.216133 0.968120 0.000000
144.60200500 274.39498901 277.50000000 -0.000978 -0.000978 -0.999999 0.000000
183.80099487 315.33599854 237.50000000 -0.754977 -0.155837 0.636965 0.000000
163.76600647 341.46899414 247.50000000 -0.303116 -0.488442 -0.818257 0.000000
169.86300659 287.46099854 222.50000000 -0.662761 -0.662761 0.348563 0.000000
101.04699707 267.42599487 257.50000000 0.208364 0.032148 -0.977523 0.000000
117.59799957 281.36300659 267.50000000 -0.000978 -0.000978 -0.999999 0.000000
224.74200439 178.57400513 237.50000000 -0.000978 -0.000978 -0.999999 0.000000
170.29899597 150.69900513 230.00000000 0.447429 0.500262 -0.741313 0.000000
168.12100220 146.34399414 222.50000000 0.480593 0.720057 -0.500548 0.000000
140.24600220 267.42599487 277.50000000 -0.000978 -0.000978 -0.999999 0.000000
159.41000366 303.14099121 217.50000000 -0.804741 -0.489219 0.336238 0.000000
236.06599426 177.70300293 252.50000000 -0.000978 -0.000978 -0.999999 0.000000
147.21499634 348.43798828 222.50000000 -0.547698 -0.652182 0.524105 0.000000
141.11700439 348.43798828 217.50000000 -0.221610 -0.197435 0.954939 0.000000
109.75800323 253.48800659 157.50000000 -0.689862 -0.136770 0.710904 0.000000
211.67599487 158.53900146 232.50000000 0.422063 -0.804006 -0.418853 0.000000
127.18000031 321.43399048 257.50000000 0.053716 -0.263583 -0.963140 0.000000
98.43360138 219.51600647 247.50000000 0.834271 0.500563 -0.231147 0.000000
223.87100220 218.64500427 232.50000000 0.531842 0.105215 -0.840282 0.000000
168.99200439 258.71499634 202.50000000 -0.501936 -0.538868 0.676522 0.000000
160.28100586 224.74200439 277.50000000 -0.229351 0.013072 -0.973256 0.000000
108.88700104 289.20300293 177.50000000 -0.724644 -0.424222 0.543071 0.000000
180.31599426 152.87699890 240.00000000 0.355916 0.554189 -0.752462 0.000000
94.07810211 310.10900879 212.50000000 0.880973 -0.377990 -0.284622 0.000000
107.14499664 254.35899353 157.50000000 -0.428139 -0.160012 0.889434 0.000000
108.01599884 290.07400513 177.50000000 -0.724644 -0.424222 0.543071 0.000000
159.41000366 244.77699280 277.50000000 -0.000978 -0.000978 -0.999999 0.000000
210.36900330 152.44099426 232.00000000 0.617391 -0.165345 -0.769084 0.000000
165.50799561 266.55499268 207.50000000 -0.510902 -0.574975 0.639049 0.000000
229.09800720 224.74200439 257.50000000 -0.000978 -0.000978 -0.999999 0.000000
184.67199707 136.76199341 202.50000000 0.427529 0.853514 0.297881 0.000000
105.40200043 283.97698975 172.50000000 0.000978 0.000978 0.999999 0.000000
121.51799774 210.80499268 200.00000000 -0.700985 0.592126 0.397500 0.000000
99.30470276 310.10900879 237.50000000 0.880363 -0.429122 -0.202026 0.000000
209.06199646 206.44900513 257.50000000 0.507180 0.418547 -0.753384 0.000000
167.25000000 304.88299561 227.50000000 -0.776482 -0.390673 0.494420 0.000000
230.83999634 192.51199341 252.50000000 -0.000978 -0.000978 -0.999999 0.000000
155.05499268 280.49200439 207.50000000 -0.945844 -0.189715 0.263417 0.000000
94.94920349 290.07400513 167.50000000 -0.250757 -0.635565 0.730190 0.000000
148.95700073 312.72299194 267.50000000 -0.125820 -0.593573 -0.794884 0.000000
127.18000031 345.38900757 240.00000000 0.521474 -0.756872 -0.393966 0.000000
115.41999817 325.78900146 250.00000000 0.546455 -0.600593 -0.583674 0.000000
182.92999268 177.70300293 212.50000000 0.603204 0.116511 -0.789032 0.000000
163.76600647 217.77299500 222.50000000 -0.440382 0.243648 0.864118 0.000000
134.14799500 342.33999634 207.50000000 -0.220194 0.913879 0.341086 0.000000
152.44099426 243.03500366 187.50000000 -0.894688 -0.446689 -0.001310 0.000000
182.05900574 316.20700073 232.50000000 -0.920772 0.051818 0.386644 0.000000
222.12899780 214.28900146 257.50000000 -0.000978 -0.000978 -0.999999 0.000000
178.57400513 290.94500732 227.50000000 -0.225652 -0.204033 0.952603 0.000000
89.72270203 275.26599121 227.50000000 0.982125 -0.184663 -0.036462 0.000000
183.80099487 179.44500732 252.50000000 -0.000978 -0.000978 -0.999999 0.000000
181.18800354 324.91799927 232.50000000 -0.562948 -0.620426 0.546042 0.000000
138.50399780 163.76600647 202.50000000 0.894688 0.446689 0.001310 0.000000
166.37899780 199.91600037 210.00000000 -0.739147 -0.240105 0.629295 0.000000
86.67379761 256.97299194 160.00000000 0.985368 -0.001129 0.170436 0.000000
119.77500153 219.51600647 172.00000000 -0.482892 0.624226 0.614131 0.000000
145.47300720 251.74600220 277.50000000 -0.000978 -0.000978 -0.999999 0.000000
175.96099854 303.14099121 257.50000000 -0.487486 -0.128743 -0.863587 0.000000
131.53500366 279.62100220 192.50000000 -0.053067 -0.450389 0.891254 0.000000
106.27300262 256.97299194 157.50000000 -0.409284 -0.187892 0.892851 0.000000
163.76600647 262.19900513 202.50000000 -0.587038 -0.401832 0.702792 0.000000
208.19099426 242.16400146 222.50000000 0.457496 -0.762493 0.457496 0.000000
137.63299561 235.19500732 277.50000000 -0.000978 -0.000978 -0.999999 0.000000
166.37899780 208.19099426 272.50000000 -0.479266 0.630614 -0.610434 0.000000
186.41400146 268.29699707 262.50000000 -0.000978 -0.000978 -0.999999 0.000000
155.92599487 324.48199463 260.00000000 -0.255043 -0.561720 -0.787034 0.000000
159.41000366 253.48800659 277.50000000 -0.000978 -0.000978 -0.999999 0.000000
97.99800110 198.60899353 212.00000000 0.773794 0.618737 -0.135675 0.000000
198.17399597 245.64799500 252.00000000 -0.692403 -0.452147 -0.562264 0.000000
93.64260101 232.58200073 242.00000000 0.908836 0.130234 -0.396303 0.000000
90.15820313 237.80900574 230.00000000 0.989090 -0.110937 -0.096924 0.000000
122.82399750 208.19099426 262.50000000 0.547778 -0.189674 -0.814839 0.000000
147.21499634 223.00000000 277.50000000 0.191266 0.273827 -0.942569 0.000000
108.01599884 302.26998901 257.50000000 0.000978 0.000978 -0.999999 0.000000
175.08999634 237.80900574 217.50000000 0.178643 0.218342 0.959382 0.000000
183.36500549 156.79699707 242.00000000 0.223935 0.554433 -0.801534 0.000000
174.21899414 232.58200073 222.50000000 0.019496 0.170873 0.985100 0.000000
87.98049927 214.72500610 182.00000000 0.965162 0.257128 -0.048444 0.000000
159.41000366 227.35499573 277.50000000 -0.000978 -0.000978 -0.999999 0.000000
103.66000366 258.71499634 157.50000000 -0.634460 -0.230286 0.737854 0.000000
166.81399536 344.08200073 230.00000000 -0.637173 -0.282656 0.717019 0.000000
198.17399597 250.00399780 242.00000000 -0.774191 -0.583380 -0.245552 0.000000
228.66200256 162.02299500 242.00000000 0.573589 -0.604045 -0.553285 0.000000
159.41000366 316.20700073 222.50000000 -0.255884 0.018191 0.966536 0.000000
109.32199860 258.71499634 160.00000000 -0.617245 -0.240302 0.749175 0.000000
237.80900574 216.03100586 242.50000000 0.746297 0.098236 -0.658324 0.000000
178.57400513 155.05499268 242.50000000 0.363339 0.555599 -0.747860 0.000000
138.50399780 260.45700073 277.50000000 -0.000978 -0.000978 -0.999999 0.000000
100.17600250 297.04299927 247.50000000 -0.001244 -0.944109 0.329630 0.000000
176.83200073 189.89799500 257.50000000 -0.000978 -0.000978 -0.999999 0.000000
181.18800354 263.07000732 217.50000000 0.000978 0.000978 0.999999 0.000000
161.15199280 326.66000366 257.50000000 -0.010727 -0.237189 -0.971404 0.000000
106.27300262 259.58599854 157.50000000 -0.454955 -0.265008 0.850169 0.000000
110.62899780 278.75000000 262.50000000 0.714642 -0.279782 -0.641100 0.000000
160.28100586 284.84799194 272.50000000 -0.000978 -0.000978 -0.999999 0.000000
161.15199280 300.52700806 267.50000000 -0.079074 -0.067937 -0.994551 0.000000
204.70700073 209.06199646 222.50000000 -0.000978 -0.000978 -0.999999 0.000000
141.11700439 194.25399780 262.50000000 0.369226 0.625223 -0.687581 0.000000
114.11299896 184.23599243 222.00000000 0.187535 0.911905 -0.365048 0.000000
220.38699341 152.44099426 252.50000000 0.000978 0.000978 -0.999999 0.000000
191.64100647 266.98999023 260.00000000 -0.693675 -0.234371 -0.681091 0.000000
103.66000366 260.45700073 157.50000000 -0.756260 -0.229217 0.612805 0.000000
208.19099426 208.19099426 257.50000000 -0.005533 0.138320 -0.990372 0.000000
162.89500427 218.64500427 222.50000000 -0.482854 0.157038 0.861505 0.000000
187.28500366 149.82800293 242.50000000 0.506585 0.658056 -0.557076 0.000000
150.69900513 357.58401489 232.00000000 -0.039782 -0.943211 -0.329803 0.000000
90.15820313 298.78500366 210.00000000 0.950087 -0.305523 -0.063167 0.000000
124.56600189 206.01400757 262.00000000 0.658966 0.182790 -0.729624 0.000000
91.90039825 302.26998901 182.00000000 0.868346 -0.490804 0.071313 0.000000
179.44500732 278.75000000 262.50000000 -0.000978 -0.000978 -0.999999 0.000000
140.24600220 310.10900879 207.50000000 -0.849594 -0.282170 0.445613 0.000000
187.28500366 195.12500000 227.50000000 0.643467 -0.199058 0.739139 0.000000
138.50399780 281.36300659 197.50000000 -0.551924 -0.488176 0.676065 0.000000
104.53099823 261.32800293 157.50000000 -0.304155 -0.318991 0.897627 0.000000
153.31199646 174.21899414 242.50000000 0.175742 0.821634 -0.542248 0.000000
203.83599854 202.09399414 222.50000000 -0.000978 -0.000978 -0.999999 0.000000
141.98800659 272.65200806 197.50000000 -0.304986 -0.139616 0.942067 0.000000
237.80900574 227.35499573 252.50000000 0.155115 0.974827 0.160159 0.000000
138.50399780 351.92199707 217.50000000 0.000978 0.000978 0.999999 0.000000
174.65400696 307.49600220 230.00000000 -0.531157 0.393873 0.750157 0.000000
141.11700439 225.61300659 277.50000000 0.029380 0.335948 -0.941422 0.000000
117.59799957 272.65200806 177.50000000 -0.683780 -0.399009 0.610931 0.000000
183.80099487 206.44900513 227.50000000 -0.787410 -0.599149 -0.144931 0.000000
130.66400146 260.45700073 177.50000000 -0.719684 -0.609214 0.333037 0.000000
231.71099854 172.47700500 242.50000000 0.885088 -0.296031 -0.359144 0.000000
175.08999634 229.09800720 222.50000000 0.000978 0.000978 0.999999 0.000000
138.50399780 324.91799927 212.50000000 -0.683293 -0.395416 0.613805 0.000000
108.88700104 320.56201172 247.50000000 0.439974 -0.099169 -0.892518 0.000000
194.25399780 179.44500732 212.50000000 0.651378 -0.286478 -0.702592 0.000000
162.02299500 267.42599487 202.50000000 0.607981 -0.052437 0.792218 0.000000
162.89500427 338.85501099 252.50000000 -0.196484 -0.400246 -0.895096 0.000000
192.51199341 181.18800354 212.50000000 0.423858 -0.218622 -0.878948 0.000000
213.41799927 160.28100586 232.50000000 0.587260 -0.553412 -0.590645 0.000000
159.41000366 224.74200439 277.50000000 -0.000978 -0.000978 -0.999999 0.000000
170.29899597 162.89500427 240.00000000 0.523992 0.631823 -0.571168 0.000000
163.76600647 216.03100586 222.50000000 -0.865239 0.227219 0.446915 0.000000
156.79699707 248.69700623 202.00000000 -0.849594 0.282170 0.445613 0.000000
138.06799316 324.91799927 260.00000000 0.101437 -0.645374 -0.757102 0.000000
94.51370239 292.68798828 230.00000000 0.941623 -0.202663 -0.268838 0.000000
171.60499573 335.37100220 247.50000000 -0.316601 -0.049990 -0.947241 0.000000
123.69499969 342.33999634 242.50000000 0.390936 -0.684551 -0.615271 0.000000
168.12100220 324.04699707 257.50000000 -0.544375 -0.484075 -0.685075 0.000000
207.32000732 243.03500366 227.50000000 0.527547 -0.810772 0.253658 0.000000
193.38299561 196.86700439 222.50000000 -0.000978 -0.000978 -0.999999 0.000000
132.40600586 300.52700806 267.50000000 -0.000978 -0.000978 -0.999999 0.000000
224.74200439 167.25000000 237.50000000 0.503175 -0.333853 -0.797093 0.000000
156.79699707 317.07800293 222.50000000 -0.365325 -0.222688 0.903852 0.000000
132.40600586 197.73800659 262.50000000 0.202847 0.710738 -0.673576 0.000000
194.25399780 274.39498901 257.50000000 -0.518824 -0.184972 -0.834630 0.000000
105.83799744 263.94100952 160.00000000 -0.377732 -0.564145 0.734206 0.000000
164.63699341 207.32000732 272.50000000 -0.315972 0.678934 -0.662730 0.000000
152.44099426 157.23199463 210.00000000 0.095118 0.636562 0.765338 0.000000
141.11700439 215.16000366 207.50000000 -0.436226 -0.323651 0.839617 0.000000
126.30899811 181.18800354 242.50000000 0.517923 0.776078 -0.359803 0.000000
234.32400513 205.57800293 242.50000000 0.581406 0.017953 -0.813416 0.000000
148.95700073 162.89500427 227.50000000 0.390541 0.713521 -0.581692 0.000000
105.83799744 196.86700439 232.00000000 0.823352 0.546420 -0.153355 0.000000
87.10939789 230.83999634 172.50000000 0.953801 -0.021140 0.299695 0.000000
187.28500366 230.40400696 222.00000000 0.165712 0.658287 0.734301 0.000000
235.19500732 215.16000366 242.50000000 0.758067 0.070753 -0.648328 0.000000
138.50399780 209.06199646 272.50000000 -0.000978 -0.000978 -0.999999 0.000000
235.19500732 176.83200073 252.50000000 -0.000978 -0.000978 -0.999999 0.000000
176.83200073 244.77699280 212.50000000 0.206192 0.876686 0.434634 0.000000
150.69900513 336.24200439 217.50000000 -0.185073 0.149334 0.971312 0.000000
150.69900513 326.22500610 260.00000000 -0.046993 -0.704900 -0.707748 0.000000
221.25799561 195.99600220 252.50000000 -0.000978 -0.000978 -0.999999 0.000000
169.86300659 337.11300659 232.50000000 -0.450867 -0.017290 0.892424 0.000000
185.54299927 280.49200439 262.50000000 -0.502582 -0.549647 -0.667308 0.000000
213.41799927 157.66799927 237.50000000 0.441797 -0.481214 -0.757132 0.000000
175.96099854 244.77699280 272.50000000 -0.000978 -0.000978 -0.999999 0.000000
141.11700439 246.52000427 172.50000000 0.178496 0.868876 0.461729 0.000000
130.66400146 351.92199707 217.50000000 -0.178297 -0.894384 0.410228 0.000000
113.24199677 187.28500366 202.50000000 0.000978 0.000978 0.999999 0.000000
169.86300659 169.86300659 247.50000000 0.359803 0.776078 -0.517923 0.000000
168.99200439 236.06599426 272.50000000 -0.223154 0.116040 -0.967852 0.000000
140.24600220 258.71499634 182.50000000 -0.492249 -0.760451 0.423563 0.000000
179.44500732 279.62100220 222.50000000 -0.987930 0.107153 0.111863 0.000000
131.53500366 262.19900513 277.50000000 -0.000978 -0.000978 -0.999999 0.000000
180.31599426 219.51600647 227.50000000 -0.566518 0.312949 0.762312 0.000000
149.82800293 158.53900146 222.50000000 -0.000978 -0.000978 -0.999999 0.000000
171.60499573 297.04299927 227.50000000 -0.642737 -0.416866 0.642737 0.000000
216.90199280 208.62699890 222.00000000 0.654496 0.070795 -0.752743 0.000000
101.04699707 239.55099487 262.50000000 0.701680 -0.701680 -0.123651 0.000000
99.30470276 231.71099854 257.50000000 0.144821 -0.437330 -0.887564 0.000000
86.67379761 267.42599487 160.00000000 0.917911 -0.054622 0.393010 0.000000
173.34800720 292.68798828 262.50000000 -0.915492 -0.214142 -0.340615 0.000000
146.34399414 176.83200073 247.50000000 0.003807 0.930297 -0.366788 0.000000
166.81399536 230.83999634 272.00000000 -0.482826 0.195821 -0.853541 0.000000
141.11700439 341.46899414 212.50000000 -0.064559 -0.269631 0.960797 0.000000
189.02699280 255.22999573 232.50000000 -0.976143 -0.206468 0.067194 0.000000
186.41400146 301.39801025 237.50000000 0.000978 0.000978 0.999999 0.000000
111.93599701 256.97299194 270.00000000 0.907668 -0.160511 -0.387783 0.000000
161.15199280 233.45300293 222.50000000 0.000978 0.000978 0.999999 0.000000
103.66000366 287.46099854 257.50000000 0.493532 -0.116548 -0.861883 0.000000
156.36099243 324.04699707 260.00000000 -0.269259 -0.499608 -0.823342 0.000000
176.83200073 285.71899414 267.50000000 -0.210702 -0.414037 -0.885538 0.000000
104.09600067 321.43399048 232.00000000 0.773153 -0.556351 -0.304479 0.000000
167.25000000 241.29299927 217.50000000 -0.073277 0.363721 0.928621 0.000000
206.44900513 243.90600586 252.50000000 0.034811 -0.575076 -0.817359 0.000000
221.69299316 192.51199341 230.00000000 0.201986 -0.533061 -0.821613 0.000000
99.30470276 268.29699707 157.50000000 -0.470298 -0.399188 0.787063 0.000000
174.21899414 192.51199341 257.50000000 -0.000978 -0.000978 -0.999999 0.000000
133.27699280 263.94100952 277.50000000 -0.000978 -0.000978 -0.999999 0.000000
186.41400146 290.07400513 232.50000000 0.000978 0.000978 0.999999 0.000000
200.35200500 205.57800293 257.50000000 -0.000978 -0.000978 -0.999999 0.000000
154.18400574 168.99200439 212.50000000 0.899289 0.095906 -0.426710 0.000000
87.10939789 238.67999268 172.50000000 0.947876 0.271788 0.166318 0.000000
166.37899780 154.18400574 207.50000000 -0.000978 -0.000978 -0.999999 0.000000
92.33589935 275.26599121 242.50000000 0.880723 -0.218324 -0.420311 0.000000
179.44500732 238.67999268 222.50000000 -0.462168 0.562277 0.685744 0.000000
120.21099854 306.62500000 262.50000000 0.585783 -0.023542 -0.810126 0.000000
146.34399414 336.24200439 252.50000000 -0.000978 -0.000978 -0.999999 0.000000
140.68200684 273.52301025 192.00000000 -0.597950 -0.191160 0.778405 0.000000
114.11299896 216.03100586 262.50000000 -0.000978 -0.000978 -0.999999 0.000000
182.05900574 317.94900513 237.50000000 -0.825085 -0.087531 0.558188 0.000000
145.47300720 357.14801025 227.50000000 0.000978 0.000978 0.999999 0.000000
229.96899414 189.02699280 237.50000000 0.722265 0.216835 -0.656746 0.000000
93.20700073 307.06100464 200.00000000 0.853801 -0.512849 0.089500 0.000000
167.25000000 276.13699341 212.50000000 -0.591983 -0.204503 0.779573 0.000000
106.27300262 210.36900330 172.00000000 -0.512257 0.404241 0.757748 0.000000
168.12100220 264.37701416 202.00000000 -0.555230 -0.425953 0.714341 0.000000
214.28900146 156.79699707 237.50000000 -0.000978 -0.000978 -0.999999 0.000000
174.21899414 241.29299927 272.50000000 -0.000978 -0.000978 -0.999999 0.000000
166.37899780 351.92199707 232.50000000 -0.116221 -0.265089 0.957194 0.000000
227.35499573 216.46699524 252.00000000 0.824446 -0.335769 -0.455574 0.000000
217.77299500 154.18400574 252.50000000 -0.000978 -0.000978 -0.999999 0.000000
226.48399353 214.28900146 257.50000000 -0.039642 -0.058927 -0.997475 0.000000
183.80099487 238.67999268 272.50000000 -0.094585 0.113268 -0.989052 0.000000
155.05499268 247.39100647 202.50000000 0.115454 0.908331 -0.402002 0.000000
89.72270203 270.91000366 157.50000000 0.191268 -0.001145 0.981537 0.000000
94.94920349 270.91000366 157.50000000 -0.028653 -0.159311 0.986813 0.000000
208.19099426 159.41000366 252.50000000 -0.000978 -0.000978 -0.999999 0.000000
96.69139862 270.91000366 157.50000000 -0.379658 -0.401713 0.833358 0.000000
160.28100586 174.21899414 222.50000000 -0.730346 -0.129939 0.670604 0.000000
177.70300293 180.31599426 252.50000000 0.055059 0.814592 -0.577415 0.000000
124.13099670 326.66000366 252.00000000 0.553669 -0.179528 -0.813155 0.000000
196.86700439 216.03100586 227.50000000 -0.036474 -0.954625 0.295569 0.000000
185.54299927 187.28500366 227.50000000 -0.370974 -0.146990 0.916936 0.000000
153.31199646 177.70300293 247.50000000 0.133500 0.837677 -0.529599 0.000000
216.03100586 201.22300720 222.50000000 0.332705 0.072327 -0.940253 0.000000
136.32600403 224.74200439 192.00000000 -0.586050 0.792000 0.171120 0.000000
141.11700439 206.44900513 272.50000000 0.061047 0.323421 -0.944284 0.000000
