216.17999268 171.81500244 183.75000000 0.469796 0.238699 -0.849891 0.000000
135.51600647 162.13499451 213.75000000 0.066988 -0.577233 0.813827 0.000000
87.11720276 174.23399353 196.25000000 -0.659445 -0.395006 0.639612 0.000000
183.51100159 181.49400330 152.50000000 0.399028 0.914943 0.060459 0.000000
125.43299866 200.85400391 127.50000000 0.406980 -0.435935 -0.802700 0.000000
79.05079651 199.24000549 143.75000000 -0.973012 -0.098675 -0.208592 0.000000
172.62100220 180.68800354 206.25000000 0.488455 -0.042415 0.871557 0.000000
82.27739716 242.39599609 60.00000000 -0.569655 0.711656 -0.411143 0.000000
146.80900574 120.59300232 115.00000000 -0.169235 -0.967611 -0.187321 0.000000
197.62699890 158.90800476 196.25000000 0.000978 0.000978 0.999999 0.000000
166.97500610 209.72700500 171.25000000 0.371553 0.444907 0.814866 0.000000
75.82420349 196.01400757 63.75000000 0.952066 0.001228 -0.305890 0.000000
184.72099304 114.54299927 141.25000000 0.534168 -0.635272 -0.557759 0.000000
148.42199707 169.79800415 147.50000000 -0.514379 0.639179 0.571720 0.000000
202.06399536 196.82000732 162.50000000 0.958140 0.132746 -0.253664 0.000000
152.45500183 146.80900574 193.75000000 0.143730 -0.324419 0.934930 0.000000
134.70899963 253.28500366 206.25000000 0.000978 0.000978 0.999999 0.000000
137.53199768 169.39500427 142.50000000 -0.872941 0.437217 -0.216370 0.000000
218.60000610 146.80900574 183.75000000 -0.000978 -0.000978 -0.999999 0.000000
166.16799927 210.93699646 160.00000000 0.750441 0.659992 -0.035331 0.000000
101.63700104 154.87500000 198.75000000 -0.422842 -0.524851 0.738740 0.000000
108.08999634 257.72198486 85.00000000 0.240571 0.944413 -0.224075 0.000000
131.48199463 152.45500183 208.75000000 0.139537 -0.661674 0.736694 0.000000
189.15699768 116.96299744 145.00000000 0.681848 0.372963 -0.629272 0.000000
71.79100037 219.80999756 132.50000000 -0.988750 -0.148030 0.021470 0.000000
139.54899597 124.62599945 177.50000000 -0.366577 -0.636167 0.678906 0.000000
167.78100586 267.80499268 188.75000000 0.740708 0.412234 0.530485 0.000000
178.67100525 178.26800537 150.00000000 -0.301428 0.374135 -0.877020 0.000000
93.57039642 268.61099243 176.25000000 -0.767460 0.459822 0.446731 0.000000
170.20100403 245.21899414 191.25000000 0.907365 -0.151463 0.392106 0.000000
127.44899750 150.84199524 206.25000000 -0.073297 -0.786144 0.613681 0.000000
75.42089844 212.14700317 182.50000000 -0.952066 0.001228 0.305890 0.000000
162.13499451 144.38900757 121.25000000 0.619471 0.292928 -0.728319 0.000000
126.64299774 193.59399414 218.75000000 0.000978 0.000978 0.999999 0.000000
146.80900574 283.13101196 183.75000000 -0.046977 0.724590 0.687577 0.000000
181.89799500 136.32200623 195.00000000 -0.213569 0.059799 0.975096 0.000000
101.23300171 197.62699890 107.50000000 0.435006 -0.145002 -0.888676 0.000000
159.71499634 275.87100220 168.75000000 0.707585 0.333459 -0.623000 0.000000
111.31600189 210.13000488 95.00000000 0.248645 -0.940406 -0.231976 0.000000
88.32720184 170.20100403 125.00000000 -0.978748 -0.194782 -0.064121 0.000000
160.52200317 141.16200256 116.25000000 0.421240 0.496637 -0.758887 0.000000
120.59300232 133.09599304 110.00000000 0.490180 -0.716161 -0.496826 0.000000
133.09599304 200.85400391 216.25000000 0.182001 0.008013 0.983266 0.000000
79.85749817 184.72099304 118.75000000 -0.902183 -0.367014 0.226642 0.000000
75.01760101 238.36199951 110.00000000 -0.933332 0.358184 0.024392 0.000000
139.54899597 210.13000488 127.50000000 -0.736439 -0.672779 -0.070895 0.000000
152.45500183 238.76600647 203.75000000 0.459766 0.266018 0.847260 0.000000
183.10699463 173.42799377 146.25000000 0.682714 0.511616 -0.521681 0.000000
134.70899963 213.75999451 93.75000000 0.798118 -0.443399 -0.407927 0.000000
104.45999908 137.12899780 152.50000000 -0.655814 -0.749293 -0.092018 0.000000
184.72099304 133.09599304 146.25000000 0.877641 -0.001328 -0.479317 0.000000
126.64299774 290.79400635 175.00000000 -0.108574 0.919439 0.377946 0.000000
133.90199280 188.75399780 218.75000000 -0.353473 0.591294 0.724864 0.000000
172.62100220 114.94599915 165.00000000 -0.000978 -0.999999 -0.000978 0.000000
159.71499634 209.72700500 206.25000000 0.700023 0.223945 0.678098 0.000000
169.39500427 151.64799500 196.25000000 -0.267449 -0.483881 0.833265 0.000000
159.71499634 197.62699890 208.75000000 0.535888 0.162707 0.828462 0.000000
65.33789825 224.24600220 76.25000000 -0.948319 0.259126 0.183152 0.000000
85.50389862 184.72099304 198.75000000 -0.821128 -0.121486 0.557665 0.000000
132.28900146 279.90399170 188.75000000 0.084907 0.579956 0.810211 0.000000
169.79800415 197.62699890 197.50000000 0.944457 0.304102 0.124588 0.000000
83.89070129 210.13000488 57.50000000 0.365239 -0.913807 -0.177645 0.000000
116.15599823 146.80900574 201.25000000 0.001381 -0.719425 0.694569 0.000000
178.26800537 115.34999847 133.75000000 -0.001075 -0.994321 -0.106419 0.000000
154.06799316 116.96299744 133.75000000 -0.162477 -0.980972 -0.106282 0.000000
74.61430359 209.72700500 160.00000000 -0.952066 0.001228 -0.305890 0.000000
101.63700104 210.53300476 81.25000000 0.178062 -0.978726 -0.101925 0.000000
78.64749908 179.88099670 160.00000000 -0.953496 -0.209041 -0.217133 0.000000
216.17999268 162.94099426 193.75000000 0.151842 -0.783266 0.602859 0.000000
134.70899963 179.47799683 117.50000000 0.544248 0.451044 -0.707356 0.000000
158.10200500 241.18600464 198.75000000 0.676903 0.337636 0.654068 0.000000
169.39500427 225.05299377 176.25000000 -0.247771 -0.945909 -0.209442 0.000000
191.17399597 165.36099243 198.75000000 0.000978 0.000978 0.999999 0.000000
95.18360138 199.24000549 98.75000000 0.325880 -0.368719 -0.870545 0.000000
117.76999664 181.49400330 218.75000000 -0.304040 -0.274946 0.912121 0.000000
156.48800659 151.64799500 196.25000000 0.190467 -0.577495 0.793865 0.000000
184.72099304 191.17399597 193.75000000 -0.080345 0.404446 0.911026 0.000000
75.82420349 217.79299927 26.25000000 -0.688180 0.394424 -0.608965 0.000000
130.67599487 212.14700317 91.25000000 0.383750 -0.706561 -0.594565 0.000000
175.84800720 187.54400635 202.50000000 0.545930 0.623678 0.559451 0.000000
158.90800476 228.27900696 151.25000000 0.749242 0.095305 -0.655403 0.000000
115.34999847 230.69900513 211.25000000 -0.107742 0.060109 0.992360 0.000000
58.48149872 206.50000000 62.50000000 -0.978109 -0.205605 0.032089 0.000000
155.68200684 149.22900391 193.75000000 -0.001354 -0.545606 0.838040 0.000000
76.22760010 196.01400757 122.50000000 -0.928362 -0.314150 0.198633 0.000000
213.75999451 153.26199341 178.75000000 0.680084 -0.373799 -0.630683 0.000000
79.05079651 244.41200256 106.25000000 -0.795663 0.590427 -0.135337 0.000000
120.99600220 124.62599945 150.00000000 -0.569401 -0.821545 0.029093 0.000000
77.84089661 191.17399597 155.00000000 -0.967980 -0.194627 -0.158537 0.000000
204.48300171 171.00799561 175.00000000 0.748959 0.052784 -0.660511 0.000000
169.79800415 206.50000000 157.50000000 0.999999 0.000978 0.000978 0.000000
80.66410065 233.11900330 188.75000000 -0.834883 0.330507 0.440154 0.000000
194.80400085 166.97500610 162.50000000 0.952066 -0.001228 -0.305890 0.000000
91.15039825 169.39500427 198.75000000 -0.793906 -0.288837 0.535058 0.000000
200.04699707 194.39999390 151.25000000 0.951836 -0.001231 -0.306607 0.000000
77.84089661 191.98100281 122.50000000 -0.890269 -0.354611 0.285784 0.000000
73.00099945 205.69299316 117.50000000 -0.948126 -0.316042 -0.034270 0.000000
179.07400513 126.64299774 133.75000000 0.553207 -0.244658 -0.796307 0.000000
75.82420349 211.33999634 183.75000000 -0.952066 0.001228 0.305890 0.000000
111.31600189 286.76098633 175.00000000 -0.367771 0.920121 0.134618 0.000000
112.93000031 204.08000183 116.25000000 0.579627 -0.482183 -0.656911 0.000000
168.58799744 199.24000549 176.25000000 0.303631 0.899044 0.315480 0.000000
114.13999939 262.15798950 110.00000000 0.832862 0.417218 -0.363688 0.000000
106.47699738 206.50000000 103.75000000 0.499375 -0.811287 -0.304036 0.000000
149.22900391 164.55499268 123.75000000 0.308694 0.654560 -0.690116 0.000000
97.60359955 200.04699707 211.25000000 -0.417307 0.038664 0.907943 0.000000
129.06300354 239.57200623 208.75000000 -0.138982 0.623178 0.769632 0.000000
171.81500244 259.73800659 188.75000000 -0.476799 0.444029 0.758618 0.000000
133.09599304 215.37300110 91.25000000 0.738238 -0.236675 -0.631656 0.000000
89.53710175 220.21299744 26.25000000 0.621890 -0.497175 -0.605037 0.000000
90.34380341 250.46200562 77.50000000 -0.430304 0.859078 -0.277171 0.000000
207.30700684 143.58200073 178.75000000 0.479965 -0.185745 -0.857399 0.000000
213.75999451 132.28900146 183.75000000 0.425225 0.238907 -0.872988 0.000000
67.35449982 222.63299561 87.50000000 -0.957697 0.260714 0.121841 0.000000
205.69299316 137.12899780 178.75000000 0.612421 0.001370 -0.790530 0.000000
122.20600128 253.28500366 122.50000000 0.795656 0.470964 -0.380951 0.000000
208.11300659 133.09599304 193.75000000 0.000978 0.000978 0.999999 0.000000
116.55999756 263.77200317 120.00000000 0.897169 0.271375 -0.348487 0.000000
185.93099976 142.77499390 150.00000000 0.887676 -0.114676 -0.445961 0.000000
202.06399536 149.22900391 170.00000000 0.707432 0.055963 -0.704562 0.000000
175.84800720 172.62100220 141.25000000 0.305084 0.567041 -0.765106 0.000000
160.52200317 116.55999756 137.50000000 -0.053208 -0.998426 -0.017736 0.000000
191.17399597 148.42199707 158.75000000 0.931358 -0.035072 -0.362411 0.000000
129.06300354 206.90299988 147.50000000 -0.006739 -0.521602 -0.853162 0.000000
74.61430359 199.24000549 180.00000000 -0.986983 -0.014765 0.160143 0.000000
210.53300476 130.67599487 181.25000000 0.593252 -0.239492 -0.768567 0.000000
120.19000244 131.48199463 113.75000000 0.106107 -0.965190 -0.239060 0.000000
175.04100037 202.46699524 146.25000000 -0.001228 0.952066 -0.305890 0.000000
132.28900146 227.06900024 102.50000000 0.579700 0.385919 -0.717645 0.000000
62.51470184 219.40600586 55.00000000 -0.936039 0.285973 -0.205064 0.000000
129.86900330 212.14700317 216.25000000 0.000978 0.000978 0.999999 0.000000
99.62020111 171.81500244 85.00000000 0.573991 -0.066942 -0.816121 0.000000
131.88600159 151.64799500 105.00000000 0.213168 0.689297 -0.692409 0.000000
83.48729706 260.54501343 147.50000000 -0.793876 0.572758 -0.204227 0.000000
86.71389771 164.55499268 100.00000000 -0.859078 -0.430304 -0.277171 0.000000
122.60900116 208.91999817 216.25000000 -0.000978 -0.000978 0.999999 0.000000
179.07400513 179.88099670 151.25000000 -0.201895 0.759802 -0.618013 0.000000
95.18360138 223.44000244 206.25000000 -0.575281 0.249236 0.779059 0.000000
150.03500366 177.46099854 153.75000000 -0.608347 0.091470 -0.788383 0.000000
161.32800293 156.48800659 198.75000000 0.029416 -0.631743 0.774620 0.000000
88.32720184 158.90800476 145.00000000 -0.927987 -0.330726 -0.171643 0.000000
158.90800476 214.56599426 206.25000000 0.538740 0.182598 0.822446 0.000000
151.64799500 275.87100220 161.25000000 0.522528 0.522528 -0.673742 0.000000
179.07400513 175.84800720 203.75000000 0.609379 0.001369 0.792878 0.000000
130.27299500 199.24000549 137.50000000 0.813592 0.320698 0.484996 0.000000
129.06300354 145.59899902 130.00000000 0.539651 0.264351 -0.799309 0.000000
134.70899963 180.68800354 118.75000000 0.561870 0.524749 -0.639485 0.000000
210.53300476 156.48800659 176.25000000 0.647303 0.020971 -0.761944 0.000000
146.00199890 211.33999634 213.75000000 0.000978 0.000978 0.999999 0.000000
214.56599426 141.96899414 193.75000000 0.466835 -0.028252 0.883893 0.000000
183.91400146 162.13499451 143.75000000 0.593107 0.082256 -0.800911 0.000000
88.32720184 155.68200684 170.00000000 -0.819310 -0.545705 0.175889 0.000000
117.76999664 237.95899963 208.75000000 -0.113179 0.412197 0.904038 0.000000
125.02899933 281.51800537 188.75000000 -0.437900 0.517218 0.735342 0.000000
100.83000183 275.46798706 180.00000000 -0.633342 0.548896 0.545519 0.000000
119.78600311 230.69900513 212.50000000 -0.149185 0.358323 0.921601 0.000000
213.75999451 175.84800720 193.75000000 0.000978 0.000978 0.999999 0.000000
143.58200073 250.05900574 148.75000000 0.574755 0.448142 -0.684708 0.000000
121.80300140 190.36700439 123.75000000 0.324291 0.528771 -0.784370 0.000000
140.35600281 212.95300293 213.75000000 -0.001370 0.612421 0.790530 0.000000
148.42199707 118.17299652 127.50000000 -0.047385 -0.995076 -0.087055 0.000000
139.54899597 254.89900208 146.25000000 0.711474 0.185936 -0.677667 0.000000
81.47070313 181.49400330 191.25000000 -0.777185 -0.384536 0.498112 0.000000
206.50000000 155.68200684 173.75000000 0.565725 0.121961 -0.815525 0.000000
173.83099365 250.05900574 177.50000000 0.939746 0.212380 -0.267904 0.000000
149.22900391 187.14100647 153.75000000 -0.000978 -0.000978 -0.999999 0.000000
108.89700317 134.30599976 140.00000000 -0.664246 -0.747451 -0.009707 0.000000
166.97500610 146.00199890 193.75000000 -0.061995 -0.272020 0.960293 0.000000
79.05079651 201.66000366 193.75000000 -0.891697 0.108127 0.439529 0.000000
116.96299744 148.42199707 98.75000000 0.739340 -0.172259 -0.650924 0.000000
176.65400696 120.19000244 186.25000000 -0.123149 -0.850454 0.511431 0.000000
81.47070313 225.85899353 26.25000000 -0.446689 0.894688 -0.001310 0.000000
120.99600220 243.60600281 208.75000000 0.000978 0.000978 0.999999 0.000000
166.97500610 174.63800049 140.00000000 0.067519 0.888775 -0.453344 0.000000
171.00799561 261.75500488 187.50000000 0.509812 0.319228 0.798865 0.000000
129.06300354 154.47200012 210.00000000 0.145940 -0.529218 0.835841 0.000000
191.17399597 150.03500366 158.75000000 0.941348 -0.031932 -0.335922 0.000000
220.21299744 152.45500183 183.75000000 0.180403 -0.180403 -0.966907 0.000000
158.90800476 150.84199524 196.25000000 0.012305 -0.553711 0.832618 0.000000
190.36700439 163.74800110 198.75000000 0.000978 0.000978 0.999999 0.000000
208.91999817 150.84199524 193.75000000 0.000978 0.000978 0.999999 0.000000
127.44899750 141.56500244 195.00000000 0.181350 -0.868415 0.461484 0.000000
83.08399963 226.66600037 26.25000000 -0.446689 0.894688 -0.001310 0.000000
169.39500427 215.37300110 196.25000000 0.551481 -0.451514 0.701430 0.000000
162.13499451 214.56599426 153.75000000 0.928738 0.347076 -0.130325 0.000000
171.00799561 193.59399414 198.75000000 0.933237 0.319374 0.164526 0.000000
120.99600220 244.41200256 108.75000000 0.447200 0.699893 -0.556922 0.000000
100.83000183 253.28500366 66.25000000 -0.110014 0.903788 -0.413598 0.000000
198.43400574 204.88699341 178.75000000 0.876671 0.439075 0.196623 0.000000
206.50000000 123.81900024 192.50000000 0.428253 0.172753 0.886992 0.000000
154.06799316 117.36599731 130.00000000 -0.314572 -0.943716 -0.102203 0.000000
223.84300232 150.84199524 187.50000000 0.994554 -0.103260 0.014130 0.000000
177.05799866 134.70899963 135.00000000 0.788570 0.194463 -0.583388 0.000000
119.38300323 239.57200623 93.75000000 0.781622 0.542837 -0.307236 0.000000
106.47699738 200.04699707 213.75000000 -0.251171 0.320859 0.913215 0.000000
161.32800293 248.44500732 196.25000000 0.588375 0.106579 0.801533 0.000000
66.14459991 189.96400452 60.00000000 -0.613289 -0.789313 -0.029337 0.000000
130.27299500 120.99600220 142.50000000 -0.333548 -0.917616 -0.216162 0.000000
74.61430359 238.76600647 122.50000000 -0.952066 0.305890 -0.001228 0.000000
115.34999847 134.70899963 181.25000000 -0.689222 -0.689222 0.223489 0.000000
166.16799927 166.16799927 203.75000000 0.266737 -0.585559 0.765488 0.000000
161.32800293 277.48400879 171.25000000 0.679627 0.505105 -0.531955 0.000000
133.90199280 164.15100098 145.00000000 -0.819117 0.570985 -0.054984 0.000000
99.21679688 250.46200562 57.50000000 -0.303360 0.907150 -0.291636 0.000000
134.70899963 258.93200684 143.75000000 0.706744 0.209693 -0.675678 0.000000
129.86900330 130.67599487 178.75000000 -0.152185 -0.757913 0.634356 0.000000
59.69139862 197.22399902 60.00000000 -0.943366 -0.133610 0.303659 0.000000
219.00300598 178.26800537 187.50000000 0.708710 0.226850 -0.668034 0.000000
84.69730377 206.90299988 65.00000000 0.595204 -0.764813 -0.246562 0.000000
119.38300323 126.23899841 137.50000000 -0.611218 -0.789904 -0.049635 0.000000
195.20700073 169.39500427 198.75000000 0.325794 0.058409 0.943635 0.000000
86.31060028 265.78799438 155.00000000 -0.813152 0.580823 0.037788 0.000000
143.58200073 229.08599854 208.75000000 0.208786 0.151726 0.966120 0.000000
122.60900116 161.73199463 215.00000000 -0.074661 -0.405886 0.910869 0.000000
189.15699768 137.12899780 157.50000000 0.786484 0.174269 -0.592515 0.000000
201.25700378 194.39999390 177.50000000 0.996676 -0.057605 -0.057605 0.000000
202.06399536 196.01400757 170.00000000 0.950967 -0.259599 0.168134 0.000000
118.57599640 233.92599487 211.25000000 -0.046416 0.277241 0.959679 0.000000
80.66410065 223.44000244 191.25000000 -0.001228 0.952066 -0.305890 0.000000
111.31600189 171.00799561 96.25000000 0.626305 0.101206 -0.772981 0.000000
221.82600403 175.04100037 191.25000000 0.848261 -0.037241 0.528267 0.000000
175.84800720 183.51100159 137.50000000 -0.564468 -0.140747 -0.813367 0.000000
96.39360046 271.83801270 135.00000000 -0.641056 0.696235 -0.322962 0.000000
162.13499451 162.94099426 128.75000000 0.434092 0.312733 -0.844845 0.000000
74.61430359 196.82000732 110.00000000 -0.735716 0.244188 0.631739 0.000000
218.60000610 150.84199524 183.75000000 0.312787 -0.107812 -0.943685 0.000000
172.62100220 233.92599487 168.75000000 -0.001350 0.840871 -0.541234 0.000000
140.35600281 126.64299774 178.75000000 -0.243729 -0.614826 0.750057 0.000000
126.64299774 124.62599945 130.00000000 -0.246500 -0.918250 -0.309927 0.000000
73.80760193 206.50000000 165.00000000 -0.967234 -0.224193 -0.119143 0.000000
141.56500244 161.32800293 145.00000000 -0.865622 0.106955 0.489141 0.000000
206.50000000 171.00799561 176.25000000 0.709927 0.064801 -0.701287 0.000000
171.81500244 129.06300354 191.25000000 -0.134448 -0.417496 0.898677 0.000000
142.77499390 133.90199280 93.75000000 0.631411 0.463928 -0.621362 0.000000
161.32800293 175.84800720 208.75000000 0.000978 0.000978 0.999999 0.000000
120.19000244 241.18600464 208.75000000 -0.091704 0.105633 0.990168 0.000000
153.26199341 250.86500549 198.75000000 0.358029 0.161464 0.919644 0.000000
172.62100220 160.52200317 198.75000000 0.379686 -0.698557 0.606512 0.000000
157.69799805 217.79299927 137.50000000 0.689222 0.689222 -0.223489 0.000000
82.68070221 245.21899414 77.50000000 -0.581753 0.813364 0.001362 0.000000
112.12300110 178.67100525 105.00000000 0.148003 0.886579 -0.438260 0.000000
141.96899414 123.41600037 178.75000000 -0.243729 -0.614826 0.750057 0.000000
150.84199524 166.16799927 126.25000000 0.172647 0.737953 -0.652394 0.000000
183.10699463 158.90800476 198.75000000 0.000978 0.000978 0.999999 0.000000
86.31060028 215.37300110 201.25000000 -0.952066 -0.001228 0.305890 0.000000
167.78100586 183.91400146 208.75000000 0.133015 -0.042064 0.990221 0.000000
188.75399780 203.27400208 143.75000000 0.329326 0.800247 -0.501148 0.000000
124.22299957 124.62599945 137.50000000 -0.504695 -0.862244 0.042631 0.000000
110.91300201 237.15199280 62.50000000 0.930230 0.273264 -0.244946 0.000000
145.19500732 257.31799316 201.25000000 0.420499 0.489219 0.764098 0.000000
86.31060028 200.04699707 83.75000000 0.780313 -0.508900 -0.363500 0.000000
136.72599792 119.38300323 127.50000000 -0.427740 -0.903878 0.006540 0.000000
200.85400391 196.82000732 156.25000000 0.991081 0.044174 -0.125726 0.000000
134.70899963 294.82699585 162.50000000 -0.116253 0.900611 -0.418791 0.000000
85.50389862 160.92500305 175.00000000 -0.801509 -0.558441 0.213838 0.000000
145.19500732 140.35600281 188.75000000 0.106151 -0.568562 0.815763 0.000000
147.61500549 258.93200684 153.75000000 0.432839 0.256666 -0.864160 0.000000
75.01760101 212.95300293 28.75000000 -0.123297 -0.646193 -0.753149 0.000000
180.68800354 138.74200439 138.75000000 0.914873 0.132692 -0.381314 0.000000
67.35449982 211.33999634 95.00000000 -0.933270 -0.141155 0.330276 0.000000
175.84800720 191.57699585 195.00000000 -0.170536 0.852681 0.493814 0.000000
162.94099426 213.75999451 203.75000000 0.522528 0.522528 0.673742 0.000000
133.90199280 250.05900574 206.25000000 0.029916 0.218987 0.975269 0.000000
93.57039642 151.24499512 112.50000000 -0.820562 -0.568299 0.060940 0.000000
71.38770294 213.75999451 30.00000000 -0.369423 0.181146 -0.911434 0.000000
167.78100586 175.84800720 143.75000000 -0.001228 0.952066 -0.305890 0.000000
113.73600006 209.72700500 98.75000000 0.001075 -0.994321 -0.106419 0.000000
148.42199707 229.08599854 208.75000000 0.354770 0.186646 0.916134 0.000000
132.28900146 238.76600647 123.75000000 0.773891 0.560952 -0.293983 0.000000
108.08999634 208.11300659 101.25000000 0.503775 -0.831459 -0.234279 0.000000
151.24499512 241.99200439 150.00000000 0.757606 0.256736 -0.600100 0.000000
117.76999664 265.38500977 123.75000000 0.888705 0.172522 -0.424781 0.000000
87.11720276 185.52699280 201.25000000 -0.791332 -0.190591 0.580920 0.000000
190.77099609 125.02899933 195.00000000 0.173481 -0.312265 0.934021 0.000000
128.25599670 179.88099670 111.25000000 0.628189 0.513667 -0.584401 0.000000
164.95799255 242.79899597 195.00000000 0.952318 0.162068 0.258505 0.000000
79.05079651 213.75999451 28.75000000 -0.000978 -0.000978 -0.999999 0.000000
120.59300232 208.11300659 105.00000000 -0.141279 -0.988956 -0.044796 0.000000
110.10600281 232.31300354 210.00000000 -0.410124 0.191196 0.891764 0.000000
159.71499634 146.80900574 193.75000000 -0.295352 -0.473500 0.829798 0.000000
165.36099243 173.42799377 138.75000000 -0.009627 0.807328 -0.590024 0.000000
125.83599854 143.58200073 123.75000000 0.796381 0.474611 -0.374862 0.000000
212.95300293 146.00199890 193.75000000 0.000978 0.000978 0.999999 0.000000
214.97000122 181.49400330 187.50000000 0.396376 0.554268 -0.731897 0.000000
184.72099304 138.74200439 196.25000000 -0.206927 0.069792 0.975864 0.000000
146.00199890 282.72799683 157.50000000 0.706807 0.095514 -0.700929 0.000000
157.69799805 169.39500427 207.50000000 0.161963 -0.325310 0.931634 0.000000
150.84199524 138.74200439 108.75000000 0.581344 0.150940 -0.799535 0.000000
138.74200439 152.45500183 108.75000000 0.386830 0.581068 -0.716047 0.000000
163.74800110 128.25599670 186.25000000 -0.207697 -0.513937 0.832305 0.000000
150.03500366 174.23399353 156.25000000 0.773663 -0.387642 -0.501178 0.000000
202.06399536 196.01400757 162.50000000 0.958140 0.132746 -0.253664 0.000000
154.87500000 144.38900757 113.75000000 0.513758 0.503717 -0.694494 0.000000
84.29399872 171.81500244 190.00000000 -0.806318 -0.250129 0.535992 0.000000
101.63700104 217.79299927 58.75000000 0.271803 -0.867038 -0.417575 0.000000
179.88099670 127.85299683 192.50000000 -0.075248 -0.336637 0.938623 0.000000
112.93000031 207.30700684 216.25000000 0.000978 0.000978 0.999999 0.000000
107.28299713 278.69400024 132.50000000 -0.412197 0.868505 -0.275305 0.000000
150.03500366 283.13101196 183.75000000 0.000978 0.000978 0.999999 0.000000
106.47699738 256.51199341 201.25000000 -0.582126 0.360364 0.728881 0.000000
113.33300018 283.13101196 182.50000000 -0.418441 0.871626 0.255294 0.000000
96.39360046 146.80900574 145.00000000 -0.524421 -0.591870 -0.612105 0.000000
95.58699799 196.01400757 100.00000000 0.816001 -0.087788 -0.571345 0.000000
61.70800018 202.46699524 75.00000000 -0.900850 -0.001304 0.434129 0.000000
144.38900757 227.06900024 130.00000000 0.906057 0.363872 -0.216004 0.000000
118.17299652 158.90800476 97.50000000 0.462229 0.332868 -0.821915 0.000000
112.93000031 208.11300659 106.25000000 0.300682 -0.890077 -0.342568 0.000000
164.15100098 207.30700684 180.00000000 0.987081 0.001120 0.160219 0.000000
79.45410156 184.72099304 190.00000000 -0.840974 -0.266951 0.470637 0.000000
180.68800354 122.60900116 191.25000000 -0.079252 -0.595111 0.799726 0.000000
153.26199341 193.59399414 151.25000000 -0.000978 -0.000978 -0.999999 0.000000
93.57039642 269.82101440 140.00000000 -0.660827 0.660827 -0.355830 0.000000
106.47699738 202.46699524 213.75000000 0.000978 0.000978 0.999999 0.000000
76.63089752 191.17399597 161.25000000 -0.933699 0.297276 -0.199580 0.000000
107.28299713 172.62100220 91.25000000 0.740852 0.437251 -0.509852 0.000000
179.47799683 204.08000183 162.50000000 -0.446689 0.894688 0.001310 0.000000
114.54299927 215.77600098 75.00000000 0.582927 -0.582927 -0.566031 0.000000
91.95709991 200.04699707 93.75000000 0.739973 -0.605723 -0.292473 0.000000
149.22900391 216.98599243 211.25000000 -0.564691 -0.707106 0.425588 0.000000
83.08399963 216.17999268 28.75000000 0.454609 -0.859376 -0.234101 0.000000
186.33399963 146.80900574 196.25000000 0.000978 0.000978 0.999999 0.000000
130.67599487 280.71099854 188.75000000 0.272400 0.546374 0.792006 0.000000
116.55999756 225.85899353 67.50000000 0.550033 -0.392412 -0.737209 0.000000
93.57039642 260.54501343 183.75000000 -0.704825 0.541532 0.458219 0.000000
164.55499268 211.33999634 146.25000000 0.708615 0.687372 -0.159325 0.000000
137.93600464 184.72099304 136.25000000 0.743362 0.668888 -0.001379 0.000000
108.89700317 180.68800354 106.25000000 0.534168 0.635272 -0.557759 0.000000
180.68800354 180.28399658 150.00000000 -0.375601 0.765835 -0.521939 0.000000
112.12300110 221.82600403 213.75000000 -0.483003 -0.036735 0.874848 0.000000
127.44899750 148.42199707 96.25000000 0.302666 -0.101770 -0.947648 0.000000
118.57599640 135.91900635 185.00000000 0.001228 -0.952066 0.305890 0.000000
166.16799927 129.86900330 111.25000000 0.717960 0.607254 -0.340258 0.000000
131.48199463 127.44899750 118.75000000 -0.469334 -0.683123 0.559526 0.000000
123.81900024 159.71499634 102.50000000 0.925393 0.231704 -0.299935 0.000000
118.57599640 201.66000366 123.75000000 0.491147 -0.416088 -0.765275 0.000000
183.10699463 129.06300354 193.75000000 -0.235492 -0.171630 0.956602 0.000000
122.60900116 251.67199707 121.25000000 0.819944 0.421913 -0.386886 0.000000
71.38770294 230.69900513 95.00000000 -0.894688 0.446689 -0.001310 0.000000
144.38900757 238.76600647 206.25000000 0.276649 -0.207139 0.938381 0.000000
176.65400696 154.06799316 138.75000000 0.654127 -0.055823 -0.754322 0.000000
170.60499573 244.41200256 190.00000000 0.874425 -0.045158 0.483055 0.000000
106.87999725 208.91999817 95.00000000 -0.000978 -0.000978 -0.999999 0.000000
208.91999817 159.71499634 193.75000000 0.000978 0.000978 0.999999 0.000000
141.96899414 132.28900146 183.75000000 -0.124147 -0.533100 0.836894 0.000000
216.98599243 153.26199341 193.75000000 0.278044 0.062211 0.958552 0.000000
108.89700317 268.20800781 112.50000000 0.293612 0.818031 -0.494587 0.000000
74.21099854 218.60000610 28.75000000 -0.724411 0.361388 -0.587051 0.000000
171.81500244 132.28900146 123.75000000 0.765463 0.524935 -0.372168 0.000000
103.25000000 266.99798584 191.25000000 -0.840871 0.001350 0.541234 0.000000
76.22760010 205.69299316 135.00000000 -0.985472 -0.152612 0.074531 0.000000
162.13499451 176.65400696 208.75000000 0.000978 0.000978 0.999999 0.000000
149.22900391 246.02499390 203.75000000 0.289863 0.051897 0.955660 0.000000
153.26199341 128.25599670 183.75000000 -0.292321 -0.586239 0.755561 0.000000
93.16699982 268.61099243 135.00000000 -0.689222 0.689222 -0.223489 0.000000
116.15599823 266.99798584 198.75000000 -0.161599 0.599578 0.783831 0.000000
164.55499268 220.61599731 167.50000000 0.977814 -0.169785 -0.122691 0.000000
154.06799316 141.96899414 111.25000000 0.579748 0.423598 -0.696030 0.000000
130.67599487 178.26800537 113.75000000 0.728445 0.571297 -0.378137 0.000000
118.57599640 189.56100464 123.75000000 0.365645 0.500949 -0.784445 0.000000
131.07899475 284.74398804 142.50000000 0.525473 0.528831 -0.666495 0.000000
100.02300262 145.19500732 123.75000000 -0.862257 -0.343977 0.371742 0.000000
194.39999390 184.72099304 141.25000000 0.607761 -0.387056 -0.693407 0.000000
187.94700623 152.85800171 197.50000000 -0.057098 -0.150320 0.986987 0.000000
116.96299744 171.00799561 216.25000000 -0.111065 -0.043753 0.992850 0.000000
197.62699890 118.57599640 161.25000000 0.498860 0.569405 -0.653389 0.000000
137.93600464 242.79899597 206.25000000 -0.075545 0.126684 0.989062 0.000000
75.01760101 220.21299744 28.75000000 -0.724411 0.361388 -0.587051 0.000000
162.94099426 274.25799561 171.25000000 0.724162 0.203137 -0.659034 0.000000
183.10699463 121.80300140 141.25000000 0.952066 0.001228 -0.305890 0.000000
91.95709991 220.21299744 28.75000000 0.719425 0.001381 -0.694569 0.000000
141.16200256 255.70500183 203.75000000 0.395580 0.216172 0.892629 0.000000
161.32800293 204.08000183 131.25000000 -0.330307 -0.755678 -0.565550 0.000000
106.47699738 138.33900452 107.50000000 -0.523246 -0.850796 -0.048577 0.000000
159.71499634 176.25100708 147.50000000 -0.134574 0.960310 -0.244324 0.000000
170.20100403 133.90199280 123.75000000 0.746931 0.526956 -0.405477 0.000000
114.54299927 249.25199890 93.75000000 0.951836 0.001231 -0.306607 0.000000
181.49400330 203.67700195 170.00000000 -0.703063 0.489305 0.516025 0.000000
102.44300079 149.22900391 193.75000000 -0.492697 -0.570049 0.657490 0.000000
65.74120331 190.36700439 72.50000000 -0.689222 0.689222 0.223489 0.000000
154.06799316 162.13499451 203.75000000 0.154002 -0.433222 0.888033 0.000000
200.44999695 205.69299316 165.00000000 0.895573 0.444469 -0.019902 0.000000
150.84199524 227.47300720 138.75000000 0.794327 0.305998 -0.524795 0.000000
125.02899933 256.51199341 206.25000000 -0.049117 0.388953 0.919947 0.000000
137.12899780 166.97500610 141.25000000 -0.401788 -0.610122 0.682874 0.000000
221.82600403 142.77499390 183.75000000 -0.000978 -0.000978 -0.999999 0.000000
140.75900269 239.57200623 207.50000000 0.375879 0.602392 0.704158 0.000000
94.37699890 273.85501099 152.50000000 -0.639822 0.758582 -0.123214 0.000000
121.80300140 182.30099487 116.25000000 0.101918 0.897720 -0.428616 0.000000
190.36700439 176.65400696 198.75000000 0.000978 0.000978 0.999999 0.000000
105.66999817 280.30801392 140.00000000 -0.580861 0.775003 -0.248940 0.000000
144.38900757 166.16799927 153.75000000 -0.387452 0.595192 -0.704008 0.000000
169.39500427 264.98199463 187.50000000 0.544116 0.090447 0.834120 0.000000
180.68800354 141.96899414 141.25000000 0.820541 0.302800 -0.484794 0.000000
191.57699585 164.55499268 155.00000000 0.883019 -0.076482 -0.463064 0.000000
180.28399658 138.74200439 195.00000000 -0.251789 -0.003580 0.967776 0.000000
129.86900330 274.25799561 141.25000000 0.816695 0.326994 -0.475484 0.000000
170.20100403 199.24000549 183.75000000 0.433001 0.701761 -0.565722 0.000000
154.87500000 258.93200684 158.75000000 0.484131 0.239775 -0.841502 0.000000
164.55499268 199.24000549 138.75000000 -0.272968 -0.697586 -0.662467 0.000000
139.54899597 224.24600220 108.75000000 0.689204 0.468926 -0.552364 0.000000
174.23399353 192.78700256 138.75000000 -0.189357 0.691228 -0.697386 0.000000
65.33789825 226.26300049 70.00000000 0.392527 0.786669 0.476524 0.000000
129.06300354 200.04699707 128.75000000 0.556401 -0.230929 -0.798179 0.000000
83.48729706 184.72099304 130.00000000 -0.961346 -0.261721 0.085538 0.000000
144.38900757 166.16799927 143.75000000 -0.747752 0.531771 0.397601 0.000000
107.28299713 284.34100342 160.00000000 -0.606177 0.792473 -0.067353 0.000000
96.39360046 216.17999268 207.50000000 -0.586105 0.151398 0.795964 0.000000
157.69799805 204.08000183 135.00000000 -0.451860 -0.774851 -0.442073 0.000000
103.25000000 257.72198486 87.50000000 -0.208643 0.973249 -0.096200 0.000000
199.64399719 207.30700684 167.50000000 0.929579 0.368516 -0.008926 0.000000
80.66410065 254.09199524 161.25000000 -0.915037 0.369126 0.162642 0.000000
212.14700317 154.06799316 178.75000000 0.702977 -0.169263 -0.690778 0.000000
78.24420166 224.24600220 28.75000000 -0.635919 0.406789 -0.655843 0.000000
162.13499451 212.14700317 173.75000000 0.677183 -0.563483 0.473192 0.000000
167.78100586 200.85400391 138.75000000 -0.048025 0.165159 -0.985097 0.000000
146.80900574 246.83200073 148.75000000 0.460908 0.434849 -0.773609 0.000000
93.57039642 233.92599487 201.25000000 -0.550034 0.124674 0.825784 0.000000
95.99030304 146.40499878 172.50000000 -0.783213 -0.614027 0.097719 0.000000
136.32200623 143.58200073 101.25000000 0.518723 0.666450 -0.535510 0.000000
207.30700684 131.48199463 178.75000000 0.565520 -0.124855 -0.815229 0.000000
147.61500549 120.99600220 176.25000000 -0.361388 -0.724411 0.587051 0.000000
141.16200256 279.50100708 152.50000000 0.489687 0.128561 -0.862368 0.000000
73.80760193 234.73300171 150.00000000 -0.999999 -0.000978 -0.000978 0.000000
77.43750000 181.49400330 183.75000000 -0.949487 -0.248578 0.191527 0.000000
123.81900024 124.22299957 165.00000000 -0.499358 -0.831239 0.244301 0.000000
162.53799438 208.91999817 130.00000000 0.930687 -0.343028 0.127098 0.000000
153.66499329 220.21299744 122.50000000 0.319519 0.796412 -0.513455 0.000000
124.22299957 182.70399475 115.00000000 0.017716 0.976724 -0.213769 0.000000
182.70399475 122.60900116 140.00000000 0.816721 0.526468 -0.236216 0.000000
186.33399963 144.38900757 196.25000000 0.000978 0.000978 0.999999 0.000000
179.07400513 166.97500610 201.25000000 0.247451 -0.444805 0.860765 0.000000
150.84199524 166.97500610 208.75000000 0.637886 0.026637 0.769670 0.000000
154.06799316 115.75299835 157.50000000 -0.108830 -0.988833 0.101809 0.000000
95.18360138 252.88200378 195.00000000 -0.696640 0.539604 0.472780 0.000000
200.85400391 136.32200623 173.75000000 0.645484 0.351340 -0.678167 0.000000
196.82000732 126.64299774 166.25000000 0.858664 0.253800 -0.445289 0.000000
134.70899963 259.73800659 201.25000000 0.282806 0.423445 0.860648 0.000000
142.77499390 237.55599976 137.50000000 0.613818 0.573235 -0.542798 0.000000
152.45500183 233.11900330 146.25000000 0.672135 0.548100 -0.497816 0.000000
175.04100037 122.20600128 120.00000000 0.875359 0.400639 -0.270620 0.000000
145.19500732 167.78100586 211.25000000 0.491017 -0.153901 0.857448 0.000000
156.48800659 126.64299774 183.75000000 -0.254097 -0.534694 0.805939 0.000000
114.54299927 169.39500427 216.25000000 -0.277593 -0.376626 0.883796 0.000000
104.05699921 139.95199585 125.00000000 -0.584042 -0.584042 -0.563728 0.000000
139.54899597 242.79899597 138.75000000 0.721359 0.325827 -0.611129 0.000000
128.25599670 182.70399475 117.50000000 0.086449 0.956102 -0.279992 0.000000
132.28900146 188.35099792 127.50000000 0.431387 0.641251 -0.634589 0.000000
147.61500549 223.44000244 208.75000000 0.046677 0.404087 0.913529 0.000000
87.11720276 203.67700195 80.00000000 0.844318 -0.282468 -0.455345 0.000000
106.47699738 252.47900391 203.75000000 -0.329699 0.426578 0.842217 0.000000
133.49899292 260.54501343 142.50000000 0.718165 0.269113 -0.641730 0.000000
148.42199707 157.29499817 118.75000000 0.346106 0.589843 -0.729586 0.000000
162.13499451 120.99600220 181.25000000 -0.293908 -0.498229 0.815712 0.000000
62.11140060 211.33999634 76.25000000 -0.952066 0.001228 0.305890 0.000000
152.45500183 116.96299744 136.25000000 -0.162477 -0.980972 -0.106282 0.000000
188.75399780 185.93099976 162.50000000 0.246662 -0.906374 0.342992 0.000000
79.45410156 182.30099487 155.00000000 -0.928591 -0.270780 -0.253767 0.000000
96.79689789 227.47300720 28.75000000 0.153642 0.373533 -0.914804 0.000000
212.95300293 166.97500610 193.75000000 -0.000978 -0.000978 0.999999 0.000000
127.44899750 258.93200684 133.75000000 0.747110 0.192554 -0.636199 0.000000
96.79689789 251.67199707 198.75000000 -0.613215 0.391730 0.685941 0.000000
173.42799377 125.83599854 188.75000000 0.034963 -0.597169 0.801353 0.000000
95.99030304 211.33999634 208.75000000 -0.498835 0.251734 0.829333 0.000000
140.35600281 190.36700439 216.25000000 0.000978 0.000978 0.999999 0.000000
135.51600647 146.00199890 198.75000000 0.441778 -0.688506 0.575145 0.000000
77.84089661 175.84800720 177.50000000 -0.933210 -0.312924 0.176628 0.000000
82.27739716 258.52801514 160.00000000 -0.910288 0.379168 0.166152 0.000000
171.81500244 217.38999939 195.00000000 0.766047 -0.354682 0.536071 0.000000
130.27299500 149.22900391 135.00000000 0.593076 0.328050 -0.735285 0.000000
72.59770203 234.32899475 65.00000000 -0.757304 0.637335 -0.142463 0.000000
139.14599609 263.77200317 150.00000000 0.579278 0.729401 -0.363884 0.000000
212.14700317 139.54899597 193.75000000 0.000978 0.000978 0.999999 0.000000
133.09599304 140.75900269 92.50000000 -0.001231 0.951836 -0.306607 0.000000
112.93000031 243.20199585 77.50000000 0.904434 0.365560 -0.219919 0.000000
133.09599304 215.37300110 216.25000000 0.158253 0.055096 0.985860 0.000000
201.66000366 134.70899963 173.75000000 0.715300 0.020997 -0.698502 0.000000
104.86299896 256.51199341 201.25000000 -0.582126 0.360364 0.728881 0.000000
125.43299866 160.52200317 215.00000000 -0.086416 -0.412875 0.906679 0.000000
94.37699890 229.08599854 28.75000000 0.153642 0.373533 -0.914804 0.000000
155.68200684 280.71099854 166.25000000 0.704746 0.514815 -0.488158 0.000000
198.43400574 134.70899963 171.25000000 0.656814 0.414042 -0.630209 0.000000
176.25100708 186.33399963 137.50000000 -0.593042 -0.106894 -0.798044 0.000000
97.60359955 229.08599854 28.75000000 0.153642 0.373533 -0.914804 0.000000
84.69730377 235.53900146 193.75000000 -0.750195 0.369402 0.548407 0.000000
91.95709991 211.33999634 206.25000000 -0.624135 0.107204 0.773927 0.000000
162.13499451 172.21800232 135.00000000 0.342372 0.572784 -0.744782 0.000000
164.55499268 214.16299438 185.00000000 0.885921 -0.320375 -0.335416 0.000000
84.69730377 206.50000000 66.25000000 0.595204 -0.764813 -0.246562 0.000000
191.17399597 114.13999939 180.00000000 -0.078737 -0.979971 0.182912 0.000000
175.44400024 184.72099304 137.50000000 -0.571215 -0.150634 -0.806860 0.000000
122.60900116 242.39599609 107.50000000 0.689222 0.689222 -0.223489 0.000000
173.83099365 137.12899780 192.50000000 -0.440766 -0.414934 0.795962 0.000000
82.68070221 236.34599304 190.00000000 -0.788814 0.337606 0.513609 0.000000
87.92389679 155.27799988 160.00000000 -0.854781 -0.513995 -0.071819 0.000000
142.77499390 133.09599304 183.75000000 -0.031764 -0.539996 0.841068 0.000000
129.06300354 235.53900146 113.75000000 0.764813 0.595204 -0.246562 0.000000
104.86299896 264.98199463 105.00000000 -0.235832 0.815393 -0.528695 0.000000
137.12899780 237.15199280 131.25000000 0.703747 0.460846 -0.540704 0.000000
98.00689697 229.89300537 30.00000000 0.179659 0.695601 -0.695601 0.000000
169.39500427 264.57800293 176.25000000 0.773891 0.293983 -0.560952 0.000000
166.97500610 174.23399353 138.75000000 0.103993 0.789468 -0.604917 0.000000
133.09599304 166.97500610 216.25000000 0.000978 0.000978 0.999999 0.000000
137.12899780 160.52200317 151.25000000 0.421088 0.211283 -0.882068 0.000000
140.35600281 271.83801270 193.75000000 -0.582927 0.582927 0.566031 0.000000
201.25700378 179.07400513 175.00000000 0.694074 0.533517 -0.483343 0.000000
70.58110046 232.31300354 87.50000000 -0.932572 0.359280 -0.035020 0.000000
154.06799316 240.37899780 153.75000000 0.801391 0.203795 -0.562353 0.000000
200.04699707 181.49400330 176.25000000 0.689557 0.545969 -0.475845 0.000000
113.73600006 261.35198975 201.25000000 -0.465862 0.465862 0.752293 0.000000
108.08999634 168.58799744 91.25000000 0.695782 0.104884 -0.710554 0.000000
154.06799316 284.74398804 171.25000000 0.527958 0.738484 -0.419406 0.000000
118.57599640 204.08000183 121.25000000 0.448451 -0.678512 -0.581819 0.000000
81.47070313 196.01400757 78.75000000 0.791462 -0.438622 -0.425674 0.000000
120.19000244 270.22500610 196.25000000 -0.086210 0.688218 0.720364 0.000000
114.54299927 278.29098511 126.25000000 0.182489 0.667081 -0.722288 0.000000
91.55370331 266.19198608 132.50000000 -0.689222 0.689222 -0.223489 0.000000
203.27400208 160.52200317 196.25000000 0.000978 0.000978 0.999999 0.000000
136.32200623 167.78100586 151.25000000 -0.296319 -0.787542 -0.540346 0.000000
90.74710083 239.57200623 197.50000000 -0.585796 0.144586 0.797457 0.000000
180.68800354 195.20700073 136.25000000 -0.298721 0.523156 -0.798169 0.000000
85.10060120 231.50599670 30.00000000 -0.445707 0.652702 -0.612638 0.000000
133.90199280 196.01400757 146.25000000 0.674264 0.315303 -0.667796 0.000000
142.77499390 175.04100037 216.25000000 0.000978 0.000978 0.999999 0.000000
141.16200256 167.78100586 213.75000000 0.370351 -0.466546 0.803228 0.000000
142.77499390 202.46699524 148.75000000 -0.116806 -0.197188 -0.973382 0.000000
77.84089661 215.37300110 190.00000000 -0.584042 0.584042 0.563728 0.000000
163.74800110 214.56599426 178.75000000 0.953230 -0.302123 0.008632 0.000000
70.58110046 218.60000610 112.50000000 -0.985174 -0.163217 0.052840 0.000000
158.10200500 123.41600037 181.25000000 -0.191616 -0.599375 0.777195 0.000000
167.37800598 162.13499451 132.50000000 0.285808 0.207734 -0.935500 0.000000
61.70800018 208.11300659 75.00000000 -0.952066 0.001228 0.305890 0.000000
171.00799561 225.45599365 172.50000000 0.173169 -0.984392 -0.031380 0.000000
128.25599670 291.19699097 173.75000000 0.001228 0.952066 0.305890 0.000000
163.34500122 213.75999451 182.50000000 0.874505 -0.458351 -0.158604 0.000000
109.70300293 218.60000610 211.25000000 -0.500517 0.045502 0.864530 0.000000
104.86299896 194.39999390 111.25000000 0.718647 0.176214 -0.672678 0.000000
223.03599548 158.10200500 182.50000000 0.382190 0.038088 -0.923298 0.000000
97.60359955 186.33399963 101.25000000 0.819512 0.303581 -0.486044 0.000000
91.95709991 161.32800293 91.25000000 -0.838470 -0.438753 -0.323209 0.000000
97.60359955 219.40600586 208.75000000 -0.577415 0.055059 0.814592 0.000000
129.46600342 208.91999817 142.50000000 0.125435 -0.977403 -0.170145 0.000000
206.50000000 131.48199463 178.75000000 0.615949 -0.032271 -0.787124 0.000000
158.10200500 178.67100525 152.50000000 -0.570623 0.778122 -0.262518 0.000000
147.61500549 148.82499695 112.50000000 0.450272 0.610964 -0.651137 0.000000
173.42799377 169.39500427 203.75000000 0.399490 -0.500585 0.767999 0.000000
74.61430359 199.24000549 177.50000000 -0.999999 0.000978 0.000978 0.000000
170.20100403 219.00300598 185.00000000 0.500910 -0.803046 -0.322809 0.000000
107.28299713 261.35198975 198.75000000 -0.895762 0.093048 0.434687 0.000000
149.22900391 260.54501343 156.25000000 0.522956 0.367526 -0.769053 0.000000
126.64299774 151.24499512 207.50000000 -0.107726 -0.730471 0.674394 0.000000
129.86900330 212.55000305 127.50000000 0.579138 0.521731 0.626415 0.000000
106.07299805 183.10699463 105.00000000 0.607628 0.486439 -0.627826 0.000000
147.61500549 183.91400146 213.75000000 0.364387 0.024464 0.930926 0.000000
121.80300140 255.70500183 206.25000000 -0.117948 0.387147 0.914443 0.000000
132.28900146 139.95199585 90.00000000 -0.001231 0.951836 -0.306607 0.000000
169.39500427 267.40100098 182.50000000 0.992560 -0.107273 -0.057589 0.000000
82.68070221 178.26800537 145.00000000 -0.957144 -0.224975 -0.182377 0.000000
221.82600403 152.45500183 183.75000000 0.491528 -0.511522 -0.704801 0.000000
130.67599487 133.90199280 183.75000000 -0.125940 -0.780828 0.611920 0.000000
194.39999390 164.55499268 198.75000000 0.000978 0.000978 0.999999 0.000000
126.64299774 123.01300049 140.00000000 -0.368838 -0.912840 -0.175163 0.000000
80.26080322 175.04100037 157.50000000 -0.950837 -0.234657 -0.202104 0.000000
177.46099854 179.88099670 203.75000000 0.636392 0.110741 0.763375 0.000000
164.55499268 180.68800354 208.75000000 0.000978 0.000978 0.999999 0.000000
160.52200317 187.14100647 208.75000000 0.589259 -0.100392 0.801683 0.000000
143.17900085 135.51600647 95.00000000 0.634050 0.624012 -0.456717 0.000000
93.97370148 158.10200500 195.00000000 -0.707356 -0.544248 0.451044 0.000000
130.67599487 123.01300049 122.50000000 -0.158397 -0.616993 -0.770864 0.000000
207.30700684 150.03500366 193.75000000 0.000978 0.000978 0.999999 0.000000
201.25700378 193.59399414 157.50000000 0.992255 -0.101390 -0.071770 0.000000
74.61430359 226.66600037 155.00000000 -0.952066 -0.001228 0.305890 0.000000
100.83000183 166.97500610 86.25000000 0.565546 -0.153697 -0.810268 0.000000
106.47699738 217.79299927 211.25000000 -0.057728 -0.229684 0.971552 0.000000
112.93000031 183.10699463 216.25000000 -0.528784 -0.354140 0.771345 0.000000
176.65400696 129.06300354 131.25000000 0.781288 0.517100 -0.349566 0.000000
113.33300018 193.59399414 120.00000000 0.583337 0.379580 -0.718079 0.000000
168.58799744 124.22299957 186.25000000 -0.341591 -0.517999 0.784215 0.000000
78.64749908 173.42799377 175.00000000 -0.949175 -0.314746 0.001234 0.000000
120.19000244 164.55499268 216.25000000 -0.377990 -0.284622 0.880973 0.000000
95.99030304 187.14100647 98.75000000 0.819512 0.303581 -0.486044 0.000000
110.51000214 278.29098511 126.25000000 -0.085214 0.804481 -0.587834 0.000000
76.22760010 193.59399414 187.50000000 -0.920494 -0.209787 0.329665 0.000000
110.51000214 232.31300354 211.25000000 -0.404050 0.158479 0.900904 0.000000
183.91400146 176.25100708 150.00000000 0.768976 0.336931 -0.543281 0.000000
68.56449890 191.57699585 77.50000000 -0.160404 -0.805016 0.571157 0.000000
174.23399353 153.26199341 196.25000000 -0.155423 -0.759009 0.632256 0.000000
205.69299316 184.31700134 185.00000000 0.486042 0.647496 -0.586951 0.000000
124.22299957 159.71499634 103.75000000 0.681806 0.044125 -0.730201 0.000000
146.00199890 271.03100586 156.25000000 0.673459 0.061746 -0.736641 0.000000
158.90800476 137.12899780 113.75000000 0.517106 0.412043 -0.750214 0.000000
188.75399780 176.65400696 153.75000000 0.669536 0.565498 -0.481596 0.000000
146.80900574 287.56799316 177.50000000 0.207824 0.780496 0.589606 0.000000
150.03500366 146.80900574 111.25000000 -0.372140 0.123124 -0.919974 0.000000
164.55499268 115.34999847 148.75000000 -0.097635 -0.991284 -0.088446 0.000000
84.69730377 191.98100281 198.75000000 -0.791265 -0.119353 0.599711 0.000000
74.21099854 211.33999634 31.25000000 -0.209736 -0.685137 -0.697566 0.000000
200.04699707 161.32800293 196.25000000 0.000978 0.000978 0.999999 0.000000
179.07400513 122.60900116 191.25000000 0.167231 -0.492813 0.853914 0.000000
168.58799744 173.42799377 138.75000000 0.103993 0.789468 -0.604917 0.000000
86.71389771 166.16799927 97.50000000 -0.859078 -0.430304 -0.277171 0.000000
121.80300140 137.12899780 188.75000000 -0.689700 -0.689700 -0.220516 0.000000
82.68070221 182.30099487 140.00000000 -0.879082 -0.292019 -0.376749 0.000000
69.37110138 212.14700317 31.25000000 -0.487521 0.062503 -0.870871 0.000000
107.28299713 182.30099487 106.25000000 0.607628 0.486439 -0.627826 0.000000
136.32200623 267.80499268 198.75000000 0.176720 0.174140 0.968734 0.000000
165.36099243 195.20700073 143.75000000 -0.268346 -0.351370 -0.896956 0.000000
187.14100647 187.14100647 136.25000000 -0.133407 -0.667033 -0.732987 0.000000
168.99099731 228.27900696 195.00000000 0.616934 0.216004 0.756793 0.000000
150.03500366 233.92599487 143.75000000 0.681886 0.480838 -0.551205 0.000000
129.86900330 151.64799500 208.75000000 -0.009741 -0.722215 0.691601 0.000000
155.68200684 146.00199890 116.25000000 0.607023 0.633927 -0.479229 0.000000
82.68070221 258.93200684 145.00000000 -0.781532 0.608190 -0.138972 0.000000
75.01760101 191.57699585 87.50000000 -0.163401 -0.937837 0.306205 0.000000
146.00199890 251.67199707 151.25000000 0.451166 0.371455 -0.811462 0.000000
147.61500549 186.33399963 153.75000000 -0.000978 -0.000978 -0.999999 0.000000
200.85400391 144.38900757 196.25000000 0.306871 -0.747095 0.589643 0.000000
175.04100037 114.54299927 143.75000000 -0.224193 -0.967234 -0.119143 0.000000
68.56449890 212.95300293 31.25000000 -0.722751 0.223225 -0.654066 0.000000
82.27739716 240.37899780 53.75000000 -0.571935 0.799496 -0.183565 0.000000
102.44300079 255.70500183 198.75000000 -0.428099 0.674630 0.601337 0.000000
64.53130341 203.27400208 83.75000000 -0.868124 -0.171862 0.465644 0.000000
108.89700317 264.98199463 105.00000000 0.001228 0.952066 -0.305890 0.000000
131.48199463 170.20100403 111.25000000 0.575088 0.094158 -0.812655 0.000000
127.04599762 216.17999268 85.00000000 0.679260 -0.491415 -0.545085 0.000000
160.52200317 171.81500244 133.75000000 0.465862 0.465862 -0.752293 0.000000
175.04100037 222.22999573 185.00000000 0.501826 -0.862470 -0.065699 0.000000
206.50000000 133.90199280 193.75000000 0.209770 -0.069923 0.975247 0.000000
126.64299774 254.49499512 130.00000000 0.766476 0.395443 -0.506102 0.000000
137.12899780 161.32800293 213.75000000 0.066988 -0.577233 0.813827 0.000000
116.55999756 276.67800903 127.50000000 0.624375 0.597448 -0.503202 0.000000
216.98599243 153.66499329 182.50000000 0.509338 -0.157969 -0.845944 0.000000
