262.96899414 153.72099304 228.75000000 0.075699 0.993128 -0.089257 0.000000
160.48800659 152.27099609 117.50000000 0.272733 0.931249 0.241644 0.000000
231.06399536 273.60400391 183.75000000 0.000978 0.000978 0.999999 0.000000
131.48399353 311.79199219 200.00000000 0.413463 -0.887253 -0.204524 0.000000
212.69500732 167.25599670 238.75000000 0.202917 0.692396 -0.692396 0.000000
270.70300293 156.62100220 233.75000000 -0.397930 0.794250 -0.459150 0.000000
119.39900208 218.49600220 165.00000000 0.939124 0.342082 -0.032030 0.000000
165.32200623 289.07199097 111.25000000 -0.673582 -0.169541 0.719404 0.000000
139.21899414 229.13099670 253.75000000 0.754977 0.155837 -0.636965 0.000000
307.92498779 159.52099609 195.00000000 -0.001370 0.790530 -0.612421 0.000000
227.19700623 189.49200439 251.25000000 -0.000978 -0.000978 -0.999999 0.000000
248.46699524 154.68800354 231.25000000 0.001263 0.933019 -0.359825 0.000000
217.52900696 250.39999390 253.75000000 -0.094497 -0.395790 -0.913466 0.000000
135.35200500 269.73599243 93.75000000 0.652721 0.001380 0.757597 0.000000
206.89500427 272.15301514 240.00000000 0.167257 -0.167257 -0.971622 0.000000
150.82000732 269.73599243 93.75000000 -0.482854 -0.157038 0.861505 0.000000
269.25299072 180.79100037 250.00000000 -0.380863 0.008977 -0.924588 0.000000
116.98200226 274.57000732 216.25000000 0.553880 -0.789240 -0.265172 0.000000
125.19999695 196.25999451 135.00000000 0.953609 0.238066 -0.184266 0.000000
194.32600403 313.24200439 206.25000000 -0.118896 -0.474150 -0.872379 0.000000
202.06100464 283.27200317 231.25000000 -0.322341 -0.691657 -0.646302 0.000000
290.52200317 186.59199524 192.50000000 -0.563958 -0.437525 0.700373 0.000000
237.34899902 259.10198975 240.00000000 -0.247611 -0.167305 -0.954305 0.000000
274.57000732 238.79899597 188.75000000 -0.536018 -0.525936 0.660361 0.000000
214.62899780 271.67001343 146.25000000 -0.853351 -0.317490 0.413511 0.000000
114.56500244 268.76998901 142.50000000 0.933019 -0.001263 -0.359825 0.000000
259.10198975 255.71800232 185.00000000 -0.594763 -0.631830 0.497040 0.000000
152.75399780 270.70300293 93.75000000 -0.537587 -0.299717 0.788144 0.000000
111.66500092 258.13500977 215.00000000 0.579758 -0.407978 -0.705290 0.000000
141.15199280 222.36300659 253.75000000 0.667168 0.265912 -0.695829 0.000000
317.10900879 176.92399597 213.75000000 -0.671313 -0.269482 0.690448 0.000000
148.88699341 327.74398804 153.75000000 0.682323 -0.682323 0.262432 0.000000
168.22300720 286.17199707 113.75000000 -0.568817 -0.180505 0.802412 0.000000
224.29699707 226.22999573 176.25000000 -0.903401 0.201561 0.378471 0.000000
113.59899902 277.47100830 210.00000000 0.766925 -0.350363 -0.537654 0.000000
181.75799561 282.30499268 121.25000000 -0.449775 -0.105746 0.886860 0.000000
268.76998901 173.05700684 161.25000000 -0.600067 -0.328338 0.729461 0.000000
274.08700562 224.29699707 177.50000000 -0.477577 -0.031117 0.878039 0.000000
257.16799927 149.36999512 205.00000000 0.063649 0.967214 -0.245859 0.000000
149.85400391 277.47100830 241.25000000 0.365182 -0.702525 -0.610820 0.000000
209.79499817 257.16799927 251.25000000 -0.000978 -0.000978 -0.999999 0.000000
228.16400146 212.21200562 187.50000000 -0.023176 0.513957 0.857503 0.000000
290.03900146 183.20799255 190.00000000 -0.863526 -0.194702 0.465204 0.000000
214.62899780 150.33700562 207.50000000 -0.228195 0.908420 -0.350287 0.000000
204.96099854 165.80599976 235.00000000 0.195031 0.775516 -0.600449 0.000000
197.71000671 246.53300476 122.50000000 -0.503848 0.101341 0.857827 0.000000
147.43699646 160.48800659 127.50000000 0.682323 0.682323 -0.262432 0.000000
321.94299316 186.10800171 227.50000000 -0.702398 0.279999 -0.654398 0.000000
117.46600342 212.69500732 182.50000000 0.865851 0.001334 -0.500299 0.000000
235.89799500 219.46299744 251.25000000 -0.000978 -0.000978 -0.999999 0.000000
286.17199707 205.92799377 248.75000000 -0.200163 0.136417 -0.970219 0.000000
236.86500549 240.73199463 248.75000000 -0.462921 -0.376423 -0.802502 0.000000
190.94200134 170.15600586 232.50000000 0.448950 0.595819 -0.665915 0.000000
186.59199524 212.69500732 261.25000000 0.209119 -0.010514 -0.977834 0.000000
281.33801270 187.55900574 176.25000000 -0.863587 -0.083118 0.497302 0.000000
263.93600464 229.61399841 175.00000000 -0.358286 -0.600415 0.714936 0.000000
181.75799561 214.62899780 116.25000000 -0.558535 0.230531 0.796802 0.000000
298.25698853 184.65800476 245.00000000 -0.422079 0.349902 -0.836312 0.000000
117.46600342 291.00601196 157.50000000 0.955469 -0.287792 0.065233 0.000000
276.50399780 237.83200073 188.75000000 -0.583667 -0.502929 0.637492 0.000000
144.53599548 167.25599670 100.00000000 0.158253 0.400624 0.902472 0.000000
290.03900146 171.12300110 238.75000000 -0.460620 0.664967 -0.587918 0.000000
270.22000122 172.08999634 162.50000000 -0.713762 -0.251637 0.653623 0.000000
152.75399780 221.39700317 98.75000000 -0.610227 0.198285 0.767011 0.000000
125.68399811 268.76998901 108.75000000 0.836807 -0.359529 0.412908 0.000000
180.79100037 233.96499634 113.75000000 -0.530895 0.108494 0.840464 0.000000
205.92799377 176.92399597 243.75000000 -0.072059 0.409241 -0.909576 0.000000
137.28500366 184.17500305 175.00000000 0.764603 0.634960 0.110492 0.000000
143.08599854 181.75799561 231.25000000 0.467196 0.737938 -0.487006 0.000000
150.82000732 190.94200134 245.00000000 0.355963 0.380834 -0.853379 0.000000
144.05299377 165.80599976 147.50000000 0.647253 0.749372 -0.139662 0.000000
184.65800476 143.56900024 152.50000000 0.316419 0.946675 0.060701 0.000000
297.29000854 171.12300110 195.00000000 -0.658815 -0.481119 0.578349 0.000000
184.65800476 308.40798950 216.25000000 -0.220497 -0.699022 -0.680257 0.000000
111.18199921 229.13099670 201.25000000 0.983315 0.173944 -0.053248 0.000000
311.30899048 234.93200684 233.75000000 -0.738858 0.223376 0.635761 0.000000
315.65899658 171.12300110 210.00000000 -0.653163 -0.178970 0.735764 0.000000
235.89799500 174.02299500 153.75000000 0.656560 -0.719239 0.227210 0.000000
248.46699524 165.80599976 145.00000000 -0.338870 -0.575593 0.744217 0.000000
212.69500732 223.33000183 173.75000000 -0.148744 -0.905216 0.398069 0.000000
295.83999634 251.36700439 233.75000000 -0.681751 -0.681751 -0.265390 0.000000
172.08999634 164.83900452 110.00000000 -0.745935 -0.408215 0.526253 0.000000
177.89100647 146.47000122 155.00000000 0.500986 0.855307 -0.132144 0.000000
173.05700684 151.30400085 160.00000000 0.539684 0.832196 -0.127243 0.000000
129.55099487 244.60000610 243.75000000 0.514258 -0.204793 -0.832825 0.000000
210.76199341 165.32200623 236.25000000 0.270004 0.579482 -0.768959 0.000000
262.96899414 236.86500549 246.25000000 -0.108515 -0.539683 -0.834845 0.000000
162.42199707 251.85099792 257.50000000 0.207673 -0.573793 -0.792234 0.000000
236.86500549 189.49200439 153.75000000 -0.000978 -0.000978 0.999999 0.000000
143.08599854 296.80700684 226.25000000 0.533446 -0.424444 -0.731630 0.000000
221.39700317 193.35899353 251.25000000 -0.000978 -0.000978 -0.999999 0.000000
297.77301025 167.25599670 228.75000000 -0.547885 0.547885 -0.632175 0.000000
245.56599426 199.16000366 158.75000000 -0.326331 -0.302490 0.895549 0.000000
134.86799622 297.77301025 125.00000000 0.548415 -0.501456 0.669166 0.000000
251.36700439 266.35299683 190.00000000 -0.663412 -0.737952 0.123737 0.000000
174.02299500 198.67700195 255.00000000 0.500303 0.530422 -0.684361 0.000000
291.00601196 255.23399353 228.75000000 -0.324359 -0.485748 0.811690 0.000000
174.02299500 197.71000671 120.00000000 -0.784936 0.224489 0.577478 0.000000
213.66200256 220.42999268 163.75000000 -0.313049 -0.941834 0.122264 0.000000
195.29299927 224.29699707 161.25000000 -0.431272 -0.654401 0.621098 0.000000
152.27099609 162.42199707 160.00000000 0.566660 0.820730 -0.072795 0.000000
227.19700623 178.85699463 248.75000000 0.131173 0.274272 -0.952664 0.000000
228.64700317 214.62899780 187.50000000 -0.384905 -0.030010 0.922468 0.000000
174.02299500 209.79499817 258.75000000 0.177579 -0.115489 -0.977307 0.000000
297.29000854 232.03100586 217.50000000 -0.595846 -0.595846 0.538456 0.000000
146.95300293 325.32699585 152.50000000 0.682323 -0.682323 0.262432 0.000000
304.54098511 234.93200684 231.25000000 -0.468968 -0.156323 0.869271 0.000000
152.75399780 330.64498901 188.75000000 0.324265 -0.905301 -0.274378 0.000000
140.18600464 171.12300110 98.75000000 0.080373 0.124637 0.988942 0.000000
190.45899963 279.40399170 126.25000000 -0.589103 -0.342426 0.731916 0.000000
213.66200256 283.27200317 226.25000000 -0.662761 -0.662761 -0.348563 0.000000
195.77600098 215.59599304 135.00000000 -0.756533 0.605541 0.246935 0.000000
226.22999573 183.20799255 250.00000000 0.079256 0.302732 -0.949774 0.000000
205.44400024 272.63699341 135.00000000 -0.687027 -0.315224 0.654696 0.000000
132.93499756 190.45899963 167.50000000 0.795668 0.597842 -0.097458 0.000000
141.15199280 240.73199463 253.75000000 0.634974 -0.135959 -0.760475 0.000000
195.77600098 225.26400757 162.50000000 -0.431272 -0.654401 0.621098 0.000000
264.90200806 226.22999573 248.75000000 -0.000978 -0.000978 -0.999999 0.000000
230.09800720 220.42999268 251.25000000 -0.000978 -0.000978 -0.999999 0.000000
140.18600464 217.52900696 251.25000000 0.515340 0.280383 -0.809821 0.000000
115.04900360 250.39999390 138.75000000 0.933019 -0.001263 0.359825 0.000000
181.75799561 270.70300293 118.75000000 -0.623721 -0.188495 0.758579 0.000000
164.35499573 307.44100952 223.75000000 0.040515 -0.367252 -0.929239 0.000000
149.85400391 277.47100830 93.75000000 -0.207182 -0.497538 0.842337 0.000000
168.22300720 177.89100647 113.75000000 -0.848683 -0.120411 0.515013 0.000000
141.15199280 283.27200317 233.75000000 0.269045 -0.638384 -0.721167 0.000000
280.37100220 161.45500183 168.75000000 -0.619865 -0.616506 0.485477 0.000000
242.66600037 237.83200073 248.75000000 -0.347800 -0.667842 -0.658045 0.000000
119.88300323 236.86500549 116.25000000 0.809289 0.270806 0.521263 0.000000
254.26800537 200.12699890 161.25000000 -0.139426 -0.096526 0.985517 0.000000
168.22300720 216.56300354 258.75000000 0.295500 0.411863 -0.862003 0.000000
145.98599243 278.43798828 93.75000000 -0.207182 -0.497538 0.842337 0.000000
165.32200623 243.63299561 261.25000000 -0.157603 -0.270754 -0.949660 0.000000
130.51800537 193.35899353 231.25000000 0.597455 0.573760 -0.560220 0.000000
196.25999451 320.01000977 151.25000000 -0.764843 -0.510439 0.393022 0.000000
130.03399658 291.00601196 222.50000000 0.575748 -0.548734 -0.606140 0.000000
183.69099426 320.49301147 205.00000000 -0.283626 -0.886893 -0.364661 0.000000
163.38900757 225.26400757 106.25000000 -0.113768 -0.097348 0.988727 0.000000
193.35899353 258.13500977 121.25000000 -0.412911 -0.231051 0.880976 0.000000
117.46600342 291.97299194 160.00000000 0.955469 -0.287792 0.065233 0.000000
194.32600403 262.96899414 123.75000000 -0.551699 -0.265633 0.790612 0.000000
133.41799927 199.16000366 238.75000000 0.606365 0.471990 -0.639958 0.000000
121.33300018 217.52900696 120.00000000 0.956400 0.191280 0.220708 0.000000
262.00201416 174.02299500 156.25000000 -0.519945 -0.316419 0.793433 0.000000
211.72900391 307.92498779 197.50000000 -0.554247 -0.454383 -0.697386 0.000000
257.16799927 224.77999878 170.00000000 -0.068364 -0.489710 0.869201 0.000000
233.96499634 252.33399963 243.75000000 -0.346678 -0.603838 -0.717770 0.000000
203.99400330 293.42300415 220.00000000 -0.390512 -0.601421 -0.696989 0.000000
111.66500092 225.26400757 200.00000000 0.978826 0.162106 -0.124983 0.000000
318.07598877 185.62500000 218.75000000 -0.570688 -0.463580 0.677797 0.000000
317.59298706 206.89500427 227.50000000 -0.599254 -0.274989 0.751849 0.000000
197.22700500 174.02299500 128.75000000 -0.032677 -0.049543 0.998237 0.000000
284.23800659 253.30099487 243.75000000 -0.048406 -0.357155 -0.932790 0.000000
130.03399658 268.76998901 100.00000000 0.845993 -0.422217 0.325621 0.000000
179.82400513 183.20799255 242.50000000 -0.547885 0.547885 -0.632175 0.000000
203.99400330 282.30499268 138.75000000 -0.590606 -0.281772 0.756167 0.000000
203.02699280 278.43798828 136.25000000 -0.711085 -0.361264 0.603197 0.000000
137.76899719 180.79100037 97.50000000 0.134991 0.427707 0.893781 0.000000
176.92399597 269.25299072 247.50000000 -0.055649 -0.643533 -0.763393 0.000000
145.50300598 245.56599426 255.00000000 0.704518 -0.333548 -0.626419 0.000000
219.46299744 143.56900024 177.50000000 0.113926 0.942238 -0.314973 0.000000
232.03100586 194.32600403 251.25000000 -0.000978 -0.000978 -0.999999 0.000000
258.13500977 253.30099487 216.25000000 0.970072 -0.242814 -0.001184 0.000000
200.61000061 326.77700806 172.50000000 -0.470054 -0.881180 0.050706 0.000000
245.56599426 239.76600647 166.25000000 0.000978 0.000978 0.999999 0.000000
188.52499390 217.52900696 261.25000000 -0.000978 -0.000978 -0.999999 0.000000
159.52099609 152.27099609 127.50000000 0.493986 0.869469 0.001331 0.000000
186.59199524 143.56900024 160.00000000 -0.001172 0.974073 -0.226229 0.000000
236.86500549 214.62899780 166.25000000 0.681534 -0.557618 0.473892 0.000000
172.57299805 151.78700256 162.50000000 0.481338 0.870385 -0.103651 0.000000
216.56300354 268.76998901 148.75000000 -0.894962 -0.177836 0.409167 0.000000
181.75799561 201.09399414 258.75000000 -0.402316 0.650660 -0.644037 0.000000
248.46699524 259.10198975 176.25000000 -0.234343 -0.699884 0.674719 0.000000
109.73100281 257.16799927 200.00000000 0.999999 0.000978 0.000978 0.000000
124.71700287 201.09399414 138.75000000 0.975176 0.188542 -0.116122 0.000000
194.32600403 243.14900208 257.50000000 0.186832 -0.491743 -0.850460 0.000000
262.00201416 248.46699524 206.25000000 -0.490832 -0.797802 -0.350137 0.000000
120.84999847 204.96099854 226.25000000 0.880762 0.373153 -0.291573 0.000000
219.94599915 282.30499268 167.50000000 -0.921516 -0.230022 0.312887 0.000000
187.55900574 185.62500000 131.25000000 0.039047 -0.190502 0.980910 0.000000
305.50799561 175.47399902 232.50000000 -0.266129 0.266129 -0.926472 0.000000
133.41799927 183.69099426 96.25000000 0.251802 0.417660 0.873015 0.000000
234.93200684 213.66200256 251.25000000 -0.000978 -0.000978 -0.999999 0.000000
265.86898804 248.46699524 188.75000000 -0.914033 -0.256393 0.314335 0.000000
177.89100647 182.72500610 128.75000000 -0.587873 -0.131790 0.798145 0.000000
207.37800598 318.07598877 170.00000000 -0.785497 -0.566870 0.248298 0.000000
112.14800262 285.20498657 176.25000000 0.947423 -0.200390 0.249465 0.000000
269.73599243 258.13500977 228.75000000 0.103636 -0.795517 0.597003 0.000000
135.35200500 293.90600586 223.75000000 0.364928 -0.536849 -0.760671 0.000000
129.55099487 231.06399536 246.25000000 -0.000978 -0.000978 -0.999999 0.000000
247.50000000 142.11900330 146.25000000 0.001143 0.982047 0.188635 0.000000
235.41499329 186.59199524 185.00000000 0.897217 0.193403 -0.396986 0.000000
183.69099426 290.03900146 126.25000000 -0.452985 -0.151960 0.878472 0.000000
236.86500549 273.60400391 218.75000000 -0.570326 -0.796622 -0.200302 0.000000
255.23399353 262.00201416 208.75000000 -0.665605 -0.741341 -0.085931 0.000000
191.42599487 279.40399170 238.75000000 -0.301582 -0.556889 -0.773901 0.000000
283.27200317 229.13099670 191.25000000 -0.754703 -0.448875 0.478472 0.000000
214.62899780 309.85800171 177.50000000 -0.888748 -0.402368 0.219608 0.000000
113.59899902 262.96899414 145.00000000 0.898792 0.327237 0.291700 0.000000
130.03399658 209.79499817 242.50000000 0.649443 0.484985 -0.585674 0.000000
112.14800262 229.61399841 182.50000000 0.938387 0.294369 0.181044 0.000000
180.30799866 272.63699341 117.50000000 -0.685415 -0.186371 0.703898 0.000000
265.38598633 175.95700073 160.00000000 -0.564031 -0.301988 0.768552 0.000000
312.75900269 204.96099854 240.00000000 -0.475390 0.309082 -0.823695 0.000000
283.27200317 222.36300659 188.75000000 -0.933019 0.001263 0.359825 0.000000
144.05299377 164.83900452 145.00000000 0.640470 0.756920 -0.129886 0.000000
320.01000977 218.49600220 231.25000000 -0.956400 0.191280 0.220708 0.000000
215.59599304 229.13099670 171.25000000 0.000978 0.000978 0.999999 0.000000
198.19299316 204.96099854 138.75000000 0.309854 -0.756173 0.576361 0.000000
167.25599670 270.70300293 246.25000000 0.222343 -0.614164 -0.757210 0.000000
302.60699463 212.69500732 246.25000000 -0.000978 -0.000978 -0.999999 0.000000
142.11900330 272.63699341 241.25000000 0.547885 -0.547885 -0.632175 0.000000
222.36300659 179.82400513 248.75000000 0.057124 0.288159 -0.955877 0.000000
314.20901489 204.96099854 223.75000000 -0.524101 -0.313824 0.791728 0.000000
180.79100037 185.62500000 131.25000000 -0.446800 -0.096643 0.889398 0.000000
167.25599670 259.10198975 253.75000000 0.075836 -0.439849 -0.894864 0.000000
161.45500183 281.33801270 106.25000000 -0.601147 -0.201407 0.773342 0.000000
116.01599884 259.58499146 135.00000000 0.981537 -0.001145 0.191268 0.000000
125.68399811 258.13500977 101.25000000 0.879694 -0.234485 0.413710 0.000000
229.13099670 273.11999512 225.00000000 -0.492047 -0.811641 -0.314847 0.000000
223.33000183 225.26400757 173.75000000 -0.405475 -0.016949 0.913949 0.000000
289.07199097 207.37800598 247.50000000 -0.387110 0.046242 -0.920873 0.000000
295.35598755 211.72900391 207.50000000 -0.881289 -0.114951 0.458384 0.000000
142.60299683 164.35499573 125.00000000 0.682323 0.682323 -0.262432 0.000000
216.07899475 256.20098877 142.50000000 -0.870607 0.200225 0.449393 0.000000
240.73199463 213.66200256 251.25000000 0.000978 0.000978 -0.999999 0.000000
294.87298584 206.89500427 246.25000000 0.000978 0.000978 -0.999999 0.000000
204.96099854 291.97299194 143.75000000 -0.794250 -0.397930 0.459150 0.000000
276.50399780 245.56599426 203.75000000 -0.299055 -0.911754 0.281550 0.000000
194.32600403 302.12399292 137.50000000 -0.672960 -0.244283 0.698176 0.000000
139.21899414 187.55900574 96.25000000 -0.544370 0.001351 0.838844 0.000000
157.10499573 227.19700623 100.00000000 -0.500119 0.203976 0.841590 0.000000
289.07199097 262.00201416 231.25000000 -0.155960 -0.722261 0.673807 0.000000
127.61699677 188.52499390 96.25000000 0.213278 0.730127 0.649175 0.000000
276.50399780 249.43400574 243.75000000 -0.000978 -0.000978 -0.999999 0.000000
205.92799377 158.55499268 128.75000000 -0.308657 -0.130741 0.942145 0.000000
286.17199707 210.76199341 248.75000000 -0.113775 0.046186 -0.992432 0.000000
290.03900146 160.00500488 225.00000000 -0.234454 0.933603 -0.270955 0.000000
157.10499573 165.32200623 185.00000000 0.559898 0.802265 -0.207086 0.000000
210.27799988 276.50399780 142.50000000 -0.851085 -0.396758 0.343857 0.000000
124.71700287 297.29000854 137.50000000 0.750684 -0.491148 0.441869 0.000000
199.16000366 169.18899536 126.25000000 -0.571483 -0.470929 0.672037 0.000000
314.20901489 183.69099426 213.75000000 -0.267538 -0.409620 0.872144 0.000000
135.35200500 286.17199707 108.75000000 0.941834 -0.313049 0.122264 0.000000
232.99800110 223.33000183 181.25000000 0.779485 -0.539397 0.318517 0.000000
166.28900146 162.42199707 198.75000000 0.470062 0.881875 -0.036575 0.000000
145.02000427 313.24200439 211.25000000 0.330885 -0.747316 -0.576224 0.000000
310.34201050 201.57699585 240.00000000 -0.370345 0.246405 -0.895616 0.000000
204.96099854 315.65899658 160.00000000 -0.820853 -0.477387 0.313531 0.000000
133.41799927 309.37500000 206.25000000 0.262050 -0.643215 -0.719447 0.000000
267.80300903 244.60000610 193.75000000 -0.525143 -0.817745 0.235621 0.000000
190.45899963 289.07199097 231.25000000 -0.293401 -0.614057 -0.732700 0.000000
141.15199280 192.39300537 238.75000000 0.492431 0.522478 -0.696081 0.000000
175.95700073 163.87199402 217.50000000 0.351462 0.787982 -0.505528 0.000000
108.76499939 258.13500977 192.50000000 0.989507 -0.141682 -0.028336 0.000000
238.79899597 231.06399536 251.25000000 -0.481798 -0.176412 -0.858341 0.000000
308.89199829 164.35499573 217.50000000 -0.422619 0.697737 -0.578409 0.000000
128.10099792 190.45899963 222.50000000 0.634692 0.717825 -0.286171 0.000000
295.35598755 242.66600037 222.50000000 -0.757760 -0.642545 0.113738 0.000000
244.60000610 195.29299927 156.25000000 -0.181815 -0.462668 0.867687 0.000000
145.02000427 311.30899048 131.25000000 0.515104 -0.669468 0.535239 0.000000
121.81600189 205.44400024 230.00000000 0.755828 0.506618 -0.414804 0.000000
118.43299866 243.63299561 122.50000000 0.975722 0.054543 0.212113 0.000000
142.11900330 313.24200439 136.25000000 0.450535 -0.713208 0.536984 0.000000
258.13500977 246.53300476 241.25000000 0.115909 -0.906323 -0.406379 0.000000
158.55499268 284.72198486 237.50000000 0.682323 -0.682323 -0.262432 0.000000
181.75799561 246.05000305 257.50000000 -0.208247 -0.263412 -0.941938 0.000000
184.17500305 333.54501343 162.50000000 -0.700772 -0.700772 -0.133552 0.000000
158.55499268 193.35899353 248.75000000 0.151973 0.511987 -0.845443 0.000000
265.86898804 166.28900146 248.75000000 0.733763 0.488623 -0.472059 0.000000
206.41099548 223.33000183 165.00000000 0.006146 -0.955094 0.296239 0.000000
145.50300598 160.48800659 120.00000000 0.700489 0.700489 -0.136498 0.000000
294.87298584 244.60000610 246.25000000 -0.174890 -0.365422 -0.914265 0.000000
208.82800293 317.59298706 180.00000000 -0.778696 -0.624386 -0.061438 0.000000
201.57699585 313.24200439 152.50000000 -0.766565 -0.329446 0.551220 0.000000
231.54800415 212.69500732 167.50000000 0.424127 -0.637023 0.643676 0.000000
239.76600647 142.60299683 170.00000000 0.039098 0.993097 -0.110592 0.000000
115.04900360 278.43798828 211.25000000 0.793939 -0.319803 -0.517095 0.000000
264.41900635 245.56599426 185.00000000 -0.912283 -0.168836 0.373142 0.000000
191.90899658 228.16400146 167.50000000 0.636362 -0.468457 -0.612855 0.000000
311.79199219 187.55900574 215.00000000 -0.434326 -0.283923 0.854839 0.000000
271.67001343 255.71800232 225.00000000 0.012526 -0.750185 0.661109 0.000000
152.75399780 189.49200439 103.75000000 -0.529339 -0.274879 0.802647 0.000000
237.83200073 262.96899414 176.25000000 0.337606 -0.513609 0.788814 0.000000
214.62899780 214.62899780 151.25000000 -0.377338 -0.683822 0.624503 0.000000
166.28900146 180.79100037 111.25000000 -0.819226 -0.179536 0.544642 0.000000
126.65000153 272.15301514 110.00000000 0.857115 -0.361135 0.367335 0.000000
311.30899048 221.39700317 231.25000000 -0.622846 -0.514819 0.589088 0.000000
301.15701294 196.25999451 210.00000000 -0.621131 -0.254458 0.741247 0.000000
142.11900330 194.32600403 96.25000000 -0.768550 -0.055609 0.637369 0.000000
110.69799805 247.50000000 215.00000000 0.907150 -0.303360 -0.291636 0.000000
150.33700562 159.52099609 107.50000000 0.343561 0.772610 0.533891 0.000000
155.65400696 314.20901489 213.75000000 0.165951 -0.698823 -0.695778 0.000000
197.71000671 303.57400513 215.00000000 -0.446799 -0.624180 -0.640914 0.000000
176.92399597 161.45500183 213.75000000 0.459523 0.815694 -0.351400 0.000000
211.72900391 139.70199585 152.50000000 0.175435 0.984062 0.029046 0.000000
253.30099487 152.27099609 220.00000000 0.082842 0.983294 -0.162081 0.000000
143.08599854 166.28900146 143.75000000 0.739360 0.670180 -0.064856 0.000000
165.32200623 179.82400513 238.75000000 0.095305 0.655403 -0.749242 0.000000
192.39300537 173.05700684 236.25000000 0.933019 -0.001263 -0.359825 0.000000
313.24200439 244.60000610 241.25000000 -0.693330 -0.509556 -0.509556 0.000000
311.30899048 173.05700684 206.25000000 -0.470174 -0.577260 0.667613 0.000000
199.16000366 189.49200439 248.75000000 0.223478 0.448456 -0.865416 0.000000
267.80300903 229.13099670 248.75000000 0.053277 -0.246562 -0.967662 0.000000
123.26699829 197.22700500 97.50000000 -0.001370 0.790530 0.612421 0.000000
131.48399353 223.33000183 248.75000000 0.666569 -0.442709 -0.599745 0.000000
266.83599854 197.71000671 165.00000000 0.129668 -0.386214 0.913250 0.000000
289.07199097 182.72500610 246.25000000 -0.000978 -0.000978 -0.999999 0.000000
120.36599731 210.76199341 105.00000000 0.991236 0.121771 0.051212 0.000000
256.20098877 145.02000427 186.25000000 -0.001263 0.933019 -0.359825 0.000000
117.46600342 253.30099487 227.50000000 0.876369 -0.292123 -0.382938 0.000000
175.47399902 154.68800354 190.00000000 0.213630 0.959346 -0.184439 0.000000
122.78299713 198.19299316 96.25000000 0.851447 0.404786 0.333445 0.000000
185.14199829 143.08599854 142.50000000 0.277411 0.958905 -0.059536 0.000000
246.53300476 196.25999451 251.25000000 -0.000978 -0.000978 -0.999999 0.000000
127.61699677 311.79199219 172.50000000 0.707106 -0.707106 -0.001384 0.000000
256.20098877 167.25599670 148.75000000 -0.343955 -0.550651 0.760577 0.000000
294.87298584 191.42599487 246.25000000 -0.000978 -0.000978 -0.999999 0.000000
176.92399597 316.14300537 213.75000000 0.001377 -0.654300 -0.756234 0.000000
258.13500977 157.58799744 143.75000000 -0.607227 -0.405370 0.683338 0.000000
209.79499817 231.06399536 156.25000000 -0.458467 0.837673 -0.296838 0.000000
185.62500000 207.86099243 138.75000000 -0.906535 0.286506 0.310014 0.000000
158.55499268 247.50000000 98.75000000 -0.590187 -0.138255 0.795340 0.000000
305.50799561 223.33000183 226.25000000 -0.582909 -0.397963 0.708408 0.000000
215.11199951 294.87298584 160.00000000 -0.678638 0.273052 0.681831 0.000000
143.08599854 279.40399170 238.75000000 0.321133 -0.420421 -0.848599 0.000000
311.30899048 165.32200623 203.75000000 -0.762770 -0.188774 0.618504 0.000000
258.13500977 245.56599426 176.25000000 0.001284 -0.396706 0.917945 0.000000
268.76998901 243.14900208 245.00000000 0.425962 -0.518062 -0.741733 0.000000
172.08999634 234.93200684 108.75000000 -0.509806 0.287060 0.810984 0.000000
151.78700256 285.20498657 98.75000000 -0.072949 -0.576438 0.813878 0.000000
238.79899597 182.72500610 251.25000000 -0.000978 -0.000978 -0.999999 0.000000
136.31799316 175.47399902 100.00000000 0.587388 0.235267 0.774355 0.000000
190.45899963 311.30899048 138.75000000 -0.670495 -0.430914 0.603945 0.000000
273.60400391 181.75799561 168.75000000 -0.522014 -0.012203 0.852849 0.000000
142.11900330 167.25599670 143.75000000 0.811715 0.558713 -0.170174 0.000000
289.07199097 169.18899536 236.25000000 0.337636 0.676903 -0.654068 0.000000
264.90200806 224.29699707 248.75000000 0.000978 0.000978 -0.999999 0.000000
163.38900757 243.63299561 101.25000000 -0.566171 0.066692 0.821586 0.000000
198.19299316 232.03100586 166.25000000 0.121996 -0.992457 0.012090 0.000000
149.85400391 229.13099670 258.75000000 0.308835 0.001230 -0.951115 0.000000
122.30000305 271.67001343 120.00000000 0.923364 -0.226916 0.309691 0.000000
276.98699951 182.72500610 170.00000000 0.001370 -0.790530 0.612421 0.000000
122.30000305 295.83999634 140.00000000 0.748968 -0.498764 0.436212 0.000000
237.83200073 162.90499878 242.50000000 0.374923 0.564840 -0.735111 0.000000
226.22999573 196.25999451 148.75000000 -0.551837 -0.244052 0.797443 0.000000
145.98599243 302.60699463 221.25000000 0.098237 -0.637809 -0.763904 0.000000
298.25698853 218.49600220 247.50000000 -0.398565 0.100676 -0.911597 0.000000
195.29299927 256.68499756 252.50000000 0.169014 -0.370696 -0.913246 0.000000
156.13800049 320.01000977 207.50000000 0.134802 -0.810290 -0.570314 0.000000
191.42599487 201.57699585 137.50000000 0.151583 -0.440313 0.884956 0.000000
247.50000000 157.10499573 237.50000000 0.117213 0.752240 -0.648380 0.000000
232.03100586 168.22300720 246.25000000 0.026632 0.755513 -0.654592 0.000000
258.13500977 160.48800659 146.25000000 -0.565848 -0.485253 0.666593 0.000000
170.15600586 244.60000610 258.75000000 -0.217676 -0.381297 -0.898460 0.000000
224.77999878 217.52900696 167.50000000 -0.176939 -0.878847 0.443080 0.000000
231.06399536 262.48498535 177.50000000 -0.230174 -0.486261 0.842954 0.000000
255.71800232 219.46299744 167.50000000 -0.152550 -0.317470 0.935917 0.000000
146.47000122 203.02699280 97.50000000 -0.223726 0.375800 0.899289 0.000000
249.43400574 144.53599548 185.00000000 0.024868 0.976960 -0.211971 0.000000
138.25199890 195.77600098 240.00000000 0.455456 0.518392 -0.723761 0.000000
255.23399353 205.92799377 251.25000000 0.000978 0.000978 -0.999999 0.000000
127.61699677 186.10800171 127.50000000 0.941834 0.313049 -0.122264 0.000000
303.57400513 154.20399475 197.50000000 -0.206908 0.930382 -0.302620 0.000000
192.39300537 238.79899597 118.75000000 -0.710871 -0.165921 0.683471 0.000000
276.50399780 203.99400330 251.25000000 -0.369635 0.242987 -0.896843 0.000000
319.04299927 178.85699463 226.25000000 -0.422217 0.845993 -0.325621 0.000000
263.93600464 223.33000183 171.25000000 -0.283923 -0.434326 0.854839 0.000000
288.10501099 221.39700317 196.25000000 -0.786940 -0.365307 0.497269 0.000000
161.45500183 322.91000366 136.25000000 0.228634 -0.820936 0.523251 0.000000
132.45100403 275.53698730 233.75000000 0.652613 -0.384959 -0.652613 0.000000
214.62899780 153.72099304 131.25000000 -0.516650 -0.281095 0.808738 0.000000
173.53999329 205.92799377 112.50000000 -0.579271 0.255884 0.773931 0.000000
262.00201416 178.85699463 158.75000000 -0.535416 -0.397878 0.744998 0.000000
187.55900574 194.32600403 133.75000000 -0.277171 -0.859078 0.430304 0.000000
288.10501099 237.83200073 251.25000000 0.607725 -0.132243 -0.783059 0.000000
115.53199768 262.96899414 137.50000000 0.958071 0.023488 0.285567 0.000000
118.91600037 204.47799683 217.50000000 0.771720 0.618279 -0.148928 0.000000
215.59599304 258.13500977 248.75000000 -0.576197 -0.423430 -0.699074 0.000000
216.56300354 167.25599670 241.25000000 0.284358 0.871321 -0.399926 0.000000
224.29699707 207.86099243 153.75000000 -0.694162 -0.304401 0.652287 0.000000
140.18600464 285.20498657 101.25000000 0.553374 -0.580450 0.597373 0.000000
267.80300903 235.89799500 246.25000000 -0.001254 -0.342448 -0.939536 0.000000
154.68800354 330.64498901 191.25000000 0.159335 -0.897156 -0.411974 0.000000
269.25299072 217.52900696 172.50000000 -0.460115 -0.059060 0.885893 0.000000
263.93600464 168.22300720 156.25000000 -0.454158 -0.328440 0.828171 0.000000
219.46299744 265.38598633 242.50000000 -0.345672 -0.566383 -0.748145 0.000000
287.13900757 176.44000244 242.50000000 -0.811660 0.374735 -0.448087 0.000000
147.91999817 206.89500427 96.25000000 0.379507 0.150956 0.912791 0.000000
292.93899536 236.86500549 216.25000000 -0.792895 -0.330240 0.512112 0.000000
196.25999451 223.33000183 126.25000000 -0.878948 0.218622 0.423858 0.000000
285.20498657 165.32200623 176.25000000 -0.686019 -0.449000 0.572517 0.000000
120.84999847 205.44400024 227.50000000 0.880762 0.373153 -0.291573 0.000000
219.46299744 147.43699646 197.50000000 0.180501 0.955989 -0.231309 0.000000
218.01300049 289.07199097 212.50000000 -0.708058 -0.606673 -0.361388 0.000000
141.15199280 252.33399963 248.75000000 0.482400 -0.357392 -0.799726 0.000000
149.36999512 324.84399414 197.50000000 0.434884 -0.793785 -0.425184 0.000000
120.36599731 218.49600220 132.50000000 0.993103 0.098070 0.064253 0.000000
120.84999847 280.37100220 128.75000000 0.001380 -0.652721 0.757597 0.000000
188.52499390 325.32699585 147.50000000 -0.458337 -0.774768 0.435501 0.000000
110.69799805 235.89799500 180.00000000 0.969101 0.241968 0.047902 0.000000
188.04200745 300.67401123 222.50000000 -0.381011 -0.557616 -0.737492 0.000000
198.67700195 303.57400513 142.50000000 -0.695622 -0.305041 0.650431 0.000000
311.30899048 241.69900513 236.25000000 0.201012 0.036872 -0.978895 0.000000
265.86898804 228.16400146 176.25000000 -0.485253 -0.565848 0.666593 0.000000
141.15199280 177.40699768 187.50000000 0.690514 0.711484 -0.130314 0.000000
185.14199829 289.07199097 232.50000000 -0.190943 -0.591158 -0.783628 0.000000
149.85400391 301.15701294 112.50000000 0.360948 -0.765598 0.532519 0.000000
115.04900360 217.52900696 211.25000000 0.922982 0.359477 -0.137406 0.000000
202.06100464 324.84399414 183.75000000 -0.637809 -0.763904 -0.098237 0.000000
262.96899414 174.99000549 251.25000000 -0.000978 -0.000978 -0.999999 0.000000
118.43299866 294.87298584 160.00000000 0.926777 -0.358973 0.110558 0.000000
201.57699585 325.81100464 175.00000000 -0.636886 -0.770674 0.020904 0.000000
279.40399170 170.15600586 173.75000000 -0.467539 -0.112266 0.876814 0.000000
242.66600037 148.40299988 200.00000000 0.075413 0.982764 -0.168782 0.000000
145.98599243 211.72900391 96.25000000 -0.438562 0.105087 0.892536 0.000000
265.86898804 178.85699463 251.25000000 -0.199020 0.059103 -0.978212 0.000000
192.39300537 330.64498901 181.25000000 -0.223435 -0.939536 -0.259517 0.000000
109.73100281 248.46699524 170.00000000 0.989133 0.106270 0.101599 0.000000
313.72601318 233.96499634 242.50000000 -0.524395 -0.017707 -0.851291 0.000000
267.80300903 164.35499573 156.25000000 -0.444886 -0.356225 0.821693 0.000000
296.80700684 172.57299805 195.00000000 -0.729337 -0.385155 0.565441 0.000000
210.76199341 160.00500488 232.50000000 0.152078 0.775445 -0.612827 0.000000
239.76600647 149.85400391 206.25000000 0.003332 0.989676 -0.143286 0.000000
163.38900757 325.81100464 201.25000000 0.185016 -0.775230 -0.603976 0.000000
247.50000000 239.76600647 246.25000000 -0.271947 0.015853 -0.962182 0.000000
120.36599731 213.66200256 97.50000000 0.999999 -0.000978 -0.000978 0.000000
190.45899963 274.57000732 123.75000000 -0.619912 -0.138920 0.772276 0.000000
276.50399780 167.73899841 167.50000000 -0.745272 -0.419524 0.518236 0.000000
248.46699524 196.25999451 158.75000000 -0.407778 -0.559663 0.721453 0.000000
115.04900360 248.46699524 223.75000000 0.933019 0.001263 -0.359825 0.000000
137.28500366 229.13099670 251.25000000 0.593333 0.116311 -0.796510 0.000000
188.52499390 323.87701416 196.25000000 -0.422217 -0.845993 -0.325621 0.000000
249.43400574 262.96899414 221.25000000 -0.000978 -0.999999 -0.000978 0.000000
131.00100708 190.45899963 185.00000000 0.785791 0.610195 -0.100968 0.000000
218.49600220 157.58799744 228.75000000 0.068695 0.947474 -0.312368 0.000000
150.82000732 304.54098511 223.75000000 -0.629577 0.445881 -0.636257 0.000000
204.96099854 237.83200073 258.75000000 -0.000978 -0.000978 -0.999999 0.000000
251.36700439 163.38900757 246.25000000 -0.001351 0.544370 -0.838844 0.000000
139.21899414 278.43798828 236.25000000 0.383579 -0.614056 -0.689784 0.000000
109.73100281 269.73599243 182.50000000 0.999999 0.000978 0.000978 0.000000
166.28900146 155.17100525 160.00000000 0.451813 0.888334 -0.082021 0.000000
134.38499451 312.27499390 141.25000000 0.524450 -0.645867 0.554804 0.000000
188.52499390 211.24499512 140.00000000 -0.774054 0.590275 0.228946 0.000000
285.20498657 157.58799744 168.75000000 -0.570049 -0.657490 0.492697 0.000000
154.68800354 203.99400330 253.75000000 0.363820 0.385680 -0.847872 0.000000
292.93899536 248.46699524 243.75000000 -0.149851 -0.467010 -0.871462 0.000000
171.12300110 195.29299927 251.25000000 0.001370 0.790530 -0.612421 0.000000
204.96099854 225.26400757 163.75000000 0.011691 -0.915826 0.401405 0.000000
144.05299377 327.26098633 160.00000000 0.621876 -0.778432 0.085526 0.000000
150.33700562 217.52900696 97.50000000 -0.804610 0.345744 0.482766 0.000000
119.88300323 255.23399353 231.25000000 0.826190 -0.272285 -0.493225 0.000000
122.30000305 202.06100464 190.00000000 0.790936 0.592826 0.151583 0.000000
241.69900513 201.09399414 251.25000000 -0.000978 -0.000978 -0.999999 0.000000
169.18899536 326.77700806 141.25000000 0.201187 -0.778638 0.594345 0.000000
192.39300537 158.55499268 121.25000000 -0.392936 -0.130046 0.910324 0.000000
123.26699829 197.22700500 207.50000000 0.779928 0.625868 -0.001376 0.000000
300.67401123 172.08999634 231.25000000 -0.541375 0.625702 -0.561614 0.000000
190.45899963 248.46699524 256.25000000 0.107500 -0.084382 -0.990618 0.000000
177.89100647 173.05700684 126.25000000 -0.325970 -0.123084 0.937333 0.000000
239.76600647 204.96099854 158.75000000 -0.182326 -0.421538 0.888292 0.000000
112.14800262 223.33000183 193.75000000 0.970126 0.237306 0.050412 0.000000
117.94899750 287.13900757 143.75000000 0.922690 -0.194176 0.333075 0.000000
152.75399780 205.92799377 101.25000000 -0.621173 0.212221 0.754392 0.000000
225.26400757 176.92399597 141.25000000 -0.531989 -0.120973 0.838065 0.000000
221.39700317 276.98699951 172.50000000 -0.981537 -0.001145 0.191268 0.000000
213.66200256 258.13500977 251.25000000 -0.174077 -0.318910 -0.931662 0.000000
167.25599670 262.96899414 106.25000000 -0.263455 -0.525351 0.809072 0.000000
287.13900757 261.03500366 238.75000000 0.055781 -0.893849 -0.444884 0.000000
266.83599854 176.92399597 161.25000000 -0.578883 -0.225035 0.783743 0.000000
227.19700623 168.70599365 245.00000000 0.169487 0.725284 -0.667261 0.000000
211.72900391 206.41099548 142.50000000 -0.001263 -0.933019 0.359825 0.000000
159.52099609 258.13500977 98.75000000 -0.558424 0.173096 0.811295 0.000000
109.73100281 272.63699341 180.00000000 0.999999 0.000978 0.000978 0.000000
249.43400574 268.28601074 190.00000000 -0.759051 -0.613139 0.218867 0.000000
178.85699463 191.90899658 250.00000000 -0.052863 0.727224 -0.684362 0.000000
212.21200562 272.63699341 142.50000000 -0.841289 -0.346229 0.415161 0.000000
297.77301025 229.13099670 248.75000000 -0.000978 -0.000978 -0.999999 0.000000
135.35200500 182.24099731 157.50000000 0.844462 0.470508 -0.255944 0.000000
236.86500549 231.06399536 251.25000000 -0.000978 -0.000978 -0.999999 0.000000
205.92799377 198.19299316 136.25000000 -0.231834 -0.207430 0.950382 0.000000
149.85400391 223.33000183 96.25000000 -0.588563 0.204384 0.782190 0.000000
224.29699707 174.02299500 248.75000000 0.561870 0.639485 -0.524749 0.000000
202.06100464 198.19299316 251.25000000 -0.597920 0.747799 0.288596 0.000000
247.50000000 164.35499573 143.75000000 -0.622904 -0.435866 0.649624 0.000000
195.29299927 166.77200317 232.50000000 0.445305 0.572058 -0.688805 0.000000
150.82000732 322.42700195 140.00000000 0.451104 -0.694134 0.560967 0.000000
249.43400574 248.46699524 241.25000000 -0.238009 -0.508265 -0.827658 0.000000
248.46699524 269.25299072 197.50000000 -0.000978 -0.000978 0.999999 0.000000
122.78299713 242.66600037 238.75000000 0.908420 -0.228195 -0.350287 0.000000
209.79499817 224.29699707 176.25000000 -0.148744 -0.905216 0.398069 0.000000
199.16000366 323.87701416 188.75000000 -0.536510 -0.715900 -0.446815 0.000000
309.37500000 247.01699829 237.50000000 -0.439646 -0.786820 0.433157 0.000000
276.50399780 256.20098877 226.25000000 -0.104724 -0.741915 0.662266 0.000000
189.49200439 239.76600647 258.75000000 0.014776 -0.484905 -0.874442 0.000000
223.33000183 196.25999451 251.25000000 -0.000978 -0.000978 -0.999999 0.000000
262.00201416 211.72900391 166.25000000 -0.733556 -0.159469 0.660656 0.000000
150.82000732 226.22999573 96.25000000 -0.501675 0.413432 0.759866 0.000000
219.46299744 161.93800354 135.00000000 -0.219387 -0.252502 0.942397 0.000000
114.08200073 284.72198486 167.50000000 0.941863 -0.281871 0.182873 0.000000
121.33300018 211.72900391 127.50000000 0.986062 0.147614 -0.076759 0.000000
169.18899536 327.74398804 141.25000000 0.201187 -0.778638 0.594345 0.000000
135.35200500 289.07199097 226.25000000 0.370061 -0.546125 -0.751533 0.000000
120.84999847 251.36700439 233.75000000 0.677161 -0.272458 -0.683535 0.000000
153.72099304 167.73899841 100.00000000 -0.084382 -0.107500 0.990618 0.000000
220.42999268 288.58898926 200.00000000 -0.772088 -0.630128 -0.082569 0.000000
212.69500732 231.54800415 155.00000000 -0.196474 0.977490 -0.076881 0.000000
215.11199951 265.86898804 145.00000000 -0.894448 -0.147405 0.422179 0.000000
176.92399597 195.29299927 253.75000000 0.223411 0.670232 -0.707727 0.000000
182.72500610 235.89799500 258.75000000 0.000978 0.000978 -0.999999 0.000000
191.90899658 279.40399170 237.50000000 -0.282884 -0.621705 -0.730383 0.000000
178.85699463 177.89100647 238.75000000 0.001263 0.933019 -0.359825 0.000000
243.63299561 246.53300476 243.75000000 -0.028823 -0.299507 -0.953659 0.000000
248.94999695 262.96899414 222.50000000 -0.000978 -0.999999 -0.000978 0.000000
278.92098999 204.96099854 177.50000000 -0.822682 -0.309882 0.476621 0.000000
161.45500183 186.10800171 245.00000000 0.309882 0.822682 -0.476621 0.000000
192.39300537 155.65400696 213.75000000 0.177762 0.938416 -0.296269 0.000000
240.73199463 221.39700317 251.25000000 -0.000978 -0.000978 -0.999999 0.000000
261.03500366 257.16799927 233.75000000 0.482673 -0.243635 0.841230 0.000000
198.19299316 172.57299805 127.50000000 -0.225923 -0.305493 0.925004 0.000000
191.42599487 148.40299988 190.00000000 0.307909 0.920864 -0.239167 0.000000
220.42999268 233.96499634 256.25000000 -0.130369 0.085738 -0.987751 0.000000
272.63699341 242.66600037 193.75000000 -0.322496 -0.805445 0.497247 0.000000
136.31799316 301.64099121 128.75000000 0.588469 -0.691244 0.419388 0.000000
268.76998901 254.26800537 241.25000000 0.145002 -0.435006 -0.888676 0.000000
194.80999756 149.85400391 197.50000000 0.137655 0.936330 -0.323013 0.000000
233.48100281 162.42199707 240.00000000 0.268769 0.656815 -0.704526 0.000000
264.90200806 211.72900391 251.25000000 -0.000978 -0.000978 -0.999999 0.000000
276.50399780 143.08599854 176.25000000 -0.111420 0.980744 -0.160396 0.000000
234.93200684 154.68800354 228.75000000 0.094333 0.969748 -0.225143 0.000000
126.65000153 247.50000000 241.25000000 0.603249 -0.208283 -0.769876 0.000000
216.56300354 143.56900024 177.50000000 -0.085385 0.962175 -0.258704 0.000000
210.76199341 154.68800354 128.75000000 -0.473266 -0.028315 0.880464 0.000000
115.53199768 228.16400146 170.00000000 0.923722 0.354209 0.145851 0.000000
294.87298584 222.36300659 248.75000000 -0.058789 0.080974 -0.994981 0.000000
161.45500183 291.97299194 108.75000000 -0.670261 -0.241294 0.701803 0.000000
143.08599854 279.88800049 237.50000000 0.300701 -0.542535 -0.784369 0.000000
296.80700684 163.38900757 186.25000000 -0.639660 -0.551897 0.535019 0.000000
166.28900146 295.83999634 231.25000000 0.083101 -0.730415 -0.677930 0.000000
302.60699463 205.92799377 216.25000000 -0.721553 -0.240518 0.649240 0.000000
319.04299927 213.66200256 231.25000000 -0.837839 0.168163 0.519371 0.000000
167.25599670 203.99400330 256.25000000 0.362173 0.164881 -0.917412 0.000000
215.59599304 250.39999390 253.75000000 -0.093633 -0.370461 -0.924117 0.000000
171.12300110 247.50000000 258.75000000 -0.000978 -0.000978 -0.999999 0.000000
248.46699524 147.43699646 197.50000000 -0.050964 0.982534 -0.178966 0.000000
313.24200439 169.18899536 221.25000000 -0.370574 0.834187 -0.408420 0.000000
148.88699341 297.77301025 108.75000000 -0.130013 -0.718809 0.682943 0.000000
188.52499390 260.06799316 118.75000000 -0.474354 0.031083 0.879785 0.000000
308.40798950 247.50000000 236.25000000 -0.512307 -0.135740 0.848007 0.000000
245.56599426 181.75799561 153.75000000 0.000978 0.000978 0.999999 0.000000
182.72500610 209.79499817 116.25000000 -0.489899 0.364613 0.791869 0.000000
252.33399963 184.65800476 251.25000000 -0.000978 -0.000978 -0.999999 0.000000
153.72099304 190.45899963 246.25000000 0.276559 0.692196 -0.666618 0.000000
257.16799927 238.79899597 246.25000000 -0.212609 -0.637827 -0.740252 0.000000
210.76199341 299.70700073 153.75000000 -0.483080 -0.361106 0.797644 0.000000
150.82000732 258.13500977 251.25000000 0.626529 0.525204 -0.575866 0.000000
173.05700684 161.45500183 108.75000000 -0.745935 -0.408215 0.526253 0.000000
193.35899353 309.37500000 141.25000000 -0.636438 -0.410445 0.653056 0.000000
154.68800354 306.47500610 221.25000000 0.167558 -0.798541 -0.578150 0.000000
197.22700500 160.97200012 227.50000000 0.249009 0.867758 -0.430106 0.000000
227.19700623 228.16400146 181.25000000 -0.803009 -0.240747 0.545176 0.000000
129.55099487 273.60400391 231.25000000 0.601786 -0.314607 -0.734082 0.000000
185.14199829 207.86099243 137.50000000 -0.906535 0.286506 0.310014 0.000000
306.47500610 160.97200012 212.50000000 -0.341633 0.847062 -0.407152 0.000000
281.33801270 248.94999695 217.50000000 -0.422217 -0.845993 0.325621 0.000000
234.93200684 203.02699280 251.25000000 -0.000978 -0.000978 -0.999999 0.000000
161.45500183 182.72500610 108.75000000 -0.600218 -0.001367 0.799835 0.000000
210.76199341 163.38900757 236.25000000 0.260655 0.595557 -0.759849 0.000000
181.75799561 304.54098511 128.75000000 -0.568336 -0.326834 0.755098 0.000000
202.06100464 203.99400330 256.25000000 0.254879 0.726642 -0.637988 0.000000
216.56300354 184.17500305 250.00000000 0.400777 0.212867 -0.891104 0.000000
281.33801270 208.82800293 248.75000000 -0.113657 0.188596 -0.975455 0.000000
238.79899597 160.48800659 241.25000000 -0.177102 0.501540 -0.846813 0.000000
153.72099304 168.22300720 188.75000000 0.441257 0.881057 -0.170386 0.000000
155.65400696 315.65899658 127.50000000 0.381733 -0.790847 0.478374 0.000000
212.21200562 311.30899048 170.00000000 -0.813757 -0.529637 0.239340 0.000000
219.46299744 295.83999634 181.25000000 -0.990422 -0.122799 -0.063121 0.000000
206.41099548 299.70700073 150.00000000 -0.808313 -0.404957 0.427365 0.000000
117.94899750 268.76998901 128.75000000 0.845131 -0.421787 0.328403 0.000000
133.41799927 191.42599487 231.25000000 0.575446 0.632822 -0.518071 0.000000
114.08200073 264.90200806 141.25000000 0.967372 -0.055882 0.247121 0.000000
134.38499451 182.24099731 220.00000000 0.941530 0.313843 -0.122574 0.000000
305.50799561 181.75799561 206.25000000 -0.441308 -0.331373 0.833930 0.000000
196.25999451 250.39999390 256.25000000 -0.037860 -0.590332 -0.806272 0.000000
302.60699463 231.06399536 246.25000000 -0.353197 -0.006330 -0.935528 0.000000
187.07499695 274.57000732 122.50000000 -0.432024 -0.273259 0.859468 0.000000
135.83500671 198.19299316 240.00000000 0.438526 0.432053 -0.788052 0.000000
150.82000732 174.02299500 221.25000000 0.514347 0.786743 -0.341296 0.000000
262.48498535 198.19299316 250.00000000 -0.237047 0.290986 -0.926896 0.000000
206.89500427 164.83900452 130.00000000 -0.506930 -0.358874 0.783729 0.000000
312.27499390 182.24099731 212.50000000 -0.236983 -0.448306 0.861894 0.000000
235.89799500 179.82400513 151.25000000 -0.547885 -0.547885 0.632175 0.000000
122.30000305 242.66600037 97.50000000 0.988312 -0.144153 0.049589 0.000000
199.64399719 296.80700684 220.00000000 -0.413891 -0.620006 -0.666548 0.000000
245.56599426 191.42599487 153.75000000 -0.145762 -0.394830 0.907118 0.000000
130.51800537 297.77301025 131.25000000 0.764843 -0.510439 0.393022 0.000000
173.53999329 301.64099121 120.00000000 -0.594807 -0.161125 0.787555 0.000000
261.03500366 221.39700317 168.75000000 -0.238528 -0.298517 0.924117 0.000000
285.20498657 197.22700500 186.25000000 -0.845993 -0.422217 0.325621 0.000000
163.38900757 297.77301025 228.75000000 0.001370 -0.790530 -0.612421 0.000000
318.07598877 226.22999573 233.75000000 -0.568503 -0.403720 0.716808 0.000000
145.98599243 316.62600708 137.50000000 0.426150 -0.698089 0.575385 0.000000
132.93499756 187.55900574 182.50000000 0.881057 0.441257 0.170386 0.000000
130.03399658 202.06100464 237.50000000 0.588632 0.507674 -0.629111 0.000000
228.64700317 212.69500732 187.50000000 -0.385249 0.003840 0.922805 0.000000
202.06100464 254.26800537 126.25000000 -0.547885 0.547885 0.632175 0.000000
262.00201416 251.36700439 208.75000000 0.992774 -0.116732 0.027793 0.000000
193.35899353 320.49301147 197.50000000 -0.682323 -0.682323 -0.262432 0.000000
128.58399963 215.59599304 243.75000000 0.682323 -0.682323 -0.262432 0.000000
236.86500549 223.33000183 198.75000000 0.883133 -0.217455 0.415679 0.000000
273.60400391 177.40699768 247.50000000 -0.206326 0.693442 0.690339 0.000000
115.53199768 258.13500977 137.50000000 0.981537 -0.001145 0.191268 0.000000
246.53300476 162.42199707 141.25000000 -0.622904 -0.435866 0.649624 0.000000
217.04600525 246.53300476 145.00000000 -0.933019 0.001263 0.359825 0.000000
212.69500732 298.73999023 206.25000000 -0.733473 -0.501676 -0.458627 0.000000
182.72500610 202.06100464 258.75000000 -0.402316 0.650660 -0.644037 0.000000
200.12699890 240.73199463 123.75000000 -0.597601 0.296397 0.744998 0.000000
272.63699341 225.26400757 176.25000000 -0.563353 -0.330909 0.757056 0.000000
254.26800537 173.05700684 251.25000000 0.285243 0.305722 -0.908389 0.000000
225.26400757 211.72900391 156.25000000 -0.856642 -0.182612 0.482511 0.000000
234.93200684 204.96099854 191.25000000 0.938856 0.086316 -0.333314 0.000000
123.26699829 247.50000000 97.50000000 0.976596 -0.182878 0.113210 0.000000
298.73999023 170.15600586 196.25000000 -0.597929 -0.493502 0.631615 0.000000
263.93600464 210.76199341 168.75000000 -0.626962 -0.198718 0.753279 0.000000
121.81600189 218.49600220 236.25000000 0.791119 0.164251 -0.589196 0.000000
160.48800659 243.63299561 98.75000000 -0.590606 -0.281772 0.756167 0.000000
