138.27000427 141.90800476 184.00000000 -0.073406 -0.954280 0.289761 0.000000
229.23599243 219.12899780 205.00000000 0.315537 0.158458 -0.935589 0.000000
150.80299377 302.41400146 207.00000000 0.465122 0.535141 0.705185 0.000000
214.68200684 130.99200439 157.00000000 0.806012 -0.402205 -0.434253 0.000000
152.41999817 241.77000427 147.00000000 -0.652898 -0.435822 -0.619502 0.000000
175.86900330 242.57800293 184.00000000 0.509503 0.856700 0.080448 0.000000
143.92999268 213.06399536 157.00000000 -0.241659 -0.790457 0.562831 0.000000
63.07030106 209.42599487 216.50000000 -0.778585 -0.001373 0.627537 0.000000
223.97999573 137.86500549 178.00000000 0.820928 0.453962 -0.346403 0.000000
143.12100220 137.86500549 167.00000000 -0.282507 -0.936586 0.207357 0.000000
84.09380341 175.06100464 192.00000000 0.000978 0.000978 0.999999 0.000000
162.12300110 204.57400513 177.00000000 -0.823064 0.439285 0.359992 0.000000
76.41210175 220.74600220 100.00000000 -0.963601 -0.205272 -0.171278 0.000000
55.38869858 266.83599854 192.00000000 -0.885088 -0.296031 0.359144 0.000000
133.82200623 236.91799927 165.00000000 0.236547 -0.371717 -0.897704 0.000000
202.95700073 204.57400513 218.50000000 0.000978 0.000978 0.999999 0.000000
85.30660248 181.12500000 151.00000000 -0.885075 -0.443255 0.142014 0.000000
56.19729996 232.06599426 184.00000000 -0.958423 -0.246527 -0.143698 0.000000
78.43360138 191.63699341 136.50000000 -0.889277 -0.433898 -0.144633 0.000000
65.90039825 222.36300659 151.00000000 -0.958799 -0.184333 -0.216161 0.000000
161.71899414 133.01400757 155.00000000 -0.092878 -0.983059 0.158013 0.000000
73.98629761 246.62100220 108.00000000 -0.952369 0.073657 -0.295919 0.000000
150.39799500 137.05700684 148.00000000 -0.388033 -0.910114 -0.145336 0.000000
90.96679688 241.77000427 91.00000000 0.871150 -0.206991 -0.445255 0.000000
178.69900513 213.87300110 179.00000000 -0.738118 0.663860 -0.120297 0.000000
94.60549927 238.53500366 243.50000000 -0.315537 0.158458 0.935589 0.000000
238.93899536 211.85200500 207.00000000 0.407457 0.439667 -0.800420 0.000000
101.88300323 156.05900574 129.50000000 -0.730415 -0.677930 -0.083101 0.000000
124.52300262 304.03100586 216.50000000 0.211021 0.583774 0.784014 0.000000
148.37699890 190.82800293 231.00000000 0.238198 -0.574477 0.783095 0.000000
189.21099854 219.53300476 180.00000000 -0.731138 0.679427 0.061766 0.000000
120.07599640 216.70300293 158.00000000 0.303434 -0.121641 -0.945056 0.000000
144.73800659 302.41400146 158.50000000 0.704091 0.315627 -0.636110 0.000000
105.11699677 192.44500732 129.50000000 0.272469 0.724990 -0.632574 0.000000
65.49610138 236.10899353 136.50000000 -0.940219 -0.045265 -0.337548 0.000000
82.07230377 185.16799927 137.00000000 -0.856545 -0.516071 0.001340 0.000000
81.26370239 177.08200073 185.00000000 -0.715358 -0.698690 0.009723 0.000000
128.56599426 146.75999451 184.00000000 -0.612423 -0.787400 -0.070278 0.000000
160.91000366 226.40600586 233.50000000 0.368712 0.134963 0.919694 0.000000
73.17769623 270.07000732 121.00000000 -0.654145 -0.107794 -0.748649 0.000000
186.78500366 198.91400146 221.50000000 -0.000978 -0.000978 0.999999 0.000000
130.18400574 248.23800659 241.50000000 0.303132 0.065786 0.950675 0.000000
190.42399597 170.61300659 217.00000000 0.254214 -0.135669 0.957585 0.000000
147.16400146 207.80900574 236.50000000 0.385351 0.022057 0.922507 0.000000
141.50399780 216.29899597 167.00000000 -0.557708 -0.819640 0.130966 0.000000
233.27900696 215.08599854 205.00000000 0.536570 0.321942 -0.780029 0.000000
64.28320313 208.61700439 189.00000000 -0.927164 -0.361391 -0.098807 0.000000
157.27099609 276.53900146 162.00000000 0.975623 0.139375 -0.169510 0.000000
61.85739899 215.89500427 190.00000000 -0.879985 -0.440725 0.177168 0.000000
202.14799500 219.93800354 218.50000000 0.440487 -0.087542 0.893481 0.000000
230.04499817 205.38299561 199.00000000 0.612421 0.001370 -0.790530 0.000000
101.07399750 316.16000366 201.50000000 -0.371248 0.841181 0.393178 0.000000
177.89100647 213.87300110 184.00000000 -0.426345 0.825746 -0.369288 0.000000
161.71899414 176.27299500 143.50000000 0.434578 -0.036103 -0.899910 0.000000
53.77149963 228.83200073 196.00000000 -0.982213 -0.175865 -0.065800 0.000000
162.12300110 239.34399414 225.00000000 0.538235 0.615849 0.575355 0.000000
145.95100403 237.72700500 237.00000000 0.072969 0.013748 0.997239 0.000000
152.82400513 245.40800476 144.00000000 0.626302 -0.410336 -0.662850 0.000000
73.17769623 194.87100220 171.00000000 -0.860542 -0.266540 -0.434079 0.000000
167.78300476 229.64100647 178.00000000 -0.213626 -0.564034 -0.797640 0.000000
100.26599884 222.36300659 111.50000000 0.247976 -0.413294 -0.876183 0.000000
109.16000366 324.24600220 171.50000000 -0.000978 0.999999 -0.000978 0.000000
69.53910065 297.56201172 171.50000000 -0.914819 0.403862 0.001290 0.000000
194.06199646 198.91400146 166.50000000 0.174133 0.131539 -0.975897 0.000000
121.69300079 280.58200073 134.00000000 0.952126 0.184500 -0.243755 0.000000
182.74200439 225.59800720 171.50000000 0.410961 0.194512 0.890660 0.000000
159.29299927 134.22700500 166.50000000 -0.093812 -0.990240 0.103078 0.000000
55.38869858 278.96499634 175.00000000 -0.479869 -0.875864 -0.050874 0.000000
81.26370239 204.57400513 236.00000000 -0.698777 -0.258278 0.667086 0.000000
82.47660065 257.53698730 91.00000000 -0.758254 0.178502 -0.627047 0.000000
88.54100037 175.46499634 134.00000000 -0.887010 -0.441362 0.135694 0.000000
138.27000427 142.71699524 188.00000000 -0.001152 -0.979955 0.199215 0.000000
96.22270203 307.67001343 136.00000000 -0.485578 0.818726 -0.306433 0.000000
126.14099884 278.15600586 136.50000000 0.500517 0.045502 -0.864530 0.000000
84.49800110 183.55099487 154.00000000 -0.818605 -0.559944 0.127861 0.000000
156.86700439 171.42199707 141.50000000 0.282700 0.385500 -0.878334 0.000000
192.44500732 247.83399963 210.00000000 -0.720807 -0.156301 -0.675283 0.000000
147.16400146 179.91200256 169.00000000 -0.070455 -0.982790 0.170764 0.000000
132.60899353 254.70700073 131.50000000 0.001370 -0.612421 -0.790530 0.000000
84.09380341 261.57998657 238.00000000 -0.613922 0.613922 0.496184 0.000000
79.24220276 207.00000000 104.50000000 0.040535 -0.372663 -0.927081 0.000000
134.63099670 265.21899414 138.00000000 0.634754 0.300504 -0.711888 0.000000
90.56250000 306.05300903 141.00000000 0.848125 0.458570 0.265326 0.000000
78.83789825 184.35899353 171.00000000 -0.875007 -0.403501 -0.267489 0.000000
110.37300110 213.46899414 140.00000000 0.831256 -0.376983 -0.408530 0.000000
164.14500427 236.51400757 226.00000000 0.686383 0.640733 0.344007 0.000000
172.22999573 132.20500183 160.00000000 -0.044239 -0.998978 -0.009259 0.000000
148.37699890 270.87899780 147.00000000 0.918860 0.306287 -0.248768 0.000000
141.50399780 233.27900696 150.00000000 0.122828 -0.859795 -0.495647 0.000000
87.32810211 214.27699280 104.50000000 0.709167 -0.368505 -0.601072 0.000000
181.12500000 211.85200500 223.50000000 0.645598 -0.205910 0.735394 0.000000
75.60350037 186.78500366 212.00000000 -0.940585 -0.314428 -0.128200 0.000000
188.40199280 221.95899963 184.00000000 -0.803152 0.590511 -0.079022 0.000000
65.49610138 228.02299500 223.50000000 -0.826370 -0.001357 0.563126 0.000000
107.94699860 266.83599854 110.00000000 0.500443 0.196871 -0.843089 0.000000
134.22700500 320.60699463 169.00000000 0.294629 0.947879 -0.121318 0.000000
111.98999786 293.51998901 118.00000000 0.861479 0.004019 -0.507777 0.000000
101.88300323 301.20098877 221.00000000 -0.043175 0.255349 0.965885 0.000000
161.71899414 202.55299377 177.00000000 -0.386064 -0.105790 0.916386 0.000000
67.11329651 192.04100037 206.00000000 -0.697138 -0.486492 0.526615 0.000000
63.47460175 221.55499268 159.00000000 -0.900265 -0.406617 -0.155513 0.000000
78.83789825 312.92599487 185.00000000 -0.708486 0.705724 0.001381 0.000000
69.94339752 219.93800354 130.00000000 -0.962540 -0.190407 -0.193033 0.000000
193.25399780 198.10499573 218.50000000 -0.000978 -0.000978 0.999999 0.000000
141.10000610 217.51199341 240.00000000 0.965696 -0.001197 0.259673 0.000000
94.20120239 181.93400574 230.00000000 -0.723348 -0.428712 0.541270 0.000000
137.46099854 140.29100037 171.00000000 0.000978 0.000978 0.999999 0.000000
107.54299927 314.13900757 138.00000000 -0.277906 0.884792 -0.374046 0.000000
68.73049927 259.55899048 228.50000000 -0.508696 0.025912 0.860556 0.000000
226.40600586 135.03500366 181.50000000 0.774730 0.631314 -0.035151 0.000000
173.03900146 244.60000610 180.00000000 0.508401 0.856776 0.086386 0.000000
78.43360138 211.04299927 233.50000000 -0.665569 -0.133114 0.734369 0.000000
147.97300720 137.05700684 170.00000000 0.101099 -0.907120 -0.408550 0.000000
148.37699890 247.42999268 139.00000000 0.509621 -0.252487 -0.822519 0.000000
54.58010101 274.11300659 190.00000000 -0.986569 0.024063 -0.161564 0.000000
180.31599426 242.17399597 200.00000000 -0.075394 0.989400 0.124110 0.000000
88.13670349 178.29499817 220.00000000 -0.576891 -0.689941 0.437240 0.000000
105.52100372 202.14799500 140.00000000 0.302851 0.305805 -0.902643 0.000000
186.78500366 239.34399414 216.50000000 -0.740662 0.606287 0.289546 0.000000
162.52699280 265.62298584 162.00000000 0.805085 0.422629 -0.416201 0.000000
200.93600464 162.52699280 164.00000000 0.740099 0.179279 -0.648161 0.000000
148.37699890 295.94500732 159.00000000 0.435519 0.320005 -0.841380 0.000000
159.29299927 231.25799561 173.50000000 -0.000978 -0.000978 -0.999999 0.000000
200.53100586 230.04499817 209.00000000 0.634852 0.762715 0.123402 0.000000
199.72300720 223.57600403 196.00000000 0.226002 0.890716 -0.394396 0.000000
148.78100586 270.87899780 148.50000000 0.918860 0.306287 -0.248768 0.000000
162.52699280 153.63299561 131.50000000 0.201436 0.782678 -0.588930 0.000000
160.10200500 156.46299744 216.00000000 -0.167127 -0.440342 0.882138 0.000000
54.58010101 235.30099487 178.00000000 -0.874904 0.073955 -0.478616 0.000000
95.81839752 162.52699280 195.00000000 -0.578343 -0.812536 -0.072828 0.000000
130.99200439 230.04499817 141.00000000 0.782932 -0.559237 -0.272530 0.000000
97.03119659 229.23599243 107.00000000 0.958613 0.015997 -0.284261 0.000000
67.92189789 223.97999573 136.50000000 -0.963624 -0.222976 -0.147347 0.000000
112.39499664 277.34799194 236.50000000 -0.113877 0.655163 0.746856 0.000000
149.58999634 298.77499390 160.00000000 0.723954 0.261384 -0.638411 0.000000
172.22999573 239.74800110 208.00000000 -0.072228 0.836997 0.542419 0.000000
212.66000366 159.29299927 178.50000000 0.429429 0.086990 -0.898901 0.000000
71.56050110 207.80900574 228.00000000 -0.833087 -0.004077 0.553126 0.000000
181.12500000 209.42599487 166.50000000 -0.284848 0.832753 -0.474747 0.000000
118.05500031 149.58999634 176.50000000 -0.453006 -0.580048 -0.677001 0.000000
198.10499573 224.38499451 180.00000000 -0.759639 0.504792 0.410041 0.000000
160.10200500 270.47500610 160.00000000 0.867256 0.425303 -0.258814 0.000000
126.14099884 286.24200439 226.50000000 0.199936 0.699001 0.686602 0.000000
130.58799744 318.58599854 155.00000000 0.491295 0.837191 -0.240291 0.000000
112.39499664 159.29299927 119.50000000 0.499538 -0.071363 -0.863348 0.000000
187.59399414 212.66000366 171.50000000 -0.173853 0.494811 -0.851432 0.000000
73.17769623 303.22299194 196.00000000 -0.487638 0.779249 -0.393675 0.000000
67.51760101 228.02299500 132.00000000 -0.987597 -0.035641 -0.152911 0.000000
206.19099426 233.27900696 196.00000000 -0.787625 0.585748 0.191171 0.000000
71.96479797 275.73001099 223.50000000 -0.478969 0.593249 0.647028 0.000000
145.95100403 311.30899048 197.00000000 0.001255 0.937612 0.347682 0.000000
217.51199341 136.65199280 163.50000000 0.907608 0.100845 -0.407526 0.000000
98.64839935 310.90399170 210.00000000 -0.110911 0.723143 0.681736 0.000000
140.69500732 162.12300110 216.00000000 -0.274465 -0.601285 0.750417 0.000000
84.90229797 318.18200684 176.00000000 -0.103879 0.991987 0.071916 0.000000
66.30470276 290.28500366 171.50000000 -0.759639 0.504792 -0.410041 0.000000
56.60160065 235.30099487 174.50000000 -0.915883 -0.390174 -0.094463 0.000000
102.69100189 311.71301270 210.00000000 0.006908 0.763997 0.645183 0.000000
159.29299927 182.33799744 226.00000000 0.165164 -0.085596 0.982545 0.000000
117.24600220 245.81199646 245.50000000 0.100633 0.339470 0.935218 0.000000
71.15619659 191.23199463 210.00000000 -0.661890 -0.645384 0.381288 0.000000
163.74000549 191.63699341 228.00000000 0.454898 -0.191146 0.869788 0.000000
185.16799927 215.89500427 176.50000000 -0.255868 0.884315 -0.390535 0.000000
178.69900513 134.63099670 179.00000000 -0.014765 -0.986983 0.160143 0.000000
83.28520203 176.67799377 204.00000000 -0.682310 -0.730340 -0.032491 0.000000
150.39799500 275.73001099 223.50000000 0.420710 0.532900 0.734181 0.000000
156.46299744 204.57400513 171.00000000 -0.540388 -0.690961 0.480159 0.000000
88.94529724 304.03100586 213.50000000 -0.079429 0.607994 0.789959 0.000000
203.76600647 224.38499451 175.00000000 -0.708486 0.705724 -0.001381 0.000000
79.24220276 227.21499634 238.50000000 -0.724364 -0.133475 0.676373 0.000000
86.92379761 275.73001099 101.00000000 -0.653338 0.679406 -0.334001 0.000000
166.16600037 287.85900879 189.00000000 0.914133 -0.300836 -0.271769 0.000000
82.88089752 270.87899780 104.00000000 -0.859156 0.442503 0.256986 0.000000
195.67999268 177.89100647 218.50000000 0.000978 0.000978 0.999999 0.000000
194.06199646 240.96099854 173.50000000 0.678043 0.681234 -0.276003 0.000000
220.74600220 173.03900146 211.50000000 0.363702 -0.575726 0.732298 0.000000
130.99200439 282.19900513 141.50000000 0.264797 0.537428 -0.800658 0.000000
167.37899780 170.61300659 146.50000000 0.466514 0.670510 -0.576872 0.000000
200.53100586 242.17399597 204.00000000 -0.771093 -0.504863 -0.387981 0.000000
98.24410248 228.02299500 111.00000000 0.738837 -0.381705 -0.555357 0.000000
194.87100220 228.02299500 168.50000000 0.000978 0.000978 0.999999 0.000000
186.78500366 172.22999573 156.50000000 0.550283 0.072518 -0.831823 0.000000
185.57200623 147.16400146 210.00000000 0.346578 -0.893962 0.284104 0.000000
124.52300262 158.88900757 207.00000000 -0.084732 -0.817162 0.570146 0.000000
202.95700073 209.42599487 218.50000000 0.000978 0.000978 0.999999 0.000000
173.84800720 190.82800293 151.50000000 0.573673 0.430671 -0.696722 0.000000
59.02730179 229.64100647 163.50000000 -0.889798 0.172734 -0.422400 0.000000
129.37500000 143.52499390 166.00000000 -0.547984 -0.835222 -0.046014 0.000000
57.81449890 245.00399780 216.00000000 -0.666476 -0.026659 0.745050 0.000000
59.43159866 236.10899353 165.00000000 -0.964267 -0.028181 -0.263428 0.000000
151.20700073 184.35899353 166.50000000 0.607023 -0.479229 0.633927 0.000000
161.31399536 169.80499268 142.00000000 0.212882 0.629323 -0.747418 0.000000
116.03299713 324.24600220 174.00000000 0.108720 0.993853 -0.020865 0.000000
80.85939789 203.76600647 233.50000000 -0.739121 -0.317226 0.594195 0.000000
119.67199707 264.81399536 125.00000000 0.769719 0.070498 -0.634479 0.000000
76.81639862 259.55899048 233.50000000 -0.521316 0.205183 0.828330 0.000000
56.60160065 247.83399963 168.00000000 -0.937912 -0.346482 -0.016499 0.000000
65.90039825 241.77000427 130.00000000 -0.885937 -0.217417 -0.409690 0.000000
225.59800720 212.66000366 216.50000000 0.000978 0.000978 0.999999 0.000000
75.19920349 274.51800537 227.00000000 -0.593092 0.609990 0.525504 0.000000
179.50799561 138.67399597 189.00000000 -0.161984 -0.758448 0.631283 0.000000
106.33000183 150.39799500 142.00000000 -0.707106 -0.707106 -0.001384 0.000000
98.24410248 161.71899414 151.00000000 -0.760442 -0.649226 0.015292 0.000000
139.07800293 140.29100037 156.00000000 -0.301122 -0.941516 -0.151242 0.000000
222.36300659 207.00000000 216.50000000 -0.030954 -0.157065 0.987103 0.000000
164.14500427 208.21299744 164.00000000 0.093539 0.923186 -0.372799 0.000000
135.43899536 181.93400574 230.00000000 -0.081637 -0.557138 0.826397 0.000000
97.03119659 240.15199280 101.50000000 0.694716 -0.694716 -0.186387 0.000000
53.77149963 242.57800293 205.00000000 -0.959702 -0.110385 0.258431 0.000000
132.20500183 268.45300293 137.00000000 0.613240 0.226259 -0.756798 0.000000
55.38869858 253.89799500 210.00000000 -0.952974 0.159052 0.257958 0.000000
57.41019821 230.85400391 170.00000000 -0.997388 0.041781 -0.058922 0.000000
100.66999817 242.57800293 106.00000000 0.636526 0.001375 -0.771254 0.000000
73.98629761 287.85900879 134.00000000 -0.852432 0.380411 -0.358674 0.000000
111.18199921 168.99600220 117.00000000 0.827188 0.069524 -0.557607 0.000000
119.67199707 280.58200073 231.50000000 0.271007 0.404240 0.873582 0.000000
140.69500732 217.10699463 171.00000000 -0.557708 -0.819640 0.130966 0.000000
187.18899536 139.88699341 127.00000000 0.578378 0.810309 -0.094222 0.000000
84.90229797 286.64599609 224.00000000 -0.240031 0.001182 0.970765 0.000000
100.26599884 304.43600464 120.00000000 -0.457823 0.811957 -0.362111 0.000000
163.33599854 255.51600647 156.50000000 0.240031 0.001182 -0.970765 0.000000
213.46899414 224.38499451 204.00000000 0.149441 0.747203 -0.647576 0.000000
127.75800323 158.48399353 131.50000000 0.904808 -0.414300 0.098379 0.000000
177.89100647 176.27299500 218.50000000 0.155693 -0.021592 0.987570 0.000000
112.79900360 161.71899414 208.00000000 -0.304685 -0.849098 0.431509 0.000000
108.35199738 304.43600464 121.00000000 0.044054 0.657966 -0.751758 0.000000
152.01600647 289.47698975 161.50000000 0.222229 0.854146 -0.470158 0.000000
217.51199341 201.33999634 188.50000000 0.681994 0.041118 -0.730201 0.000000
181.12500000 140.29100037 196.00000000 -0.206991 -0.871150 0.445255 0.000000
197.29699707 164.95300293 161.50000000 0.686910 0.408836 -0.600839 0.000000
145.54699707 259.55899048 231.50000000 0.561040 0.150305 0.814029 0.000000
196.48800659 195.67999268 166.50000000 0.174133 0.131539 -0.975897 0.000000
171.42199707 132.20500183 166.00000000 -0.016908 -0.988554 0.149918 0.000000
232.87500000 151.61099243 208.00000000 0.380711 0.076680 0.921509 0.000000
153.63299561 148.37699890 207.00000000 -0.145744 -0.881679 0.448776 0.000000
184.35899353 157.27099609 148.00000000 0.586857 0.603769 -0.539502 0.000000
184.35899353 242.98199463 186.00000000 -0.393609 0.919277 0.001282 0.000000
64.68750000 281.39099121 156.50000000 -0.970708 0.081205 -0.226124 0.000000
90.15820313 235.30099487 92.00000000 0.745935 -0.526253 -0.408215 0.000000
226.81100464 175.46499634 195.00000000 0.597153 0.001366 -0.802126 0.000000
164.54899597 295.13699341 185.00000000 0.819785 0.520278 -0.239297 0.000000
219.12899780 159.29299927 186.50000000 0.626848 0.097899 -0.772967 0.000000
82.47660065 266.83599854 233.50000000 -0.522884 0.361001 0.772185 0.000000
101.88300323 323.84201050 176.00000000 -0.299028 0.940777 -0.159755 0.000000
197.70100403 185.16799927 218.00000000 -0.226477 -0.338995 0.913121 0.000000
194.06199646 243.79100037 181.00000000 0.194706 0.968373 0.156023 0.000000
173.03900146 145.54699707 124.50000000 0.221549 0.776198 -0.590282 0.000000
230.85400391 136.65199280 197.00000000 0.376229 -0.823894 0.423853 0.000000
189.21099854 186.78500366 158.50000000 0.469801 0.263397 -0.842561 0.000000
66.70899963 228.83200073 136.00000000 -0.930700 -0.333282 -0.150737 0.000000
61.04880142 268.45300293 215.00000000 -0.869289 0.239544 0.432384 0.000000
77.62500000 308.47900391 192.00000000 -0.361388 0.724411 -0.587051 0.000000
146.35499573 167.78300476 220.00000000 0.017484 -0.196983 0.980251 0.000000
162.12300110 164.95300293 141.00000000 0.276429 0.501321 -0.819917 0.000000
57.41019821 265.21899414 161.50000000 -0.990444 0.037439 0.132740 0.000000
113.60700226 282.19900513 124.00000000 0.897212 0.128577 -0.422467 0.000000
53.77149963 247.42999268 190.00000000 -0.918223 0.197881 -0.343088 0.000000
207.40400696 227.21499634 177.00000000 -0.656144 0.751320 -0.070662 0.000000
237.32200623 163.33599854 205.00000000 0.915556 0.282937 0.285839 0.000000
120.48000336 148.37699890 164.00000000 -0.510641 0.290673 -0.809170 0.000000
175.46499634 235.70500183 215.00000000 -0.073523 0.768383 0.635754 0.000000
72.36910248 245.81199646 120.00000000 -0.972708 -0.124900 -0.195551 0.000000
79.24220276 309.28698730 192.00000000 -0.361388 0.724411 -0.587051 0.000000
113.20300293 262.38900757 118.00000000 0.764113 0.088783 -0.638944 0.000000
92.58399963 240.15199280 92.00000000 0.870515 -0.219495 -0.440483 0.000000
149.18600464 230.44900513 237.00000000 0.223364 0.188588 0.956317 0.000000
183.55099487 239.34399414 171.50000000 -0.294555 0.765843 -0.571596 0.000000
65.09179688 240.96099854 135.00000000 -0.856669 -0.154289 -0.492254 0.000000
119.67199707 249.04699707 243.50000000 0.117576 0.244196 0.962572 0.000000
114.01200104 319.39498901 146.50000000 -0.267106 0.876773 -0.399905 0.000000
157.67599487 229.64100647 233.50000000 0.197293 0.133650 0.971192 0.000000
65.49610138 242.57800293 134.50000000 -0.935850 0.134860 -0.325572 0.000000
91.37110138 209.42599487 241.50000000 -0.152343 -0.644064 0.749649 0.000000
157.67599487 299.58401489 202.00000000 0.629783 0.768424 0.113567 0.000000
60.64450073 269.26199341 213.50000000 -0.869289 0.239544 0.432384 0.000000
116.84200287 285.43399048 127.00000000 0.864797 0.204624 -0.458536 0.000000
174.25199890 244.19500732 180.00000000 0.498514 0.862868 0.083321 0.000000
87.73239899 290.28500366 118.00000000 -0.737207 0.509613 -0.443644 0.000000
92.17970276 303.62701416 214.00000000 -0.152003 0.766036 0.624567 0.000000
93.79689789 280.58200073 233.50000000 0.195302 0.755064 0.625888 0.000000
88.94529724 216.70300293 241.50000000 0.000978 0.000978 0.999999 0.000000
76.41210175 209.42599487 117.00000000 -0.918342 -0.345980 -0.192211 0.000000
201.74400330 228.83200073 211.00000000 0.299700 0.937771 0.175400 0.000000
119.67199707 289.07199097 224.00000000 -0.001100 0.135260 0.990809 0.000000
76.41210175 251.47300720 100.00000000 -0.930832 0.173922 -0.321408 0.000000
162.52699280 206.19099426 178.50000000 -0.953249 0.281910 0.108830 0.000000
206.19099426 147.97300720 161.50000000 0.671381 0.564228 -0.480515 0.000000
55.38869858 241.77000427 179.00000000 -0.811614 0.421015 -0.405006 0.000000
128.97099304 161.71899414 134.00000000 0.617243 0.322392 -0.717687 0.000000
87.32810211 317.37298584 185.00000000 -0.423792 0.899334 0.107696 0.000000
77.62500000 260.36700439 101.50000000 -0.880591 0.325864 -0.344052 0.000000
166.57000732 168.99600220 143.50000000 0.337636 0.676903 -0.654068 0.000000
122.90599823 299.17999268 134.50000000 0.817196 -0.009582 -0.576280 0.000000
95.41410065 294.73199463 114.00000000 0.001373 0.778585 -0.627537 0.000000
97.03119659 190.82800293 238.50000000 -0.089548 -0.190136 0.977665 0.000000
112.39499664 171.01800537 224.00000000 -0.848934 -0.509945 -0.138810 0.000000
114.81999969 167.78300476 220.00000000 -0.042560 -0.869057 0.492878 0.000000
95.00980377 219.12899780 110.00000000 0.658289 -0.269372 -0.702918 0.000000
150.80299377 309.69100952 195.00000000 0.658905 0.642391 0.391380 0.000000
230.04499817 225.59800720 209.00000000 0.438689 0.892795 -0.102314 0.000000
109.96900177 303.22299194 218.50000000 0.425690 0.504583 0.751122 0.000000
55.38869858 269.26199341 194.00000000 -0.948017 -0.149262 0.281043 0.000000
156.86700439 264.41000366 151.50000000 0.826689 0.262121 -0.497874 0.000000
112.39499664 183.95500183 125.00000000 0.351679 0.436839 -0.827945 0.000000
98.64839935 197.29699707 131.50000000 0.573400 0.456379 -0.680390 0.000000
57.41019821 283.00799561 191.50000000 -0.846767 0.444282 0.292576 0.000000
159.69700623 134.22700500 167.00000000 -0.019423 -0.985991 0.165665 0.000000
91.37110138 171.01800537 142.00000000 -0.848719 -0.523918 0.072021 0.000000
151.20700073 276.94299316 154.00000000 0.767329 0.365008 -0.527234 0.000000
66.30470276 292.71099854 178.50000000 -0.800976 0.554047 -0.226866 0.000000
233.68400574 178.69900513 208.50000000 0.450524 -0.310222 0.837132 0.000000
94.60549927 247.83399963 92.00000000 0.910597 0.144964 -0.387039 0.000000
230.85400391 156.05900574 194.00000000 0.836462 0.524460 0.158972 0.000000
139.07800293 318.98999023 171.00000000 0.567524 0.822841 0.029139 0.000000
190.82800293 151.20700073 213.50000000 0.656249 0.322453 0.682174 0.000000
82.47660065 178.29499817 209.00000000 -0.772176 -0.623965 0.120050 0.000000
105.11699677 169.80499268 114.50000000 0.344283 0.290628 -0.892751 0.000000
78.83789825 185.16799927 168.00000000 -0.913839 -0.375955 -0.153480 0.000000
150.80299377 210.23399353 170.00000000 -0.896652 -0.334571 -0.289962 0.000000
72.77339935 244.19500732 233.50000000 -0.425397 -0.019755 0.904791 0.000000
115.62899780 241.77000427 246.50000000 -0.012606 0.175340 0.984427 0.000000
69.94339752 277.34799194 220.00000000 -0.775825 0.215249 0.593096 0.000000
91.77539825 301.60501099 217.00000000 -0.216608 0.803446 0.554577 0.000000
223.17199707 163.33599854 208.50000000 0.170509 0.170509 0.970491 0.000000
159.29299927 135.03500366 171.50000000 -0.021395 -0.989813 0.140758 0.000000
170.61300659 205.38299561 161.50000000 -0.082958 0.685495 -0.723336 0.000000
88.54100037 202.95700073 120.00000000 0.848934 -0.509945 -0.138810 0.000000
55.79299927 253.08999634 171.50000000 -0.913529 -0.392694 0.106096 0.000000
232.87500000 221.55499268 216.50000000 0.778585 0.001373 0.627537 0.000000
141.50399780 254.30299377 234.00000000 0.767968 0.095082 0.633391 0.000000
137.46099854 140.29100037 160.00000000 -0.296167 -0.951128 -0.087415 0.000000
127.75800323 148.37699890 150.00000000 -0.884603 -0.252104 -0.392328 0.000000
145.54699707 304.83999634 208.50000000 -0.067904 0.729608 0.680486 0.000000
175.46499634 137.46099854 186.50000000 -0.001305 -0.899331 0.437266 0.000000
63.47460175 281.39099121 161.00000000 -0.800536 0.548717 -0.240938 0.000000
62.26169968 238.53500366 146.50000000 -0.859795 -0.122828 -0.495647 0.000000
122.09799957 323.03298950 180.00000000 -0.001242 0.945148 0.326641 0.000000
72.36910248 225.59800720 121.00000000 -0.381263 -0.001275 -0.924466 0.000000
202.95700073 130.58799744 164.00000000 0.080121 -0.913927 0.397891 0.000000
96.62699890 163.33599854 140.00000000 -0.869142 -0.493738 -0.028563 0.000000
171.42199707 189.21099854 148.50000000 0.573673 0.430671 -0.696722 0.000000
214.27699280 139.48199463 160.00000000 0.811923 0.347967 -0.468722 0.000000
82.07230377 198.10499573 115.00000000 -0.708866 -0.505380 -0.492036 0.000000
71.96479797 279.77301025 129.50000000 -0.848384 0.350250 -0.396950 0.000000
87.32810211 292.71099854 121.50000000 -0.733650 0.495172 -0.465363 0.000000
86.51950073 191.23199463 232.00000000 -0.413373 -0.356790 0.837749 0.000000
129.37500000 169.39999390 219.00000000 -0.009698 -0.635920 0.771694 0.000000
59.43159866 236.10899353 164.00000000 -0.997400 -0.072063 -0.001044 0.000000
165.35699463 252.28100586 157.00000000 0.850419 0.288618 -0.439872 0.000000
129.37500000 310.50000000 143.50000000 0.266318 0.951519 -0.153903 0.000000
98.64839935 161.31399536 154.00000000 -0.758230 -0.651318 -0.029541 0.000000
78.83789825 301.60501099 140.00000000 -0.355830 0.355830 -0.864159 0.000000
135.03500366 261.17599487 136.50000000 0.355830 0.355830 -0.864159 0.000000
155.25000000 232.87500000 233.50000000 0.470623 0.352568 0.808833 0.000000
160.50599670 257.13299561 224.00000000 0.491236 0.226607 0.841033 0.000000
136.65199280 279.77301025 143.50000000 0.553816 0.319448 -0.768922 0.000000
199.72300720 225.59800720 198.50000000 -0.001373 0.778585 -0.627537 0.000000
138.27000427 210.23399353 241.50000000 0.826124 0.112190 0.552207 0.000000
208.61700439 180.31599426 216.50000000 0.510737 0.510737 0.691589 0.000000
134.22700500 194.06199646 238.50000000 0.338014 -0.477663 0.810916 0.000000
61.45309830 242.17399597 147.00000000 -0.808853 -0.100199 -0.579411 0.000000
94.60549927 255.51600647 91.50000000 0.883181 -0.233827 -0.406591 0.000000
150.39799500 272.09201050 225.00000000 0.692069 0.358305 0.626625 0.000000
182.74200439 221.14999390 180.00000000 0.867078 0.477837 0.140882 0.000000
71.15619659 290.28500366 211.50000000 -0.563136 0.440210 0.699352 0.000000
135.03500366 141.90800476 154.00000000 -0.311606 -0.934818 -0.170345 0.000000
92.17970276 204.16999817 127.00000000 0.580450 -0.597373 -0.553374 0.000000
113.20300293 256.32400513 243.50000000 0.000978 0.000978 0.999999 0.000000
226.00199890 200.53100586 216.00000000 -0.736236 -0.317371 0.597689 0.000000
112.39499664 281.39099121 121.50000000 0.869747 -0.012098 -0.493350 0.000000
63.07030106 266.83599854 146.50000000 -0.837222 0.270820 -0.475096 0.000000
57.00590134 236.10899353 209.00000000 -0.950019 -0.242587 0.196509 0.000000
126.14099884 149.18600464 192.00000000 -0.127248 -0.879301 0.458952 0.000000
186.38099670 164.95300293 154.00000000 0.595275 0.239048 -0.767140 0.000000
152.82400513 227.21499634 176.50000000 -0.918223 -0.197881 -0.343088 0.000000
150.80299377 300.79699707 164.00000000 0.689048 0.276578 -0.669863 0.000000
173.84800720 225.59800720 178.50000000 -0.001323 -0.879960 -0.475046 0.000000
94.60549927 318.98999023 166.00000000 -0.141540 0.983519 -0.112506 0.000000
197.29699707 186.78500366 218.50000000 -0.007957 -0.169369 0.985521 0.000000
130.18400574 218.72500610 166.00000000 0.690039 0.398800 -0.603991 0.000000
165.35699463 287.85900879 186.00000000 0.811545 0.541542 -0.219378 0.000000
126.14099884 254.70700073 129.50000000 0.612326 0.300538 -0.731255 0.000000
163.33599854 229.64100647 231.50000000 0.408184 0.392301 0.824309 0.000000
109.96900177 277.34799194 236.50000000 -0.143272 0.692231 0.707312 0.000000
223.17199707 223.57600403 208.00000000 0.117368 0.738378 -0.664095 0.000000
59.43159866 227.21499634 212.00000000 -0.956545 -0.222794 0.188107 0.000000
168.99600220 245.40800476 192.00000000 0.512279 0.840854 0.174742 0.000000
179.50799561 227.21499634 223.50000000 0.202909 0.698565 0.686174 0.000000
60.24020004 217.51199341 180.00000000 -0.758309 -0.643458 0.104544 0.000000
114.01200104 280.58200073 124.50000000 0.897212 0.128577 -0.422467 0.000000
84.90229797 309.69100952 146.50000000 -0.001305 0.899331 -0.437266 0.000000
147.16400146 257.13299561 141.50000000 0.907842 0.115746 -0.403021 0.000000
83.28520203 259.55899048 91.50000000 -0.741502 0.244019 -0.625003 0.000000
100.26599884 181.93400574 116.50000000 0.145117 0.097144 -0.984634 0.000000
96.22270203 259.55899048 91.50000000 0.517788 -0.204989 -0.830587 0.000000
220.74600220 141.10000610 204.00000000 -0.336916 -0.675460 0.655928 0.000000
105.11699677 214.27699280 131.50000000 0.414377 -0.858021 -0.303465 0.000000
82.07230377 260.36700439 92.00000000 -0.741502 0.244019 -0.625003 0.000000
74.39060211 245.81199646 106.50000000 -0.983855 0.058013 -0.169304 0.000000
186.38099670 148.78100586 214.00000000 0.807171 -0.552920 0.206771 0.000000
58.62300110 230.44900513 210.00000000 -0.910879 -0.172482 0.374900 0.000000
110.37300110 285.43399048 118.00000000 0.942600 0.066490 -0.327237 0.000000
161.31399536 292.71099854 174.00000000 0.789869 0.064275 -0.609899 0.000000
156.05900574 245.81199646 228.50000000 0.434409 0.041692 0.899750 0.000000
201.33999634 211.04299927 218.50000000 0.011384 -0.050709 0.998649 0.000000
112.39499664 209.42599487 146.50000000 0.573606 -0.352613 -0.739351 0.000000
216.29899597 185.16799927 184.00000000 0.513492 -0.577468 -0.634710 0.000000
150.39799500 193.65800476 231.00000000 0.765740 -0.308534 0.564313 0.000000
206.19099426 139.48199463 199.00000000 0.142732 -0.880902 0.451264 0.000000
63.07030106 214.68200684 187.00000000 -0.827233 -0.558559 0.060805 0.000000
110.77700043 172.63499451 228.00000000 -0.844318 0.282468 -0.455345 0.000000
163.33599854 297.96701050 187.00000000 0.805463 0.541631 -0.240552 0.000000
78.43360138 180.72099304 190.00000000 -0.705227 -0.689995 0.162979 0.000000
163.33599854 232.06599426 173.50000000 0.463834 -0.641331 -0.611190 0.000000
160.10200500 133.82200623 158.00000000 -0.214564 -0.976676 0.008207 0.000000
54.58010101 230.44900513 191.00000000 -0.912319 -0.232779 -0.336879 0.000000
71.15619659 284.62500000 216.50000000 -0.336916 0.675460 0.655928 0.000000
90.56250000 167.78300476 196.00000000 -0.835447 -0.480266 -0.267158 0.000000
221.14999390 201.33999634 192.00000000 0.626866 -0.158605 -0.762813 0.000000
193.25399780 168.18800354 216.50000000 0.055460 -0.321153 0.945402 0.000000
174.65600586 243.79100037 179.00000000 0.485835 0.873968 0.012045 0.000000
190.82800293 160.91000366 156.50000000 0.451104 0.560967 -0.694134 0.000000
105.52100372 209.42599487 141.00000000 0.705763 -0.430100 -0.562950 0.000000
84.09380341 263.60198975 91.50000000 -0.726123 0.296540 -0.620330 0.000000
62.66600037 223.17199707 161.00000000 -0.778721 -0.520760 -0.349860 0.000000
196.48800659 164.14500427 216.50000000 0.000978 0.000978 0.999999 0.000000
147.97300720 310.90399170 171.00000000 0.654955 0.635058 -0.409554 0.000000
73.17769623 249.85499573 114.00000000 -0.965696 0.001197 -0.259673 0.000000
56.60160065 258.75000000 173.50000000 -0.521291 0.142437 -0.841408 0.000000
123.71499634 225.19299316 137.00000000 0.558346 -0.794749 -0.237958 0.000000
236.91799927 212.66000366 206.50000000 0.499334 0.398491 -0.769332 0.000000
166.57000732 156.05900574 216.50000000 -0.047746 -0.462458 0.885355 0.000000
78.83789825 185.97700500 168.00000000 -0.852941 -0.481185 -0.202367 0.000000
118.05500031 167.78300476 220.00000000 -0.055072 -0.909353 0.412365 0.000000
106.33000183 227.21499634 116.00000000 -0.724411 -0.361388 -0.587051 0.000000
82.07230377 241.77000427 239.00000000 -0.496318 -0.077330 0.864690 0.000000
83.28520203 176.67799377 205.00000000 -0.787628 -0.605075 0.116304 0.000000
166.97500610 287.05099487 192.00000000 0.421229 -0.840893 -0.339802 0.000000
84.90229797 278.15600586 231.50000000 -0.340246 0.424916 0.838856 0.000000
136.65199280 190.82800293 138.50000000 0.743213 -0.359409 -0.564322 0.000000
72.36910248 286.24200439 135.00000000 -0.879187 0.310212 -0.361662 0.000000
95.41410065 203.76600647 131.50000000 0.825025 0.265686 -0.498744 0.000000
86.51950073 209.02099609 107.00000000 0.614940 -0.368964 -0.696932 0.000000
199.72300720 165.76199341 216.50000000 0.194526 -0.046543 0.979792 0.000000
95.00980377 165.76199341 202.00000000 -0.464984 -0.835105 0.293920 0.000000
144.73800659 301.60501099 211.50000000 -0.172506 0.673231 0.719029 0.000000
194.87100220 223.97999573 221.50000000 0.282414 0.627054 0.725979 0.000000
67.51760101 225.59800720 227.00000000 -0.848460 0.023227 0.528750 0.000000
147.56799316 232.87500000 237.00000000 0.370345 0.246405 0.895616 0.000000
101.88300323 290.68899536 227.00000000 -0.026395 0.582087 0.812698 0.000000
168.18800354 273.70901489 187.00000000 0.613922 0.613922 0.496184 0.000000
86.92379761 195.67999268 234.00000000 -0.462876 -0.449792 0.763828 0.000000
156.86700439 261.17599487 226.50000000 0.594807 0.161125 0.787555 0.000000
220.34199524 178.69900513 189.00000000 0.589980 0.204876 -0.780992 0.000000
165.76199341 261.57998657 167.00000000 0.918860 0.306287 -0.248768 0.000000
162.12300110 185.16799927 227.00000000 0.268125 -0.302909 0.914524 0.000000
104.30899811 195.67999268 134.50000000 0.397768 0.875695 -0.273749 0.000000
87.32810211 214.27699280 241.50000000 0.075714 -0.087015 0.993326 0.000000
154.44099426 309.28698730 191.00000000 0.613922 0.613922 0.496184 0.000000
184.76400757 237.72700500 215.00000000 -0.647419 0.680035 0.344094 0.000000
92.98829651 170.61300659 213.50000000 -0.472648 -0.802700 0.363698 0.000000
194.87100220 213.06399536 170.00000000 0.470333 0.377229 -0.797800 0.000000
190.02000427 217.51199341 178.50000000 0.943680 0.318080 0.091068 0.000000
57.00590134 280.58200073 194.00000000 -0.803494 0.498007 0.326171 0.000000
105.92600250 160.10200500 198.50000000 -0.366956 -0.821282 0.436852 0.000000
165.76199341 257.53698730 185.00000000 0.984401 -0.174261 0.024235 0.000000
58.62300110 280.58200073 198.00000000 -0.820322 0.436341 0.369700 0.000000
121.28900146 248.64300537 125.00000000 0.968533 -0.194221 0.155634 0.000000
155.25000000 137.05700684 181.00000000 -0.273639 -0.946165 0.172896 0.000000
191.63699341 225.59800720 221.50000000 0.207593 0.410769 0.887792 0.000000
117.24600220 320.60699463 147.00000000 -0.373039 0.899682 0.226749 0.000000
118.86299896 323.84201050 170.00000000 0.075388 0.997027 0.015927 0.000000
139.88699341 203.76600647 143.50000000 0.242364 0.514058 -0.822802 0.000000
86.51950073 274.11300659 99.50000000 -0.663219 0.669737 -0.334054 0.000000
136.65199280 192.44500732 138.50000000 0.743213 -0.359409 -0.564322 0.000000
114.01200104 308.07400513 213.50000000 0.205559 0.823759 0.528363 0.000000
163.33599854 258.75000000 156.50000000 0.778585 -0.001373 0.627537 0.000000
147.97300720 137.05700684 154.00000000 -0.347700 -0.933019 -0.092631 0.000000
118.86299896 323.84201050 176.00000000 0.075388 0.997027 0.015927 0.000000
79.24220276 266.43200684 106.00000000 -0.751589 0.553546 -0.358750 0.000000
162.52699280 258.34600830 207.00000000 0.978248 -0.147918 0.145432 0.000000
116.43800354 203.76600647 243.50000000 0.058669 -0.255898 0.964922 0.000000
140.69500732 182.74200439 228.50000000 0.396611 0.801250 0.447994 0.000000
190.02000427 144.33399963 205.00000000 -0.151101 -0.803378 0.575979 0.000000
87.73239899 267.64498901 238.00000000 -0.381263 -0.001275 0.924466 0.000000
215.08599854 228.02299500 213.50000000 0.276742 0.887070 0.369488 0.000000
80.45510101 266.83599854 100.00000000 -0.795483 0.500978 -0.340921 0.000000
154.84599304 299.17999268 170.00000000 0.711573 0.329042 -0.620803 0.000000
189.21099854 194.87100220 161.50000000 0.426478 0.582466 -0.691990 0.000000
172.22999573 143.52499390 120.00000000 0.141991 0.030670 -0.989393 0.000000
177.08200073 228.02299500 223.50000000 0.202909 0.698565 0.686174 0.000000
115.62899780 249.85499573 119.50000000 -0.000978 -0.000978 -0.999999 0.000000
151.20700073 209.02099609 178.00000000 -0.748433 -0.426031 0.508277 0.000000
139.48199463 257.94100952 236.00000000 0.677595 0.341247 0.651471 0.000000
164.54899597 288.66799927 200.00000000 0.931394 0.311396 0.188513 0.000000
161.31399536 247.42999268 220.00000000 0.978355 0.145079 0.147559 0.000000
142.71699524 303.22299194 157.00000000 0.704281 -0.089316 -0.704281 0.000000
57.41019821 270.07000732 201.50000000 -0.921753 0.197417 0.333763 0.000000
139.88699341 207.80900574 146.50000000 0.146242 0.743270 -0.652811 0.000000
166.16600037 237.72700500 219.00000000 0.859663 0.353434 0.368868 0.000000
106.73400116 151.61099243 154.00000000 -0.551555 -0.795302 0.251559 0.000000
160.10200500 286.24200439 213.50000000 0.390425 0.534180 0.749813 0.000000
185.16799927 228.83200073 221.50000000 -0.146434 0.871352 0.468297 0.000000
108.75599670 211.04299927 142.00000000 0.667308 -0.502582 -0.549647 0.000000
150.39799500 235.70500183 171.00000000 0.086061 -0.911152 -0.402983 0.000000
181.12500000 145.95100403 210.00000000 0.323010 -0.854663 0.406467 0.000000
191.63699341 198.91400146 218.50000000 -0.000978 -0.000978 0.999999 0.000000
172.63499451 245.00399780 175.00000000 0.700140 0.700140 -0.140028 0.000000
175.06100464 188.40199280 151.00000000 0.713174 0.347611 -0.608728 0.000000
135.84399414 235.30099487 138.50000000 0.613922 -0.613922 -0.496184 0.000000
138.27000427 313.73400879 201.50000000 0.142849 0.729282 0.669135 0.000000
59.83589935 262.79299927 148.50000000 -0.872953 0.124708 -0.471595 0.000000
71.56050110 279.77301025 131.00000000 -0.844848 0.360739 -0.395095 0.000000
62.66600037 204.57400513 198.00000000 -0.975119 0.174442 -0.136793 0.000000
63.47460175 228.83200073 156.00000000 -0.967567 -0.073851 -0.241579 0.000000
177.89100647 131.39599609 155.00000000 -0.072048 -0.996844 0.033336 0.000000
82.47660065 310.09600830 200.00000000 -0.536406 0.806941 0.247213 0.000000
132.60899353 190.02000427 236.50000000 0.325263 -0.396174 0.858633 0.000000
136.65199280 316.56399536 159.00000000 0.534532 0.625588 -0.568256 0.000000
166.16600037 241.77000427 210.00000000 0.787293 0.565916 0.244762 0.000000
91.37110138 259.55899048 241.50000000 0.045060 0.476547 0.877993 0.000000
156.86700439 134.22700500 158.50000000 -0.261851 -0.963460 -0.056379 0.000000
185.97700500 142.31199646 201.50000000 -0.001242 -0.945148 0.326641 0.000000
187.59399414 131.39599609 162.00000000 0.000978 -0.999999 0.000978 0.000000
126.14099884 204.57400513 141.50000000 0.355830 -0.355830 -0.864159 0.000000
100.26599884 273.30499268 99.50000000 0.792146 0.254674 -0.554658 0.000000
153.63299561 199.72300720 231.50000000 0.335686 -0.363277 0.869106 0.000000
120.48000336 241.77000427 124.50000000 0.731275 -0.117182 -0.671942 0.000000
149.58999634 313.32998657 185.00000000 0.611227 0.784189 -0.107001 0.000000
215.89500427 142.31199646 206.50000000 0.038006 -0.789691 0.612327 0.000000
92.17970276 287.45498657 109.00000000 -0.651137 0.450272 -0.610964 0.000000
65.09179688 232.06599426 139.00000000 -0.953355 -0.153337 -0.260006 0.000000
70.34770203 245.81199646 231.50000000 -0.617093 0.110458 0.779099 0.000000
164.14500427 192.44500732 226.50000000 0.707925 -0.041142 0.705088 0.000000
173.03900146 179.50799561 148.50000000 0.737882 -0.490271 -0.463859 0.000000
56.60160065 223.97999573 174.50000000 -0.822336 -0.299174 -0.484003 0.000000
78.02929688 256.32400513 99.00000000 -0.942630 0.102373 -0.317755 0.000000
78.43360138 277.34799194 228.50000000 -0.361388 0.724411 -0.587051 0.000000
201.33999634 132.20500183 176.00000000 -0.107557 -0.977904 0.179262 0.000000
151.20700073 308.47900391 198.00000000 0.553228 0.690281 0.466316 0.000000
114.01200104 178.29499817 124.00000000 0.434545 0.577728 -0.690943 0.000000
117.24600220 228.02299500 247.50000000 0.224058 0.029954 0.974115 0.000000
116.43800354 253.89799500 243.50000000 0.058779 0.083177 0.994800 0.000000
211.04299927 187.59399414 216.50000000 0.329530 -0.495091 0.803925 0.000000
140.69500732 215.08599854 241.50000000 0.489665 -0.077168 0.868489 0.000000
77.62500000 216.70300293 101.50000000 -0.942864 -0.213974 -0.255388 0.000000
76.81639862 304.43600464 145.00000000 -0.333751 0.437167 -0.835162 0.000000
187.59399414 230.04499817 220.00000000 -0.038621 0.906931 0.419505 0.000000
95.81839752 274.11300659 92.00000000 0.588424 0.719549 -0.368790 0.000000
82.47660065 180.31599426 166.50000000 -0.811457 -0.524877 -0.256987 0.000000
182.74200439 215.08599854 223.50000000 0.545014 -0.271722 0.793176 0.000000
126.14099884 261.17599487 131.50000000 0.556177 0.330482 -0.762527 0.000000
92.98829651 175.86900330 222.00000000 -0.439245 -0.772353 0.458840 0.000000
130.99200439 186.78500366 236.50000000 0.386277 -0.269041 0.882274 0.000000
182.74200439 164.95300293 218.50000000 0.000978 0.000978 0.999999 0.000000
159.29299927 152.01600647 126.50000000 0.242814 0.970072 0.001184 0.000000
207.00000000 133.82200623 185.00000000 -0.117680 -0.950696 0.286928 0.000000
119.67199707 227.21499634 246.50000000 0.123849 0.027894 0.991909 0.000000
104.30899811 152.82400513 131.50000000 -0.529882 -0.697037 -0.483078 0.000000
199.72300720 227.61900330 189.00000000 -0.377482 0.903932 -0.201034 0.000000
106.73400116 257.94100952 243.50000000 -0.107539 0.216342 0.970377 0.000000
65.49610138 246.62100220 226.50000000 -0.841169 -0.152268 0.518893 0.000000
62.66600037 207.00000000 204.00000000 -0.613922 0.613922 0.496184 0.000000
121.28900146 224.78900146 246.50000000 -0.000978 -0.000978 0.999999 0.000000
234.49200439 147.16400146 196.50000000 0.651913 -0.044029 -0.757014 0.000000
58.62300110 279.77301025 180.00000000 -0.872397 0.444373 0.203609 0.000000
60.24020004 214.27699280 210.00000000 -0.978150 0.015229 0.207344 0.000000
106.73400116 319.79901123 195.00000000 0.123509 0.890120 0.438671 0.000000
68.73049927 195.27499390 210.00000000 -0.754170 -0.584442 0.299426 0.000000
202.55299377 224.78900146 169.00000000 -0.555924 -0.733032 0.391934 0.000000
175.46499634 168.18800354 218.50000000 0.142630 -0.078977 0.986620 0.000000
119.67199707 320.60699463 151.00000000 0.092433 0.988681 -0.118174 0.000000
156.46299744 287.85900879 215.00000000 0.424414 0.600837 0.677398 0.000000
131.80099487 166.57000732 218.50000000 -0.136002 -0.519146 0.843795 0.000000
76.41210175 185.16799927 210.00000000 -0.556297 -0.742273 0.373584 0.000000
140.69500732 181.93400574 228.50000000 0.271474 -0.443254 0.854300 0.000000
197.29699707 169.80499268 216.50000000 0.000978 0.000978 0.999999 0.000000
55.38869858 231.25799561 187.00000000 -0.921840 -0.242288 -0.302501 0.000000
160.91000366 170.61300659 143.50000000 0.209041 0.244564 -0.946832 0.000000
87.32810211 172.63499451 170.00000000 -0.819402 -0.568594 -0.072677 0.000000
84.49800110 224.78900146 90.00000000 0.195158 -0.859588 -0.472252 0.000000
127.35399628 177.89100647 230.00000000 0.073868 -0.745926 0.661919 0.000000
65.09179688 231.25799561 139.00000000 -0.952996 -0.184147 -0.240601 0.000000
233.68400574 139.07800293 193.50000000 -0.001373 -0.778585 -0.627537 0.000000
60.24020004 218.32000732 191.00000000 -0.832607 -0.550845 -0.057761 0.000000
208.21299744 233.68400574 187.00000000 -0.873312 0.085784 -0.479548 0.000000
95.41410065 182.33799744 115.00000000 0.293607 -0.180575 -0.938716 0.000000
115.62899780 284.62500000 228.50000000 0.446689 0.894688 -0.001310 0.000000
167.37899780 181.52900696 224.00000000 0.279827 -0.229205 0.932288 0.000000
65.49610138 206.19099426 186.50000000 -0.944021 -0.210240 -0.254212 0.000000
161.31399536 293.51998901 205.00000000 0.767198 0.614064 0.185291 0.000000
56.60160065 240.55700684 175.00000000 -0.767999 0.500585 -0.399490 0.000000
209.02099609 164.14500427 174.00000000 0.429937 0.166474 -0.887378 0.000000
81.66799927 190.02000427 126.50000000 -0.868312 -0.401346 -0.291472 0.000000
54.58010101 248.23800659 208.00000000 -0.938269 -0.064301 0.339877 0.000000
199.72300720 146.35499573 208.50000000 0.026675 -0.737067 0.675293 0.000000
120.48000336 164.54899597 215.00000000 -0.001334 -0.865851 0.500299 0.000000
171.42199707 238.13099670 209.00000000 -0.644430 0.763402 -0.043906 0.000000
238.53500366 157.67599487 203.50000000 0.944451 -0.173081 0.279383 0.000000
80.05079651 309.28698730 197.00000000 -0.422288 0.903340 0.075164 0.000000
63.87889862 274.92199707 151.50000000 -0.762325 0.191732 -0.618142 0.000000
61.04880142 215.89500427 215.00000000 -0.743533 -0.384022 0.547436 0.000000
237.72700500 212.66000366 206.50000000 0.407457 0.439667 -0.800420 0.000000
213.06399536 162.52699280 179.00000000 0.821191 0.166033 -0.545965 0.000000
129.77900696 206.19099426 240.00000000 0.679880 0.052959 0.731408 0.000000
166.57000732 209.83000183 169.00000000 0.001272 0.926978 -0.375114 0.000000
130.99200439 284.62500000 143.50000000 0.368944 0.591950 -0.716572 0.000000
58.62300110 252.28100586 155.00000000 -0.854638 0.001342 -0.519223 0.000000
140.29100037 213.46899414 156.00000000 -0.159809 -0.816965 0.554102 0.000000
122.50199890 222.36300659 146.00000000 0.426958 -0.903438 -0.038814 0.000000
107.13899994 215.89500427 129.00000000 0.354307 -0.889504 -0.288528 0.000000
163.33599854 175.06100464 145.00000000 0.471887 -0.242815 -0.847563 0.000000
140.29100037 236.91799927 161.00000000 0.148779 -0.841116 0.519989 0.000000
166.57000732 168.18800354 143.50000000 0.239982 0.757590 -0.607013 0.000000
171.42199707 191.63699341 223.50000000 0.000978 0.000978 0.999999 0.000000
98.24410248 160.91000366 166.00000000 -0.772502 -0.632566 0.055689 0.000000
132.60899353 307.26599121 211.50000000 0.729921 0.488269 0.478339 0.000000
116.43800354 322.22500610 188.00000000 0.195617 0.980428 -0.022256 0.000000
93.39260101 228.83200073 100.00000000 0.716252 -0.321748 -0.619243 0.000000
114.81999969 257.13299561 119.50000000 0.645634 -0.023809 -0.763276 0.000000
227.61900330 202.95700073 198.00000000 0.562432 0.131382 -0.816339 0.000000
58.21879959 268.04901123 207.00000000 -0.940116 0.220795 0.259677 0.000000
124.52300262 301.60501099 218.50000000 0.211021 0.583774 0.784014 0.000000
145.54699707 296.75399780 213.50000000 0.932512 0.258169 0.252526 0.000000
87.32810211 314.54299927 156.50000000 -0.244946 0.930230 -0.273264 0.000000
204.97900391 225.59800720 174.00000000 -0.684045 0.727066 0.058796 0.000000
95.41410065 178.69900513 228.50000000 -0.495403 -0.420193 0.760272 0.000000
177.08200073 134.63099670 180.00000000 0.056165 -0.981090 0.185224 0.000000
96.62699890 163.33599854 157.00000000 -0.772204 -0.630753 -0.076499 0.000000
152.82400513 254.70700073 228.50000000 0.299055 0.281550 0.911754 0.000000
