156.25000000 324.21899414 262.50000000 -0.550706 -0.533864 0.641648 0.000000
85.93750000 254.39500427 255.00000000 0.994276 0.096650 -0.045548 0.000000
117.18800354 345.70300293 252.50000000 -0.540764 -0.688093 0.483841 0.000000
144.53100586 218.75000000 142.50000000 -0.265236 -0.388113 0.882620 0.000000
287.10900879 209.96099854 262.50000000 0.000978 0.000978 0.999999 0.000000
145.99600220 218.75000000 145.00000000 -0.685381 -0.301568 0.662804 0.000000
97.65619659 308.10501099 210.00000000 -0.859392 -0.228064 0.457638 0.000000
177.24600220 201.17199707 195.00000000 -0.875978 0.465946 0.124730 0.000000
174.31599426 195.31199646 275.00000000 -0.126747 0.517186 -0.846436 0.000000
92.77339935 237.79299927 270.00000000 0.844033 0.393047 -0.364860 0.000000
143.55499268 288.57400513 220.00000000 -0.386972 -0.537190 0.749453 0.000000
204.10200500 249.02299500 277.50000000 -0.000978 -0.000978 -0.999999 0.000000
172.85200500 233.39799500 177.50000000 -0.556637 -0.389153 0.733972 0.000000
181.64100647 185.54699707 272.50000000 0.714936 0.358286 -0.600415 0.000000
178.71099854 193.35899353 212.50000000 -0.818733 0.383135 0.427649 0.000000
110.35199738 309.57000732 287.50000000 0.000978 0.000978 -0.999999 0.000000
105.95700073 194.33599854 205.00000000 0.857934 0.366361 -0.360178 0.000000
157.22700500 270.50799561 297.50000000 -0.000978 -0.000978 -0.999999 0.000000
220.70300293 148.43800354 282.50000000 -0.000978 -0.000978 -0.999999 0.000000
299.80499268 175.78100586 272.50000000 0.123747 0.991112 0.048818 0.000000
136.71899414 219.72700500 142.50000000 0.000978 0.000978 0.999999 0.000000
157.22700500 232.91000366 165.00000000 -0.358166 -0.828357 0.430746 0.000000
137.69500732 212.89100647 282.50000000 0.000978 0.000978 -0.999999 0.000000
219.72700500 202.14799500 247.50000000 -0.517298 -0.467398 0.716898 0.000000
140.62500000 219.72700500 142.50000000 0.000978 0.000978 0.999999 0.000000
108.39800262 309.57000732 217.50000000 -0.525096 0.114277 0.843336 0.000000
141.11300659 318.35900879 245.00000000 -0.497040 -0.631830 0.594763 0.000000
149.41400146 149.41400146 197.50000000 0.168251 0.951629 0.257088 0.000000
155.27299500 233.88699341 165.00000000 -0.466079 -0.728145 0.502569 0.000000
187.50000000 281.25000000 287.50000000 -0.000978 -0.000978 -0.999999 0.000000
223.63299561 225.58599854 282.50000000 0.134938 -0.281899 -0.949908 0.000000
199.21899414 272.46099854 247.50000000 -0.709836 -0.443855 0.546923 0.000000
248.04699707 194.33599854 242.50000000 0.000978 0.000978 0.999999 0.000000
167.96899414 286.13299561 237.50000000 -0.311426 -0.541402 0.780960 0.000000
144.53100586 241.21099854 292.50000000 0.166349 0.301078 -0.938978 0.000000
100.58599854 321.28900146 277.50000000 0.562521 0.006810 -0.826755 0.000000
120.60500336 198.24200439 265.00000000 0.427813 0.775920 -0.463600 0.000000
197.26600647 200.19500732 237.50000000 -0.625487 0.250510 0.738925 0.000000
231.44500732 214.84399414 247.50000000 -0.692345 0.718362 0.067934 0.000000
118.16400146 303.71099854 217.50000000 0.000978 0.000978 0.999999 0.000000
246.09399414 145.50799561 282.50000000 -0.000978 -0.000978 -0.999999 0.000000
299.80499268 184.57000732 267.50000000 -0.676598 0.535570 0.505350 0.000000
280.27301025 159.17999268 282.50000000 -0.000978 -0.000978 -0.999999 0.000000
284.66799927 166.01600647 265.00000000 -0.881213 0.321953 0.346137 0.000000
235.35200500 247.07000732 262.50000000 -0.148946 -0.449729 -0.880658 0.000000
119.14099884 257.81201172 182.50000000 -0.333125 -0.551990 0.764418 0.000000
126.95300293 336.91400146 252.50000000 -0.395423 -0.733419 0.552935 0.000000
249.02299500 205.07800293 282.50000000 -0.000978 -0.000978 -0.999999 0.000000
115.23400116 342.77301025 272.50000000 0.000978 0.000978 -0.999999 0.000000
265.62500000 153.32000732 282.50000000 -0.000978 -0.000978 -0.999999 0.000000
101.07399750 330.07800293 265.00000000 0.893785 -0.420351 -0.156376 0.000000
129.88299561 224.60899353 287.50000000 0.075313 0.274447 -0.958649 0.000000
159.17999268 153.32000732 242.50000000 0.564691 0.645602 -0.514122 0.000000
100.58599854 263.67199707 282.50000000 -0.000978 -0.000978 -0.999999 0.000000
264.64801025 174.80499268 252.50000000 0.000978 0.000978 0.999999 0.000000
148.43800354 259.76599121 197.50000000 -0.237858 -0.691522 0.682071 0.000000
105.46900177 341.79699707 242.50000000 0.499100 -0.757650 0.420553 0.000000
227.53900146 178.71099854 287.50000000 -0.000978 -0.000978 -0.999999 0.000000
184.57000732 238.28100586 192.50000000 -0.525608 -0.382408 0.759934 0.000000
147.46099854 180.66400146 262.50000000 0.639216 0.478154 -0.602306 0.000000
160.15600586 282.22698975 227.50000000 0.000978 0.000978 0.999999 0.000000
296.87500000 176.27000427 270.00000000 -0.435362 0.726707 0.531373 0.000000
213.86700439 230.95700073 210.00000000 -0.723027 0.241009 0.647416 0.000000
183.59399414 209.96099854 282.50000000 -0.000978 -0.000978 -0.999999 0.000000
223.63299561 207.03100586 252.50000000 -0.175918 -0.170782 0.969477 0.000000
230.46899414 250.00000000 242.50000000 0.700489 -0.700489 0.136498 0.000000
141.60200500 204.10200500 277.50000000 -0.000978 -0.000978 -0.999999 0.000000
233.39799500 184.57000732 287.50000000 -0.000978 -0.000978 -0.999999 0.000000
280.27301025 209.96099854 277.50000000 -0.000978 -0.000978 -0.999999 0.000000
110.35199738 263.67199707 182.50000000 0.000978 0.000978 0.999999 0.000000
172.85200500 191.40600586 272.50000000 -0.125848 0.372012 -0.919657 0.000000
177.73399353 283.20300293 292.50000000 -0.000978 -0.000978 -0.999999 0.000000
191.89500427 165.03900146 275.00000000 0.550786 0.262055 -0.792441 0.000000
207.03100586 178.71099854 282.50000000 -0.000978 -0.000978 -0.999999 0.000000
171.87500000 266.11300659 220.00000000 -0.419993 -0.868793 0.262306 0.000000
109.37500000 190.91799927 210.00000000 0.712799 0.523384 -0.466891 0.000000
174.31599426 198.24200439 185.00000000 -0.563273 0.822807 -0.075578 0.000000
246.09399414 159.17999268 252.50000000 0.000978 0.000978 0.999999 0.000000
96.67970276 265.62500000 182.50000000 -0.045807 -0.523315 0.850907 0.000000
172.85200500 195.31199646 167.50000000 -0.766337 0.459148 0.449345 0.000000
143.55499268 325.68399048 255.00000000 -0.337607 -0.680107 0.650750 0.000000
112.30500031 335.93798828 237.50000000 -0.434781 -0.524051 0.732349 0.000000
211.91400146 217.28500366 235.00000000 -0.094747 0.622418 0.776929 0.000000
163.08599854 313.47698975 257.50000000 -0.895936 -0.367526 0.249445 0.000000
118.16400146 279.29699707 292.50000000 -0.000978 -0.000978 -0.999999 0.000000
153.32000732 171.87500000 257.50000000 0.340456 0.646704 -0.682542 0.000000
150.39100647 283.20300293 297.50000000 -0.000978 -0.000978 -0.999999 0.000000
131.83599854 253.90600586 182.50000000 -0.280122 -0.511731 0.812197 0.000000
134.76600647 221.67999268 142.50000000 -0.006072 -0.278082 0.960538 0.000000
152.34399414 330.07800293 267.50000000 -0.429324 -0.772131 0.468502 0.000000
178.71099854 187.50000000 272.50000000 0.162398 0.087815 -0.982810 0.000000
88.37889862 240.23399353 165.00000000 0.457905 -0.494273 0.738930 0.000000
280.27301025 223.63299561 272.50000000 -0.347583 -0.040056 -0.936793 0.000000
144.53100586 298.82800293 292.50000000 -0.000978 -0.000978 -0.999999 0.000000
144.53100586 152.83200073 190.00000000 0.240719 0.953464 0.181548 0.000000
280.27301025 218.75000000 272.50000000 -0.000978 -0.000978 -0.999999 0.000000
193.35899353 225.58599854 197.50000000 -0.511654 0.829338 0.224517 0.000000
133.78900146 194.33599854 267.50000000 -0.165428 0.751254 -0.638945 0.000000
267.57800293 161.62100220 285.00000000 -0.468697 0.458830 -0.754849 0.000000
196.28900146 196.28900146 282.50000000 0.521469 0.335345 -0.784611 0.000000
271.48400879 147.46099854 282.50000000 -0.000978 -0.000978 -0.999999 0.000000
230.46899414 140.62500000 262.50000000 0.000978 0.000978 0.999999 0.000000
127.44100189 285.15600586 295.00000000 0.653618 -0.186089 -0.733590 0.000000
104.49199677 222.65600586 142.50000000 0.037996 -0.381265 0.923684 0.000000
110.35199738 284.17999268 292.50000000 -0.000978 -0.000978 -0.999999 0.000000
208.98399353 235.35200500 207.50000000 -0.634000 -0.737319 0.233249 0.000000
250.00000000 188.47700500 287.50000000 -0.624700 -0.202064 -0.754268 0.000000
170.89799500 189.94099426 170.00000000 0.562943 0.797373 -0.217465 0.000000
113.28099823 222.65600586 142.50000000 -0.205628 -0.762217 0.613793 0.000000
186.03500366 223.63299561 220.00000000 -0.911266 0.166331 0.376733 0.000000
84.47270203 291.01599121 235.00000000 0.992038 -0.090185 -0.087902 0.000000
116.21099854 222.65600586 142.50000000 -0.102469 -0.265901 0.958539 0.000000
215.33200073 193.35899353 285.00000000 0.412197 0.868505 -0.275305 0.000000
234.37500000 208.00799561 282.50000000 -0.535259 0.182440 -0.824751 0.000000
246.09399414 238.77000427 265.00000000 -0.442468 -0.843018 -0.305846 0.000000
161.13299561 160.15600586 252.50000000 0.000978 0.000978 -0.999999 0.000000
109.37500000 204.10200500 247.50000000 0.700489 0.700489 -0.136498 0.000000
238.28100586 156.73800659 250.00000000 0.216268 0.748380 0.627021 0.000000
186.52299500 201.66000366 280.00000000 0.380159 0.682970 -0.623724 0.000000
157.22700500 280.27301025 297.50000000 -0.000978 -0.000978 -0.999999 0.000000
199.21899414 147.46099854 277.50000000 0.795673 0.265224 -0.544573 0.000000
180.66400146 222.65600586 217.50000000 0.000978 0.000978 0.999999 0.000000
155.27299500 296.38699341 235.00000000 0.000978 0.000978 0.999999 0.000000
113.28099823 249.02299500 287.50000000 0.490944 0.293311 -0.820331 0.000000
189.45300293 273.92599487 240.00000000 -0.413230 -0.642249 0.645568 0.000000
140.62500000 250.00000000 182.50000000 -0.287644 -0.773938 0.564164 0.000000
137.69500732 294.92199707 222.50000000 -0.820177 -0.409292 0.399737 0.000000
206.05499268 270.50799561 272.50000000 -0.858963 -0.221134 -0.461824 0.000000
210.93800354 189.45300293 252.50000000 -0.673163 -0.120367 0.729632 0.000000
108.39800262 291.50399780 205.00000000 -0.443708 -0.699630 0.560036 0.000000
112.30500031 208.98399353 272.50000000 0.638907 0.769183 -0.012473 0.000000
196.28900146 168.94500732 212.50000000 -0.228084 0.094510 0.969044 0.000000
142.57800293 218.75000000 282.50000000 -0.214073 0.414859 -0.884344 0.000000
185.54699707 133.78900146 247.50000000 0.360749 0.899664 -0.245898 0.000000
138.67199707 222.65600586 142.50000000 -0.364101 -0.525924 0.768658 0.000000
274.41400146 224.60899353 262.50000000 0.000978 0.000978 0.999999 0.000000
111.32800293 337.89099121 277.50000000 0.446689 -0.894688 -0.001310 0.000000
269.53100586 150.39100647 282.50000000 -0.000978 -0.000978 -0.999999 0.000000
242.18800354 128.90600586 272.50000000 0.049853 0.904090 -0.424424 0.000000
178.22300720 208.98399353 210.00000000 -0.942421 -0.278474 -0.185192 0.000000
266.60198975 150.39100647 282.50000000 -0.000978 -0.000978 -0.999999 0.000000
161.13299561 273.43798828 297.50000000 -0.000978 -0.000978 -0.999999 0.000000
241.69900513 248.04699707 240.00000000 -0.896092 -0.418748 0.147205 0.000000
146.48399353 276.36700439 297.50000000 -0.000978 -0.000978 -0.999999 0.000000
155.27299500 298.82800293 292.50000000 -0.000978 -0.000978 -0.999999 0.000000
251.95300293 235.35200500 262.50000000 0.835112 -0.506543 -0.214482 0.000000
114.74600220 178.71099854 205.00000000 0.778362 0.593405 -0.204994 0.000000
125.97699738 257.81201172 182.50000000 -0.165672 -0.737165 0.655089 0.000000
124.02300262 278.32000732 202.50000000 -0.370589 -0.443753 0.815933 0.000000
199.70700073 168.94500732 280.00000000 0.930132 -0.056731 -0.362817 0.000000
220.70300293 182.61700439 252.50000000 0.000978 0.000978 0.999999 0.000000
101.56199646 330.56600952 265.00000000 0.858681 -0.488788 -0.154122 0.000000
133.78900146 258.78900146 187.50000000 -0.000978 -0.000978 0.999999 0.000000
117.18800354 249.02299500 292.50000000 0.301083 0.430780 -0.850751 0.000000
172.85200500 307.61700439 287.50000000 -0.000978 -0.000978 -0.999999 0.000000
216.79699707 247.07000732 262.50000000 -0.389239 -0.868538 -0.306812 0.000000
179.68800354 261.71899414 292.50000000 -0.922212 0.140488 -0.360261 0.000000
137.69500732 236.32800293 292.50000000 -0.000978 -0.000978 -0.999999 0.000000
151.36700439 190.42999268 267.50000000 -0.000978 -0.000978 -0.999999 0.000000
197.26600647 154.29699707 277.50000000 0.716437 0.262111 -0.646541 0.000000
119.14099884 197.26600647 262.50000000 0.538416 0.786183 -0.303355 0.000000
201.17199707 163.08599854 217.50000000 -0.700489 0.700489 0.136498 0.000000
110.35199738 322.26599121 282.50000000 -0.000978 -0.000978 -0.999999 0.000000
123.04699707 223.63299561 142.50000000 -0.489042 -0.731076 0.475780 0.000000
141.60200500 166.99200439 237.50000000 0.343290 -0.343290 -0.874245 0.000000
189.45300293 264.64801025 232.50000000 -0.493869 -0.497195 0.713366 0.000000
166.99200439 325.19500732 272.50000000 -0.547928 -0.649084 0.527697 0.000000
299.80499268 206.05499268 272.50000000 -0.000978 -0.000978 -0.999999 0.000000
133.78900146 282.22698975 297.50000000 -0.000978 -0.000978 -0.999999 0.000000
202.14799500 213.86700439 282.50000000 -0.000978 -0.000978 -0.999999 0.000000
242.18800354 178.71099854 287.50000000 -0.000978 -0.000978 -0.999999 0.000000
158.20300293 251.95300293 297.50000000 -0.000978 -0.000978 -0.999999 0.000000
287.10900879 168.94500732 267.50000000 -0.881213 0.321953 0.346137 0.000000
202.14799500 237.30499268 282.50000000 -0.014696 -0.468942 -0.883107 0.000000
270.50799561 200.68400574 255.00000000 -0.722261 -0.155960 0.673807 0.000000
173.82800293 150.39100647 252.50000000 -0.000978 -0.000978 -0.999999 0.000000
200.19500732 249.02299500 277.50000000 0.000978 0.000978 -0.999999 0.000000
199.21899414 173.82800293 277.50000000 0.608971 -0.097844 -0.787135 0.000000
99.60939789 321.28900146 217.50000000 -0.014663 -0.462562 0.886466 0.000000
109.37500000 288.08599854 292.50000000 -0.000978 -0.000978 -0.999999 0.000000
142.57800293 309.57000732 237.50000000 -0.284242 -0.519801 0.805614 0.000000
100.58599854 251.95300293 172.50000000 -0.175018 -0.948354 0.264562 0.000000
246.58200073 230.46899414 245.00000000 -0.894688 0.446689 0.001310 0.000000
90.82029724 242.67599487 165.00000000 0.373394 -0.613551 0.695796 0.000000
193.35899353 291.01599121 282.50000000 -0.000978 -0.000978 -0.999999 0.000000
227.53900146 246.58200073 260.00000000 0.119356 -0.926036 -0.358067 0.000000
158.20300293 250.97700500 192.50000000 -0.348529 -0.652879 0.672515 0.000000
224.60899353 206.05499268 252.50000000 -0.178701 -0.306146 0.935062 0.000000
85.93750000 229.00399780 175.00000000 0.974273 0.194353 0.114104 0.000000
122.06999969 309.57000732 222.50000000 0.000978 0.000978 0.999999 0.000000
236.32800293 209.96099854 282.50000000 -0.229684 -0.057728 -0.971552 0.000000
214.84399414 222.65600586 227.50000000 -0.109370 0.912337 0.394562 0.000000
104.49199677 329.10198975 227.50000000 -0.263321 -0.342759 0.901764 0.000000
188.47700500 134.76600647 227.50000000 -0.233550 0.909538 0.343796 0.000000
141.60200500 225.58599854 287.50000000 0.415981 0.481233 -0.771605 0.000000
223.63299561 194.33599854 247.50000000 0.000978 0.000978 0.999999 0.000000
95.70310211 231.44500732 272.50000000 0.551057 0.827312 -0.109048 0.000000
116.21099854 224.60899353 142.50000000 -0.102469 -0.265901 0.958539 0.000000
159.17999268 312.50000000 292.50000000 -0.974518 0.200380 0.100812 0.000000
114.25800323 267.57800293 292.50000000 -0.000978 -0.000978 -0.999999 0.000000
200.19500732 227.53900146 197.50000000 0.000978 0.000978 0.999999 0.000000
94.72660065 322.26599121 257.50000000 0.830317 -0.464415 -0.308046 0.000000
258.78900146 169.92199707 287.50000000 -0.000978 -0.000978 -0.999999 0.000000
152.34399414 294.92199707 297.50000000 -0.532214 -0.572763 -0.623450 0.000000
275.39099121 177.73399353 282.50000000 -0.000978 -0.000978 -0.999999 0.000000
258.78900146 218.26199341 255.00000000 -0.388613 -0.388613 0.835440 0.000000
157.22700500 239.25799561 292.50000000 -0.000978 -0.000978 -0.999999 0.000000
87.40229797 301.75799561 250.00000000 0.985741 -0.139458 -0.094164 0.000000
129.88299561 224.60899353 142.50000000 -0.362101 -0.683240 0.634086 0.000000
153.32000732 317.38299561 292.50000000 0.504650 -0.793022 -0.341240 0.000000
252.92999268 136.71899414 282.50000000 -0.001264 0.357624 -0.933865 0.000000
210.93800354 169.92199707 227.50000000 -0.786678 -0.331655 0.520714 0.000000
241.21099854 189.45300293 242.50000000 0.000978 0.000978 0.999999 0.000000
177.73399353 259.76599121 217.50000000 -0.443742 -0.443742 0.778580 0.000000
135.74200439 249.02299500 177.50000000 -0.286618 -0.787012 0.546316 0.000000
115.23400116 286.62100220 205.00000000 -0.398293 -0.529418 0.749053 0.000000
187.50000000 166.99200439 272.50000000 0.339170 0.191582 -0.921010 0.000000
160.15600586 297.85198975 292.50000000 -0.000978 -0.000978 -0.999999 0.000000
102.53900146 225.58599854 142.50000000 0.029533 -0.350548 0.936079 0.000000
257.81201172 137.69500732 282.50000000 -0.059538 0.369134 -0.927467 0.000000
93.75000000 323.24200439 252.50000000 0.931001 -0.299100 -0.209229 0.000000
265.62500000 155.27299500 282.50000000 -0.000978 -0.000978 -0.999999 0.000000
118.16400146 327.14801025 232.50000000 -0.470590 -0.564374 0.678253 0.000000
224.60899353 245.11700439 262.50000000 -0.185890 -0.882610 -0.431791 0.000000
109.37500000 225.58599854 142.50000000 0.096873 -0.459094 0.883090 0.000000
142.57800293 260.74200439 297.50000000 -0.000978 -0.000978 -0.999999 0.000000
135.74200439 237.30499268 162.50000000 -0.502538 -0.180437 0.845517 0.000000
188.47700500 229.49200439 282.50000000 -0.000978 -0.000978 -0.999999 0.000000
205.56599426 247.07000732 215.00000000 -0.000978 -0.999999 -0.000978 0.000000
114.25800323 225.58599854 142.50000000 -0.163399 -0.481364 0.861156 0.000000
147.46099854 218.75000000 282.50000000 -0.117649 0.386166 -0.914896 0.000000
151.36700439 271.48400879 297.50000000 -0.000978 -0.000978 -0.999999 0.000000
213.86700439 152.34399414 247.50000000 -0.862174 -0.001337 0.506611 0.000000
188.47700500 240.72300720 195.00000000 -0.236223 -0.614805 0.752472 0.000000
120.11699677 225.58599854 142.50000000 0.000978 0.000978 0.999999 0.000000
164.55099487 239.25799561 180.00000000 -0.862174 -0.001337 0.506611 0.000000
145.50799561 320.31201172 252.50000000 -0.000978 -0.000978 0.999999 0.000000
186.52299500 144.53100586 262.50000000 0.220162 0.496503 -0.839651 0.000000
170.89799500 270.50799561 292.50000000 -0.000978 -0.000978 -0.999999 0.000000
159.17999268 275.39099121 297.50000000 -0.000978 -0.000978 -0.999999 0.000000
104.49199677 287.10900879 287.50000000 0.677455 -0.089254 -0.730129 0.000000
120.11699677 329.10198975 237.50000000 0.000978 0.000978 0.999999 0.000000
137.69500732 259.76599121 297.50000000 -0.000978 -0.000978 -0.999999 0.000000
180.66400146 185.54699707 272.50000000 0.395143 0.249014 -0.884225 0.000000
210.93800354 229.97999573 210.00000000 -0.516514 0.039944 0.855347 0.000000
288.08599854 224.60899353 267.50000000 -0.615186 -0.778248 -0.126002 0.000000
131.83599854 225.09800720 145.00000000 -0.362101 -0.683240 0.634086 0.000000
153.32000732 333.98400879 277.50000000 -0.212616 -0.975605 0.054673 0.000000
133.78900146 225.09800720 145.00000000 -0.362101 -0.683240 0.634086 0.000000
101.56199646 250.00000000 167.50000000 -0.432039 -0.865594 0.253160 0.000000
167.96899414 279.78500366 295.00000000 -0.707906 -0.077041 -0.702092 0.000000
87.40229797 224.60899353 170.00000000 0.965937 0.240530 0.095448 0.000000
177.73399353 148.43800354 252.50000000 0.478616 0.874904 0.073955 0.000000
204.10200500 150.39100647 227.50000000 -0.695028 0.548355 0.465019 0.000000
178.22300720 190.42999268 210.00000000 -0.952298 0.109022 0.285033 0.000000
179.68800354 267.57800293 292.50000000 -0.817552 -0.012366 -0.575722 0.000000
202.14799500 161.13299561 282.50000000 0.931838 0.001264 -0.362873 0.000000
211.42599487 174.80499268 250.00000000 -0.862456 -0.415143 0.289528 0.000000
204.10200500 187.50000000 282.50000000 0.000978 0.000978 -0.999999 0.000000
255.85899353 151.36700439 282.50000000 -0.000978 -0.000978 -0.999999 0.000000
99.60939789 283.20300293 197.50000000 -0.109295 -0.285747 0.952052 0.000000
83.98439789 291.99200439 217.50000000 -0.001371 -0.788169 0.615457 0.000000
112.30500031 301.75799561 212.50000000 0.000978 0.000978 0.999999 0.000000
178.71099854 220.70300293 217.50000000 0.000978 0.000978 0.999999 0.000000
156.25000000 312.50000000 247.50000000 -0.418275 -0.773075 0.476866 0.000000
195.31199646 291.01599121 272.50000000 -0.652613 -0.652613 0.384959 0.000000
91.79689789 287.10900879 197.50000000 0.000978 0.000978 0.999999 0.000000
152.34399414 316.40600586 252.50000000 -0.494853 -0.679374 0.541822 0.000000
90.82029724 315.91799927 250.00000000 0.967488 -0.121737 -0.221689 0.000000
238.28100586 246.09399414 262.50000000 -0.000978 -0.000978 -0.999999 0.000000
88.37889862 300.78100586 265.00000000 0.902794 -0.394703 -0.170799 0.000000
121.09400177 336.91400146 282.50000000 0.458122 0.753684 -0.471258 0.000000
127.93000031 228.51600647 287.50000000 -0.000978 -0.000978 -0.999999 0.000000
210.93800354 194.33599854 282.50000000 0.242118 -0.032850 -0.969690 0.000000
179.68800354 235.35200500 187.50000000 0.000978 0.000978 0.999999 0.000000
204.10200500 166.01600647 217.50000000 -0.580716 0.580716 -0.570558 0.000000
188.47700500 174.80499268 212.50000000 0.000978 0.000978 0.999999 0.000000
240.23399353 209.96099854 252.50000000 -0.184891 -0.865291 0.465926 0.000000
243.16400146 128.41799927 275.00000000 -0.377506 0.746841 -0.547465 0.000000
144.53100586 317.38299561 292.50000000 -0.000978 -0.000978 -0.999999 0.000000
168.94500732 312.50000000 287.50000000 -0.000978 -0.000978 -0.999999 0.000000
119.14099884 342.77301025 247.50000000 -0.815806 -0.524778 0.243039 0.000000
245.11700439 170.89799500 247.50000000 0.000978 0.000978 0.999999 0.000000
191.89500427 256.83599854 225.00000000 -0.424994 -0.902944 0.063817 0.000000
122.06999969 174.31599426 215.00000000 0.763861 0.509784 -0.395774 0.000000
275.39099121 192.38299561 257.50000000 -0.160692 0.116533 0.980101 0.000000
108.39800262 227.53900146 142.50000000 -0.088814 -0.761473 0.642083 0.000000
241.21099854 220.21499634 245.00000000 -0.759488 0.606024 -0.236459 0.000000
84.47270203 248.04699707 245.00000000 0.707891 0.579183 -0.404273 0.000000
250.00000000 193.35899353 282.50000000 -0.000978 -0.000978 -0.999999 0.000000
154.78500366 145.50799561 225.00000000 0.251563 -0.251563 -0.934576 0.000000
180.66400146 214.84399414 282.50000000 -0.000978 -0.000978 -0.999999 0.000000
128.90600586 315.91799927 290.00000000 0.240889 -0.557931 -0.794157 0.000000
229.49200439 221.67999268 282.50000000 -0.000978 -0.000978 -0.999999 0.000000
159.17999268 255.85899353 197.50000000 -0.000978 -0.000978 0.999999 0.000000
284.17999268 188.47700500 282.50000000 -0.489875 -0.196250 -0.849417 0.000000
108.39800262 199.21899414 222.50000000 0.653921 0.653921 -0.380493 0.000000
105.95700073 228.51600647 280.00000000 0.533225 0.430872 -0.728025 0.000000
89.35549927 299.80499268 270.00000000 0.910536 -0.296691 -0.287922 0.000000
265.62500000 160.64500427 285.00000000 -0.265323 0.665691 -0.697466 0.000000
201.17199707 201.17199707 242.50000000 0.000978 0.000978 0.999999 0.000000
177.73399353 313.47698975 272.50000000 -0.890715 -0.446052 0.087543 0.000000
192.38299561 291.99200439 267.50000000 -0.726123 -0.620330 0.296540 0.000000
145.99600220 337.89099121 275.00000000 -0.534988 -0.841506 -0.075210 0.000000
189.45300293 225.58599854 282.50000000 -0.000978 -0.000978 -0.999999 0.000000
125.00000000 166.01600647 182.50000000 0.700489 0.700489 0.136498 0.000000
107.42199707 228.02699280 145.00000000 -0.088814 -0.761473 0.642083 0.000000
88.86720276 224.60899353 192.50000000 0.885265 0.392622 -0.249307 0.000000
178.71099854 209.96099854 282.50000000 -0.000978 -0.000978 -0.999999 0.000000
109.86299896 228.51600647 145.00000000 -0.088814 -0.761473 0.642083 0.000000
120.11699677 194.82400513 255.00000000 0.678844 0.703699 -0.209712 0.000000
237.30499268 216.79699707 282.50000000 -0.000978 -0.000978 -0.999999 0.000000
245.11700439 228.51600647 237.50000000 -0.981537 0.001145 0.191268 0.000000
157.22700500 257.81201172 297.50000000 -0.000978 -0.000978 -0.999999 0.000000
125.48799896 188.47700500 255.00000000 0.820648 0.548593 -0.159944 0.000000
244.14100647 132.81199646 277.50000000 -0.735318 0.484153 -0.474239 0.000000
112.79299927 179.68800354 175.00000000 0.821402 0.551067 0.147050 0.000000
244.14100647 162.10899353 247.50000000 -0.410302 0.723384 0.555309 0.000000
90.82029724 226.56199646 202.50000000 0.700489 0.700489 -0.136498 0.000000
184.57000732 258.78900146 222.50000000 0.509556 -0.509556 0.693330 0.000000
143.55499268 245.60499573 295.00000000 0.157211 0.486326 -0.859518 0.000000
155.27299500 242.18800354 292.50000000 -0.000978 -0.000978 -0.999999 0.000000
127.93000031 348.14498901 275.00000000 0.363114 -0.101998 -0.926145 0.000000
198.24200439 281.25000000 277.50000000 -0.576173 -0.197152 -0.793193 0.000000
178.71099854 147.46099854 257.50000000 0.981537 0.001145 -0.191268 0.000000
132.81199646 250.97700500 177.50000000 -0.265796 -0.819150 0.508277 0.000000
165.03900146 263.67199707 297.50000000 -0.516210 0.211661 -0.829895 0.000000
144.53100586 293.94500732 227.50000000 -0.237901 -0.379754 0.893974 0.000000
281.25000000 215.82000732 262.50000000 0.000978 0.000978 0.999999 0.000000
104.49199677 245.11700439 282.50000000 0.398607 0.200034 -0.895041 0.000000
101.56199646 327.14801025 272.50000000 0.836495 -0.482179 -0.260346 0.000000
181.64100647 195.31199646 212.50000000 -0.543073 0.812315 -0.212640 0.000000
210.93800354 190.42999268 282.50000000 -0.000978 -0.000978 -0.999999 0.000000
126.95300293 175.78100586 227.50000000 0.783547 0.537791 -0.311184 0.000000
196.28900146 272.46099854 247.50000000 -0.509863 -0.513206 0.690405 0.000000
101.56199646 227.53900146 277.50000000 0.596490 -0.023637 -0.802272 0.000000
245.11700439 222.65600586 277.50000000 -0.000978 -0.000978 -0.999999 0.000000
104.00399780 313.47698975 215.00000000 -0.443742 -0.443742 0.778580 0.000000
154.29699707 283.20300293 297.50000000 -0.000978 -0.000978 -0.999999 0.000000
230.46899414 212.89100647 242.50000000 0.409292 0.820177 -0.399737 0.000000
194.33599854 135.74200439 262.50000000 0.784735 -0.004123 0.619817 0.000000
203.12500000 271.48400879 277.50000000 -0.490445 -0.275584 -0.826751 0.000000
181.64100647 199.21899414 277.50000000 -0.000978 -0.000978 -0.999999 0.000000
126.95300293 166.01600647 172.50000000 0.707745 0.701932 0.079930 0.000000
294.92199707 207.03100586 272.50000000 -0.265826 -0.260140 -0.928258 0.000000
122.06999969 342.77301025 277.50000000 0.443742 -0.443742 -0.778580 0.000000
174.80499268 184.57000732 272.50000000 -0.000978 -0.000978 -0.999999 0.000000
158.20300293 146.48399353 232.50000000 0.470964 0.795656 -0.380951 0.000000
199.21899414 282.22698975 267.50000000 0.001377 -0.648407 -0.761293 0.000000
202.14799500 139.64799500 272.50000000 0.001264 0.931838 0.362873 0.000000
169.92199707 322.26599121 282.50000000 0.000978 0.000978 -0.999999 0.000000
228.51600647 221.67999268 282.50000000 -0.000978 -0.000978 -0.999999 0.000000
211.91400146 194.33599854 282.50000000 0.242118 -0.032850 -0.969690 0.000000
158.20300293 247.07000732 292.50000000 -0.427375 0.459875 -0.778374 0.000000
295.41000366 182.61700439 265.00000000 -0.702765 0.261752 0.661519 0.000000
126.95300293 306.64099121 292.50000000 -0.000978 -0.000978 -0.999999 0.000000
250.97700500 143.55499268 262.50000000 -0.241749 0.823796 0.512755 0.000000
128.90600586 332.03100586 282.50000000 -0.000978 -0.000978 -0.999999 0.000000
250.00000000 222.65600586 277.50000000 -0.000978 -0.000978 -0.999999 0.000000
83.98439789 283.20300293 202.50000000 0.862436 -0.240153 0.445567 0.000000
90.33200073 237.30499268 235.00000000 0.894688 0.446689 -0.001310 0.000000
116.21099854 313.47698975 222.50000000 -0.222652 -0.167318 0.960433 0.000000
213.86700439 185.54699707 252.50000000 0.000978 0.000978 0.999999 0.000000
168.94500732 279.29699707 292.50000000 -0.542236 0.289298 -0.788851 0.000000
239.25799561 167.96899414 247.50000000 0.000978 0.000978 0.999999 0.000000
298.82800293 188.47700500 262.50000000 -0.711573 0.329042 0.620803 0.000000
202.63699341 241.21099854 280.00000000 -0.292381 -0.480005 -0.827109 0.000000
185.54699707 287.10900879 252.50000000 0.000978 0.000978 0.999999 0.000000
125.00000000 180.66400146 147.50000000 0.279413 0.700928 0.656222 0.000000
151.36700439 255.85899353 297.50000000 -0.000978 -0.000978 -0.999999 0.000000
143.55499268 306.15200806 235.00000000 -0.483993 -0.561030 0.671562 0.000000
218.75000000 245.11700439 227.50000000 -0.370187 -0.799668 0.472750 0.000000
97.16799927 308.59399414 210.00000000 -0.859392 -0.228064 0.457638 0.000000
286.13299561 173.82800293 282.50000000 -0.000978 -0.000978 -0.999999 0.000000
259.76599121 169.92199707 252.50000000 0.000978 0.000978 0.999999 0.000000
259.76599121 174.80499268 287.50000000 -0.000978 -0.000978 -0.999999 0.000000
145.50799561 315.42999268 242.50000000 -0.492567 -0.853488 0.170106 0.000000
194.33599854 210.44900513 235.00000000 -0.603991 0.398800 0.690039 0.000000
100.58599854 264.64801025 182.50000000 -0.000978 -0.000978 0.999999 0.000000
134.27699280 228.51600647 290.00000000 0.676875 0.362202 -0.640819 0.000000
196.28900146 226.56199646 207.50000000 -0.032416 -0.929678 0.366944 0.000000
131.83599854 334.96099854 252.50000000 -0.501676 -0.733473 0.458627 0.000000
265.62500000 191.40600586 252.50000000 0.000978 0.000978 0.999999 0.000000
154.29699707 246.09399414 182.50000000 -0.350800 -0.703232 0.618388 0.000000
170.89799500 237.30499268 292.50000000 -0.278860 0.092089 -0.955906 0.000000
84.47270203 264.64801025 245.00000000 0.998461 -0.015650 0.053210 0.000000
243.16400146 169.92199707 247.50000000 -0.000978 -0.000978 0.999999 0.000000
209.96099854 193.84800720 250.00000000 -0.784474 0.132482 0.605846 0.000000
101.56199646 276.36700439 192.50000000 -0.020513 -0.531976 0.846511 0.000000
133.78900146 284.17999268 212.50000000 -0.307692 -0.550020 0.776405 0.000000
228.51600647 207.03100586 237.50000000 0.764168 0.644897 -0.012482 0.000000
123.04699707 228.51600647 287.50000000 -0.000978 -0.000978 -0.999999 0.000000
224.60899353 138.67199707 277.50000000 -0.000978 -0.000978 -0.999999 0.000000
192.38299561 271.48400879 282.50000000 -0.210389 -0.843070 -0.494944 0.000000
131.34800720 180.66400146 245.00000000 0.652613 0.652613 -0.384959 0.000000
111.81600189 255.85899353 290.00000000 0.615975 -0.015226 -0.787618 0.000000
142.57800293 215.82000732 282.50000000 -0.000978 -0.000978 -0.999999 0.000000
250.00000000 139.64799500 282.50000000 -0.000978 -0.000978 -0.999999 0.000000
295.89801025 196.28900146 277.50000000 -0.000978 -0.000978 -0.999999 0.000000
237.30499268 253.41799927 240.00000000 0.110247 -0.947065 0.301520 0.000000
96.67970276 305.66400146 282.50000000 -0.000978 -0.000978 -0.999999 0.000000
193.35899353 216.79699707 282.50000000 -0.000978 -0.000978 -0.999999 0.000000
221.67999268 205.07800293 287.50000000 -0.000978 -0.000978 -0.999999 0.000000
141.60200500 339.84399414 282.50000000 -0.647773 -0.279902 -0.708552 0.000000
151.36700439 228.51600647 157.50000000 -0.000978 -0.000978 0.999999 0.000000
164.06199646 188.47700500 272.50000000 -0.000978 -0.000978 -0.999999 0.000000
120.11699677 182.61700439 147.50000000 0.520179 0.641386 0.563948 0.000000
83.49610138 261.71899414 260.00000000 0.965816 0.185884 -0.180684 0.000000
89.84380341 249.02299500 172.50000000 0.000978 0.000978 0.999999 0.000000
126.95300293 322.26599121 287.50000000 -0.000978 -0.000978 -0.999999 0.000000
108.88700104 184.57000732 185.00000000 0.798355 0.596968 -0.079116 0.000000
103.51599884 199.21899414 207.50000000 0.785332 0.533643 -0.313814 0.000000
220.70300293 224.60899353 282.50000000 0.049335 -0.292216 -0.955079 0.000000
171.38699341 214.84399414 215.00000000 -0.435294 -0.788060 -0.435294 0.000000
184.57000732 231.44500732 287.50000000 -0.894688 0.446689 -0.001310 0.000000
173.82800293 295.41000366 250.00000000 -0.559030 -0.569163 0.602942 0.000000
253.90600586 214.84399414 252.50000000 -0.609447 -0.572306 0.548671 0.000000
152.34399414 281.25000000 297.50000000 -0.000978 -0.000978 -0.999999 0.000000
85.44920349 295.89801025 210.00000000 0.953019 -0.271723 0.133873 0.000000
182.61700439 167.96899414 272.50000000 -0.000978 -0.000978 -0.999999 0.000000
264.64801025 216.79699707 277.50000000 0.358551 -0.786240 -0.503258 0.000000
211.42599487 160.15600586 230.00000000 -0.870854 0.290285 0.396672 0.000000
200.19500732 274.41400146 252.50000000 -0.826077 -0.500606 0.258827 0.000000
148.43800354 289.55099487 225.00000000 -0.667367 -0.466655 0.580392 0.000000
169.92199707 207.03100586 157.50000000 -0.410426 0.288366 0.865099 0.000000
159.17999268 228.51600647 287.50000000 -0.204565 0.375761 -0.903857 0.000000
89.84380341 317.38299561 232.50000000 0.832484 -0.460756 0.307691 0.000000
83.98439789 245.11700439 197.50000000 0.984327 0.145426 -0.099755 0.000000
246.09399414 185.54699707 242.50000000 0.000978 0.000978 0.999999 0.000000
129.39500427 184.57000732 250.00000000 0.652613 0.652613 -0.384959 0.000000
168.94500732 194.82400513 275.00000000 -0.085081 0.922384 -0.376787 0.000000
228.51600647 208.00799561 232.50000000 0.747754 0.517676 0.415784 0.000000
288.08599854 173.82800293 262.50000000 -0.390753 0.054679 0.918870 0.000000
140.62500000 152.34399414 212.50000000 0.700489 0.700489 -0.136498 0.000000
142.57800293 178.22300720 255.00000000 0.529046 0.603417 -0.596656 0.000000
281.25000000 205.07800293 277.50000000 -0.000978 -0.000978 -0.999999 0.000000
118.65200043 183.59399414 150.00000000 0.870854 0.290285 0.396672 0.000000
169.92199707 234.37500000 177.50000000 -0.556637 -0.389153 0.733972 0.000000
194.33599854 164.06199646 207.50000000 -0.000978 -0.000978 0.999999 0.000000
272.46099854 141.60200500 277.50000000 -0.611306 0.490055 -0.621410 0.000000
186.52299500 184.57000732 217.50000000 -0.545385 -0.254721 0.798544 0.000000
169.92199707 318.35900879 267.50000000 -0.619886 -0.753495 0.219057 0.000000
150.87899780 227.53900146 290.00000000 -0.085854 0.488384 -0.868395 0.000000
105.46900177 200.19500732 212.50000000 0.797800 0.470333 -0.377229 0.000000
185.54699707 171.87500000 212.50000000 -0.327042 -0.114398 0.938060 0.000000
262.69500732 206.05499268 252.50000000 -0.127011 -0.337330 0.932779 0.000000
243.16400146 246.58200073 245.00000000 -0.896092 -0.418748 0.147205 0.000000
278.32000732 224.60899353 262.50000000 0.000978 0.000978 0.999999 0.000000
90.33200073 234.37500000 215.00000000 0.933691 0.268173 -0.237284 0.000000
181.15199280 187.50000000 215.00000000 -0.306758 -0.535634 0.786763 0.000000
186.52299500 243.16400146 197.50000000 -0.262050 -0.643215 0.719447 0.000000
267.57800293 175.78100586 252.50000000 0.000978 0.000978 0.999999 0.000000
147.46099854 147.94900513 205.00000000 0.514193 0.856989 -0.034280 0.000000
115.23400116 207.03100586 267.50000000 0.064909 0.995632 0.067109 0.000000
138.67199707 250.97700500 182.50000000 -0.403090 -0.557745 0.725562 0.000000
271.48400879 203.12500000 282.50000000 -0.397934 -0.019571 -0.917205 0.000000
236.32800293 153.32000732 282.50000000 -0.000978 -0.000978 -0.999999 0.000000
167.96899414 249.02299500 292.50000000 -0.000978 -0.000978 -0.999999 0.000000
145.50799561 308.59399414 237.50000000 -0.366230 -0.462186 0.807626 0.000000
182.61700439 232.42199707 187.50000000 -0.519805 0.037227 0.853473 0.000000
85.93750000 277.34399414 272.50000000 0.925266 -0.154443 -0.346453 0.000000
93.75000000 272.94900513 190.00000000 -0.306346 -0.306346 0.901279 0.000000
234.37500000 180.66400146 287.50000000 -0.000978 -0.000978 -0.999999 0.000000
180.66400146 212.89100647 172.50000000 -0.592158 0.091213 0.800643 0.000000
90.82029724 256.83599854 277.50000000 0.735417 0.534699 -0.416243 0.000000
254.88299561 217.77299500 277.50000000 -0.000978 -0.000978 -0.999999 0.000000
85.44920349 299.80499268 240.00000000 0.893616 0.111174 -0.434846 0.000000
172.85200500 266.60198975 292.50000000 -0.000978 -0.000978 -0.999999 0.000000
187.50000000 157.22700500 202.50000000 0.215240 -0.428995 0.877288 0.000000
204.10200500 187.50000000 242.50000000 0.000978 0.000978 0.999999 0.000000
216.79699707 230.46899414 212.50000000 -0.693900 0.032504 0.719338 0.000000
119.14099884 185.54699707 147.50000000 0.870854 0.290285 0.396672 0.000000
115.23400116 181.15199280 160.00000000 0.820177 0.409292 0.399737 0.000000
83.98439789 274.41400146 267.50000000 0.931838 -0.001264 -0.362873 0.000000
288.08599854 221.67999268 267.50000000 -0.918483 -0.381903 -0.102662 0.000000
127.93000031 282.22698975 297.50000000 0.323849 -0.354258 -0.877282 0.000000
250.00000000 220.70300293 277.50000000 -0.000978 -0.000978 -0.999999 0.000000
119.14099884 252.92999268 177.50000000 -0.115609 -0.563413 0.818047 0.000000
238.28100586 238.77000427 270.00000000 0.343933 -0.715577 -0.607996 0.000000
90.82029724 293.94500732 202.50000000 0.000978 0.000978 0.999999 0.000000
242.18800354 155.27299500 282.50000000 -0.091296 0.318874 -0.943390 0.000000
195.31199646 229.00399780 215.00000000 -0.117477 -0.916317 0.382835 0.000000
153.32000732 320.31201172 257.50000000 -0.452707 -0.659850 0.599712 0.000000
157.22700500 331.05499268 272.50000000 -0.492997 -0.829903 0.261180 0.000000
247.07000732 153.32000732 282.50000000 -0.000978 -0.000978 -0.999999 0.000000
84.96089935 258.30099487 225.00000000 0.980573 0.141134 -0.136225 0.000000
193.35899353 238.28100586 282.50000000 -0.000978 -0.000978 -0.999999 0.000000
125.97699738 349.60900879 267.50000000 -0.457530 -0.741628 0.490565 0.000000
120.11699677 304.68798828 217.50000000 -0.601516 -0.513900 0.611625 0.000000
249.02299500 168.94500732 247.50000000 0.000978 0.000978 0.999999 0.000000
142.57800293 281.25000000 297.50000000 -0.000978 -0.000978 -0.999999 0.000000
183.59399414 202.14799500 277.50000000 0.290814 0.663570 -0.689277 0.000000
151.36700439 260.25399780 200.00000000 -0.474187 -0.717104 0.510791 0.000000
145.02000427 186.52299500 150.00000000 -0.141386 0.575962 0.805157 0.000000
210.93800354 245.60499573 220.00000000 -0.507370 -0.732133 0.454485 0.000000
120.11699677 275.39099121 292.50000000 0.000978 0.000978 -0.999999 0.000000
221.67999268 139.64799500 277.50000000 0.230401 0.405803 -0.884443 0.000000
204.10200500 197.26600647 242.50000000 -0.381314 -0.120634 0.916541 0.000000
93.75000000 231.93400574 260.00000000 0.681751 0.681751 -0.265390 0.000000
157.22700500 181.15199280 265.00000000 0.001381 0.716707 -0.697373 0.000000
186.52299500 165.03900146 207.50000000 -0.109186 -0.466523 0.877744 0.000000
249.02299500 212.89100647 247.50000000 0.000978 0.000978 0.999999 0.000000
118.16400146 348.63299561 267.50000000 0.308480 -0.901825 -0.302576 0.000000
130.85899353 261.71899414 192.50000000 -0.308554 -0.873982 0.375432 0.000000
163.08599854 227.53900146 162.50000000 -0.452854 -0.680116 0.576511 0.000000
124.02300262 280.27301025 202.50000000 -0.354925 -0.433798 0.828159 0.000000
273.43798828 175.78100586 282.50000000 -0.000978 -0.000978 -0.999999 0.000000
218.75000000 243.16400146 222.50000000 -0.298444 -0.889333 0.346435 0.000000
141.60200500 303.71099854 232.50000000 -0.362311 -0.654127 0.663964 0.000000
164.06199646 231.44500732 292.50000000 -0.000978 -0.000978 -0.999999 0.000000
213.37899780 250.97700500 260.00000000 -0.509784 -0.763861 -0.395774 0.000000
176.75799561 242.18800354 292.50000000 -0.493577 0.523693 -0.694354 0.000000
161.13299561 230.95700073 165.00000000 -0.379686 -0.698557 0.606512 0.000000
89.84380341 227.05099487 200.00000000 0.921083 0.230629 -0.313713 0.000000
211.91400146 158.20300293 232.50000000 -0.839551 0.336133 0.426811 0.000000
190.42999268 252.92999268 217.50000000 -0.946675 -0.316419 -0.060701 0.000000
206.05499268 210.93800354 282.50000000 0.092659 -0.088083 -0.991794 0.000000
125.00000000 179.68800354 227.50000000 0.800879 0.549926 -0.237011 0.000000
176.75799561 289.06201172 247.50000000 -0.578117 -0.625311 0.524182 0.000000
173.82800293 277.34399414 292.50000000 -0.000978 -0.000978 -0.999999 0.000000
126.95300293 265.62500000 297.50000000 -0.033352 0.433574 -0.900500 0.000000
115.23400116 345.70300293 272.50000000 0.000978 0.000978 -0.999999 0.000000
94.23829651 239.25799561 275.00000000 0.865532 0.373578 -0.333607 0.000000
166.99200439 267.57800293 297.50000000 -0.000978 -0.000978 -0.999999 0.000000
154.29699707 288.08599854 297.50000000 -0.000978 -0.000978 -0.999999 0.000000
200.19500732 272.46099854 277.50000000 -0.726650 -0.156252 -0.669003 0.000000
147.94900513 188.47700500 150.00000000 -0.420468 0.407678 0.810559 0.000000
191.40600586 268.55499268 237.50000000 -0.326105 -0.673301 0.663567 0.000000
125.97699738 218.75000000 282.50000000 0.054908 0.400425 -0.914683 0.000000
286.13299561 191.89500427 260.00000000 -0.454519 0.099910 0.885116 0.000000
173.82800293 206.54299927 280.00000000 -0.202334 0.540063 -0.816941 0.000000
209.96099854 234.37500000 207.50000000 -0.684708 -0.448142 0.574755 0.000000
114.25800323 323.24200439 227.50000000 -0.484431 -0.438451 0.757026 0.000000
188.96499634 140.62500000 260.00000000 0.176274 0.682102 -0.709693 0.000000
181.64100647 264.64801025 287.50000000 -0.917945 0.120454 -0.377978 0.000000
189.45300293 136.22999573 255.00000000 0.787863 0.497852 -0.362513 0.000000
209.96099854 208.98399353 282.50000000 0.319519 -0.161834 -0.933658 0.000000
234.37500000 211.91400146 232.50000000 -0.073154 0.283633 0.956138 0.000000
138.67199707 295.89801025 297.50000000 -0.000978 -0.000978 -0.999999 0.000000
109.37500000 311.52301025 217.50000000 -0.421124 0.052472 0.905484 0.000000
295.89801025 180.66400146 277.50000000 -0.000978 -0.000978 -0.999999 0.000000
234.37500000 213.86700439 282.50000000 -0.000978 -0.000978 -0.999999 0.000000
170.89799500 240.72300720 185.00000000 -0.565579 -0.170428 0.806892 0.000000
168.94500732 146.48399353 247.50000000 -0.000978 -0.000978 -0.999999 0.000000
101.07399750 226.56199646 275.00000000 0.620705 -0.165420 -0.766396 0.000000
166.99200439 206.05499268 157.50000000 -0.410426 0.288366 0.865099 0.000000
113.28099823 190.42999268 147.50000000 0.580716 0.580716 0.570558 0.000000
82.51950073 269.53100586 205.00000000 0.997858 0.001038 0.065416 0.000000
213.86700439 206.05499268 242.50000000 -0.530906 -0.652256 0.541018 0.000000
235.35200500 135.74200439 267.50000000 -0.549329 0.556090 0.623700 0.000000
142.57800293 190.42999268 147.50000000 -0.660486 0.311672 0.683095 0.000000
172.85200500 215.82000732 282.50000000 -0.000978 -0.000978 -0.999999 0.000000
186.52299500 227.53900146 282.50000000 -0.000978 -0.000978 -0.999999 0.000000
218.75000000 247.55900574 230.00000000 -0.388552 -0.663018 0.639871 0.000000
147.94900513 185.54699707 265.00000000 -0.111450 0.534093 -0.838048 0.000000
250.97700500 233.39799500 262.50000000 0.000978 0.000978 0.999999 0.000000
244.14100647 228.51600647 257.50000000 0.000978 0.000978 0.999999 0.000000
171.38699341 179.68800354 270.00000000 0.790593 0.481440 -0.378390 0.000000
186.52299500 146.48399353 262.50000000 -0.000978 -0.000978 -0.999999 0.000000
149.90199280 190.42999268 150.00000000 -0.540555 0.215916 0.813130 0.000000
96.67970276 262.69500732 282.50000000 -0.000978 -0.000978 -0.999999 0.000000
134.76600647 314.45300293 292.50000000 -0.000978 -0.000978 -0.999999 0.000000
235.35200500 209.47300720 235.00000000 -0.290459 0.550761 0.782493 0.000000
118.16400146 308.59399414 222.50000000 0.000978 0.000978 0.999999 0.000000
231.44500732 180.66400146 287.50000000 -0.000978 -0.000978 -0.999999 0.000000
217.77299500 186.52299500 247.50000000 0.932941 -0.284793 0.220258 0.000000
181.64100647 166.01600647 207.50000000 0.000978 0.000978 0.999999 0.000000
215.82000732 170.89799500 252.50000000 -0.793335 0.091371 -0.601890 0.000000
240.23399353 239.25799561 272.50000000 0.486938 -0.755820 -0.437753 0.000000
126.95300293 329.10198975 242.50000000 -0.463708 -0.421405 0.779354 0.000000
183.59399414 265.62500000 227.50000000 -0.534934 -0.588933 0.605808 0.000000
106.44499969 295.89801025 207.50000000 -0.099474 -0.262250 0.959859 0.000000
192.38299561 224.60899353 227.50000000 -0.658966 0.182790 0.729624 0.000000
112.30500031 298.82800293 212.50000000 0.000978 0.000978 0.999999 0.000000
157.22700500 187.50000000 157.50000000 -0.167981 0.591716 0.788451 0.000000
136.71899414 163.08599854 227.50000000 0.750417 0.601285 -0.274465 0.000000
135.74200439 230.46899414 152.50000000 -0.241993 -0.785306 0.569854 0.000000
148.43800354 233.39799500 292.50000000 -0.000978 -0.000978 -0.999999 0.000000
92.28520203 302.73400879 275.00000000 0.780828 -0.125940 -0.611920 0.000000
189.45300293 190.42999268 222.50000000 -0.533932 -0.020483 0.845279 0.000000
205.07800293 244.14100647 277.50000000 -0.379822 -0.271730 -0.884250 0.000000
153.32000732 192.38299561 272.50000000 -0.893319 -0.412635 0.178085 0.000000
141.11300659 290.03900146 220.00000000 -0.459148 -0.766337 0.449345 0.000000
162.10899353 267.57800293 212.50000000 0.346154 -0.520036 0.780859 0.000000
259.76599121 183.59399414 252.50000000 0.283723 -0.678049 0.678049 0.000000
140.62500000 180.66400146 257.50000000 0.449949 0.597144 -0.664051 0.000000
157.22700500 325.19500732 287.50000000 -0.064801 -0.355742 -0.932335 0.000000
91.79689789 313.96499634 255.00000000 0.955161 -0.180851 -0.234436 0.000000
121.09400177 255.37100220 180.00000000 -0.285718 -0.617726 0.732652 0.000000
154.29699707 319.33599854 287.50000000 0.144362 -0.858879 -0.491413 0.000000
255.85899353 138.67199707 282.50000000 -0.091387 0.386006 -0.917958 0.000000
141.60200500 305.66400146 232.50000000 -0.307862 -0.701151 0.643124 0.000000
263.67199707 184.57000732 252.50000000 0.000978 0.000978 0.999999 0.000000
134.76600647 308.59399414 292.50000000 -0.000978 -0.000978 -0.999999 0.000000
110.35199738 271.48400879 292.50000000 -0.000978 -0.000978 -0.999999 0.000000
185.54699707 304.68798828 272.50000000 -0.446052 -0.890715 -0.087543 0.000000
129.88299561 280.27301025 207.50000000 -0.413230 -0.645568 0.642249 0.000000
273.43798828 198.24200439 257.50000000 -0.426542 -0.179060 0.886566 0.000000
223.63299561 227.53900146 222.50000000 -0.399188 0.787063 0.470298 0.000000
93.75000000 211.91400146 192.50000000 0.898732 0.358607 -0.252353 0.000000
178.71099854 256.83599854 292.50000000 -0.000978 -0.000978 -0.999999 0.000000
249.02299500 230.46899414 262.50000000 0.000978 0.000978 0.999999 0.000000
218.26199341 165.03900146 240.00000000 0.242926 0.965343 -0.095390 0.000000
189.45300293 278.32000732 287.50000000 -0.000978 -0.000978 -0.999999 0.000000
235.35200500 254.39500427 245.00000000 -0.399092 -0.904703 -0.149127 0.000000
163.08599854 165.03900146 257.50000000 -0.000978 -0.000978 -0.999999 0.000000
173.82800293 237.79299927 290.00000000 -0.442260 0.406879 -0.799284 0.000000
108.39800262 301.75799561 287.50000000 -0.000978 -0.000978 -0.999999 0.000000
116.21099854 339.84399414 242.50000000 0.000978 0.000978 0.999999 0.000000
135.74200439 262.69500732 297.50000000 -0.000978 -0.000978 -0.999999 0.000000
189.45300293 152.34399414 207.50000000 -0.421671 0.560574 0.712706 0.000000
145.50799561 194.33599854 147.50000000 -0.763798 0.572450 0.298184 0.000000
149.41400146 188.47700500 267.50000000 -0.005901 0.227785 -0.973694 0.000000
140.62500000 190.42999268 267.50000000 -0.000978 -0.000978 -0.999999 0.000000
100.58599854 333.98400879 257.50000000 0.736062 -0.593703 -0.325161 0.000000
124.02300262 254.88299561 292.50000000 -0.000978 -0.000978 -0.999999 0.000000
280.27301025 207.03100586 277.50000000 -0.000978 -0.000978 -0.999999 0.000000
190.42999268 134.76600647 227.50000000 -0.233550 0.909538 0.343796 0.000000
242.18800354 175.78100586 287.50000000 -0.000978 -0.000978 -0.999999 0.000000
129.88299561 319.33599854 287.50000000 -0.215070 -0.323318 -0.921526 0.000000
173.82800293 181.64100647 207.50000000 -0.537302 0.139846 0.831715 0.000000
164.06199646 294.92199707 242.50000000 -0.686002 -0.596307 0.416916 0.000000
296.87500000 177.73399353 267.50000000 -0.504600 0.461585 0.729602 0.000000
181.64100647 232.42199707 187.50000000 0.561870 0.524749 0.639485 0.000000
147.46099854 318.35900879 247.50000000 -0.259597 -0.769352 0.583701 0.000000
