159.52000427 121.69499969 145.50000000 0.558781 0.558781 -0.612802 0.000000
55.50289917 144.71899414 168.00000000 0.773610 0.629010 0.076638 0.000000
46.45800018 185.83200073 99.00000000 0.972239 -0.156321 0.174113 0.000000
199.81100464 95.38279724 199.50000000 -0.000978 -0.000978 -0.999999 0.000000
47.69139862 203.51100159 112.00000000 0.926472 -0.266129 0.266129 0.000000
75.64839935 161.16400146 79.50000000 0.000978 0.000978 0.999999 0.000000
229.41200256 127.45099640 199.50000000 -0.537320 -0.093136 -0.838220 0.000000
206.80000305 149.65199280 181.00000000 0.588136 0.655160 -0.474195 0.000000
154.58599854 201.86599731 180.00000000 -0.818672 -0.543260 0.186131 0.000000
114.29499817 232.70100403 193.50000000 -0.357576 -0.449751 -0.818452 0.000000
72.35939789 133.20700073 79.50000000 -0.654903 0.470659 0.591255 0.000000
138.96299744 188.71000671 144.00000000 -0.367538 -0.775553 0.513258 0.000000
79.75980377 156.22999573 82.50000000 -0.706590 0.038232 0.706590 0.000000
124.57299805 159.52000427 150.00000000 -0.205568 0.392182 0.896624 0.000000
123.75099945 109.36100006 191.00000000 0.049024 0.550473 -0.833413 0.000000
120.87300110 133.20700073 205.50000000 0.110615 0.854755 -0.507107 0.000000
166.09800720 150.06300354 207.00000000 -0.349541 -0.208574 -0.913410 0.000000
101.13899994 210.50000000 202.50000000 -0.184974 -0.244382 -0.951873 0.000000
129.50700378 110.18399811 142.00000000 0.943824 -0.319873 -0.082930 0.000000
106.89499664 184.18800354 211.50000000 -0.000978 -0.000978 -0.999999 0.000000
157.05299377 178.02099609 153.00000000 -0.187018 -0.937861 0.292302 0.000000
169.38699341 111.82800293 202.50000000 0.279288 0.287971 -0.916008 0.000000
48.51369858 216.25599670 184.50000000 0.720063 -0.360848 -0.592705 0.000000
117.58399963 143.07400513 136.50000000 -0.035122 -0.779701 0.625166 0.000000
197.34399414 155.40800476 157.50000000 -0.880560 -0.085396 0.466179 0.000000
164.45300293 138.14100647 208.50000000 -0.000978 -0.000978 -0.999999 0.000000
60.02539825 241.74600220 181.50000000 0.586626 -0.482412 -0.650499 0.000000
186.65400696 85.51560211 154.50000000 0.616448 0.318741 -0.719998 0.000000
95.38279724 108.53900146 124.50000000 0.500202 0.825411 0.261716 0.000000
120.87300110 175.96499634 127.50000000 -0.708062 -0.098628 0.699229 0.000000
175.96499634 126.62899780 205.50000000 -0.286003 0.306536 -0.907875 0.000000
106.07199860 164.45300293 115.50000000 -0.616650 0.525420 0.586240 0.000000
86.33789825 147.18600464 91.50000000 -0.684073 -0.023879 0.729022 0.000000
166.09800720 111.82800293 145.50000000 0.243771 0.318778 -0.915946 0.000000
142.66299438 151.29699707 159.00000000 -0.506758 -0.506758 -0.697419 0.000000
123.33999634 194.87699890 205.50000000 -0.000978 -0.000978 -0.999999 0.000000
105.25000000 256.95800781 180.00000000 -0.107726 -0.730471 -0.674394 0.000000
58.38090134 198.16600037 196.50000000 0.694314 0.694314 -0.189358 0.000000
120.87300110 112.65000153 121.50000000 -0.829817 -0.288023 0.477962 0.000000
106.07199860 191.17700195 121.00000000 -0.757229 -0.505364 0.413777 0.000000
115.93900299 245.85699463 184.50000000 -0.348324 -0.502422 -0.791355 0.000000
161.16400146 120.05100250 145.50000000 0.000978 0.000978 0.999999 0.000000
51.80270004 140.60699463 121.50000000 0.844214 0.513034 -0.155241 0.000000
194.87699890 140.60699463 166.50000000 0.000000 0.000000 0.000000 0.000000
87.16020203 219.95599365 131.00000000 -0.468961 -0.259850 0.844129 0.000000
50.98049927 172.67599487 187.50000000 0.716101 -0.237651 -0.656294 0.000000
74.00389862 126.62899780 157.50000000 0.731719 0.680964 -0.029607 0.000000
123.33999634 119.22899628 127.50000000 -0.072481 -0.116200 0.990578 0.000000
36.59080124 190.76600647 161.00000000 0.964151 0.001201 -0.265352 0.000000
190.76600647 167.74200439 184.50000000 -0.694314 -0.694314 0.189358 0.000000
126.62899780 243.39100647 160.50000000 -0.706140 -0.390105 0.590919 0.000000
60.84769821 231.46800232 189.00000000 0.613401 -0.208587 -0.761729 0.000000
167.74200439 120.05100250 148.50000000 0.674661 0.001380 -0.738126 0.000000
175.96499634 153.35299683 181.00000000 -0.286642 0.912306 0.292462 0.000000
139.78500366 155.40800476 208.50000000 0.647425 0.630782 -0.427733 0.000000
130.74000549 128.27299500 130.50000000 -0.397797 -0.196713 0.896137 0.000000
155.40800476 182.54299927 199.50000000 -0.215049 0.855684 -0.470701 0.000000
198.98800659 115.93900299 202.50000000 -0.000978 -0.000978 -0.999999 0.000000
134.85200500 194.87699890 145.50000000 -0.497198 -0.608435 0.618548 0.000000
110.59500122 236.81199646 150.00000000 -0.711758 -0.610776 0.346921 0.000000
118.40599823 190.76600647 208.50000000 -0.164389 -0.313583 -0.935223 0.000000
119.22899628 148.83000183 139.50000000 0.000978 0.000978 0.999999 0.000000
182.54299927 88.80470276 151.50000000 0.611022 0.611022 -0.503294 0.000000
43.16889954 165.27499390 147.00000000 0.999999 -0.000978 -0.000978 0.000000
125.80699921 141.42999268 208.50000000 -0.056443 0.472194 -0.879686 0.000000
194.05499268 90.44920349 163.50000000 0.716680 0.120688 -0.686880 0.000000
114.29499817 258.19100952 175.50000000 -0.070706 -0.642124 -0.763333 0.000000
76.47070313 180.89799500 205.50000000 0.207419 -0.059436 -0.976445 0.000000
44.81349945 161.16400146 138.00000000 0.968720 0.247307 0.020508 0.000000
44.40230179 207.21099854 181.50000000 0.599762 -0.798265 0.055297 0.000000
101.13899994 115.11699677 181.50000000 0.320082 0.564566 -0.760797 0.000000
204.33299255 88.80470276 177.00000000 0.748806 0.501947 -0.432826 0.000000
152.94099426 165.27499390 154.50000000 -0.769543 -0.120102 0.627200 0.000000
44.81349945 157.87500000 112.00000000 0.999999 0.000978 0.000978 0.000000
185.83200073 157.05299377 154.50000000 0.049620 -0.298994 0.952964 0.000000
115.11699677 150.47500610 211.50000000 0.000978 0.000978 -0.999999 0.000000
124.98400116 164.45300293 145.50000000 0.014787 0.869716 0.493332 0.000000
69.07029724 230.64599609 120.00000000 -0.592714 -0.401196 0.698378 0.000000
192.82099915 101.13899994 162.00000000 0.882420 0.176484 -0.436105 0.000000
62.08110046 138.14100647 162.00000000 0.623830 0.775770 0.094962 0.000000
44.40230179 180.07600403 181.50000000 0.811457 0.256987 -0.524877 0.000000
133.20700073 157.87500000 151.50000000 -0.193082 0.492434 0.848663 0.000000
215.43400574 140.60699463 184.50000000 0.504903 0.498237 -0.704864 0.000000
73.18160248 245.44599915 181.00000000 0.581738 -0.211401 -0.785424 0.000000
41.93550110 191.58799744 178.50000000 0.807376 -0.202989 -0.554022 0.000000
64.13670349 177.60899353 67.50000000 -0.918870 0.054679 0.390753 0.000000
199.81100464 106.07199860 202.50000000 -0.000978 -0.000978 -0.999999 0.000000
201.45500183 75.23729706 168.00000000 -0.260005 0.964851 0.038200 0.000000
67.01460266 134.85200500 150.00000000 0.563357 0.788075 0.248127 0.000000
87.16020203 140.60699463 94.50000000 -0.801391 0.203795 0.562353 0.000000
181.72099304 170.20899963 187.50000000 -0.506498 -0.845153 -0.170813 0.000000
168.56399536 132.38499451 154.50000000 0.001375 0.771254 -0.636526 0.000000
196.52099609 82.63770294 161.00000000 0.722052 0.543604 -0.427944 0.000000
93.73829651 117.99500275 180.00000000 0.591232 0.715702 -0.371772 0.000000
73.18160248 115.93900299 91.50000000 0.672467 -0.287283 0.682097 0.000000
222.01199341 128.27299500 199.50000000 -0.000978 -0.000978 -0.999999 0.000000
161.16400146 93.32710266 191.00000000 0.429849 0.695393 -0.575898 0.000000
98.67189789 119.22899628 115.50000000 -0.191914 -0.769192 0.609519 0.000000
217.89999390 102.78299713 190.50000000 0.447458 -0.233522 -0.863278 0.000000
40.29100037 175.96499634 145.50000000 0.984878 0.128358 0.116362 0.000000
63.72560120 180.07600403 69.00000000 -0.874605 -0.378742 0.302689 0.000000
61.66989899 200.63299561 79.50000000 -0.692686 -0.617001 0.373491 0.000000
124.16200256 168.97599792 129.00000000 -0.460526 0.319068 0.828318 0.000000
160.34199524 166.91999817 151.50000000 -0.333393 0.854418 0.398521 0.000000
139.78500366 128.27299500 136.50000000 0.000978 0.000978 0.999999 0.000000
123.75099945 254.08000183 177.00000000 -0.521259 -0.792251 -0.317219 0.000000
222.01199341 117.58399963 187.50000000 0.442336 -0.019925 -0.896628 0.000000
39.87990189 183.36500549 132.00000000 0.986241 0.165311 -0.001125 0.000000
78.93750000 245.03500366 136.50000000 -0.813603 -0.063896 0.577899 0.000000
73.18160248 124.16200256 127.50000000 0.524299 0.764535 -0.374963 0.000000
174.32000732 175.14300537 187.50000000 -0.528346 -0.813436 -0.243256 0.000000
116.76200104 113.88400269 191.00000000 0.478251 0.609140 -0.632633 0.000000
96.20510101 266.41400146 160.50000000 -0.240291 -0.837191 0.491295 0.000000
180.07600403 129.09599304 205.50000000 -0.000978 -0.000978 -0.999999 0.000000
106.07199860 142.25199890 214.50000000 -0.446469 0.660506 -0.603653 0.000000
180.07600403 153.76400757 187.50000000 -0.070466 0.994348 0.079414 0.000000
202.27699280 146.36300659 202.50000000 0.157696 0.578220 0.800496 0.000000
190.76600647 146.36300659 169.50000000 -0.128797 0.584768 -0.800910 0.000000
64.95899963 244.21299744 184.50000000 0.503258 -0.358551 -0.786240 0.000000
61.66989899 183.36500549 67.50000000 -0.820542 -0.330430 0.466397 0.000000
81.40429688 242.56799316 139.50000000 -0.775716 -0.270158 0.570333 0.000000
157.05299377 111.00599670 139.50000000 0.000978 0.000978 0.999999 0.000000
67.42579651 160.34199524 202.50000000 0.624222 -0.329135 -0.708532 0.000000
225.71200562 106.07199860 192.00000000 0.355953 -0.177268 -0.917537 0.000000
41.52439880 183.36500549 123.00000000 0.982413 -0.053328 0.178944 0.000000
139.78500366 174.32000732 136.50000000 -0.294465 -0.318141 0.901153 0.000000
78.11519623 194.87699890 205.50000000 -0.275245 -0.606176 -0.746185 0.000000
169.38699341 146.77400208 207.00000000 -0.409015 -0.374272 -0.832242 0.000000
41.52439880 184.18800354 123.00000000 0.980192 -0.061187 0.188360 0.000000
182.54299927 71.12599945 150.00000000 0.033460 0.986489 0.160377 0.000000
39.05759811 191.58799744 144.00000000 0.964151 -0.001201 0.265352 0.000000
113.47299957 145.54100037 211.50000000 0.311606 0.934818 -0.170345 0.000000
60.84769821 185.00999451 67.50000000 -0.553515 -0.506408 0.661190 0.000000
42.75780106 185.83200073 178.50000000 0.610761 0.314244 -0.726789 0.000000
108.53900146 105.66100311 174.00000000 0.306876 0.917746 -0.252128 0.000000
48.51369858 185.83200073 67.50000000 0.789460 -0.549943 0.272608 0.000000
41.52439880 212.96699524 147.00000000 0.958806 -0.226772 0.171073 0.000000
69.48139954 211.32200623 101.00000000 -0.597566 -0.661172 0.453614 0.000000
39.05759811 177.60899353 159.00000000 0.976200 0.202607 0.077359 0.000000
124.57299805 115.11699677 121.00000000 -0.482388 -0.303260 0.821788 0.000000
173.49800110 138.96299744 208.50000000 -0.241163 -0.117357 -0.963363 0.000000
71.94819641 135.67399597 78.00000000 -0.728777 0.275883 0.626716 0.000000
150.88600159 185.00999451 151.00000000 -0.778465 -0.383568 0.496858 0.000000
74.82620239 122.92900085 90.00000000 -0.895578 0.224997 0.383819 0.000000
78.52639771 171.85400391 87.00000000 -0.847425 -0.308295 0.432233 0.000000
163.63099670 120.05100250 205.50000000 0.176240 0.426762 -0.887025 0.000000
111.00599670 146.36300659 211.50000000 0.311606 0.934818 -0.170345 0.000000
92.91600037 261.48001099 178.50000000 0.054782 -0.554839 -0.830152 0.000000
160.34199524 106.89499664 139.50000000 0.643128 0.293497 -0.707280 0.000000
149.65199280 97.84960175 190.50000000 0.679356 0.340492 -0.650031 0.000000
182.54299927 158.28599548 151.00000000 0.056379 -0.881444 0.468912 0.000000
74.00389862 264.35800171 153.00000000 0.733994 -0.657695 0.169383 0.000000
157.05299377 189.94299316 169.50000000 -0.611022 -0.611022 0.503294 0.000000
91.27149963 110.59500122 121.00000000 0.500202 0.825411 0.261716 0.000000
143.07400513 125.80699921 136.50000000 0.000978 0.000978 0.999999 0.000000
94.56050110 254.08000183 184.50000000 -0.149796 -0.688457 -0.709640 0.000000
131.56199646 137.31799316 133.50000000 0.000978 0.000978 0.999999 0.000000
168.56399536 164.45300293 199.50000000 -0.703424 -0.574325 -0.418744 0.000000
173.49800110 170.61999512 191.00000000 -0.743814 0.032462 -0.667598 0.000000
80.58200073 128.27299500 94.50000000 -0.844616 0.522996 0.114451 0.000000
193.23199463 115.11699677 202.50000000 -0.000978 -0.000978 -0.999999 0.000000
141.42999268 143.89599609 205.50000000 -0.000978 -0.000978 -0.999999 0.000000
161.98599243 148.00799561 208.50000000 0.325333 -0.882181 -0.340464 0.000000
87.16020203 262.71398926 177.00000000 0.525009 -0.701679 -0.481675 0.000000
141.42999268 86.74900055 151.00000000 0.410262 0.911547 0.027703 0.000000
48.51369858 232.70100403 151.50000000 0.891869 -0.420638 0.166232 0.000000
141.42999268 212.14500427 160.50000000 -0.717632 -0.364537 0.593395 0.000000
164.04200745 76.47070313 147.00000000 0.357124 0.925213 -0.128234 0.000000
100.31600189 195.69900513 205.50000000 0.201818 -0.185989 -0.961602 0.000000
219.54499817 96.20510101 196.50000000 0.996039 -0.007473 -0.088608 0.000000
102.78299713 222.83399963 142.50000000 -0.065565 0.495222 0.866289 0.000000
94.56050110 113.47299957 172.50000000 0.598468 0.748484 -0.285669 0.000000
90.86039734 123.33999634 120.00000000 0.038167 -0.643187 0.764757 0.000000
126.62899780 227.76800537 190.50000000 -0.275305 0.412197 -0.868505 0.000000
119.22899628 237.22399902 153.00000000 -0.387058 -0.132745 0.912450 0.000000
204.74400330 106.89499664 202.50000000 0.129322 -0.783364 -0.607962 0.000000
45.63570023 180.89799500 87.00000000 0.979245 -0.195370 0.053936 0.000000
175.14300537 162.80900574 160.50000000 -0.052854 -0.652818 0.755669 0.000000
129.91799927 187.47700500 205.50000000 -0.506758 -0.506758 -0.697419 0.000000
217.07800293 142.25199890 196.50000000 -0.001375 -0.771254 -0.636526 0.000000
50.56930161 141.42999268 117.00000000 0.887295 0.444357 -0.123511 0.000000
97.84960175 256.54699707 151.50000000 -0.254136 -0.629815 0.733995 0.000000
117.58399963 244.21299744 184.50000000 -0.142732 -0.451264 -0.880902 0.000000
146.36300659 200.22200012 159.00000000 -0.803281 -0.278240 0.526613 0.000000
90.44920349 179.25399780 103.50000000 -0.728905 -0.318391 0.606074 0.000000
59.20309830 189.94299316 67.50000000 -0.564506 -0.294179 0.771227 0.000000
173.49800110 82.63770294 177.00000000 0.177088 0.916608 -0.358426 0.000000
106.07199860 197.34399414 133.50000000 -0.506758 0.506758 0.697419 0.000000
89.62699890 192.41000366 205.50000000 -0.000978 -0.000978 -0.999999 0.000000
181.72099304 171.03100586 181.50000000 -0.370671 -0.927338 -0.051446 0.000000
112.65000153 211.32200623 142.50000000 0.425036 -0.638387 0.641721 0.000000
64.13670349 237.63499451 187.50000000 0.531637 -0.501450 -0.682576 0.000000
154.99699402 197.34399414 172.00000000 -0.917746 -0.306876 0.252128 0.000000
117.58399963 231.05700684 190.50000000 -0.310106 -0.313073 -0.897675 0.000000
112.65000153 167.74200439 214.50000000 -0.393116 -0.151853 -0.906863 0.000000
90.86039734 211.32200623 129.00000000 -0.628975 -0.551407 0.548034 0.000000
125.80699921 194.05499268 205.50000000 -0.000978 -0.000978 -0.999999 0.000000
107.71700287 169.38699341 214.50000000 -0.000978 -0.000978 -0.999999 0.000000
115.93900299 105.25000000 181.50000000 0.418850 0.839269 -0.346689 0.000000
106.89499664 129.91799927 202.50000000 0.694314 0.694314 -0.189358 0.000000
112.65000153 158.69700623 214.50000000 -0.649930 -0.029478 -0.759422 0.000000
105.66100311 104.42800140 168.00000000 0.357388 0.866627 -0.348184 0.000000
212.14500427 111.82800293 184.50000000 0.747511 -0.250219 -0.615319 0.000000
188.29899597 153.76400757 181.50000000 0.170103 0.984252 0.048098 0.000000
222.01199341 111.00599670 199.50000000 -0.000978 -0.000978 -0.999999 0.000000
154.58599854 200.63299561 175.50000000 -0.867687 -0.462668 0.181815 0.000000
110.59500122 158.69700623 123.00000000 -0.668420 0.441724 0.598411 0.000000
86.33789825 242.56799316 190.50000000 0.238422 -0.466213 -0.851939 0.000000
67.83689880 121.69499969 82.00000000 -0.620374 0.443125 0.647129 0.000000
44.81349945 157.05299377 108.00000000 0.999999 0.000978 0.000978 0.000000
119.63999939 115.11699677 120.00000000 -0.612809 -0.420164 0.669274 0.000000
175.96499634 165.27499390 166.50000000 -0.154514 -0.790572 0.592554 0.000000
68.24800110 215.84500122 198.00000000 0.517878 -0.291208 -0.804363 0.000000
166.91999817 146.36300659 175.50000000 -0.182730 0.941130 -0.284400 0.000000
208.85499573 97.84960175 184.50000000 0.813509 -0.058007 -0.578652 0.000000
111.00599670 188.29899597 127.50000000 -0.346921 -0.540551 0.766453 0.000000
129.09599304 229.41200256 190.50000000 -0.370558 -0.200418 -0.906929 0.000000
150.47500610 185.00999451 199.50000000 0.000978 0.000978 -0.999999 0.000000
54.26950073 235.16799927 181.50000000 0.419420 -0.419420 -0.805093 0.000000
128.68499756 188.29899597 138.00000000 -0.443330 -0.746575 0.496069 0.000000
150.47500610 115.52799988 202.00000000 0.112099 0.548850 -0.828370 0.000000
211.32200623 101.13899994 199.50000000 -0.000978 -0.000978 -0.999999 0.000000
51.80270004 150.88600159 161.00000000 0.783673 0.574901 0.235258 0.000000
102.78299713 162.80900574 112.50000000 -0.614272 -0.052490 0.787347 0.000000
125.39600372 171.85400391 129.00000000 -0.425582 0.163019 0.890115 0.000000
67.42579651 210.50000000 97.50000000 -0.544130 -0.655314 0.523914 0.000000
62.49219894 240.10200500 184.50000000 0.659894 -0.376847 -0.650020 0.000000
154.99699402 161.98599243 151.00000000 -0.538760 -0.111818 0.835006 0.000000
55.91410065 245.44599915 172.00000000 0.744041 -0.585872 -0.321180 0.000000
76.88179779 211.32200623 114.00000000 -0.783320 -0.433016 0.445990 0.000000
109.36100006 161.16400146 118.50000000 -0.788276 0.184490 0.587014 0.000000
52.21390152 148.00799561 174.00000000 0.783405 0.621510 -0.001372 0.000000
73.18160248 202.68800354 101.00000000 -0.803248 -0.291947 0.519192 0.000000
90.44920349 127.86199951 198.00000000 0.231749 0.852777 -0.468043 0.000000
141.42999268 168.97599792 138.00000000 -0.121166 0.391353 0.912229 0.000000
52.21390152 124.98400116 71.00000000 0.713412 0.649856 0.262167 0.000000
203.10000610 83.87110138 193.50000000 0.290285 0.870854 -0.396672 0.000000
182.95399475 84.69339752 147.00000000 0.590582 0.630964 -0.503088 0.000000
159.10800171 168.56399536 147.00000000 -0.948665 0.066005 0.309319 0.000000
153.76400757 188.29899597 196.50000000 -0.000978 -0.000978 -0.999999 0.000000
226.12300110 111.00599670 199.50000000 -0.000978 -0.000978 -0.999999 0.000000
137.72900391 100.31600189 153.00000000 0.771254 -0.001375 -0.636526 0.000000
189.12100220 153.35299683 183.00000000 0.270955 0.933603 -0.234454 0.000000
121.69499969 199.39900208 142.00000000 -0.209301 -0.970397 0.120507 0.000000
68.24800110 120.87300110 82.50000000 -0.620374 0.443125 0.647129 0.000000
152.11900330 202.27699280 193.50000000 0.327479 -0.892718 -0.309535 0.000000
106.07199860 234.34599304 193.50000000 -0.573004 -0.220861 -0.789232 0.000000
219.54499817 97.84960175 199.50000000 0.034580 -0.546363 0.836834 0.000000
113.47299957 113.47299957 190.50000000 0.228534 0.781989 -0.579884 0.000000
137.31799316 105.66100311 189.00000000 0.292626 0.593246 -0.749953 0.000000
63.72560120 138.14100647 147.00000000 0.634370 0.760344 0.139471 0.000000
97.02729797 237.63499451 193.50000000 -0.000978 -0.000978 -0.999999 0.000000
77.29299927 219.54499817 121.50000000 -0.769795 -0.516978 0.374364 0.000000
105.25000000 198.57699585 131.00000000 -0.621963 0.457671 0.635374 0.000000
58.38090134 167.74200439 193.50000000 0.609786 0.267672 -0.745998 0.000000
99.49410248 199.81100464 205.50000000 0.014374 -0.127151 -0.991779 0.000000
41.52439880 202.27699280 131.00000000 0.868154 -0.434829 -0.239231 0.000000
92.09380341 256.54699707 181.50000000 0.001361 -0.817758 -0.575560 0.000000
181.30999756 83.87110138 144.00000000 0.595846 0.538456 -0.595846 0.000000
160.34199524 99.49410248 196.50000000 0.868776 0.435141 -0.236391 0.000000
140.60699463 217.89999390 163.50000000 -0.821269 -0.316843 0.474476 0.000000
216.25599670 116.76200104 184.50000000 0.640810 -0.427762 -0.637481 0.000000
79.75980377 224.47900391 196.50000000 0.160199 -0.555457 -0.815968 0.000000
127.45099640 202.27699280 202.50000000 -0.000978 -0.000978 -0.999999 0.000000
223.65600586 119.63999939 189.00000000 0.509855 0.028705 -0.859782 0.000000
163.22000122 175.14300537 151.00000000 -0.942282 -0.244910 0.228306 0.000000
159.52000427 157.87500000 205.50000000 -0.460108 0.099901 -0.882225 0.000000
195.28799438 164.45300293 181.00000000 -0.267484 -0.533405 -0.802453 0.000000
64.95899963 213.78900146 196.50000000 0.364563 -0.447346 -0.816685 0.000000
44.81349945 180.07600403 101.00000000 0.988342 -0.138205 0.063876 0.000000
50.56930161 128.27299500 71.00000000 0.802517 0.400455 0.442269 0.000000
69.89260101 254.08000183 139.50000000 -0.082694 -0.761651 0.642689 0.000000
202.27699280 140.60699463 202.50000000 -0.000978 -0.000978 -0.999999 0.000000
145.54100037 140.60699463 205.50000000 -0.000978 -0.000978 -0.999999 0.000000
115.11699677 129.09599304 127.50000000 0.415362 -0.001294 0.909655 0.000000
86.33789825 227.76800537 136.50000000 -0.554899 -0.359626 0.750171 0.000000
51.39160156 201.45500183 99.00000000 0.870854 -0.290285 0.396672 0.000000
65.78119659 213.78900146 100.50000000 -0.449835 -0.784369 0.427099 0.000000
53.85839844 167.74200439 189.00000000 0.737825 0.296090 -0.606585 0.000000
77.29299927 166.09800720 82.50000000 -0.743183 -0.408505 0.529908 0.000000
87.57129669 111.00599670 138.00000000 -0.000978 -0.000978 -0.999999 0.000000
94.14939880 145.54100037 117.00000000 -0.694314 0.694314 -0.189358 0.000000
91.27149963 115.52799988 172.00000000 0.624295 0.717859 -0.308115 0.000000
178.43200684 156.22999573 154.50000000 0.141281 -0.429550 0.891923 0.000000
50.56930161 207.21099854 108.00000000 0.834065 -0.311405 0.455371 0.000000
145.13000488 147.18600464 153.00000000 -0.571157 -0.805016 0.160404 0.000000
62.08110046 137.31799316 172.00000000 0.625225 0.779775 -0.032315 0.000000
163.63099670 85.51560211 178.50000000 0.316550 0.870129 -0.377719 0.000000
138.96299744 101.96099854 154.50000000 0.184074 0.401483 -0.897178 0.000000
82.63770294 122.51799774 112.00000000 -0.964151 -0.001201 0.265352 0.000000
62.90330124 137.31799316 138.00000000 0.508974 0.777196 -0.370016 0.000000
192.41000366 109.36100006 202.50000000 -0.000978 -0.000978 -0.999999 0.000000
69.89260101 228.58999634 193.50000000 0.163135 -0.977564 0.133248 0.000000
48.92480087 189.94299316 82.00000000 0.812938 -0.581467 -0.032071 0.000000
72.35939789 238.45700073 190.50000000 0.263933 -0.371295 -0.890213 0.000000
87.16020203 180.89799500 208.50000000 -0.000978 -0.000978 -0.999999 0.000000
132.79600525 114.29499817 150.00000000 0.499287 -0.835198 0.230557 0.000000
162.80900574 178.02099609 161.00000000 -0.511099 -0.581945 0.632549 0.000000
191.99899292 115.93900299 162.00000000 0.685432 -0.227432 -0.691706 0.000000
148.00799561 214.19999695 180.00000000 -0.874935 -0.476088 -0.088477 0.000000
197.75500488 122.51799774 168.00000000 0.437217 -0.216370 -0.872941 0.000000
84.69339752 259.01400757 148.50000000 -0.239866 -0.603585 0.760361 0.000000
171.03100586 123.33999634 151.50000000 0.545394 0.589296 -0.596050 0.000000
147.18600464 97.02729797 187.50000000 0.398481 0.808163 -0.433688 0.000000
94.56050110 245.03500366 187.50000000 0.483208 -0.489850 -0.725642 0.000000
43.99119949 161.16400146 93.00000000 0.999999 0.000978 0.000978 0.000000
112.65000153 203.10000610 139.50000000 0.000978 0.000978 0.999999 0.000000
200.63299561 110.18399811 202.50000000 -0.000978 -0.000978 -0.999999 0.000000
58.38090134 224.47900391 190.50000000 0.512291 -0.835684 0.197965 0.000000
171.85400391 75.64839935 154.50000000 -0.186868 0.806724 -0.560604 0.000000
115.93900299 135.67399597 130.50000000 -0.153071 -0.686544 0.710793 0.000000
43.16889954 222.83399963 162.00000000 0.694314 -0.694314 0.189358 0.000000
173.49800110 84.69339752 181.50000000 0.175513 0.908959 -0.378138 0.000000
201.45500183 148.83000183 175.50000000 0.525922 0.733653 -0.430300 0.000000
144.71899414 86.74900055 162.00000000 0.364582 0.891366 -0.269344 0.000000
64.95899963 131.56199646 70.50000000 -0.738238 -0.236675 0.631656 0.000000
227.76800537 129.09599304 187.50000000 0.135748 -0.160655 -0.977631 0.000000
99.49410248 117.17299652 183.00000000 0.315432 0.558811 -0.766964 0.000000
115.11699677 124.16200256 196.50000000 0.266192 0.430470 -0.862460 0.000000
156.22999573 180.48699951 161.00000000 -0.589757 -0.714608 0.376196 0.000000
53.85839844 145.54100037 180.00000000 0.298688 0.896065 -0.328409 0.000000
73.18160248 183.36500549 205.50000000 0.377850 0.123182 -0.917636 0.000000
175.96499634 122.51799774 154.50000000 0.828631 0.087602 -0.552899 0.000000
91.27149963 173.49800110 103.50000000 -0.520204 -0.408615 0.749948 0.000000
136.49600220 182.13200378 138.00000000 0.183478 -0.490766 0.851754 0.000000
104.42800140 258.19100952 178.50000000 -0.107726 -0.730471 -0.674394 0.000000
142.25199890 150.47500610 205.50000000 -0.000978 -0.000978 -0.999999 0.000000
121.69499969 143.89599609 208.50000000 -0.129936 0.035026 -0.990903 0.000000
185.83200073 97.84960175 199.50000000 -0.000978 -0.000978 -0.999999 0.000000
63.31449890 133.20700073 70.50000000 -0.530618 0.490445 0.691310 0.000000
64.13670349 133.20700073 70.50000000 -0.530618 0.490445 0.691310 0.000000
86.74900055 138.14100647 101.00000000 0.000978 0.000978 -0.999999 0.000000
128.27299500 142.25199890 133.50000000 0.370313 -0.562810 0.738994 0.000000
66.19239807 133.20700073 71.00000000 -0.579396 0.009588 0.814990 0.000000
42.75780106 185.83200073 118.50000000 0.969253 -0.115599 0.217224 0.000000
204.74400330 124.98400116 202.50000000 -0.000978 -0.000978 -0.999999 0.000000
63.31449890 134.02900696 70.50000000 -0.530618 0.490445 0.691310 0.000000
42.34669876 197.34399414 180.00000000 0.844574 0.040218 -0.533926 0.000000
62.08110046 138.96299744 150.00000000 0.839269 0.418850 0.346689 0.000000
175.14300537 175.55400085 183.00000000 -0.344565 -0.935248 -0.081152 0.000000
92.09380341 259.83599854 151.50000000 -0.335666 -0.601605 0.724845 0.000000
137.31799316 92.50489807 172.00000000 0.441130 0.803658 -0.399423 0.000000
109.36100006 217.07800293 145.50000000 0.000978 0.000978 0.999999 0.000000
69.89260101 196.52099609 88.50000000 -0.812197 -0.365409 0.454766 0.000000
97.02729797 188.29899597 208.50000000 -0.000978 -0.000978 -0.999999 0.000000
83.04879761 265.18099976 174.00000000 0.073787 -0.756676 -0.649613 0.000000
66.60350037 199.81100464 85.50000000 -0.858021 -0.303465 0.414377 0.000000
106.07199860 192.41000366 127.50000000 -0.757229 -0.505364 0.413777 0.000000
101.13899994 195.69900513 127.50000000 -0.400202 -0.571482 0.716412 0.000000
54.26950073 145.95199585 142.00000000 0.694314 0.694314 -0.189358 0.000000
47.69139862 224.47900391 178.50000000 0.789070 -0.241234 -0.564955 0.000000
83.87110138 130.74000549 112.50000000 -0.981717 0.145123 0.123172 0.000000
77.29299927 216.25599670 199.50000000 0.020448 -0.527558 -0.849273 0.000000
158.69700623 86.33789825 127.50000000 -0.626968 -0.082534 0.774661 0.000000
132.79600525 230.23399353 159.00000000 -0.274921 -0.383087 0.881852 0.000000
98.67189789 155.40800476 109.50000000 -0.694314 -0.694314 -0.189358 0.000000
110.18399811 209.67799377 142.50000000 0.149294 -0.755517 0.637892 0.000000
54.26950073 201.86599731 93.00000000 0.748255 -0.488421 0.448953 0.000000
46.45800018 136.49600220 71.00000000 0.995927 -0.001061 -0.090153 0.000000
108.12799835 134.02900696 207.00000000 0.130055 0.701101 -0.701101 0.000000
152.94099426 187.47700500 160.50000000 -0.750608 -0.351797 0.559309 0.000000
76.47070313 194.05499268 205.50000000 -0.384250 -0.608534 -0.694290 0.000000
99.08300018 240.92399597 147.00000000 -0.485477 0.616506 0.619865 0.000000
64.95899963 196.52099609 199.50000000 0.427011 0.066848 -0.901772 0.000000
46.45800018 137.31799316 71.00000000 0.995927 -0.001061 -0.090153 0.000000
60.84769821 235.16799927 187.50000000 0.658056 -0.506585 -0.557076 0.000000
92.09380341 198.57699585 120.00000000 -0.509852 -0.437251 0.740852 0.000000
95.38279724 173.49800110 106.50000000 -0.575633 -0.404097 0.710881 0.000000
85.51560211 194.05499268 109.50000000 -0.685075 -0.544375 0.484075 0.000000
189.12100220 152.94099426 190.50000000 0.082609 0.781160 0.618841 0.000000
54.26950073 174.32000732 190.50000000 0.648918 0.082748 -0.756345 0.000000
49.33589935 226.53399658 180.00000000 0.789070 -0.241234 -0.564955 0.000000
152.94099426 126.62899780 205.50000000 -0.000978 -0.000978 -0.999999 0.000000
82.22660065 193.23199463 205.50000000 0.070276 -0.007342 -0.997501 0.000000
50.15819931 145.95199585 129.00000000 0.861659 0.446730 -0.240780 0.000000
72.35939789 127.45099640 133.50000000 0.715577 0.607996 -0.343933 0.000000
170.20899963 154.17500305 174.00000000 -0.001294 0.909655 0.415362 0.000000
67.42579651 171.03100586 202.50000000 0.607267 -0.376868 -0.699427 0.000000
145.54100037 161.16400146 148.50000000 -0.474723 0.618986 0.625695 0.000000
169.38699341 177.60899353 172.50000000 -0.499636 -0.835783 0.227663 0.000000
131.56199646 154.58599854 208.50000000 -0.000978 -0.000978 -0.999999 0.000000
82.22660065 157.87500000 85.50000000 -0.827233 -0.060805 0.558559 0.000000
143.89599609 161.98599243 148.50000000 -0.439025 0.465138 0.768702 0.000000
134.85200500 150.88600159 144.00000000 -0.233309 -0.937426 0.258456 0.000000
127.45099640 238.45700073 184.50000000 -0.245726 -0.520815 -0.817540 0.000000
131.15100098 101.13899994 180.00000000 0.448572 0.799069 -0.400339 0.000000
176.78700256 108.53900146 151.50000000 0.793434 0.012419 -0.608529 0.000000
134.85200500 109.36100006 193.50000000 -0.001201 0.964151 -0.265352 0.000000
71.53710175 185.83200073 205.50000000 0.500118 0.126117 -0.856724 0.000000
114.29499817 199.81100464 205.50000000 -0.000978 -0.000978 -0.999999 0.000000
120.05100250 177.60899353 127.50000000 -0.577386 -0.299089 0.759718 0.000000
127.45099640 223.65600586 154.50000000 -0.427762 -0.637481 0.640810 0.000000
140.60699463 227.76800537 181.50000000 -0.888263 -0.295089 -0.352010 0.000000
45.22460175 152.94099426 100.50000000 0.855684 0.215049 -0.470701 0.000000
115.93900299 235.99000549 190.50000000 -0.205721 -0.635724 -0.743998 0.000000
142.66299438 88.80470276 168.00000000 0.398504 0.860091 -0.318495 0.000000
83.87110138 231.05700684 136.50000000 -0.666982 -0.380427 0.640632 0.000000
45.22460175 145.13000488 90.00000000 0.945474 0.314281 -0.085474 0.000000
91.27149963 191.58799744 112.50000000 -0.829462 -0.553449 0.075406 0.000000
163.63099670 145.54100037 175.50000000 -0.232049 0.932414 0.277052 0.000000
111.00599670 184.18800354 211.50000000 -0.026084 -0.539532 -0.841561 0.000000
115.11699677 235.16799927 190.50000000 -0.245489 -0.388319 -0.888225 0.000000
76.47070313 150.47500610 208.50000000 0.449775 0.105746 -0.886860 0.000000
132.38499451 240.10200500 184.50000000 -0.139724 -0.833929 -0.533891 0.000000
173.49800110 123.33999634 205.50000000 -0.000978 -0.000978 -0.999999 0.000000
170.20899963 143.89599609 166.50000000 -0.162447 0.827137 -0.538011 0.000000
169.38699341 105.25000000 199.50000000 0.331521 0.190448 -0.924026 0.000000
174.32000732 120.87300110 151.50000000 0.593249 0.478969 -0.647028 0.000000
125.80699921 170.20899963 211.50000000 -0.113533 -0.043839 -0.992567 0.000000
139.78500366 98.26069641 183.00000000 0.315972 0.678934 -0.662730 0.000000
108.53900146 205.56599426 139.50000000 -0.331192 -0.361717 0.871477 0.000000
193.64399719 148.83000183 151.00000000 0.086213 0.501731 0.860717 0.000000
102.78299713 144.71899414 136.50000000 0.000978 0.000978 0.999999 0.000000
43.58010101 197.34399414 121.50000000 0.962303 -0.150564 0.226501 0.000000
90.44920349 231.87899780 139.50000000 -0.302685 -0.193886 0.933161 0.000000
220.36700439 110.18399811 199.50000000 -0.000978 -0.000978 -0.999999 0.000000
139.78500366 159.10800171 153.00000000 -0.093136 0.838220 0.537320 0.000000
129.91799927 143.89599609 133.50000000 0.403356 -0.548235 0.732627 0.000000
99.49410248 219.54499817 199.50000000 -0.129807 -0.514854 -0.847394 0.000000
157.87500000 164.45300293 205.50000000 -0.000978 -0.000978 -0.999999 0.000000
181.30999756 157.87500000 192.00000000 -0.701745 -0.419720 -0.575664 0.000000
154.17500305 157.87500000 159.00000000 -0.230903 0.686426 0.689567 0.000000
78.11519623 125.80699921 175.50000000 -0.001201 0.964151 0.265352 0.000000
169.38699341 145.13000488 172.00000000 -0.354307 0.889504 -0.288528 0.000000
88.39360046 228.58999634 138.00000000 -0.430497 -0.087207 0.898369 0.000000
133.20700073 180.07600403 208.50000000 -0.798273 -0.530607 -0.284985 0.000000
125.80699921 213.78900146 151.50000000 -0.786602 0.580330 -0.210889 0.000000
53.44729996 201.45500183 94.50000000 0.803658 -0.441130 0.399423 0.000000
64.95899963 222.01199341 109.50000000 -0.402105 -0.670174 0.623841 0.000000
106.07199860 212.96699524 139.50000000 -0.517923 -0.359803 0.776078 0.000000
69.89260101 145.13000488 71.00000000 -0.674661 -0.001380 0.738126 0.000000
138.96299744 165.27499390 145.50000000 -0.026950 0.193340 0.980762 0.000000
90.44920349 124.98400116 190.50000000 0.264744 0.886967 -0.378419 0.000000
153.76400757 146.36300659 205.50000000 0.245020 -0.560268 -0.791242 0.000000
197.34399414 157.87500000 160.50000000 -0.839269 -0.418850 0.346689 0.000000
71.53710175 177.60899353 205.50000000 -0.429211 0.717561 -0.548528 0.000000
84.69339752 156.22999573 211.50000000 0.225074 0.034905 -0.973716 0.000000
188.71000671 115.11699677 161.00000000 0.500627 0.098414 -0.860051 0.000000
60.02539825 242.56799316 133.50000000 0.672014 -0.551353 0.494375 0.000000
192.41000366 120.05100250 202.50000000 -0.000978 -0.000978 -0.999999 0.000000
83.04879761 244.21299744 187.50000000 0.040226 -0.542351 -0.839188 0.000000
56.73630142 198.98800659 79.50000000 0.284962 -0.804507 0.521119 0.000000
60.02539825 139.37399292 168.00000000 0.726407 0.679256 0.104614 0.000000
94.14939880 237.63499451 144.00000000 -0.453457 -0.357992 0.816222 0.000000
197.34399414 152.52999878 183.00000000 -0.118668 0.813099 -0.569902 0.000000
87.98239899 119.22899628 115.50000000 0.489219 -0.336238 0.804741 0.000000
96.20510101 184.18800354 208.50000000 -0.000978 -0.000978 -0.999999 0.000000
148.00799561 146.36300659 205.50000000 -0.000978 -0.000978 -0.999999 0.000000
78.93750000 131.15100098 192.00000000 0.398850 0.743536 -0.536724 0.000000
50.98049927 166.91999817 184.50000000 0.964151 0.001201 -0.265352 0.000000
83.87110138 175.96499634 208.50000000 0.275117 -0.163986 -0.947322 0.000000
45.63570023 159.52000427 153.00000000 0.894688 0.446689 -0.001310 0.000000
56.32519913 204.74400330 93.00000000 0.709525 -0.614921 0.344160 0.000000
152.94099426 192.41000366 196.50000000 -0.000978 -0.000978 -0.999999 0.000000
89.62699890 244.21299744 142.50000000 -0.979245 -0.195370 0.053936 0.000000
131.56199646 122.51799774 130.50000000 -0.325252 0.144099 0.934584 0.000000
93.73829651 206.38900757 205.50000000 -0.187129 -0.019759 -0.982137 0.000000
100.31600189 182.54299927 115.50000000 -0.001375 -0.771254 0.636526 0.000000
88.80470276 198.98800659 205.50000000 0.380188 -0.499906 -0.778172 0.000000
62.49219894 198.98800659 199.50000000 0.500618 0.065541 -0.863183 0.000000
129.50700378 248.32400513 168.00000000 -0.745935 -0.472590 0.469297 0.000000
177.60899353 124.98400116 205.50000000 -0.000978 -0.000978 -0.999999 0.000000
93.73829651 185.00999451 109.50000000 -0.000978 -0.000978 0.999999 0.000000
191.58799744 128.27299500 163.50000000 0.465206 0.248618 -0.849572 0.000000
138.96299744 139.78500366 136.50000000 -0.739608 0.006938 0.673002 0.000000
196.11000061 106.07199860 168.00000000 0.501924 0.834506 -0.227315 0.000000
82.22660065 235.16799927 136.50000000 -0.842492 -0.276708 0.462211 0.000000
171.85400391 140.60699463 163.50000000 -0.123896 0.691132 -0.712030 0.000000
78.93750000 148.00799561 82.50000000 -0.786144 0.073297 0.613681 0.000000
218.72300720 109.36100006 199.50000000 -0.000978 -0.000978 -0.999999 0.000000
80.58200073 261.89199829 177.00000000 0.260517 -0.592085 -0.762605 0.000000
77.29299927 232.70100403 193.50000000 -0.141833 -0.439825 -0.886813 0.000000
67.42579651 151.29699707 70.50000000 -0.961650 0.240738 0.131430 0.000000
43.99119949 156.22999573 93.00000000 0.999999 0.000978 0.000978 0.000000
71.53710175 191.58799744 88.50000000 -0.801647 -0.409659 0.435363 0.000000
49.74710083 143.89599609 117.00000000 0.919025 0.374520 -0.122997 0.000000
124.57299805 150.47500610 210.00000000 -0.187421 0.502288 -0.844144 0.000000
114.29499817 250.79100037 154.50000000 -0.515897 -0.263404 0.815149 0.000000
92.09380341 255.72500610 181.50000000 0.001361 -0.817758 -0.575560 0.000000
47.28030014 139.78500366 87.00000000 0.931717 0.352578 -0.087139 0.000000
178.02099609 145.54100037 168.00000000 0.037620 0.231785 -0.972039 0.000000
37.82419968 186.24299622 172.00000000 0.876523 -0.001326 -0.481358 0.000000
175.14300537 156.22999573 154.50000000 0.001375 -0.771254 0.636526 0.000000
96.20510101 146.77400208 123.00000000 -0.611022 0.611022 0.503294 0.000000
54.68069839 245.85699463 161.00000000 0.894688 -0.446689 0.001310 0.000000
115.93900299 138.55200195 210.00000000 -0.751957 0.543171 -0.373532 0.000000
104.83899689 163.63099670 114.00000000 -0.646306 0.279268 0.710139 0.000000
59.20309830 131.97399902 123.00000000 0.000978 0.000978 -0.999999 0.000000
84.28220367 117.58399963 161.00000000 0.707106 0.707106 -0.001384 0.000000
179.25399780 97.02729797 199.50000000 -0.000978 -0.000978 -0.999999 0.000000
115.11699677 203.10000610 139.50000000 -0.458181 -0.441875 0.771244 0.000000
122.51799774 121.69499969 199.50000000 -0.000978 -0.000978 -0.999999 0.000000
186.65400696 123.33999634 202.50000000 -0.000978 -0.000978 -0.999999 0.000000
170.20899963 96.20510101 142.50000000 -0.587470 -0.437690 0.680666 0.000000
84.69339752 125.80699921 187.50000000 0.393722 0.901379 -0.180276 0.000000
76.47070313 157.87500000 79.50000000 -0.595304 -0.037819 0.802610 0.000000
55.91410065 222.01199341 187.50000000 0.707106 -0.707106 0.001384 0.000000
68.24800110 154.58599854 70.50000000 -0.915302 0.024879 0.402000 0.000000
53.85839844 215.43400574 189.00000000 0.314281 -0.945474 -0.085474 0.000000
87.98239899 232.70100403 193.50000000 -0.000978 -0.000978 -0.999999 0.000000
186.65400696 153.76400757 181.50000000 -0.028964 0.834449 -0.550323 0.000000
42.34669876 180.89799500 120.00000000 0.964151 0.001201 0.265352 0.000000
151.29699707 115.52799988 202.00000000 0.239735 0.403530 -0.883001 0.000000
183.36500549 83.87110138 145.50000000 0.616875 0.532372 -0.579694 0.000000
159.52000427 86.74900055 177.00000000 0.327367 0.932375 -0.153324 0.000000
83.87110138 155.40800476 211.50000000 0.231172 0.108562 -0.966837 0.000000
181.72099304 143.48500061 204.00000000 -0.137946 -0.425216 -0.894518 0.000000
78.93750000 154.58599854 208.50000000 0.433755 0.110895 -0.894181 0.000000
80.58200073 242.56799316 190.50000000 0.075151 -0.416746 -0.905911 0.000000
205.56599426 120.05100250 202.50000000 -0.000978 -0.000978 -0.999999 0.000000
78.11519623 172.26499939 87.00000000 -0.847425 -0.308295 0.432233 0.000000
117.58399963 177.60899353 211.50000000 -0.000978 -0.000978 -0.999999 0.000000
78.11519623 253.66900635 142.00000000 -0.592308 -0.622683 0.511309 0.000000
68.65920258 128.27299500 129.00000000 0.582607 0.717181 -0.382387 0.000000
148.41900635 212.96699524 183.00000000 -0.853084 -0.520642 -0.034343 0.000000
120.05100250 157.05299377 145.50000000 -0.497257 0.045456 0.866412 0.000000
172.67599487 122.51799774 205.50000000 -0.000978 -0.000978 -0.999999 0.000000
77.29299927 173.49800110 205.50000000 0.553358 -0.377067 -0.742708 0.000000
193.23199463 87.98239899 196.50000000 0.070957 0.693644 -0.716814 0.000000
55.09180069 205.56599426 97.50000000 0.695767 -0.599913 0.394984 0.000000
141.42999268 101.96099854 145.50000000 -0.888280 0.254432 -0.382392 0.000000
70.30370331 238.45700073 189.00000000 0.710871 -0.165921 -0.683471 0.000000
229.41200256 130.74000549 199.50000000 -0.330756 -0.292193 -0.897343 0.000000
205.56599426 136.49600220 202.50000000 -0.625780 -0.091898 -0.774567 0.000000
89.62699890 139.37399292 117.00000000 -0.752947 0.544789 0.369155 0.000000
210.08900452 129.09599304 202.00000000 -0.538096 0.001349 -0.842882 0.000000
163.63099670 83.04879761 172.50000000 0.477494 0.825047 -0.302152 0.000000
187.47700500 121.69499969 202.50000000 -0.000978 -0.000978 -0.999999 0.000000
75.64839935 225.30099487 121.50000000 -0.001380 -0.674661 0.738126 0.000000
111.82800293 213.78900146 145.50000000 0.140995 -0.372729 0.917166 0.000000
80.17089844 127.45099640 99.00000000 -0.894688 0.446689 -0.001310 0.000000
135.67399597 189.12100220 142.50000000 -0.346689 -0.839269 0.418850 0.000000
59.20309830 217.07800293 190.50000000 -0.000978 -0.999999 -0.000978 0.000000
186.24299622 102.78299713 159.00000000 0.790005 -0.073388 -0.608692 0.000000
67.42579651 120.87300110 109.50000000 0.563535 0.748674 -0.349164 0.000000
185.00999451 112.65000153 160.50000000 0.428478 0.123028 -0.895137 0.000000
59.20309830 215.43400574 103.50000000 0.215049 -0.855684 0.470701 0.000000
54.26950073 136.90699768 120.00000000 0.849797 0.521756 0.074941 0.000000
108.12799835 103.60500336 117.00000000 0.397099 0.827421 0.397099 0.000000
217.07800293 136.49600220 199.50000000 -0.280304 -0.251847 -0.926284 0.000000
41.52439880 161.98599243 71.00000000 0.948031 -0.316852 0.029034 0.000000
135.67399597 210.50000000 154.50000000 -0.564506 -0.294179 0.771227 0.000000
164.04200745 81.40429688 168.00000000 0.477494 0.825047 -0.302152 0.000000
123.33999634 252.43600464 178.50000000 -0.107794 -0.654145 -0.748649 0.000000
74.00389862 255.72500610 178.50000000 0.309417 -0.821447 -0.479047 0.000000
189.94299316 167.33099365 180.00000000 -0.083380 -0.987642 0.132703 0.000000
69.89260101 161.57499695 71.00000000 -0.728872 -0.038213 0.683583 0.000000
210.50000000 98.67189789 187.50000000 0.746199 -0.058722 -0.663128 0.000000
55.50289917 243.39100647 174.00000000 0.746104 -0.581735 -0.323903 0.000000
94.56050110 173.49800110 211.50000000 -0.079697 -0.873871 -0.479581 0.000000
104.42800140 171.03100586 214.50000000 0.060301 -0.525879 -0.848419 0.000000
139.78500366 222.01199341 163.50000000 -0.849545 -0.298656 0.434831 0.000000
93.73829651 202.27699280 205.50000000 -0.000978 -0.000978 -0.999999 0.000000
41.93550110 163.22000122 71.00000000 0.948031 -0.316852 0.029034 0.000000
94.56050110 211.32200623 133.50000000 -0.108983 -0.329641 0.937795 0.000000
48.10250092 189.12100220 90.00000000 0.923412 -0.378184 0.065481 0.000000
200.63299561 152.52999878 191.00000000 0.097635 0.991284 -0.088446 0.000000
196.52099609 90.44920349 199.50000000 0.248274 0.251079 -0.935585 0.000000
207.62199402 87.16020203 180.00000000 0.535602 0.826658 -0.172533 0.000000
211.73300171 143.89599609 198.00000000 -0.352410 -0.476790 -0.805281 0.000000
97.84960175 123.33999634 118.50000000 -0.237200 -0.661333 0.711600 0.000000
95.38279724 206.38900757 130.50000000 -0.558781 -0.558781 0.612802 0.000000
75.64839935 134.85200500 82.50000000 -0.741752 0.360280 0.565688 0.000000
71.53710175 223.65600586 115.50000000 -0.788662 -0.310685 0.530554 0.000000
102.78299713 108.53900146 172.50000000 0.497536 0.750408 -0.435138 0.000000
124.98400116 253.66900635 168.00000000 -0.421849 -0.902783 0.083820 0.000000
45.63570023 180.89799500 78.00000000 0.937585 -0.342251 0.061631 0.000000
92.09380341 161.16400146 100.50000000 -0.752629 -0.254032 0.607468 0.000000
84.69339752 131.56199646 199.50000000 0.348727 0.744492 -0.569317 0.000000
106.48300171 171.85400391 114.00000000 -0.732125 -0.336031 0.592518 0.000000
82.22660065 236.81199646 136.50000000 -0.822291 -0.316024 0.473250 0.000000
68.24800110 166.09800720 70.50000000 -0.882420 -0.176484 0.436105 0.000000
78.11519623 162.80900574 208.50000000 0.825365 0.222037 -0.519107 0.000000
123.75099945 161.98599243 150.00000000 -0.095540 0.422315 0.901400 0.000000
197.34399414 112.65000153 169.50000000 0.611022 -0.611022 -0.503294 0.000000
78.11519623 134.85200500 199.50000000 0.582260 0.675688 -0.452127 0.000000
109.36100006 124.98400116 196.50000000 0.006932 0.697319 -0.716727 0.000000
183.36500549 152.52999878 177.00000000 -0.476667 0.872230 0.109562 0.000000
108.94999695 99.49410248 153.00000000 0.412197 0.904038 -0.113179 0.000000
127.45099640 157.87500000 211.50000000 -0.773436 0.079512 -0.628868 0.000000
197.34399414 135.67399597 202.50000000 -0.000978 -0.000978 -0.999999 0.000000
67.42579651 133.61799622 153.00000000 -0.660699 0.657420 0.362319 0.000000
178.43200684 82.22660065 178.50000000 0.220232 0.885364 -0.409425 0.000000
112.65000153 244.21299744 151.50000000 -0.531499 -0.474850 0.701446 0.000000
142.25199890 163.63099670 145.50000000 -0.283314 0.367259 0.885920 0.000000
129.91799927 229.41200256 157.50000000 -0.570383 -0.284397 0.770573 0.000000
97.02729797 206.38900757 205.50000000 -0.222669 -0.080858 -0.971535 0.000000
87.57129669 163.63099670 213.00000000 0.312091 -0.104916 -0.944241 0.000000
62.49219894 216.25599670 103.50000000 0.138823 -0.786666 0.601568 0.000000
72.77050018 189.12100220 87.00000000 -0.908505 -0.371726 0.190887 0.000000
82.22660065 251.61300659 184.50000000 -0.113547 -0.495868 -0.860942 0.000000
159.93099976 94.56050110 191.00000000 0.558781 0.558781 -0.612802 0.000000
218.72300720 106.07199860 190.50000000 0.529236 -0.152693 -0.834622 0.000000
181.72099304 83.87110138 145.50000000 0.606223 0.555563 -0.569072 0.000000
97.84960175 128.68499756 202.00000000 0.118128 0.826897 -0.549806 0.000000
146.36300659 89.21579742 132.00000000 0.945474 0.314281 0.085474 0.000000
135.67399597 171.03100586 133.50000000 -0.794699 -0.058287 0.604199 0.000000
187.47700500 139.78500366 163.50000000 0.387695 0.258963 -0.884664 0.000000
63.72560120 136.49600220 159.00000000 0.714082 0.696771 0.067802 0.000000
189.12100220 164.04200745 161.00000000 0.120386 -0.676243 0.726775 0.000000
82.22660065 245.85699463 187.50000000 -0.032059 -0.589608 -0.807053 0.000000
109.36100006 166.91999817 115.50000000 -0.622347 0.474729 0.622347 0.000000
63.31449890 121.69499969 100.50000000 0.596736 0.768122 -0.232151 0.000000
140.60699463 94.56050110 178.50000000 0.463185 0.715529 -0.522951 0.000000
45.22460175 188.29899597 106.50000000 0.964924 -0.194552 0.176272 0.000000
93.32710266 120.05100250 183.00000000 0.437649 0.762198 -0.476988 0.000000
119.22899628 199.81100464 205.50000000 0.038309 -0.708005 -0.705167 0.000000
122.51799774 203.92199707 202.50000000 -0.000978 -0.000978 -0.999999 0.000000
166.91999817 84.69339752 178.50000000 0.234836 0.875024 -0.423302 0.000000
83.45999908 120.87300110 172.00000000 0.694314 0.694314 -0.189358 0.000000
43.16889954 172.67599487 71.00000000 0.980491 -0.196558 -0.001149 0.000000
72.35939789 235.57899475 121.00000000 -0.636047 -0.464868 0.615908 0.000000
60.02539825 147.59700012 191.00000000 0.850279 0.272151 -0.450510 0.000000
207.21099854 80.58200073 172.50000000 -0.739762 0.041177 0.671607 0.000000
126.21800232 246.67999268 161.00000000 -0.686009 -0.401687 0.606663 0.000000
69.89260101 115.93900299 94.50000000 0.188867 0.826481 0.530338 0.000000
201.45500183 94.56050110 178.50000000 0.778572 0.446988 -0.440486 0.000000
42.75780106 214.61099243 142.50000000 0.931207 -0.318754 0.176776 0.000000
121.69499969 111.00599670 193.50000000 0.229505 0.747844 -0.622943 0.000000
57.55860138 191.58799744 196.50000000 0.000978 0.000978 -0.999999 0.000000
98.67189789 240.92399597 145.50000000 -0.142333 0.953765 0.264713 0.000000
127.86199951 106.07199860 142.00000000 0.943824 -0.319873 -0.082930 0.000000
91.27149963 111.00599670 124.50000000 0.500202 0.825411 0.261716 0.000000
67.42579651 173.90899658 71.00000000 -0.747511 -0.250219 0.615319 0.000000
119.22899628 207.21099854 145.50000000 -0.505982 -0.238381 0.828949 0.000000
186.65400696 83.04879761 184.50000000 0.658846 0.658846 -0.363104 0.000000
231.05700684 133.61799622 189.00000000 0.522781 0.080755 -0.848633 0.000000
97.84960175 208.44400024 204.00000000 -0.075584 -0.554758 -0.828572 0.000000
116.76200104 152.94099426 145.50000000 -0.567913 0.167211 0.805925 0.000000
81.40429688 133.61799622 90.00000000 -0.836559 0.431621 0.337449 0.000000
193.23199463 110.18399811 202.50000000 -0.000978 -0.000978 -0.999999 0.000000
