127.72299957 170.17399597 214.00000000 -0.097074 -0.001067 -0.995277 0.000000
160.20700073 236.98800659 273.75000000 -0.416182 -0.578676 -0.701375 0.000000
131.78300476 190.47700500 316.50000000 -0.397170 0.035627 -0.917053 0.000000
135.10499573 148.39500427 276.25000000 0.286171 0.612310 -0.737010 0.000000
154.30099487 245.84800720 216.75000000 -0.570051 -0.157101 0.806450 0.000000
73.08979797 201.55099487 296.25000000 0.859806 0.101238 -0.500484 0.000000
148.76400757 256.92199707 218.50000000 -0.567107 -0.590807 0.573879 0.000000
109.26599884 138.42799377 234.50000000 0.536176 0.844105 0.001351 0.000000
76.41210175 230.34399414 194.00000000 0.951347 -0.217876 0.217876 0.000000
144.33399963 224.43800354 205.50000000 -0.559768 -0.330699 0.759801 0.000000
153.19299316 190.47700500 227.00000000 -0.776175 0.627515 0.061465 0.000000
132.89100647 179.40199280 209.25000000 -0.647598 0.673829 0.355769 0.000000
77.51950073 179.77099609 287.50000000 0.551989 0.750640 -0.363108 0.000000
248.80099487 168.32800293 273.25000000 0.709407 0.418368 0.567195 0.000000
252.49200439 165.37500000 273.25000000 0.038332 -0.265852 0.963251 0.000000
78.62699890 174.23399353 181.50000000 0.799835 0.600218 0.001367 0.000000
82.31839752 189.00000000 165.00000000 -0.752462 0.355916 0.554189 0.000000
108.52700043 245.84800720 286.25000000 0.350822 -0.423189 -0.835365 0.000000
77.15039825 260.61300659 237.50000000 0.833539 -0.551546 0.031793 0.000000
87.85549927 255.07600403 206.50000000 0.516909 -0.713035 0.473695 0.000000
135.47500610 149.87100220 203.50000000 0.705025 0.373055 -0.603133 0.000000
117.38700104 250.64599609 283.50000000 -0.214379 -0.258638 -0.941885 0.000000
118.86299896 147.65600586 191.75000000 0.527678 0.497525 -0.688494 0.000000
95.60739899 150.60899353 225.00000000 0.701816 0.710392 0.052886 0.000000
101.51399994 206.71899414 314.00000000 -0.891978 -0.386080 -0.235198 0.000000
131.04499817 258.39801025 206.50000000 -0.393281 -0.349756 0.850295 0.000000
124.03099823 188.26199341 189.25000000 -0.295569 -0.036474 0.954625 0.000000
207.08799744 160.94500732 285.50000000 0.521810 0.120641 0.844488 0.000000
77.88870239 174.97300720 217.50000000 0.652613 0.652613 0.384959 0.000000
143.22700500 227.02099609 294.00000000 -0.420610 -0.683284 -0.596834 0.000000
110.00399780 217.42399597 312.50000000 0.272495 -0.053997 -0.960641 0.000000
63.86130142 221.48399353 264.00000000 0.993784 -0.045730 0.101498 0.000000
97.82230377 143.96499634 208.50000000 0.708486 0.705724 -0.001381 0.000000
142.48800659 272.79501343 245.00000000 -0.344957 -0.898666 -0.270932 0.000000
84.16410065 183.09399414 301.25000000 0.488001 0.714513 -0.501325 0.000000
225.17599487 151.34800720 244.25000000 0.489445 0.489445 -0.721725 0.000000
139.53500366 179.40199280 311.25000000 -0.692989 0.272416 -0.667500 0.000000
61.64649963 201.55099487 245.00000000 0.898792 -0.291700 0.327237 0.000000
93.76170349 188.63099670 311.50000000 -0.322326 -0.553246 -0.768130 0.000000
76.41210175 195.64500427 165.00000000 0.894842 -0.215289 0.391036 0.000000
236.98800659 142.85699463 245.50000000 0.707106 0.707106 -0.001384 0.000000
128.46099854 249.90800476 282.50000000 0.692396 -0.692396 0.202917 0.000000
80.84179688 256.18399048 262.50000000 0.559988 -0.687031 -0.463035 0.000000
120.33999634 223.33000183 308.50000000 -0.111149 -0.721727 -0.683195 0.000000
125.50800323 253.22999573 201.75000000 -0.582683 -0.020761 0.812434 0.000000
77.15039825 212.62500000 296.50000000 0.801090 -0.336044 -0.495306 0.000000
70.87500000 203.02699280 291.25000000 0.943650 -0.150712 -0.294636 0.000000
148.39500427 143.22700500 214.25000000 0.646502 0.254491 -0.719214 0.000000
100.40599823 270.94900513 251.75000000 0.238474 -0.855166 -0.460240 0.000000
160.57600403 262.08999634 247.50000000 -0.813727 -0.581233 0.004103 0.000000
158.72999573 185.30900574 244.25000000 0.209501 0.631608 0.746445 0.000000
234.77299500 194.90600586 278.75000000 0.574743 0.801020 0.167445 0.000000
83.79489899 170.54299927 290.50000000 0.794769 0.570327 -0.207531 0.000000
76.41210175 205.97999573 299.50000000 0.592010 0.067047 -0.803137 0.000000
156.51600647 220.00799561 211.75000000 -0.860334 -0.042673 0.507941 0.000000
109.63500214 133.62899780 193.50000000 0.674907 0.723223 -0.146456 0.000000
120.33999634 128.83000183 209.50000000 0.522985 0.851402 -0.040017 0.000000
160.94500732 174.60400391 236.50000000 0.529873 0.848067 0.004045 0.000000
191.21499634 160.20700073 234.25000000 -0.001376 0.645448 -0.763803 0.000000
196.38299561 133.25999451 206.50000000 0.148711 0.608361 -0.779604 0.000000
102.25199890 162.42199707 302.50000000 0.155991 0.646683 -0.746638 0.000000
89.33200073 159.10000610 287.00000000 0.430028 0.864615 -0.259840 0.000000
129.93800354 277.22500610 234.50000000 0.066097 -0.997746 0.011541 0.000000
107.78900146 263.19699097 202.00000000 0.122327 -0.797339 0.591004 0.000000
126.98400116 161.31399536 300.00000000 -0.236675 0.631656 -0.738238 0.000000
106.68199921 211.14799500 314.00000000 0.516071 -0.856545 -0.001340 0.000000
221.11500549 186.78500366 263.50000000 0.276610 0.557961 -0.782410 0.000000
170.91200256 207.45700073 285.50000000 -0.591294 -0.724864 -0.353473 0.000000
64.59960175 196.38299561 259.50000000 0.831239 0.499358 -0.244301 0.000000
124.76999664 210.04100037 190.50000000 -0.486231 -0.079871 0.870172 0.000000
200.07400513 127.35399628 238.00000000 -0.132167 0.979515 -0.151930 0.000000
170.17399597 240.67999268 252.50000000 -0.936673 -0.314053 -0.154969 0.000000
186.04699707 208.93400574 276.25000000 0.246977 -0.740930 -0.624520 0.000000
79.73439789 173.12699890 279.50000000 0.598183 0.648450 -0.470839 0.000000
83.79489899 166.85200500 283.00000000 0.902989 0.428153 -0.036013 0.000000
64.96880341 248.43200684 245.00000000 0.737844 -0.659702 0.142760 0.000000
135.84399414 156.51600647 206.75000000 0.511105 0.287792 -0.809906 0.000000
202.28900146 158.72999573 286.25000000 0.049865 0.220136 0.974194 0.000000
229.60499573 140.27299500 231.75000000 0.748767 0.370305 -0.549748 0.000000
113.69499969 182.35499573 318.75000000 -0.001158 0.978290 -0.207235 0.000000
230.71299744 156.51600647 276.50000000 0.276389 -0.030985 0.960546 0.000000
108.52700043 212.25599670 315.00000000 0.274076 -0.961125 0.033484 0.000000
90.07029724 212.62500000 308.75000000 0.549053 -0.549053 -0.630144 0.000000
135.10499573 136.95100403 260.00000000 0.276381 0.844583 -0.458576 0.000000
110.00399780 155.40800476 288.50000000 0.516705 0.737914 -0.434164 0.000000
228.12899780 139.16600037 271.00000000 -0.129920 0.056337 -0.989923 0.000000
169.06599426 167.95899963 289.00000000 0.021311 0.314651 -0.948968 0.000000
141.38099670 217.79299927 301.50000000 -0.225462 -0.431513 -0.873478 0.000000
130.67599487 276.48599243 243.50000000 0.181723 -0.774232 -0.606252 0.000000
79.36519623 210.41000366 165.00000000 0.446689 -0.894688 0.001310 0.000000
93.39260101 266.51998901 255.50000000 0.166833 -0.908316 -0.383574 0.000000
152.82400513 223.33000183 210.50000000 -0.613477 -0.296327 0.732008 0.000000
149.50199890 271.68798828 237.50000000 -0.514960 -0.602756 -0.609510 0.000000
76.04299927 206.35000610 173.50000000 0.971948 -0.096568 0.214456 0.000000
153.56199646 186.78500366 301.25000000 -0.707044 0.387309 -0.591676 0.000000
151.34800720 135.47500610 261.50000000 0.106869 0.870626 -0.480198 0.000000
212.62500000 176.08000183 284.50000000 0.141751 0.334422 0.931702 0.000000
167.22099304 247.32400513 254.00000000 -0.894688 -0.446689 -0.001310 0.000000
148.76400757 202.28900146 306.00000000 -0.570625 0.001362 -0.821210 0.000000
153.19299316 200.81199646 207.50000000 -0.804402 0.001366 0.594083 0.000000
218.53100586 146.17999268 226.75000000 0.527456 0.725872 -0.441476 0.000000
125.87699890 238.46499634 201.00000000 -0.373511 -0.469694 0.799923 0.000000
62.38479996 217.05499268 227.00000000 0.754768 -0.452203 0.475224 0.000000
144.70300293 151.71699524 281.00000000 0.215597 0.603360 -0.767772 0.000000
113.32599640 264.30499268 268.50000000 0.049925 -0.751727 -0.657582 0.000000
129.19900513 181.98599243 199.00000000 -0.770474 0.599947 0.215485 0.000000
99.66799927 161.31399536 301.00000000 0.472381 0.724317 -0.502216 0.000000
202.28900146 156.51600647 234.25000000 -0.046803 0.910647 -0.410526 0.000000
66.07620239 192.69099426 254.00000000 0.861300 0.490724 -0.131728 0.000000
206.71899414 136.95100403 214.00000000 0.286828 0.716270 -0.636150 0.000000
115.54100037 133.62899780 227.00000000 0.795044 0.583837 -0.164440 0.000000
183.09399414 183.09399414 244.25000000 0.119456 -0.900840 -0.417394 0.000000
188.26199341 136.21299744 202.50000000 -0.000978 -0.000978 -0.999999 0.000000
98.56050110 145.44099426 191.00000000 0.656000 0.740450 0.146280 0.000000
116.64800262 173.12699890 193.50000000 -0.464990 0.736373 0.491467 0.000000
83.79489899 217.79299927 165.00000000 0.589286 -0.416650 0.692203 0.000000
143.59599304 256.18399048 213.50000000 -0.498112 -0.391026 0.773940 0.000000
144.70300293 127.35399628 241.00000000 -0.001366 0.804402 -0.594083 0.000000
179.40199280 133.99800110 263.00000000 -0.001279 0.921899 -0.387428 0.000000
101.88300323 144.33399963 250.50000000 0.214835 0.956750 -0.196154 0.000000
217.05499268 144.33399963 279.50000000 -0.187018 0.292302 -0.937861 0.000000
241.41799927 186.41600037 277.50000000 0.934968 0.216622 0.280910 0.000000
128.46099854 136.95100403 193.00000000 0.652613 0.652613 -0.384959 0.000000
115.91000366 273.16400146 221.75000000 0.128322 -0.806807 0.576712 0.000000
184.57000732 135.47500610 268.00000000 0.088886 0.940597 -0.327683 0.000000
231.08200073 133.99800110 226.50000000 0.628626 0.665116 -0.403050 0.000000
112.58799744 235.51199341 190.00000000 -0.675492 -0.052840 0.735472 0.000000
100.40599823 220.74600220 176.75000000 -0.782623 -0.142159 0.606046 0.000000
178.66400146 171.28100586 244.25000000 0.091768 0.630724 -0.770562 0.000000
97.45310211 270.57998657 250.00000000 0.176607 -0.981549 -0.073286 0.000000
141.01199341 270.57998657 225.00000000 -0.566534 -0.702767 0.430300 0.000000
130.67599487 253.96899414 278.75000000 -0.229922 -0.482683 -0.845076 0.000000
141.01199341 179.77099609 233.50000000 0.264454 0.899736 -0.347189 0.000000
107.05100250 168.32800293 186.75000000 -0.986241 -0.165311 -0.001125 0.000000
65.70700073 202.65800476 224.50000000 0.957198 0.232976 0.171737 0.000000
81.21089935 167.95899963 223.50000000 0.831498 0.544174 0.111737 0.000000
95.97660065 231.82000732 171.75000000 -0.496082 -0.417495 0.761315 0.000000
147.65600586 178.29499817 229.00000000 0.202442 0.911706 -0.357504 0.000000
174.60400391 225.17599487 248.00000000 -0.983664 0.102340 -0.148091 0.000000
66.07620239 248.80099487 241.00000000 0.724132 -0.648734 0.234047 0.000000
160.57600403 203.02699280 224.50000000 -0.976497 0.074738 0.202161 0.000000
141.38099670 139.53500366 207.50000000 0.826617 0.046156 -0.560869 0.000000
180.14100647 197.85899353 296.25000000 -0.543589 -0.820654 -0.176177 0.000000
166.85200500 180.14100647 293.75000000 -0.451056 0.364989 -0.814451 0.000000
121.07800293 272.05700684 217.50000000 0.169604 -0.907880 0.383390 0.000000
80.47270203 162.05299377 252.00000000 0.767244 0.599166 0.228772 0.000000
88.22460175 160.20700073 177.00000000 0.904471 -0.269135 -0.330904 0.000000
145.44099426 187.15400696 219.00000000 -0.439849 0.894864 -0.075836 0.000000
183.83200073 137.68899536 206.50000000 -0.320698 0.813592 -0.484996 0.000000
92.28520203 267.62701416 224.00000000 0.179226 -0.742947 0.644909 0.000000
243.26400757 152.08599854 273.00000000 -0.748467 -0.192112 0.634737 0.000000
91.17769623 171.28100586 303.00000000 0.566839 0.284213 -0.773251 0.000000
155.03900146 266.14999390 241.50000000 -0.815076 0.543892 -0.199579 0.000000
119.97100067 130.67599487 238.00000000 0.359984 0.804765 -0.471979 0.000000
166.11300659 123.66200256 228.50000000 0.148368 0.972634 -0.178802 0.000000
149.87100220 188.63099670 234.00000000 -0.287065 0.940860 0.179931 0.000000
184.57000732 206.35000610 259.00000000 -0.528459 0.809056 -0.257214 0.000000
190.47700500 208.56399536 256.00000000 -0.510423 0.694509 -0.507076 0.000000
88.96289825 155.03900146 264.50000000 0.707106 0.707106 0.001384 0.000000
122.55500031 154.30099487 288.75000000 -0.003740 0.943832 -0.330404 0.000000
239.94099426 189.00000000 278.75000000 0.735527 0.514043 0.441316 0.000000
241.04899597 155.03900146 261.00000000 0.300967 0.370538 -0.878704 0.000000
166.85200500 153.93200684 284.00000000 0.150026 0.470470 -0.869569 0.000000
99.66799927 145.07200623 261.50000000 -0.018589 0.993950 0.108252 0.000000
91.17769623 170.54299927 179.00000000 -0.631737 0.467519 0.618332 0.000000
111.84999847 144.70300293 264.50000000 -0.203014 0.975699 0.082436 0.000000
163.89799500 146.17999268 281.25000000 0.403044 0.343910 -0.848104 0.000000
65.70700073 192.69099426 251.75000000 0.878912 0.448899 -0.161255 0.000000
117.75599670 174.23399353 192.00000000 -0.482222 0.695802 0.532280 0.000000
113.69499969 214.83999634 313.75000000 -0.213053 -0.667151 -0.713805 0.000000
199.70500183 208.93400574 262.00000000 -0.694101 -0.632040 0.344601 0.000000
61.64649963 214.10200500 240.50000000 0.945149 0.322765 0.050151 0.000000
142.48800659 186.41600037 214.50000000 0.445431 0.894875 0.028090 0.000000
110.74199677 243.26400757 287.50000000 0.321133 -0.420421 -0.848599 0.000000
78.25779724 252.12300110 219.00000000 0.424113 -0.646981 0.633675 0.000000
67.92189789 207.45700073 283.75000000 0.860179 -0.020383 -0.509585 0.000000
135.84399414 147.28700256 276.00000000 -0.133551 0.703767 -0.697765 0.000000
100.03700256 251.01600647 187.00000000 0.534504 -0.329049 0.778481 0.000000
176.08000183 217.79299927 274.00000000 -0.868135 -0.365934 -0.335312 0.000000
124.03099823 191.95300293 189.25000000 -0.164210 0.007927 0.986394 0.000000
143.96499634 127.35399628 241.00000000 -0.001366 0.804402 -0.594083 0.000000
105.57399750 239.94099426 184.25000000 -0.764788 -0.152354 0.626010 0.000000
86.74800110 195.64500427 165.50000000 -0.602303 0.786712 0.135332 0.000000
147.65600586 157.99200439 214.25000000 0.764755 -0.061697 -0.641361 0.000000
74.93550110 206.71899414 298.50000000 0.592010 0.067047 -0.803137 0.000000
124.03099823 140.64300537 259.00000000 0.371322 0.792474 -0.483843 0.000000
154.30099487 156.51600647 283.75000000 0.583137 0.676706 -0.449467 0.000000
121.44699860 214.10200500 189.50000000 -0.378491 -0.090892 0.921131 0.000000
78.25779724 189.73800659 298.75000000 0.853379 0.355963 -0.380834 0.000000
189.73800659 132.52099609 259.00000000 -0.021597 0.941378 -0.336660 0.000000
87.85549927 263.19699097 220.00000000 0.347652 -0.683879 0.641442 0.000000
153.56199646 245.10899353 273.75000000 -0.492758 -0.721717 -0.486122 0.000000
71.98239899 209.67199707 194.00000000 0.965718 0.043278 0.255959 0.000000
214.83999634 136.58200073 216.75000000 0.143932 0.980461 -0.134091 0.000000
155.77699280 190.84599304 241.00000000 0.465418 0.754866 0.462129 0.000000
99.66799927 145.07200623 221.50000000 0.692088 0.639978 -0.333831 0.000000
146.17999268 180.50999451 238.00000000 0.013301 0.257565 0.966169 0.000000
141.38099670 160.94500732 285.50000000 -0.730040 0.642121 -0.233927 0.000000
164.63699341 123.66200256 221.00000000 -0.009186 0.999244 0.037765 0.000000
70.50589752 247.32400513 261.00000000 0.803053 -0.580395 0.135079 0.000000
191.21499634 182.35499573 288.75000000 -0.000978 -0.000978 0.999999 0.000000
80.84179688 171.28100586 178.00000000 0.690339 0.693442 -0.206326 0.000000
77.88870239 187.52299500 296.50000000 0.827945 0.351679 -0.436839 0.000000
183.46299744 209.67199707 268.00000000 -0.735115 0.547636 -0.399626 0.000000
63.86130142 208.19500732 236.00000000 0.965294 0.206570 0.159800 0.000000
63.86130142 223.69900513 265.00000000 0.524415 0.350148 -0.776135 0.000000
174.23399353 155.77699280 283.75000000 -0.523251 0.228634 -0.820936 0.000000
174.23399353 225.54499817 256.50000000 -0.893537 -0.448754 -0.014561 0.000000
104.83599854 242.89500427 184.25000000 -0.685547 -0.217064 0.694916 0.000000
65.33789825 201.55099487 230.00000000 0.880922 0.391688 0.265627 0.000000
68.29100037 211.88699341 283.50000000 0.920782 -0.096853 -0.377862 0.000000
64.59960175 199.33599854 265.50000000 0.894257 0.429413 -0.126131 0.000000
176.44900513 215.94700623 265.50000000 -0.889090 0.166253 0.426474 0.000000
186.04699707 166.85200500 239.25000000 -0.220104 0.546413 -0.808076 0.000000
176.44900513 208.56399536 272.50000000 -0.054234 -0.924627 -0.376994 0.000000
204.50399780 190.47700500 251.75000000 0.833509 0.127443 -0.537606 0.000000
220.00799561 136.21299744 267.50000000 -0.204751 0.927734 -0.312069 0.000000
126.98400116 266.51998901 211.75000000 -0.209403 -0.848158 0.486599 0.000000
104.46700287 189.00000000 318.00000000 0.434129 -0.001304 -0.900850 0.000000
166.11300659 242.89500427 236.75000000 -0.802743 -0.508246 0.311914 0.000000
117.38700104 169.06599426 311.25000000 -0.708486 0.705724 0.001381 0.000000
112.95700073 136.95100403 242.50000000 0.432491 0.889409 -0.147995 0.000000
146.54899597 247.32400513 213.50000000 -0.144817 0.930969 0.335149 0.000000
111.48000336 233.66600037 297.50000000 -0.863073 -0.472248 0.179128 0.000000
200.81199646 174.60400391 246.50000000 0.060002 0.294901 -0.953642 0.000000
206.71899414 183.83200073 254.25000000 0.253562 0.406599 -0.877715 0.000000
154.30099487 128.46099854 246.75000000 -0.034442 0.998813 -0.034442 0.000000
161.68400574 173.86500549 233.00000000 0.645577 0.743253 -0.175512 0.000000
91.54689789 270.57998657 242.50000000 0.440555 -0.882563 -0.164299 0.000000
236.25000000 139.16600037 240.00000000 0.438639 0.632107 -0.638778 0.000000
141.01199341 170.91200256 216.00000000 0.318389 0.345550 -0.882737 0.000000
159.46899414 231.82000732 224.25000000 -0.864134 -0.201482 0.461170 0.000000
206.35000610 193.42999268 263.00000000 0.842504 0.538606 0.009497 0.000000
125.87699890 210.41000366 315.00000000 -0.060002 -0.294901 -0.953642 0.000000
183.83200073 128.09199524 246.00000000 0.065009 0.957295 -0.281707 0.000000
85.64060211 267.25799561 226.75000000 0.645201 -0.601629 0.470913 0.000000
102.98999786 263.56600952 208.50000000 0.356790 -0.837749 0.413373 0.000000
92.65429688 222.22300720 306.00000000 0.528307 -0.518244 -0.672543 0.000000
137.32000732 189.36900330 203.50000000 -0.681717 0.554419 0.477370 0.000000
81.58010101 236.25000000 279.00000000 0.480266 -0.267158 -0.835447 0.000000
124.03099823 214.83999634 313.75000000 -0.143670 -0.416784 -0.897580 0.000000
128.46099854 253.96899414 278.75000000 -0.000978 -0.000978 -0.999999 0.000000
118.12500000 210.77900696 189.00000000 -0.065340 -0.035348 0.997237 0.000000
62.75389862 242.52499390 247.00000000 0.931848 -0.347583 -0.104140 0.000000
200.07400513 130.67599487 251.75000000 -0.017865 0.973058 -0.229866 0.000000
143.96499634 146.91799927 276.25000000 0.180438 0.577706 -0.796051 0.000000
143.59599304 220.74600220 301.00000000 -0.115696 -0.349809 -0.929649 0.000000
221.85400391 177.18800354 257.00000000 0.361175 0.252085 -0.897778 0.000000
162.05299377 224.43800354 285.00000000 -0.513425 -0.697388 -0.500045 0.000000
144.70300293 163.52900696 287.00000000 -0.644023 0.482597 0.593578 0.000000
91.91600037 173.49600220 304.00000000 0.662461 0.384921 -0.642636 0.000000
171.28100586 214.10200500 261.25000000 -0.537868 0.537868 0.649151 0.000000
218.53100586 178.66400146 256.25000000 0.127824 0.231117 -0.964493 0.000000
121.81600189 235.88099670 294.50000000 -0.023849 -0.747738 -0.663565 0.000000
69.76760101 220.00799561 203.50000000 0.923844 -0.149097 0.352538 0.000000
95.60739899 147.65600586 245.50000000 0.591004 0.797339 -0.122327 0.000000
74.56639862 171.64999390 248.50000000 0.826751 0.490445 0.275584 0.000000
93.39260101 166.11300659 300.50000000 0.484755 0.655846 -0.578687 0.000000
96.71479797 251.38499451 189.50000000 0.489445 -0.489445 0.721725 0.000000
174.97300720 212.25599670 278.00000000 -0.842860 0.428441 -0.325615 0.000000
100.40599823 208.19500732 174.25000000 -0.684094 0.206314 0.699607 0.000000
101.14499664 151.71699524 280.50000000 0.084307 0.967643 -0.237821 0.000000
167.95899963 177.18800354 292.50000000 -0.388550 0.215535 -0.895865 0.000000
130.67599487 277.22500610 238.50000000 -0.163354 -0.985914 0.035915 0.000000
140.27299500 245.84800720 209.25000000 -0.756667 0.018115 0.653549 0.000000
147.65600586 189.00000000 219.25000000 -0.640576 0.742451 0.196032 0.000000
144.70300293 175.71099854 219.25000000 0.338586 0.737112 -0.584830 0.000000
172.75799561 128.83000183 245.50000000 -0.001197 0.966294 -0.257439 0.000000
94.50000000 272.05700684 243.50000000 0.394508 -0.902348 -0.173584 0.000000
98.92970276 142.85699463 211.50000000 0.687767 0.720029 -0.092387 0.000000
141.01199341 125.87699890 222.00000000 -0.000978 -0.000978 -0.999999 0.000000
230.34399414 131.78300476 249.50000000 0.130503 0.971803 -0.196388 0.000000
73.82810211 190.10699463 200.50000000 0.944620 0.293251 0.147301 0.000000
117.75599670 130.67599487 235.50000000 0.693883 0.690778 -0.203353 0.000000
107.05100250 184.57000732 181.75000000 -0.259157 0.259157 0.930417 0.000000
173.12699890 222.22300720 243.00000000 -0.925742 0.367871 0.087588 0.000000
178.66400146 189.73800659 293.75000000 -0.657065 0.058692 -0.751545 0.000000
66.07620239 192.69099426 241.00000000 0.898400 0.412778 0.149971 0.000000
72.72070313 181.61700439 229.50000000 0.914710 0.395514 0.082908 0.000000
95.60739899 215.57800293 309.50000000 0.151444 -0.507264 -0.848380 0.000000
79.36519623 198.59800720 303.50000000 0.601571 0.384017 -0.700459 0.000000
105.94300079 273.90200806 227.00000000 0.370589 -0.815933 0.443753 0.000000
152.45500183 203.76600647 303.50000000 -0.615967 0.184943 -0.765755 0.000000
161.68400574 215.94700623 293.50000000 -0.262904 -0.508695 -0.819824 0.000000
98.56050110 144.70300293 194.50000000 0.659702 0.737844 0.142760 0.000000
115.91000366 191.21499634 319.75000000 -0.000978 -0.000978 -0.999999 0.000000
94.13089752 159.46899414 172.50000000 0.461645 0.384436 0.799433 0.000000
201.55099487 139.16600037 276.50000000 -0.057151 0.923716 -0.378790 0.000000
177.92599487 214.47099304 273.50000000 -0.869253 -0.354140 -0.344942 0.000000
236.98800659 164.63699341 276.25000000 0.166046 0.003389 0.986112 0.000000
170.54299927 217.79299927 286.25000000 -0.793969 -0.581434 -0.177618 0.000000
141.75000000 174.60400391 217.50000000 0.083996 0.533872 -0.841383 0.000000
86.37889862 208.93400574 306.25000000 -0.274876 0.827733 -0.489185 0.000000
123.29299927 192.69099426 189.25000000 -0.435203 0.104952 0.894194 0.000000
121.07800293 155.40800476 200.00000000 -0.254430 0.854703 -0.452490 0.000000
114.43399811 268.36499023 210.50000000 0.234017 -0.934666 0.267648 0.000000
144.70300293 150.60899353 278.75000000 0.216835 0.656746 -0.722265 0.000000
236.61900330 141.01199341 271.00000000 -0.126616 0.761183 -0.636057 0.000000
99.66799927 145.07200623 238.50000000 0.580815 0.813695 -0.023565 0.000000
112.95700073 158.72999573 298.75000000 0.052291 0.974073 -0.220109 0.000000
72.35160065 178.29499817 275.50000000 0.713064 0.584613 -0.386998 0.000000
83.79489899 256.92199707 265.50000000 0.423458 -0.679193 -0.599483 0.000000
159.46899414 167.58999634 226.75000000 0.892782 -0.228729 -0.388102 0.000000
152.08599854 179.77099609 237.00000000 0.277639 0.959910 -0.038596 0.000000
148.76400757 268.73400879 249.50000000 -0.277666 -0.836099 -0.473117 0.000000
85.27149963 160.20700073 233.50000000 0.875260 0.471075 0.109585 0.000000
95.60739899 146.91799927 213.50000000 0.825367 0.485235 -0.288645 0.000000
172.02000427 208.93400574 281.25000000 -0.902702 0.058195 -0.426313 0.000000
163.89799500 218.53100586 288.75000000 0.001352 -0.836802 0.547504 0.000000
161.31399536 259.87500000 244.00000000 -0.748959 -0.613358 0.250704 0.000000
111.48000336 165.37500000 194.25000000 -0.588771 0.252779 0.767757 0.000000
78.62699890 244.37100220 205.50000000 0.774851 -0.451860 0.442073 0.000000
174.60400391 211.88699341 277.00000000 -0.869608 0.394446 -0.296976 0.000000
173.49600220 224.06799316 238.50000000 -0.635587 0.727517 0.258356 0.000000
169.80499268 138.05900574 214.25000000 -0.686401 0.676845 -0.265960 0.000000
168.69700623 239.94099426 237.00000000 -0.754851 -0.581764 0.302902 0.000000
238.83399963 191.95300293 276.50000000 0.846613 0.424083 -0.321558 0.000000
76.41210175 194.90600586 166.00000000 0.957757 0.008562 0.287450 0.000000
173.49600220 227.02099609 254.50000000 -0.895027 -0.441364 -0.064223 0.000000
200.81199646 198.59800720 278.75000000 -0.140284 -0.279231 -0.949921 0.000000
222.22300720 181.24800110 259.00000000 0.268157 0.534746 -0.801335 0.000000
160.20700073 253.60000610 260.50000000 -0.622322 -0.336346 -0.706815 0.000000
64.23049927 219.27000427 221.75000000 0.969912 -0.173428 0.170859 0.000000
127.35399628 270.21099854 215.50000000 -0.187866 -0.777431 0.600256 0.000000
174.97300720 151.71699524 281.50000000 -0.481431 0.400382 -0.779691 0.000000
137.32000732 172.38900757 214.50000000 0.391224 0.317582 -0.863762 0.000000
97.45310211 148.39500427 186.75000000 0.328323 0.925787 0.187412 0.000000
138.79699707 275.74798584 234.50000000 -0.286739 -0.860216 0.421674 0.000000
102.98999786 220.00799561 180.50000000 -0.729835 -0.152616 0.666371 0.000000
162.42199707 170.54299927 246.75000000 0.806430 -0.365688 -0.464696 0.000000
148.39500427 163.89799500 216.75000000 0.611885 0.073426 -0.787531 0.000000
62.75389862 201.91999817 242.50000000 0.910459 -0.154339 0.383724 0.000000
115.17199707 275.01000977 245.50000000 0.357781 -0.895196 -0.265738 0.000000
87.48629761 159.46899414 221.00000000 0.777899 0.614287 0.132377 0.000000
91.54689789 245.47900391 186.50000000 0.541117 -0.554603 0.632146 0.000000
90.43949890 256.92199707 206.50000000 0.506091 -0.796654 0.330476 0.000000
86.74800110 270.21099854 229.50000000 0.488051 -0.824854 0.285346 0.000000
117.01799774 130.67599487 205.50000000 0.448608 0.893198 -0.030800 0.000000
98.92970276 145.81100464 239.00000000 0.596586 0.800644 0.055266 0.000000
187.52299500 174.60400391 287.00000000 0.294369 0.181044 -0.938387 0.000000
124.40000153 170.54299927 206.00000000 -0.813592 0.553967 -0.176605 0.000000
160.20700073 217.42399597 292.00000000 -0.398551 -0.666456 -0.630074 0.000000
70.50589752 187.52299500 228.50000000 0.951344 0.279963 0.128703 0.000000
121.07800293 204.50399780 318.75000000 -0.042359 -0.221474 -0.974246 0.000000
77.88870239 171.28100586 232.00000000 0.858582 0.511873 -0.028665 0.000000
148.76400757 256.92199707 218.00000000 -0.567107 -0.590807 0.573879 0.000000
112.58799744 169.06599426 193.50000000 -0.604343 0.268068 0.750273 0.000000
174.23399353 123.66200256 222.50000000 0.000978 0.999999 0.000978 0.000000
136.95100403 186.04699707 206.50000000 -0.805029 0.456130 0.379308 0.000000
78.99610138 179.40199280 288.75000000 0.551989 0.750640 -0.363108 0.000000
151.34800720 207.45700073 206.75000000 -0.339928 -0.928212 0.151233 0.000000
198.22900391 184.57000732 245.00000000 0.655745 -0.182749 -0.732531 0.000000
77.51950073 209.30299377 301.00000000 0.837835 -0.327304 -0.436927 0.000000
74.93550110 189.00000000 185.00000000 0.980726 0.192369 -0.034225 0.000000
149.50199890 231.82000732 288.50000000 -0.663681 -0.070850 -0.744653 0.000000
241.41799927 155.03900146 261.25000000 0.300967 0.370538 -0.878704 0.000000
188.26199341 145.07200623 221.50000000 0.230898 0.692695 -0.683271 0.000000
240.31100464 187.52299500 279.00000000 0.955095 0.174989 0.239108 0.000000
89.33200073 154.66999817 271.00000000 0.797332 0.599077 -0.073268 0.000000
232.55900574 138.42799377 236.50000000 0.589471 0.589471 -0.552312 0.000000
84.53320313 162.42199707 270.00000000 0.814648 0.579942 -0.004094 0.000000
77.51950073 256.18399048 221.75000000 0.589188 -0.360694 0.723020 0.000000
159.10000610 261.35198975 238.00000000 -0.879478 -0.387695 0.276063 0.000000
172.75799561 221.85400391 242.50000000 -0.801999 0.572425 0.170670 0.000000
139.16600037 191.21499634 202.50000000 -0.649624 0.622904 0.435866 0.000000
217.79299927 188.26199341 263.75000000 0.001127 0.167869 -0.985809 0.000000
78.25779724 239.57200623 201.00000000 0.851598 -0.482122 0.205765 0.000000
116.64800262 143.59599304 260.50000000 0.154194 0.889139 -0.430879 0.000000
104.83599854 256.92199707 194.25000000 -0.100229 -0.814902 0.570867 0.000000
171.28100586 155.77699280 286.25000000 -0.253588 0.048244 -0.966109 0.000000
162.42199707 124.40000153 225.50000000 0.303064 0.941810 -0.145417 0.000000
189.73800659 141.01199341 214.25000000 0.035141 0.927993 -0.370937 0.000000
163.16000366 123.66200256 220.50000000 0.034620 0.939865 0.339787 0.000000
110.00399780 262.82800293 268.75000000 0.089254 -0.677455 -0.730129 0.000000
173.86500549 226.65199280 253.50000000 -0.895027 -0.441364 -0.064223 0.000000
155.03900146 131.78300476 256.00000000 0.187779 0.867923 -0.459836 0.000000
167.58999634 195.64500427 298.75000000 0.334794 0.362311 -0.869853 0.000000
95.97660065 272.05700684 242.00000000 0.386003 -0.905456 -0.176499 0.000000
177.92599487 129.56799316 249.50000000 0.099228 0.960062 -0.261601 0.000000
143.22700500 274.27099609 241.50000000 -0.482076 -0.788411 -0.382113 0.000000
152.08599854 235.51199341 214.25000000 -0.582015 -0.043476 0.812015 0.000000
140.27299500 222.96099854 201.75000000 -0.273969 -0.297162 0.914678 0.000000
90.07029724 165.37500000 296.25000000 0.628344 0.387561 -0.674522 0.000000
137.32000732 228.86700439 296.25000000 -0.342560 -0.741943 -0.576345 0.000000
149.87100220 167.22099304 218.50000000 0.658594 0.035257 -0.751672 0.000000
161.68400574 259.50601196 250.50000000 -0.735716 -0.631739 -0.244188 0.000000
230.34399414 179.40199280 263.75000000 0.557909 0.290875 -0.777258 0.000000
215.57800293 142.48800659 278.75000000 0.424423 0.014454 -0.905349 0.000000
83.05660248 216.31599426 166.00000000 0.665607 -0.406668 0.625770 0.000000
131.41400146 165.00599670 302.50000000 -0.100229 0.814902 -0.570867 0.000000
201.55099487 207.82600403 264.00000000 -0.784692 -0.613539 0.088477 0.000000
220.74600220 135.10499573 216.75000000 -0.117281 0.708140 0.696263 0.000000
156.14599609 229.60499573 219.00000000 -0.770436 -0.276851 0.574267 0.000000
91.54689789 152.45500183 194.00000000 0.802016 0.590272 -0.091369 0.000000
106.31199646 270.57998657 253.00000000 0.260630 -0.920124 -0.292309 0.000000
226.65199280 132.52099609 253.50000000 -0.084325 0.953518 -0.289299 0.000000
132.15199280 141.38099670 199.00000000 0.882653 0.425854 -0.198928 0.000000
91.91600037 152.08599854 265.50000000 0.679987 0.726984 0.095462 0.000000
83.05660248 222.22300720 296.50000000 0.490133 -0.434399 -0.755690 0.000000
110.00399780 200.07400513 318.75000000 -0.000978 -0.000978 -0.999999 0.000000
76.41210175 213.36300659 175.50000000 0.874605 -0.302689 0.378742 0.000000
225.91400146 193.42999268 281.25000000 0.389262 0.721039 0.573217 0.000000
140.27299500 194.16799927 201.75000000 -0.711230 0.548758 0.439338 0.000000
144.33399963 228.86700439 292.00000000 -0.471225 -0.578551 -0.665752 0.000000
240.31100464 136.58200073 260.50000000 -0.199980 0.875469 -0.439957 0.000000
217.05499268 150.24000549 232.50000000 0.579259 0.732641 -0.357346 0.000000
216.31599426 151.71699524 235.50000000 0.437623 0.836032 -0.330962 0.000000
168.32800293 206.35000610 292.00000000 -0.502923 -0.758479 -0.414461 0.000000
107.05100250 229.60499573 303.75000000 0.836494 -0.419031 0.353116 0.000000
188.26199341 210.41000366 276.25000000 0.092366 -0.681749 -0.725732 0.000000
170.91200256 233.29699707 255.50000000 -0.937612 0.001255 -0.347682 0.000000
172.02000427 229.60499573 236.75000000 -0.867550 -0.357768 0.345484 0.000000
69.02929688 216.31599426 202.00000000 0.946376 -0.129842 0.295826 0.000000
81.94920349 199.70500183 306.00000000 0.485539 0.147266 -0.861722 0.000000
174.60400391 208.93400574 267.50000000 -0.707278 0.474292 0.524218 0.000000
160.94500732 165.37500000 288.75000000 -0.014526 0.437102 -0.899295 0.000000
158.72999573 188.26199341 241.75000000 0.004000 0.491965 0.870606 0.000000
62.38479996 222.96099854 227.00000000 0.927586 0.014113 0.373344 0.000000
138.05900574 136.21299744 259.00000000 0.133892 0.903420 -0.407314 0.000000
81.58010101 180.14100647 298.00000000 0.560008 0.001356 -0.828486 0.000000
121.07800293 195.64500427 186.75000000 -0.765404 -0.211839 0.607685 0.000000
117.01799774 165.37500000 307.50000000 0.023502 0.568190 -0.822562 0.000000
236.25000000 137.68899536 264.00000000 -0.228784 0.933382 -0.276506 0.000000
72.72070313 243.63299561 217.50000000 0.763762 -0.530255 0.368098 0.000000
157.25399780 221.85400391 289.50000000 -0.038235 -0.661325 -0.749124 0.000000
227.39100647 133.99800110 220.50000000 0.457757 0.790965 -0.405996 0.000000
90.07029724 232.55900574 171.75000000 -0.102716 -0.831854 0.545407 0.000000
162.79100037 231.08200073 277.00000000 -0.643790 -0.579915 -0.499232 0.000000
69.76760101 224.43800354 206.50000000 0.979858 -0.003462 0.199665 0.000000
85.64060211 248.06199646 276.25000000 0.489445 -0.489445 -0.721725 0.000000
236.25000000 132.52099609 253.50000000 -0.021362 0.948718 -0.315402 0.000000
141.75000000 186.04699707 311.25000000 -0.548198 0.326347 -0.770050 0.000000
153.93200684 203.02699280 208.50000000 -0.868174 0.065496 0.491919 0.000000
89.33200073 167.95899963 298.00000000 0.676396 0.586210 -0.445921 0.000000
85.64060211 248.80099487 196.75000000 0.494848 -0.762686 0.416456 0.000000
128.09199524 149.87100220 199.00000000 0.675688 0.452127 -0.582260 0.000000
163.16000366 188.63099670 294.00000000 0.334109 0.377220 -0.863757 0.000000
96.71479797 147.28700256 239.00000000 0.602279 0.796927 -0.046546 0.000000
140.64300537 135.10499573 206.00000000 0.981586 -0.098280 -0.163800 0.000000
186.78500366 204.13499451 281.00000000 0.342948 -0.395710 -0.851939 0.000000
83.42579651 227.39100647 291.25000000 0.604080 -0.570238 -0.556701 0.000000
62.38479996 203.76600647 257.50000000 0.983828 0.082484 -0.158991 0.000000
115.91000366 276.48599243 241.50000000 0.089030 -0.939466 -0.330873 0.000000
83.79489899 190.47700500 166.50000000 -0.807425 0.280639 0.518947 0.000000
63.12300110 199.33599854 241.00000000 0.930727 0.182796 0.316754 0.000000
111.48000336 155.40800476 199.00000000 -0.846529 0.226450 0.481777 0.000000
161.68400574 260.24398804 246.50000000 -0.771099 -0.634772 0.049703 0.000000
227.39100647 130.30700684 244.00000000 0.020806 0.963187 -0.268028 0.000000
104.46700287 238.46499634 182.50000000 -0.595408 -0.091267 0.798223 0.000000
98.19139862 159.10000610 295.00000000 0.149673 0.873337 -0.463552 0.000000
96.34570313 157.25399780 290.00000000 0.251802 0.873015 -0.417660 0.000000
158.72999573 242.89500427 271.25000000 -0.387407 -0.374859 -0.842257 0.000000
68.29100037 194.90600586 220.50000000 0.981824 0.182084 0.053554 0.000000
68.29100037 234.77299500 217.50000000 0.439476 0.619945 0.650023 0.000000
145.07200623 163.16000366 213.00000000 -0.087319 0.433825 -0.896756 0.000000
128.46099854 276.48599243 228.00000000 -0.030434 -0.990798 0.131881 0.000000
213.36300659 147.65600586 283.75000000 -0.110231 0.060229 -0.992079 0.000000
93.76170349 248.06199646 278.75000000 0.351291 -0.609449 -0.710751 0.000000
128.09199524 256.18399048 204.00000000 -0.685731 0.018156 0.727629 0.000000
203.02699280 126.61499786 215.00000000 -0.057935 0.991706 -0.114733 0.000000
152.82400513 266.14999390 234.00000000 -0.621180 -0.723907 0.300157 0.000000
77.88870239 235.51199341 194.50000000 0.904380 -0.352109 0.241071 0.000000
244.37100220 143.22700500 269.75000000 -0.258757 0.706421 -0.658797 0.000000
91.54689789 251.01600647 276.25000000 0.206017 -0.652129 -0.729579 0.000000
177.92599487 203.02699280 278.75000000 -0.115419 -0.816697 -0.565406 0.000000
126.98400116 153.93200684 278.50000000 -0.292396 0.952560 -0.084470 0.000000
155.03900146 250.64599609 268.50000000 -0.450353 -0.430843 -0.782021 0.000000
133.62899780 213.36300659 311.25000000 -0.583574 -0.453147 -0.673869 0.000000
80.10350037 169.06599426 200.00000000 0.903367 0.392082 0.173780 0.000000
146.91799927 184.93899536 238.00000000 -0.043504 0.585192 0.809727 0.000000
212.99400330 194.16799927 273.50000000 0.099240 0.971042 -0.217322 0.000000
60.90819931 226.65199280 251.00000000 0.976245 -0.024971 -0.215226 0.000000
105.20500183 137.32000732 206.50000000 0.570037 0.821564 -0.009569 0.000000
183.09399414 204.50399780 278.75000000 0.410570 -0.545777 -0.730451 0.000000
211.88699341 193.42999268 268.75000000 0.223419 0.923558 -0.311648 0.000000
118.86299896 217.42399597 312.00000000 0.151524 -0.182084 -0.971538 0.000000
88.96289825 233.29699707 289.50000000 0.533877 -0.813893 -0.229244 0.000000
187.15400696 178.66400146 247.50000000 -0.206380 0.733967 -0.647070 0.000000
67.55269623 187.52299500 243.50000000 0.836471 0.509748 0.201177 0.000000
149.50199890 189.73800659 222.50000000 -0.696868 0.607906 0.380559 0.000000
167.95899963 167.58999634 235.50000000 0.335243 0.413206 -0.846683 0.000000
169.43600464 222.96099854 279.50000000 -0.494569 -0.668926 -0.554923 0.000000
158.36099243 194.90600586 296.50000000 -0.829594 -0.524352 -0.191910 0.000000
110.00399780 270.94900513 219.25000000 0.218345 -0.877838 0.426293 0.000000
185.30900574 161.68400574 236.75000000 -0.000978 -0.000978 -0.999999 0.000000
81.58010101 202.28900146 306.00000000 0.711214 0.012526 -0.702864 0.000000
125.50800323 169.43600464 311.00000000 -0.184674 0.773799 -0.605913 0.000000
209.30299377 145.44099426 222.00000000 -0.554247 0.362455 -0.749290 0.000000
132.52099609 167.58999634 306.00000000 -0.176237 0.675831 -0.715676 0.000000
68.66020203 244.37100220 258.75000000 0.888225 -0.388319 -0.245489 0.000000
212.62500000 129.56799316 241.50000000 -0.124134 0.987164 -0.100490 0.000000
209.67199707 183.46299744 255.50000000 0.263601 0.399167 -0.878168 0.000000
119.23200226 261.35198975 201.50000000 -0.423832 -0.613310 0.666497 0.000000
162.79100037 214.10200500 293.50000000 -0.361183 -0.392454 -0.845888 0.000000
99.66799927 154.66999817 286.50000000 -0.024371 0.982959 -0.182201 0.000000
77.15039825 175.71099854 210.00000000 0.880452 0.474089 0.006640 0.000000
163.52900696 239.94099426 229.00000000 -0.594517 -0.131950 0.793183 0.000000
193.42999268 125.13899994 229.00000000 -0.103696 0.994393 0.020739 0.000000
159.46899414 239.57200623 272.50000000 -0.673635 -0.466363 -0.573342 0.000000
69.76760101 185.30900574 271.00000000 0.982089 0.187120 0.022082 0.000000
87.11720276 232.55900574 288.75000000 0.445135 -0.757222 -0.477986 0.000000
116.64800262 152.08599854 194.25000000 0.181562 0.614870 -0.767444 0.000000
76.41210175 178.66400146 282.50000000 0.641228 0.702605 -0.308500 0.000000
149.13299561 128.09199524 246.00000000 0.135471 0.978127 -0.157843 0.000000
98.19139862 268.36499023 254.50000000 0.170043 -0.814099 -0.555273 0.000000
93.02339935 156.88499451 287.50000000 0.355271 0.865876 -0.352195 0.000000
116.64800262 145.81100464 265.00000000 -0.062846 0.921292 -0.383760 0.000000
104.09799957 147.28700256 274.00000000 0.079184 0.951506 -0.297264 0.000000
232.55900574 194.16799927 273.75000000 0.443130 0.834588 -0.327259 0.000000
123.66200256 211.88699341 189.50000000 -0.540122 -0.176029 0.822972 0.000000
241.41799927 183.83200073 276.25000000 -0.342561 0.414515 -0.843107 0.000000
140.27299500 263.56600952 216.75000000 -0.546417 -0.580251 0.603935 0.000000
109.26599884 199.33599854 318.75000000 -0.000978 -0.000978 -0.999999 0.000000
167.22099304 241.41799927 235.50000000 -0.786104 -0.567307 0.245364 0.000000
123.29299927 273.53298950 219.50000000 0.064702 -0.933551 0.352557 0.000000
245.84800720 166.85200500 266.25000000 0.621206 -0.358955 -0.696602 0.000000
73.08979797 250.64599609 260.00000000 0.593215 -0.636908 -0.492386 0.000000
125.50800323 275.01000977 224.00000000 -0.273083 -0.775051 0.569844 0.000000
63.49219894 234.03500366 256.25000000 0.889848 -0.009255 -0.456163 0.000000
102.98999786 180.14100647 316.00000000 0.655910 0.384955 -0.649301 0.000000
67.55269623 232.55900574 268.50000000 0.201095 -0.085126 -0.975866 0.000000
74.56639862 252.12300110 224.00000000 -0.001327 0.484515 0.874782 0.000000
232.55900574 190.84599304 281.50000000 0.174374 -0.322243 0.930459 0.000000
152.82400513 258.02899170 222.50000000 -0.643238 -0.471932 0.602931 0.000000
210.41000366 162.79100037 244.00000000 0.710298 0.636208 -0.301192 0.000000
131.04499817 250.27699280 204.50000000 -0.596412 0.394855 0.698843 0.000000
164.63699341 127.35399628 237.50000000 -0.037950 0.987858 -0.150651 0.000000
156.14599609 197.85899353 301.00000000 -0.555843 -0.670034 0.492030 0.000000
83.05660248 216.31599426 166.50000000 0.665607 -0.406668 0.625770 0.000000
224.80700684 140.27299500 271.50000000 0.224962 0.918475 -0.325263 0.000000
84.53320313 170.54299927 292.00000000 0.735334 -0.480859 -0.477554 0.000000
77.51950073 212.25599670 172.00000000 0.859614 -0.371934 0.350327 0.000000
155.77699280 263.19699097 232.50000000 -0.639409 -0.646052 0.416861 0.000000
132.89100647 274.27099609 247.00000000 -0.255616 -0.907070 -0.334491 0.000000
82.31839752 169.80499268 178.00000000 -0.022579 0.436977 -0.899189 0.000000
129.93800354 191.95300293 316.75000000 -0.499725 -0.012123 -0.866099 0.000000
103.35900116 147.65600586 276.25000000 0.149401 0.965262 -0.214358 0.000000
112.95700073 235.51199341 191.75000000 -0.784534 -0.026571 0.619516 0.000000
84.90229797 252.49200439 271.25000000 0.493953 -0.678139 -0.544186 0.000000
85.27149963 219.27000427 166.50000000 0.590919 -0.390105 0.706140 0.000000
200.81199646 135.47500610 210.00000000 0.180631 0.799938 -0.572252 0.000000
73.82810211 183.46299744 287.50000000 0.669415 0.511708 -0.538552 0.000000
85.27149963 220.00799561 166.50000000 0.590919 -0.390105 0.706140 0.000000
83.05660248 166.11300659 218.50000000 0.843601 0.536338 0.026062 0.000000
172.02000427 167.95899963 239.00000000 0.586053 0.521874 -0.619831 0.000000
90.07029724 152.45500183 241.00000000 0.672515 0.738196 0.052830 0.000000
81.94920349 253.96899414 214.25000000 0.615861 -0.681905 0.394614 0.000000
105.57399750 272.79501343 225.50000000 0.269105 -0.819760 0.505545 0.000000
107.78900146 167.95899963 310.00000000 -0.009443 0.511295 -0.859353 0.000000
150.97900391 135.84399414 220.50000000 -0.017852 0.825310 0.564397 0.000000
129.93800354 128.83000183 241.50000000 0.052939 0.894526 -0.443870 0.000000
128.09199524 176.44900513 203.50000000 -0.758922 0.605573 0.239413 0.000000
70.13670349 209.67199707 288.75000000 0.833330 -0.337412 -0.437851 0.000000
156.51600647 163.89799500 224.25000000 0.659197 0.049831 -0.750317 0.000000
179.40199280 123.66200256 224.00000000 -0.054236 0.995071 -0.083015 0.000000
66.07620239 222.22300720 216.00000000 0.946633 -0.212342 0.242481 0.000000
117.75599670 173.49600220 316.00000000 0.202973 0.911220 -0.358442 0.000000
165.74400330 243.63299561 235.50000000 -0.842561 -0.469801 0.263397 0.000000
67.55269623 217.05499268 210.00000000 0.981100 0.108740 0.160055 0.000000
148.76400757 151.34800720 215.50000000 0.732700 0.293401 -0.614057 0.000000
74.19730377 188.26199341 201.00000000 0.958652 0.250482 0.135077 0.000000
161.68400574 205.24200439 296.25000000 -0.357613 -0.373094 -0.856104 0.000000
253.96899414 169.06599426 273.25000000 -0.190792 -0.196055 0.961853 0.000000
184.57000732 145.44099426 281.25000000 0.150728 0.376116 -0.914231 0.000000
111.11100006 200.07400513 184.00000000 -0.672851 0.046943 0.738287 0.000000
127.35399628 246.58599854 204.00000000 -0.669649 -0.123788 0.732289 0.000000
102.98999786 166.11300659 183.50000000 -0.409174 -0.431638 0.803906 0.000000
141.01199341 257.66000366 268.75000000 -0.362338 -0.703363 -0.611549 0.000000
88.59380341 162.42199707 171.75000000 0.757913 -0.634356 0.152185 0.000000
97.45310211 166.85200500 303.75000000 0.417729 0.634082 -0.650725 0.000000
74.56639862 258.02899170 246.50000000 0.665734 -0.743379 -0.064704 0.000000
159.83799744 220.00799561 291.00000000 -0.395763 -0.630903 -0.667333 0.000000
77.51950073 221.48399353 291.25000000 0.668903 -0.471082 -0.575022 0.000000
131.41400146 155.40800476 283.00000000 -0.380871 0.924606 0.006412 0.000000
132.52099609 262.08999634 268.50000000 -0.205575 -0.749655 -0.629092 0.000000
186.78500366 197.12100220 244.25000000 0.182829 0.434402 -0.881968 0.000000
95.97660065 147.28700256 192.00000000 0.701727 0.704682 0.104890 0.000000
130.67599487 277.22500610 236.50000000 -0.163354 -0.985914 0.035915 0.000000
156.88499451 211.14799500 214.00000000 -0.934831 -0.161559 0.316213 0.000000
191.21499634 136.95100403 202.50000000 -0.000978 -0.000978 -0.999999 0.000000
195.64500427 181.61700439 244.25000000 0.379861 -0.453589 -0.806203 0.000000
104.09799957 215.57800293 179.25000000 -0.669051 -0.373156 0.642749 0.000000
139.53500366 210.77900696 198.00000000 -0.330623 -0.249060 0.910306 0.000000
129.93800354 272.79501343 252.50000000 0.069939 -0.815007 -0.575215 0.000000
221.48399353 145.44099426 278.75000000 -0.361401 0.427684 -0.828539 0.000000
79.73439789 251.38499451 212.00000000 0.682792 -0.616662 0.391820 0.000000
110.37300110 164.63699341 193.00000000 -0.604343 0.268068 0.750273 0.000000
129.19900513 266.51998901 211.75000000 -0.162564 -0.830715 0.532433 0.000000
96.71479797 242.52499390 181.50000000 0.155908 -0.667530 0.728077 0.000000
155.77699280 235.14300537 279.50000000 -0.623246 -0.750693 0.219146 0.000000
157.99200439 191.21499634 236.75000000 0.787928 0.422278 0.448164 0.000000
73.08979797 253.60000610 232.50000000 0.848633 -0.522781 0.080755 0.000000
185.30900574 156.88499451 231.00000000 0.001158 0.978290 -0.207235 0.000000
106.68199921 211.14799500 315.00000000 0.516071 -0.856545 -0.001340 0.000000
79.73439789 180.14100647 166.75000000 -0.218222 0.468049 0.856335 0.000000
114.43399811 163.52900696 306.00000000 -0.095096 0.653965 -0.750524 0.000000
96.71479797 145.81100464 214.00000000 0.701615 0.676613 -0.223454 0.000000
82.68750000 266.14999390 231.50000000 0.512849 -0.853801 0.089500 0.000000
66.81449890 222.96099854 270.50000000 0.763369 -0.354942 -0.539707 0.000000
80.10350037 238.46499634 278.00000000 -0.207896 -0.517464 -0.830067 0.000000
156.51600647 166.48199463 290.50000000 0.036862 0.487398 -0.872401 0.000000
78.25779724 170.91200256 235.00000000 0.787280 0.609742 0.091680 0.000000
240.67999268 161.68400574 261.25000000 0.220256 0.188218 -0.957111 0.000000
121.07800293 272.05700684 252.00000000 0.174569 -0.948626 -0.263883 0.000000
138.05900574 157.62300110 282.00000000 -0.169504 0.269850 -0.947866 0.000000
129.93800354 177.18800354 206.75000000 -0.738783 0.632122 0.233713 0.000000
131.41400146 204.50399780 316.25000000 0.074411 -0.147640 -0.986238 0.000000
97.82230377 268.73400879 224.00000000 0.841726 -0.510995 -0.174304 0.000000
73.45899963 225.91400146 194.50000000 0.919696 -0.038156 0.390772 0.000000
174.23399353 226.28300476 248.00000000 -0.976382 0.143769 -0.161272 0.000000
124.03099823 141.38099670 261.50000000 0.470124 0.740651 -0.480021 0.000000
125.87699890 137.32000732 256.00000000 0.438139 0.773666 -0.457684 0.000000
64.96880341 236.61900330 225.00000000 0.784303 -0.423816 0.453045 0.000000
138.79699707 180.50999451 234.00000000 0.112804 0.801351 -0.587462 0.000000
102.25199890 179.40199280 181.00000000 -0.462256 0.314961 0.828927 0.000000
166.11300659 227.39100647 231.75000000 -0.675246 -0.169193 0.717925 0.000000
115.91000366 194.53700256 185.00000000 -0.873648 0.436080 0.215807 0.000000
140.64300537 228.12899780 205.00000000 -0.289614 -0.189843 0.938128 0.000000
80.47270203 170.17399597 192.50000000 0.909229 0.416132 -0.011740 0.000000
169.43600464 240.67999268 257.00000000 -0.959709 -0.145729 -0.240255 0.000000
130.30700684 249.53900146 205.50000000 -0.488583 0.229832 0.841703 0.000000
72.35160065 181.24800110 279.50000000 0.825648 0.460790 -0.325541 0.000000
113.69499969 174.60400391 187.00000000 -0.626986 0.029456 0.778473 0.000000
160.94500732 202.65800476 229.50000000 -0.985063 -0.028871 0.169759 0.000000
198.96699524 207.45700073 258.00000000 -0.206759 -0.890092 0.406187 0.000000
83.79489899 251.01600647 204.50000000 0.720824 -0.631320 0.286092 0.000000
139.90400696 254.70700073 273.50000000 -0.347696 -0.680701 -0.644789 0.000000
99.66799927 142.85699463 202.00000000 0.663808 0.742589 0.088994 0.000000
119.60199738 180.50999451 318.00000000 -0.119974 0.238658 -0.963664 0.000000
100.40599823 145.81100464 225.00000000 0.567913 0.805925 -0.167211 0.000000
