45.48830032 170.66400146 300.00000000 -0.941759 -0.194419 -0.274392 0.000000
140.78100586 160.03900146 333.75000000 0.603634 -0.205328 -0.770367 0.000000
216.48399353 157.38299561 378.75000000 0.000978 0.000978 0.999999 0.000000
156.05499268 160.03900146 383.75000000 0.000978 0.000978 0.999999 0.000000
125.50800323 122.85199738 266.25000000 0.670589 0.737502 -0.080005 0.000000
30.87890053 193.90600586 355.00000000 -0.929435 -0.001268 0.368984 0.000000
248.02699280 136.13299561 370.00000000 0.642724 -0.202884 -0.738745 0.000000
108.24199677 256.32800293 331.25000000 0.566650 0.676971 -0.469701 0.000000
207.18800354 124.84400177 336.25000000 0.727589 0.410816 -0.549404 0.000000
217.81199646 134.14100647 353.75000000 0.451261 0.313853 -0.835380 0.000000
97.61720276 260.64498901 327.50000000 0.273111 0.819334 -0.504085 0.000000
67.07029724 255.00000000 348.75000000 -0.270181 0.957915 0.096955 0.000000
86.32810211 150.74200439 386.25000000 -0.026163 -0.149013 0.988489 0.000000
116.54299927 127.50000000 242.50000000 0.702497 0.603786 -0.376749 0.000000
130.82000732 114.88300323 256.25000000 0.770674 0.636886 -0.020904 0.000000
203.20300293 162.69500732 353.75000000 -0.000978 0.999999 -0.000978 0.000000
60.09769821 245.03900146 315.00000000 -0.497907 0.834952 -0.234399 0.000000
183.94500732 110.23400116 381.25000000 0.000978 0.000978 0.999999 0.000000
121.52300262 98.94529724 361.25000000 -0.255498 -0.916617 0.307464 0.000000
111.56199646 186.60200500 383.75000000 0.064301 0.339877 0.938269 0.000000
128.16400146 183.28100586 381.25000000 -0.553566 0.829637 -0.072575 0.000000
96.28910065 105.58599854 311.25000000 -0.412652 -0.895756 -0.165348 0.000000
209.84399414 145.42999268 378.75000000 0.204222 -0.024790 0.978611 0.000000
51.79690170 206.52299500 376.25000000 -0.491655 0.237403 0.837804 0.000000
96.62110138 140.78100586 230.00000000 0.888281 0.178819 -0.423060 0.000000
102.93000031 247.03100586 318.75000000 0.602446 0.419886 -0.678789 0.000000
68.39839935 121.52300262 348.75000000 -0.745330 -0.660733 0.088973 0.000000
86.32810211 253.67199707 356.25000000 0.041168 0.668633 0.742452 0.000000
87.65619659 212.50000000 381.25000000 0.217158 0.187848 0.957891 0.000000
132.81199646 209.17999268 318.75000000 0.432470 0.498245 -0.751479 0.000000
144.43400574 187.26600647 325.00000000 0.489431 0.786644 -0.376362 0.000000
157.38299561 132.81199646 381.25000000 0.000978 0.000978 0.999999 0.000000
139.78500366 213.82800293 337.50000000 0.930532 0.115806 -0.347417 0.000000
114.55100250 151.40600586 297.50000000 0.603964 0.460083 -0.650808 0.000000
220.46899414 145.42999268 358.75000000 0.532968 0.108327 -0.839172 0.000000
181.95300293 116.54299927 300.00000000 0.585689 0.754853 -0.295238 0.000000
61.09379959 167.34399414 381.25000000 -0.596841 -0.138419 0.790330 0.000000
37.51950073 189.25799561 365.00000000 -0.724551 -0.258429 0.638937 0.000000
41.50389862 168.00799561 317.50000000 -0.862835 -0.214583 -0.457678 0.000000
95.62500000 102.93000031 338.75000000 -0.508885 -0.850086 0.135606 0.000000
61.09379959 148.75000000 376.25000000 -0.437569 -0.418193 0.796020 0.000000
60.42969894 200.54699707 241.25000000 -0.749602 0.456351 -0.479416 0.000000
205.19500732 111.56199646 323.75000000 0.827468 0.345172 -0.442892 0.000000
107.57800293 174.31599426 272.50000000 0.764540 0.430565 -0.479679 0.000000
152.07000732 105.91799927 377.50000000 -0.282043 -0.416203 0.864423 0.000000
189.92199707 139.45300293 328.75000000 0.680330 0.210171 -0.702125 0.000000
95.62500000 112.22699738 271.25000000 -0.474137 -0.877362 -0.073693 0.000000
202.53900146 155.39100647 378.75000000 0.000978 0.000978 0.999999 0.000000
50.80080032 178.63299561 265.00000000 -0.976536 -0.110434 -0.184884 0.000000
226.11300659 111.56199646 372.50000000 0.233202 -0.119822 0.965018 0.000000
150.74200439 119.53099823 293.75000000 0.597035 0.482673 -0.640762 0.000000
81.01560211 151.40600586 386.25000000 -0.275566 -0.134455 0.951833 0.000000
59.43360138 174.64799500 232.50000000 -0.966452 -0.001195 -0.256844 0.000000
225.11700439 102.59799957 370.00000000 0.304660 -0.630276 0.714097 0.000000
215.15600586 116.87500000 338.75000000 0.756173 0.309854 -0.576361 0.000000
139.45300293 179.96099854 381.25000000 0.418735 0.307485 0.854467 0.000000
82.34380341 191.91400146 258.75000000 0.740451 0.613061 -0.275479 0.000000
77.03119659 213.82800293 381.25000000 -0.071254 0.383160 0.920929 0.000000
210.17599487 179.96099854 372.50000000 -0.171558 0.769736 0.614878 0.000000
190.58599854 139.45300293 381.25000000 0.235811 0.364702 0.900770 0.000000
47.81250000 234.41400146 316.25000000 -0.758191 0.529919 -0.379911 0.000000
122.18800354 126.50399780 270.00000000 0.705755 0.705755 -0.061807 0.000000
77.69529724 196.89500427 385.00000000 -0.289759 0.358820 0.887292 0.000000
91.64060211 177.96899414 388.75000000 0.093803 0.216371 0.971794 0.000000
140.78100586 154.06199646 316.25000000 0.258715 0.655517 -0.709482 0.000000
202.87100220 115.54699707 325.00000000 0.579522 0.528835 -0.620071 0.000000
144.43400574 188.59399414 332.50000000 0.544642 0.819226 -0.179536 0.000000
167.34399414 169.33599854 381.25000000 -0.125585 0.583603 0.802269 0.000000
62.08980179 134.80499268 300.00000000 -0.789503 -0.581013 -0.197759 0.000000
47.48049927 174.64799500 285.00000000 -0.974853 -0.106098 -0.195969 0.000000
168.00799561 184.60899353 363.75000000 -0.485767 0.778202 0.398036 0.000000
136.13299561 112.89099884 378.75000000 -0.682177 -0.487748 0.544736 0.000000
128.82800293 231.75799561 361.25000000 0.542807 0.439889 0.715443 0.000000
70.39060211 119.19899750 340.00000000 -0.669876 -0.740988 -0.046934 0.000000
64.74610138 133.47700500 290.00000000 -0.813880 -0.580151 -0.031999 0.000000
82.34380341 121.52300262 366.25000000 -0.338161 -0.790110 0.511248 0.000000
217.81199646 139.45300293 356.25000000 0.542866 0.610513 -0.576689 0.000000
122.18800354 135.13699341 292.50000000 0.001375 0.782341 -0.622848 0.000000
225.11700439 113.88700104 350.00000000 0.636270 0.524881 -0.565386 0.000000
62.42190170 253.67199707 348.75000000 -0.294195 0.870391 0.394801 0.000000
132.14799500 112.22699738 373.75000000 -0.360649 -0.262695 0.894943 0.000000
140.11700439 164.68800354 331.25000000 0.217597 -0.509755 -0.832347 0.000000
211.17199707 95.29299927 347.50000000 -0.147864 -0.981276 0.123423 0.000000
134.80499268 204.53100586 371.25000000 0.355410 0.431231 0.829291 0.000000
51.13280106 165.35200500 271.25000000 -0.976760 -0.173397 -0.125993 0.000000
138.78900146 112.89099884 321.25000000 0.770799 -0.549655 0.322101 0.000000
76.36720276 141.11300659 220.00000000 -0.763922 -0.590661 -0.259891 0.000000
154.06199646 162.03100586 383.75000000 0.000978 0.000978 0.999999 0.000000
74.04299927 119.53099823 312.50000000 -0.627047 -0.758254 -0.178502 0.000000
144.76600647 108.24199677 376.25000000 -0.221986 -0.358369 0.906804 0.000000
84.00389862 131.48399353 230.00000000 -0.613768 -0.769114 -0.178191 0.000000
197.22700500 142.10899353 378.75000000 0.000978 0.000978 0.999999 0.000000
227.10899353 95.95700073 350.00000000 0.117990 -0.992236 -0.039330 0.000000
30.87890053 205.85899353 355.00000000 -0.966452 0.001195 0.256844 0.000000
107.57800293 216.48399353 306.25000000 0.380547 0.550405 -0.743128 0.000000
204.53100586 99.27729797 365.00000000 -0.118502 -0.946682 0.299583 0.000000
72.71479797 218.47700500 272.50000000 0.647752 0.323064 0.689961 0.000000
207.18800354 166.01600647 378.75000000 -0.125062 0.563516 0.816584 0.000000
185.27299500 99.60939789 316.25000000 -0.253271 -0.952783 -0.167507 0.000000
148.75000000 112.22699738 326.25000000 -0.860770 0.092175 -0.500579 0.000000
222.46099854 141.44500732 358.75000000 -0.000978 -0.000978 -0.999999 0.000000
227.77299500 106.25000000 371.25000000 0.355271 -0.352195 0.865876 0.000000
196.22999573 96.28910065 335.00000000 -0.103476 -0.994460 -0.018517 0.000000
193.24200439 136.13299561 331.25000000 0.575802 0.397617 -0.714390 0.000000
89.64839935 264.29699707 341.25000000 -0.343829 0.921122 0.182526 0.000000
193.24200439 163.35899353 341.25000000 0.691103 0.564540 -0.451299 0.000000
134.14100647 162.03100586 331.25000000 0.400093 0.094867 -0.911551 0.000000
35.19530106 190.58599854 363.75000000 -0.724551 -0.258429 0.638937 0.000000
108.90599823 132.47999573 237.50000000 0.589880 0.720601 -0.364385 0.000000
229.76600647 124.18000031 358.75000000 -0.050549 0.338286 -0.939685 0.000000
77.69529724 235.74200439 293.75000000 0.592984 0.562575 -0.576090 0.000000
96.95310211 145.42999268 386.25000000 -0.103721 -0.101390 0.989425 0.000000
74.37500000 247.03100586 361.25000000 -0.471671 0.736469 0.484911 0.000000
107.57800293 255.00000000 351.25000000 0.348324 0.791355 0.502422 0.000000
37.51950073 169.33599854 330.00000000 -0.825825 -0.477944 -0.299303 0.000000
164.02299500 106.25000000 378.75000000 -0.505009 -0.711679 0.488342 0.000000
108.90599823 244.70700073 362.50000000 0.811603 0.344653 0.471714 0.000000
92.30470276 108.24199677 358.75000000 -0.353967 -0.857869 0.372516 0.000000
43.49610138 160.03900146 320.00000000 -0.888279 -0.364000 -0.280115 0.000000
60.42969894 249.02299500 323.75000000 -0.427921 0.427921 -0.796095 0.000000
59.76559830 136.79699707 303.75000000 -0.742891 -0.660184 -0.110769 0.000000
37.51950073 166.67999268 357.50000000 -0.828521 -0.231251 0.509977 0.000000
191.91400146 115.54699707 381.25000000 0.901476 0.128379 0.413353 0.000000
112.89099884 255.66400146 343.75000000 0.476264 0.854872 0.205830 0.000000
149.08200073 113.55500031 285.00000000 0.597685 0.506769 -0.621255 0.000000
151.40600586 169.33599854 381.25000000 0.297873 0.850403 0.433690 0.000000
139.45300293 203.20300293 368.75000000 0.394758 0.498727 0.771646 0.000000
178.63299561 101.93399811 312.50000000 -0.213056 -0.974147 -0.075124 0.000000
192.57800293 172.98800659 357.50000000 0.145677 0.758423 -0.635273 0.000000
102.26599884 223.45700073 307.50000000 0.541507 0.384454 -0.747640 0.000000
177.30499268 148.08599854 321.25000000 0.737383 0.267995 -0.620036 0.000000
175.31199646 157.38299561 326.25000000 0.149971 0.412778 -0.898400 0.000000
104.25800323 103.92600250 310.00000000 -0.274790 -0.944678 -0.179092 0.000000
213.16400146 168.00799561 376.25000000 -0.229728 0.210697 0.950175 0.000000
87.65619659 170.66400146 388.75000000 0.000978 0.000978 0.999999 0.000000
78.35939789 124.84400177 368.75000000 -0.562485 -0.569241 0.599646 0.000000
118.53500366 233.08599854 322.50000000 0.508714 0.549008 -0.663175 0.000000
129.49200439 168.00799561 328.75000000 0.479591 -0.249755 -0.841199 0.000000
136.46499634 181.95300293 310.00000000 0.833904 -0.544970 -0.087252 0.000000
96.95310211 162.69500732 388.75000000 0.175046 0.026663 0.984199 0.000000
115.54699707 139.12100220 290.00000000 0.571146 0.763128 -0.302371 0.000000
80.35160065 229.10200500 373.75000000 0.115616 0.906820 0.405353 0.000000
59.76559830 136.13299561 366.25000000 -0.488259 -0.390932 0.780241 0.000000
238.39799500 158.71099854 378.75000000 0.422870 0.708101 0.565486 0.000000
107.57800293 229.76600647 316.25000000 0.405555 0.454028 -0.793337 0.000000
129.82400513 175.31199646 305.00000000 0.450767 -0.876735 0.167761 0.000000
129.49200439 187.92999268 301.25000000 0.565870 0.565870 -0.599653 0.000000
53.12500000 238.39799500 363.75000000 -0.900577 -0.030686 -0.433611 0.000000
205.85899353 106.25000000 376.25000000 0.146520 -0.283630 0.947674 0.000000
109.56999969 158.04699707 386.25000000 0.000978 0.000978 0.999999 0.000000
160.03900146 127.50000000 306.25000000 -0.122738 0.610731 -0.782268 0.000000
229.76600647 144.10200500 363.75000000 -0.286363 -0.286363 0.914326 0.000000
115.21499634 180.62500000 385.00000000 0.208703 0.154259 0.965737 0.000000
86.99220276 241.71899414 366.25000000 0.025697 0.488236 0.872333 0.000000
100.93800354 218.47700500 378.75000000 0.000978 0.000978 0.999999 0.000000
137.46099854 142.77299500 383.75000000 0.000978 0.000978 0.999999 0.000000
168.00799561 173.32000732 323.75000000 -0.000978 -0.000978 -0.999999 0.000000
106.91400146 225.78100586 373.75000000 0.172975 0.125687 0.976874 0.000000
102.26599884 224.45300293 308.75000000 0.467841 0.290652 -0.834653 0.000000
146.75799561 102.26599884 293.75000000 0.777586 -0.478889 0.407462 0.000000
70.39060211 221.13299561 376.25000000 -0.089743 0.346916 0.933593 0.000000
193.90600586 111.56199646 378.75000000 0.060503 -0.310237 0.948732 0.000000
74.37500000 186.60200500 386.25000000 0.000978 0.000978 0.999999 0.000000
181.95300293 144.10200500 383.75000000 0.000978 0.000978 0.999999 0.000000
186.60200500 152.07000732 381.25000000 0.000978 0.000978 0.999999 0.000000
175.97700500 164.02299500 381.25000000 0.196195 0.290814 0.936448 0.000000
63.08589935 197.22700500 381.25000000 0.000978 0.000978 0.999999 0.000000
63.75000000 134.80499268 286.25000000 -0.805613 -0.592077 -0.020799 0.000000
85.66410065 181.62100220 245.00000000 0.723567 0.607019 -0.328600 0.000000
220.46899414 171.32800293 376.25000000 0.390177 0.785210 0.480840 0.000000
149.41400146 161.36700439 383.75000000 0.000978 0.000978 0.999999 0.000000
141.77699280 114.88300323 317.50000000 0.839277 -0.393754 0.374929 0.000000
63.75000000 211.83599854 248.75000000 -0.968571 0.247886 0.020556 0.000000
207.18800354 128.16400146 376.25000000 0.000978 0.000978 0.999999 0.000000
51.79690170 196.56199646 266.25000000 -0.970603 0.096934 -0.220305 0.000000
110.23400116 203.86700439 381.25000000 0.000978 0.000978 0.999999 0.000000
129.49200439 206.52299500 373.75000000 0.567706 0.273574 0.776445 0.000000
81.01560211 219.14100647 286.25000000 0.757180 0.397397 -0.518415 0.000000
87.32420349 179.29699707 245.00000000 0.699997 0.631784 -0.332945 0.000000
195.89799500 166.67999268 348.75000000 0.529746 0.690173 -0.492981 0.000000
42.16799927 165.35200500 317.50000000 -0.862835 -0.214583 -0.457678 0.000000
58.43750000 239.72700500 366.25000000 0.026558 0.616430 0.786962 0.000000
73.04689789 183.94500732 386.25000000 0.000978 0.000978 0.999999 0.000000
105.91799927 173.32000732 267.50000000 0.719510 0.595513 -0.357308 0.000000
89.31639862 152.07000732 220.00000000 0.903456 0.254143 -0.345223 0.000000
119.53099823 240.39100647 326.25000000 0.427921 -0.427921 -0.796095 0.000000
51.79690170 157.38299561 286.25000000 -0.939071 -0.313930 -0.139977 0.000000
106.25000000 100.60500336 325.00000000 -0.358956 -0.919209 -0.161882 0.000000
58.43750000 239.72700500 303.75000000 -0.000978 -0.000978 -0.999999 0.000000
150.74200439 106.25000000 326.25000000 -0.612809 -0.420164 -0.669274 0.000000
89.31639862 213.16400146 292.50000000 0.657230 0.522758 -0.542929 0.000000
207.18800354 104.58999634 375.00000000 0.262963 -0.309453 0.913832 0.000000
213.16400146 172.65600586 376.25000000 0.000978 0.000978 0.999999 0.000000
97.61720276 195.56599426 282.50000000 0.624964 0.454062 -0.635017 0.000000
43.16410065 201.21099854 371.25000000 -0.615036 0.198846 0.763014 0.000000
212.50000000 130.82000732 346.25000000 0.695809 0.230889 -0.680103 0.000000
207.85200500 158.04699707 353.75000000 0.434866 0.537382 -0.722573 0.000000
226.44500732 160.70300293 366.25000000 0.521849 0.195126 -0.830421 0.000000
148.08599854 142.77299500 383.75000000 -0.000978 -0.000978 0.999999 0.000000
126.83599854 127.50000000 283.75000000 0.459822 0.767460 -0.446731 0.000000
192.91000366 163.35899353 340.00000000 0.691103 0.564540 -0.451299 0.000000
104.25800323 241.05499268 366.25000000 0.170174 0.558713 0.811715 0.000000
162.03100586 129.49200439 306.25000000 -0.085793 0.629635 -0.772139 0.000000
237.07000732 139.78500366 375.00000000 -0.006778 -0.535459 0.844534 0.000000
166.67999268 132.81199646 381.25000000 0.000978 0.000978 0.999999 0.000000
41.83589935 153.39799500 346.25000000 -0.905994 -0.401568 -0.133856 0.000000
74.70700073 129.49200439 370.00000000 -0.330367 -0.681891 0.652597 0.000000
128.16400146 173.32000732 326.25000000 0.499974 -0.160759 -0.850989 0.000000
142.10899353 186.93400574 352.50000000 0.576046 0.766475 0.284056 0.000000
132.14799500 124.18000031 378.75000000 0.000978 0.000978 0.999999 0.000000
139.78500366 192.57800293 347.50000000 0.780859 0.520036 0.346154 0.000000
87.98829651 155.39100647 220.00000000 0.867536 0.294261 -0.400988 0.000000
89.64839935 174.64799500 388.75000000 0.000978 0.000978 0.999999 0.000000
166.01600647 134.14100647 381.25000000 0.000978 0.000978 0.999999 0.000000
40.17580032 205.85899353 367.50000000 -0.424697 0.069645 0.902653 0.000000
92.96880341 245.70300293 363.75000000 0.136592 0.736999 0.661948 0.000000
179.29699707 126.83599854 381.25000000 0.000978 0.000978 0.999999 0.000000
42.83200073 182.61700439 370.00000000 -0.604823 -0.303214 0.736376 0.000000
97.61720276 240.39100647 366.25000000 0.104355 0.496045 0.862003 0.000000
108.24199677 138.45700073 262.50000000 0.631682 0.773634 -0.049683 0.000000
81.67970276 119.53099823 278.75000000 -0.674976 -0.674976 -0.298020 0.000000
41.83589935 181.95300293 368.75000000 -0.724161 -0.117472 0.679552 0.000000
85.00000000 197.22700500 271.25000000 0.653566 0.669946 -0.352172 0.000000
60.42969894 153.06599426 245.00000000 -0.873352 -0.453556 -0.177606 0.000000
108.90599823 158.71099854 263.75000000 0.883337 -0.001320 -0.468736 0.000000
124.84400177 177.96899414 293.75000000 0.704976 -0.189742 -0.683379 0.000000
130.82000732 129.49200439 378.75000000 0.000978 0.000978 0.999999 0.000000
87.32420349 157.38299561 220.00000000 0.823263 0.363251 -0.436218 0.000000
136.79699707 175.97700500 383.75000000 0.276078 0.425557 0.861790 0.000000
185.93800354 134.47300720 322.50000000 0.560284 0.189798 -0.806262 0.000000
64.41410065 150.74200439 378.75000000 -0.474670 -0.381345 0.793262 0.000000
42.50000000 180.62500000 368.75000000 -0.724161 -0.117472 0.679552 0.000000
73.04689789 199.88299561 238.75000000 0.771373 0.593724 -0.229075 0.000000
49.14059830 185.27299500 376.25000000 -0.619218 0.094704 0.779487 0.000000
72.71479797 120.19499969 312.50000000 -0.627047 -0.758254 -0.178502 0.000000
125.50800323 172.98800659 325.00000000 0.618287 -0.282783 -0.733318 0.000000
102.26599884 243.71099854 316.25000000 0.620255 0.282224 -0.731869 0.000000
125.83999634 122.18800354 260.00000000 0.801967 0.592509 -0.076036 0.000000
108.24199677 153.39799500 291.25000000 0.503875 -0.428376 -0.750069 0.000000
167.34399414 162.69500732 323.75000000 0.121871 -0.562368 -0.817857 0.000000
124.84400177 221.46499634 320.00000000 0.818044 0.272681 -0.506408 0.000000
100.27300262 240.39100647 313.75000000 0.422019 0.365118 -0.829813 0.000000
149.41400146 160.03900146 383.75000000 0.000978 0.000978 0.999999 0.000000
148.75000000 145.09800720 315.00000000 0.580392 0.466655 -0.667367 0.000000
110.89800262 221.79699707 376.25000000 0.017406 0.475305 0.879649 0.000000
170.00000000 166.01600647 323.75000000 0.387747 -0.097279 -0.916618 0.000000
102.93000031 253.00799561 356.25000000 0.213610 0.700078 0.681368 0.000000
43.49610138 201.87500000 297.50000000 -0.966452 0.001195 -0.256844 0.000000
185.27299500 123.84799957 315.00000000 0.462834 0.556403 -0.690073 0.000000
52.12889862 201.87500000 267.50000000 -0.949628 0.154466 -0.272666 0.000000
74.37500000 165.35200500 386.25000000 0.000978 0.000978 0.999999 0.000000
129.49200439 142.77299500 383.75000000 0.051758 -0.281515 0.958160 0.000000
193.24200439 162.69500732 378.75000000 0.000978 0.000978 0.999999 0.000000
95.95700073 138.12500000 227.50000000 0.888281 0.178819 -0.423060 0.000000
78.35939789 197.89100647 256.25000000 0.923575 0.229823 -0.306907 0.000000
141.11300659 104.25800323 307.50000000 0.897648 -0.389710 -0.205802 0.000000
144.76600647 167.34399414 331.25000000 0.158605 -0.626866 -0.762813 0.000000
137.12899780 106.91400146 317.50000000 0.729405 -0.554875 0.400103 0.000000
200.54699707 166.67999268 378.75000000 0.045790 0.047920 0.997801 0.000000
102.26599884 106.25000000 363.75000000 0.001367 -0.600218 0.799835 0.000000
85.00000000 184.27699280 250.00000000 0.738783 0.632122 -0.233713 0.000000
80.35160065 144.10200500 383.75000000 -0.267824 -0.375552 0.887260 0.000000
134.80499268 102.59799957 262.50000000 -0.001195 -0.966452 -0.256844 0.000000
152.73399353 154.72700500 383.75000000 0.000978 0.000978 0.999999 0.000000
115.54699707 165.68400574 292.50000000 0.694716 -0.694716 0.186387 0.000000
84.00389862 111.56199646 317.50000000 -0.316719 -0.944899 -0.082794 0.000000
110.23400116 246.69900513 360.00000000 0.352036 0.640214 0.682786 0.000000
136.79699707 199.21899414 373.75000000 0.308265 0.507452 0.804652 0.000000
38.51559830 183.94500732 316.25000000 -0.966452 -0.001195 -0.256844 0.000000
54.45309830 195.23399353 378.75000000 0.000978 0.000978 0.999999 0.000000
155.39100647 100.60500336 360.00000000 0.001195 -0.966452 0.256844 0.000000
85.66410065 260.31201172 348.75000000 -0.081316 0.831701 0.549237 0.000000
224.45300293 165.35200500 368.75000000 0.735447 0.279183 -0.617393 0.000000
139.45300293 220.80099487 340.00000000 0.853827 0.342460 -0.392047 0.000000
152.73399353 160.70300293 383.75000000 0.000978 0.000978 0.999999 0.000000
71.71880341 153.39799500 383.75000000 -0.067393 -0.159614 0.984877 0.000000
73.04689789 223.12500000 376.25000000 -0.166077 0.373319 0.912716 0.000000
111.56199646 196.56199646 291.25000000 0.354596 0.599709 -0.717363 0.000000
219.80499268 171.32800293 376.25000000 0.209171 0.618217 0.757664 0.000000
122.18800354 158.04699707 386.25000000 0.000978 0.000978 0.999999 0.000000
75.03910065 186.60200500 386.25000000 0.000978 0.000978 0.999999 0.000000
164.02299500 179.29699707 371.25000000 0.212388 0.627863 0.748785 0.000000
36.85549927 171.99200439 327.50000000 -0.938978 -0.301078 -0.166349 0.000000
65.74220276 155.39100647 381.25000000 -0.471890 -0.166117 0.865867 0.000000
82.34380341 183.94500732 388.75000000 -0.042843 0.349236 0.936055 0.000000
159.37500000 109.56999969 381.25000000 -0.023197 -0.517164 0.855572 0.000000
67.07029724 123.18399811 350.00000000 -0.699008 -0.710633 0.079928 0.000000
145.42999268 180.62500000 321.25000000 -0.030116 0.232492 -0.972132 0.000000
68.39839935 255.33200073 350.00000000 -0.243523 0.879968 0.407863 0.000000
94.29689789 211.83599854 296.25000000 0.421240 0.496637 -0.758887 0.000000
90.97660065 128.82800293 226.25000000 -0.568852 -0.612740 -0.548596 0.000000
42.50000000 201.21099854 371.25000000 -0.615036 0.198846 0.763014 0.000000
64.74610138 124.84400177 340.00000000 -0.705724 -0.708486 -0.001381 0.000000
175.97700500 99.94139862 340.00000000 -0.164435 -0.985444 0.043150 0.000000
154.72700500 108.57399750 315.00000000 -0.513552 -0.856842 -0.045680 0.000000
83.33979797 194.57000732 265.00000000 0.697369 0.581417 -0.419084 0.000000
86.66020203 216.48399353 292.50000000 0.587383 0.506597 -0.631142 0.000000
71.05470276 120.85900116 316.25000000 -0.617391 -0.769084 -0.165345 0.000000
199.21899414 103.26200104 375.00000000 0.097864 -0.489321 0.866595 0.000000
132.14799500 179.96099854 383.75000000 0.453431 0.496300 0.740329 0.000000
118.20300293 126.83599854 378.75000000 -0.058591 -0.624493 0.778830 0.000000
191.91400146 164.02299500 378.75000000 0.000978 0.000978 0.999999 0.000000
234.41400146 124.84400177 358.75000000 0.207093 0.308527 -0.928398 0.000000
111.23000336 225.78100586 372.50000000 0.069917 0.583589 0.809034 0.000000
198.55499268 139.45300293 378.75000000 0.000978 0.000978 0.999999 0.000000
125.17600250 101.60199738 367.50000000 -0.387663 -0.668099 0.635107 0.000000
32.20700073 217.81199646 342.50000000 -0.888048 0.366900 0.277047 0.000000
173.32000732 103.92600250 305.00000000 -0.333318 -0.934651 -0.123804 0.000000
84.33589935 228.43800354 373.75000000 -0.176484 0.436105 0.882420 0.000000
93.63279724 209.17999268 293.75000000 0.457701 0.534262 -0.710685 0.000000
73.71089935 123.18399811 292.50000000 -0.641026 -0.757036 -0.126421 0.000000
184.60899353 112.89099884 381.25000000 -0.000978 -0.000978 0.999999 0.000000
196.56199646 136.79699707 378.75000000 0.234612 0.114101 0.965370 0.000000
110.89800262 158.71099854 288.75000000 0.918162 -0.079781 0.388089 0.000000
98.28119659 235.74200439 311.25000000 0.396313 0.283948 -0.873103 0.000000
156.71899414 103.92600250 375.00000000 -0.095451 -0.859059 0.502899 0.000000
54.45309830 229.76600647 368.75000000 -0.419730 0.317508 0.850303 0.000000
77.69529724 193.24200439 243.75000000 0.827115 0.536952 -0.166021 0.000000
108.90599823 241.05499268 321.25000000 0.607360 0.553222 -0.570140 0.000000
121.52300262 130.15600586 381.25000000 -0.405601 -0.260851 0.876039 0.000000
141.44500732 165.35200500 386.25000000 -0.240476 0.443141 0.863596 0.000000
152.07000732 163.35899353 383.75000000 0.000978 0.000978 0.999999 0.000000
158.04699707 127.50000000 381.25000000 0.000978 0.000978 0.999999 0.000000
144.10200500 182.94900513 362.50000000 0.826289 0.558918 0.069687 0.000000
130.15600586 240.72300720 347.50000000 0.684073 0.729022 0.023879 0.000000
106.91400146 217.14799500 378.75000000 0.154227 0.497934 0.853391 0.000000
104.92199707 102.93000031 313.75000000 -0.284793 -0.932941 -0.220258 0.000000
47.81250000 170.00000000 371.25000000 -0.701796 -0.153092 0.695733 0.000000
218.47700500 152.07000732 358.75000000 0.558768 0.294507 -0.775270 0.000000
233.75000000 97.28520203 352.50000000 0.111873 -0.990713 0.077273 0.000000
222.79299927 101.60199738 370.00000000 0.189007 -0.650001 0.736053 0.000000
65.74220276 213.82800293 378.75000000 -0.106697 0.248102 0.962840 0.000000
125.50800323 209.84399414 311.25000000 0.514913 0.616207 -0.595948 0.000000
132.81199646 162.69500732 331.25000000 0.416151 0.104386 -0.903284 0.000000
215.82000732 118.53500366 342.50000000 0.806184 0.477325 -0.349612 0.000000
51.13280106 153.06599426 302.50000000 -0.895990 -0.408318 -0.174581 0.000000
76.36720276 158.71099854 386.25000000 -0.170460 0.104238 0.979836 0.000000
92.30470276 116.21099854 368.75000000 0.065699 -0.501826 0.862470 0.000000
140.11700439 223.78900146 343.75000000 0.842530 0.351705 -0.407978 0.000000
97.61720276 185.93800354 271.25000000 0.625987 0.588866 -0.511251 0.000000
68.73049927 121.52300262 332.50000000 -0.701329 -0.712528 -0.020998 0.000000
134.80499268 112.22699738 263.75000000 0.686750 0.670742 -0.280143 0.000000
209.17999268 136.79699707 343.75000000 0.832753 0.474747 -0.284848 0.000000
171.99200439 126.17199707 306.25000000 0.312185 0.565134 -0.763652 0.000000
130.82000732 215.82000732 323.75000000 0.487518 0.541128 -0.685206 0.000000
150.74200439 140.11700439 311.25000000 0.662002 0.662002 -0.351433 0.000000
40.17580032 158.71099854 340.00000000 -0.888502 -0.443543 -0.117617 0.000000
144.76600647 181.95300293 321.25000000 -0.030116 0.232492 -0.972132 0.000000
63.41799927 143.43800354 260.00000000 -0.862512 0.122393 0.491013 0.000000
225.44900513 158.71099854 365.00000000 0.573183 0.072899 -0.816178 0.000000
90.31250000 187.92999268 266.25000000 0.630614 0.610434 -0.479266 0.000000
54.78519821 167.34399414 377.50000000 -0.459144 -0.224303 0.859578 0.000000
45.48830032 221.13299561 305.00000000 -0.913705 0.195896 -0.356045 0.000000
112.89099884 160.03900146 308.75000000 0.448235 0.791288 -0.415871 0.000000
114.88300323 154.06199646 386.25000000 0.000978 0.000978 0.999999 0.000000
140.44900513 199.21899414 337.50000000 0.999003 -0.044059 -0.007172 0.000000
81.34770203 173.98399353 220.00000000 0.939189 0.267745 -0.215028 0.000000
92.96880341 167.34399414 388.75000000 0.000978 0.000978 0.999999 0.000000
203.20300293 95.95700073 332.50000000 -0.080114 -0.996620 -0.018159 0.000000
125.50800323 191.91400146 381.25000000 0.231679 0.111360 0.966397 0.000000
73.04689789 248.35899353 358.75000000 0.129857 0.841882 0.523805 0.000000
98.28119659 142.77299500 236.25000000 0.837592 0.416439 -0.353580 0.000000
91.64060211 123.18399811 235.00000000 0.001026 -0.998629 -0.052343 0.000000
120.19499969 208.51600647 376.25000000 0.412984 0.250794 0.875526 0.000000
120.85900116 147.42199707 386.25000000 0.000978 0.000978 0.999999 0.000000
42.83200073 181.95300293 302.50000000 -0.888281 -0.178819 -0.423060 0.000000
119.53099823 102.93000031 276.25000000 -0.299022 -0.945340 -0.130068 0.000000
35.52730179 175.97700500 330.00000000 -0.942864 -0.213974 -0.255388 0.000000
179.29699707 132.81199646 381.25000000 0.040939 -0.394864 0.917827 0.000000
52.46089935 182.61700439 378.75000000 -0.482479 -0.001329 0.875906 0.000000
173.32000732 153.39799500 381.25000000 0.000978 0.000978 0.999999 0.000000
58.43750000 162.03100586 241.25000000 -0.939189 -0.267745 -0.215028 0.000000
92.96880341 106.58200073 355.00000000 -0.454248 -0.800953 0.390043 0.000000
56.77730179 181.95300293 242.50000000 -0.966452 -0.001195 -0.256844 0.000000
48.14450073 231.75799561 312.50000000 -0.711758 0.610776 -0.346921 0.000000
43.16410065 156.38699341 330.00000000 -0.853647 -0.478583 -0.205535 0.000000
96.95310211 191.25000000 278.75000000 0.532073 0.717719 -0.449196 0.000000
35.19530106 174.64799500 331.25000000 -0.943615 -0.201909 -0.262344 0.000000
112.22699738 99.94139862 317.50000000 -0.286072 -0.944987 -0.158628 0.000000
83.67189789 258.65200806 322.50000000 -0.226326 0.814464 -0.534252 0.000000
112.22699738 186.60200500 383.75000000 -0.150341 0.375150 0.914691 0.000000
78.35939789 120.19499969 286.25000000 -0.548689 -0.825240 -0.133862 0.000000
199.21899414 152.40199280 342.50000000 0.744242 0.422230 -0.517519 0.000000
225.78100586 104.92199707 341.25000000 0.542401 0.626887 -0.559298 0.000000
84.33589935 154.06199646 386.25000000 0.000978 0.000978 0.999999 0.000000
49.14059830 179.96099854 376.25000000 -0.549994 -0.115251 0.827179 0.000000
122.85199738 158.04699707 313.75000000 0.375592 0.807122 -0.455505 0.000000
120.19499969 130.15600586 381.25000000 -0.056735 -0.276110 0.959450 0.000000
51.79690170 238.39799500 316.25000000 -0.780749 0.567104 -0.262344 0.000000
205.85899353 100.60500336 370.00000000 -0.966452 0.001195 0.256844 0.000000
113.55500031 161.03500366 312.50000000 0.330983 0.863634 -0.380245 0.000000
201.21099854 133.80900574 335.00000000 0.719253 0.321643 -0.615810 0.000000
136.79699707 124.18000031 286.25000000 0.574322 0.737020 -0.356308 0.000000
114.21900177 97.28520203 335.00000000 -0.140362 -0.989384 0.037658 0.000000
70.72270203 129.49200439 272.50000000 -0.681495 -0.711987 -0.169230 0.000000
150.07800293 185.60499573 325.00000000 0.094422 0.877981 -0.469290 0.000000
131.48399353 206.52299500 371.25000000 0.430697 0.283555 0.856795 0.000000
140.11700439 157.38299561 333.75000000 0.806427 -0.213511 -0.551442 0.000000
228.43800354 158.71099854 368.75000000 0.604021 0.026504 -0.796527 0.000000
102.26599884 236.40600586 313.75000000 0.546041 0.223031 -0.807525 0.000000
50.80080032 148.08599854 315.00000000 -0.873458 -0.466325 -0.140042 0.000000
172.65600586 145.76199341 382.50000000 -0.248523 0.279765 0.927345 0.000000
106.91400146 233.75000000 368.75000000 0.145744 0.448776 0.881679 0.000000
86.32810211 179.62899780 242.50000000 0.696235 0.641056 -0.322962 0.000000
54.45309830 240.39100647 361.25000000 -0.423135 0.735959 0.528508 0.000000
140.11700439 168.67199707 383.75000000 -0.153407 0.370147 0.916219 0.000000
81.01560211 208.51600647 278.75000000 0.673279 0.603457 -0.427241 0.000000
126.83599854 169.33599854 326.25000000 0.539308 -0.155998 -0.827533 0.000000
159.04299927 162.69500732 325.00000000 -0.652662 -0.248106 -0.715874 0.000000
66.40619659 138.12500000 261.25000000 -0.766453 -0.540551 -0.346921 0.000000
78.02729797 188.59399414 232.50000000 0.870284 0.374727 -0.319665 0.000000
112.89099884 134.14100647 381.25000000 0.006367 -0.365448 0.930810 0.000000
144.76600647 143.10499573 310.00000000 0.277184 0.581294 -0.765027 0.000000
235.74200439 157.38299561 378.75000000 0.085072 0.117702 0.989398 0.000000
50.13669968 203.86700439 275.00000000 -0.912587 0.235739 -0.334085 0.000000
78.35939789 192.57800293 386.25000000 -0.131340 0.202748 0.970383 0.000000
54.78519821 233.75000000 300.00000000 -0.831815 0.452721 -0.321134 0.000000
116.87500000 175.31199646 283.75000000 0.817221 -0.100157 -0.567555 0.000000
69.06250000 144.10200500 233.75000000 -0.740570 -0.486566 -0.463475 0.000000
118.20300293 173.32000732 308.75000000 -0.132102 -0.797067 0.589265 0.000000
72.05079651 219.80499268 272.50000000 0.647752 0.323064 0.689961 0.000000
64.41410065 182.94900513 220.00000000 -0.854009 0.284670 -0.435468 0.000000
67.07029724 204.53100586 236.25000000 -0.477716 0.256523 -0.840228 0.000000
132.81199646 195.89799500 311.25000000 0.845121 0.253076 -0.470875 0.000000
103.59400177 146.09399414 386.25000000 -0.024451 -0.359044 0.933000 0.000000
134.80499268 97.94920349 292.50000000 -0.130645 -0.987491 0.088274 0.000000
79.02339935 177.30499268 388.75000000 -0.321663 0.105441 0.940965 0.000000
59.76559830 248.35899353 323.75000000 -0.427921 0.427921 -0.796095 0.000000
206.52299500 107.57800293 376.25000000 0.086651 -0.345270 0.934495 0.000000
133.14500427 101.60199738 317.50000000 0.784813 -0.558334 0.268944 0.000000
108.90599823 170.66400146 386.25000000 0.000978 0.000978 0.999999 0.000000
117.53900146 170.33200073 305.00000000 0.099116 -0.840334 0.532930 0.000000
173.98399353 102.93000031 371.25000000 0.001195 -0.966452 0.256844 0.000000
148.75000000 148.08599854 316.25000000 0.561415 0.454796 -0.691357 0.000000
176.64100647 164.68800354 331.25000000 0.409964 -0.128202 -0.903047 0.000000
225.11700439 118.20300293 373.75000000 0.358464 -0.327956 0.874041 0.000000
56.11330032 140.11700439 312.50000000 -0.775845 -0.589269 -0.225446 0.000000
41.17190170 181.28900146 368.75000000 -0.724161 -0.117472 0.679552 0.000000
141.44500732 217.14799500 341.25000000 0.844101 0.273137 -0.461401 0.000000
95.29299927 227.10899353 305.00000000 0.445040 0.419147 -0.791363 0.000000
121.52300262 195.89799500 381.25000000 0.000978 0.000978 0.999999 0.000000
131.48399353 114.21900177 258.75000000 0.764307 0.639106 -0.085894 0.000000
101.60199738 106.58200073 292.50000000 -0.369815 -0.927828 -0.048695 0.000000
104.58999634 138.78900146 247.50000000 0.734581 0.630318 -0.251179 0.000000
228.43800354 132.14799500 358.75000000 0.436933 -0.219212 -0.872374 0.000000
36.19139862 183.28100586 362.50000000 -0.766853 -0.142566 0.625788 0.000000
135.46899414 175.64500427 325.00000000 0.398629 -0.636814 -0.659971 0.000000
182.61700439 119.86299896 310.00000000 0.484712 0.675913 -0.555154 0.000000
136.79699707 177.63699341 382.50000000 0.258409 0.352913 0.899265 0.000000
127.50000000 110.89800262 373.75000000 -0.204306 -0.231366 0.951172 0.000000
142.10899353 187.26600647 351.25000000 0.576046 0.766475 0.284056 0.000000
79.68750000 171.99200439 388.75000000 0.000978 0.000978 0.999999 0.000000
100.27300262 148.75000000 386.25000000 0.000978 0.000978 0.999999 0.000000
36.85549927 199.21899414 365.00000000 -0.576932 -0.174140 0.798013 0.000000
81.67970276 225.11700439 291.25000000 0.761066 0.298363 -0.575985 0.000000
52.12889862 164.68800354 375.00000000 -0.506876 -0.207290 0.836724 0.000000
227.77299500 165.35200500 378.75000000 0.108194 0.187785 0.976233 0.000000
86.99220276 264.29699707 336.25000000 -0.343829 0.921122 0.182526 0.000000
135.46899414 138.12500000 383.75000000 -0.114953 -0.246698 0.962250 0.000000
146.75799561 170.33200073 382.50000000 0.283172 0.861760 0.420931 0.000000
171.32800293 100.60500336 337.50000000 -0.219280 -0.975500 0.017779 0.000000
195.89799500 156.71899414 338.75000000 0.543012 0.136857 -0.828498 0.000000
191.91400146 124.84400177 378.75000000 0.450479 -0.154988 0.879231 0.000000
98.28119659 222.46099854 303.75000000 0.485078 0.372269 -0.791274 0.000000
132.14799500 225.78100586 363.75000000 0.367230 0.519299 0.771668 0.000000
181.95300293 165.35200500 378.75000000 0.000978 0.000978 0.999999 0.000000
127.83200073 240.39100647 355.00000000 0.580454 0.637658 0.506425 0.000000
75.03910065 186.93400574 220.00000000 0.683080 0.590008 -0.430457 0.000000
162.69500732 173.98399353 373.75000000 -0.284546 0.586579 0.758260 0.000000
155.39100647 134.80499268 338.75000000 -0.911815 -0.055058 0.406893 0.000000
143.43800354 203.20300293 348.75000000 0.846683 -0.413206 -0.335243 0.000000
110.89800262 201.21099854 381.25000000 0.019298 0.366659 0.930155 0.000000
69.06250000 145.42999268 378.75000000 -0.384909 -0.768194 0.511588 0.000000
136.79699707 129.82400513 292.50000000 0.294347 0.657856 -0.693242 0.000000
110.89800262 164.02299500 296.25000000 0.524935 -0.765463 0.372168 0.000000
89.64839935 244.04299927 307.50000000 0.630209 0.414042 -0.656814 0.000000
230.42999268 159.37500000 378.75000000 0.000978 0.000978 0.999999 0.000000
45.82030106 196.56199646 288.75000000 -0.966452 -0.001195 -0.256844 0.000000
214.16000366 145.42999268 377.50000000 0.262788 -0.265628 0.927569 0.000000
101.60199738 133.47700500 381.25000000 -0.099775 -0.550931 0.828565 0.000000
68.39839935 188.59399414 218.75000000 -0.497209 0.611820 -0.615191 0.000000
94.96089935 254.33599854 356.25000000 0.046864 0.756917 0.651829 0.000000
143.10499573 183.28100586 372.50000000 0.869590 0.437048 0.229788 0.000000
37.51950073 162.03100586 345.00000000 -0.420566 -0.842695 0.336140 0.000000
168.67199707 145.42999268 381.25000000 -0.291508 0.068061 0.954144 0.000000
113.55500031 211.83599854 378.75000000 0.000978 0.000978 0.999999 0.000000
168.00799561 178.63299561 326.25000000 0.514693 0.514693 -0.685698 0.000000
166.67999268 102.93000031 328.75000000 -0.271557 -0.945674 -0.178764 0.000000
102.93000031 171.99200439 261.25000000 0.662182 0.571656 -0.484483 0.000000
221.79699707 160.03900146 363.75000000 0.411879 0.327949 -0.850180 0.000000
216.48399353 168.67199707 363.75000000 0.823263 0.363251 -0.436218 0.000000
142.77299500 138.12500000 303.75000000 0.497635 0.717327 -0.487649 0.000000
227.77299500 158.71099854 366.25000000 0.604148 0.009633 -0.796814 0.000000
114.21900177 183.94500732 283.75000000 0.657224 0.402281 -0.637359 0.000000
55.11719894 230.42999268 293.75000000 -0.721506 0.576876 -0.382940 0.000000
95.62500000 196.56199646 281.25000000 0.624964 0.454062 -0.635017 0.000000
59.10160065 222.46099854 271.25000000 -0.535563 0.702406 -0.468827 0.000000
230.76199341 114.88300323 355.00000000 0.396864 0.371766 -0.839219 0.000000
77.69529724 123.51599884 366.25000000 -0.460315 -0.634398 0.621007 0.000000
213.16400146 173.98399353 366.25000000 0.589265 0.797067 -0.132102 0.000000
53.78910065 139.78500366 327.50000000 -0.835882 -0.537456 -0.111547 0.000000
129.82400513 213.82800293 370.00000000 0.348131 0.288366 0.891992 0.000000
142.10899353 205.19500732 343.75000000 0.887260 -0.375552 -0.267824 0.000000
197.22700500 114.21900177 316.25000000 0.867355 0.316653 -0.383961 0.000000
50.13669968 148.75000000 365.00000000 -0.616777 -0.616777 0.489052 0.000000
213.82800293 162.03100586 358.75000000 0.328106 0.364732 -0.871388 0.000000
74.04299927 249.02299500 307.50000000 0.218898 -0.179098 -0.959170 0.000000
88.98439789 180.62500000 251.25000000 0.694716 0.694716 -0.186387 0.000000
92.96880341 154.72700500 386.25000000 -0.839650 0.480458 0.253276 0.000000
46.48440170 224.78500366 367.50000000 -0.336038 0.715906 0.612011 0.000000
114.88300323 235.74200439 366.25000000 0.239174 0.598716 0.764418 0.000000
65.07810211 150.07800293 378.75000000 -0.429489 -0.478480 0.765895 0.000000
170.00000000 138.12500000 313.75000000 0.332686 0.347877 -0.876528 0.000000
65.07810211 158.04699707 381.25000000 -0.362864 -0.239461 0.900549 0.000000
61.75780106 216.48399353 258.75000000 -0.091324 0.993285 -0.071029 0.000000
47.81250000 151.07400513 322.50000000 -0.836064 -0.523099 -0.165424 0.000000
135.46899414 206.52299500 371.25000000 0.402476 0.284011 0.870259 0.000000
245.37100220 143.43800354 375.00000000 0.884251 -0.102951 0.455523 0.000000
97.61720276 221.79699707 303.75000000 0.468396 0.366084 -0.804107 0.000000
42.50000000 176.64100647 368.75000000 -0.686111 -0.143254 0.713253 0.000000
84.33589935 246.36700439 306.25000000 0.307767 0.540586 -0.782973 0.000000
65.74220276 169.33599854 383.75000000 -0.400694 -0.130753 0.906834 0.000000
135.46899414 144.76600647 383.75000000 0.000978 0.000978 0.999999 0.000000
236.40600586 125.50800323 371.25000000 0.377639 -0.087980 0.921764 0.000000
110.23400116 160.70300293 266.25000000 0.904845 -0.011785 -0.425578 0.000000
148.08599854 130.15600586 381.25000000 -0.050478 -0.165522 0.984913 0.000000
82.67579651 173.32000732 225.00000000 0.937320 0.279942 -0.207519 0.000000
179.96099854 103.26200104 305.00000000 -0.141204 -0.983598 -0.112239 0.000000
88.32029724 226.44500732 298.75000000 0.679828 0.449321 -0.579607 0.000000
106.25000000 105.91799927 280.00000000 -0.335365 -0.936060 -0.106401 0.000000
160.70300293 102.93000031 373.75000000 -0.016449 -0.940146 0.340376 0.000000
81.01560211 139.12100220 380.00000000 -0.121684 -0.555643 0.822468 0.000000
111.56199646 154.06199646 386.25000000 0.000978 0.000978 0.999999 0.000000
242.38299561 146.09399414 368.75000000 0.143127 -0.059345 -0.987924 0.000000
110.89800262 98.28119659 348.75000000 -0.140362 -0.989384 0.037658 0.000000
98.28119659 107.91000366 292.50000000 -0.369815 -0.927828 -0.048695 0.000000
105.58599854 159.37500000 256.25000000 0.913644 0.199367 -0.354270 0.000000
170.66400146 101.26999664 337.50000000 -0.384343 -0.923189 -0.001277 0.000000
65.41020203 242.38299561 300.00000000 -0.247445 0.922556 -0.296076 0.000000
231.09399414 158.71099854 368.75000000 0.509396 0.107619 -0.853776 0.000000
106.91400146 168.67199707 386.25000000 0.140592 0.083883 0.986508 0.000000
54.12110138 155.39100647 275.00000000 -0.913435 -0.384678 -0.132889 0.000000
82.34380341 110.23400116 331.25000000 -0.564371 -0.816506 -0.121670 0.000000
42.83200073 158.04699707 327.50000000 -0.662002 -0.662002 -0.351433 0.000000
118.86699677 251.01600647 346.25000000 0.630903 0.667333 0.395763 0.000000
48.47660065 234.08200073 315.00000000 -0.752057 0.550642 -0.362222 0.000000
98.28119659 138.45700073 232.50000000 0.734749 0.550651 -0.396140 0.000000
132.47999573 206.52299500 317.50000000 0.134234 0.408354 -0.902900 0.000000
100.93800354 102.26599884 321.25000000 0.001059 -0.996132 -0.087863 0.000000
238.06599426 122.85199738 360.00000000 0.459677 0.357880 -0.812785 0.000000
107.91000366 235.74200439 317.50000000 0.410123 0.323455 -0.852746 0.000000
211.17199707 134.80499268 346.25000000 0.808741 0.203332 -0.551901 0.000000
116.21099854 152.73399353 298.75000000 0.666924 0.492213 -0.559410 0.000000
47.14839935 145.42999268 341.25000000 -0.821596 -0.546234 -0.163122 0.000000
184.60899353 151.40600586 381.25000000 0.000978 0.000978 0.999999 0.000000
89.64839935 109.56999969 358.75000000 -0.322075 -0.891323 0.319079 0.000000
192.57800293 120.19499969 318.75000000 0.420566 -0.842695 -0.336140 0.000000
151.40600586 120.85900116 293.75000000 0.590975 0.437821 -0.677541 0.000000
101.60199738 229.76600647 373.75000000 0.171117 0.782899 0.598153 0.000000
116.54299927 143.43800354 295.00000000 0.436751 0.446493 -0.780956 0.000000
68.39839935 209.17999268 246.25000000 0.157369 0.568026 -0.807825 0.000000
97.61720276 111.56199646 268.75000000 -0.490395 -0.838714 -0.236795 0.000000
193.24200439 97.94920349 350.00000000 -0.113547 -0.993263 0.023150 0.000000
185.93800354 164.02299500 378.75000000 0.000978 0.000978 0.999999 0.000000
119.53099823 220.46899414 371.25000000 0.307485 0.418735 0.854467 0.000000
222.46099854 129.49200439 356.25000000 0.657490 0.492697 -0.570049 0.000000
134.47300720 179.29699707 307.50000000 0.384909 -0.768194 0.511588 0.000000
85.00000000 261.64099121 326.25000000 -0.081376 0.835173 -0.543933 0.000000
56.77730179 146.09399414 287.50000000 -0.999999 -0.000978 -0.000978 0.000000
87.65619659 110.23400116 308.75000000 -0.554405 -0.809583 -0.192902 0.000000
95.62500000 257.32400513 352.50000000 -0.001376 0.777500 0.628881 0.000000
57.10940170 137.46099854 316.25000000 -0.774424 -0.591294 -0.225033 0.000000
218.47700500 107.57800293 373.75000000 0.270476 -0.320185 0.907923 0.000000
152.07000732 136.13299561 306.25000000 0.272458 0.677161 -0.683535 0.000000
175.97700500 142.77299500 318.75000000 0.482222 0.518931 -0.705813 0.000000
141.77699280 160.70300293 335.00000000 0.586918 -0.009622 -0.809589 0.000000
186.60200500 99.27729797 357.50000000 0.001098 -0.991141 0.132811 0.000000
134.80499268 195.89799500 376.25000000 0.127243 0.539684 0.832196 0.000000
63.08589935 236.73800659 292.50000000 -0.444904 0.726070 -0.524292 0.000000
217.81199646 158.71099854 358.75000000 -0.000978 -0.000978 -0.999999 0.000000
140.11700439 118.20300293 336.25000000 0.773996 -0.325303 -0.543239 0.000000
244.37500000 148.75000000 376.25000000 0.365513 -0.037722 0.930042 0.000000
215.82000732 95.95700073 357.50000000 0.000000 0.000000 0.000000 0.000000
118.86699677 221.79699707 316.25000000 0.000978 0.000978 -0.999999 0.000000
137.46099854 175.31199646 326.25000000 -0.283101 -0.673364 -0.682961 0.000000
102.59799957 148.75000000 245.00000000 0.917086 0.102812 -0.385204 0.000000
108.24199677 175.97700500 273.75000000 0.727797 0.386077 -0.566794 0.000000
130.15600586 119.53099823 268.75000000 -0.473198 0.869701 -0.140368 0.000000
77.03119659 261.97299194 337.50000000 -0.305695 0.919957 -0.245417 0.000000
53.78910065 211.17199707 376.25000000 -0.539397 0.318517 0.779485 0.000000
146.75799561 116.54299927 310.00000000 0.188780 -0.949333 0.251254 0.000000
73.71089935 118.20300293 318.75000000 -0.705724 -0.708486 -0.001381 0.000000
44.16019821 148.08599854 350.00000000 -0.936068 -0.337092 0.100725 0.000000
183.28100586 136.13299561 321.25000000 0.574829 0.252173 -0.778447 0.000000
96.95310211 115.87899780 250.00000000 -0.592402 -0.784286 -0.184269 0.000000
136.79699707 156.05499268 316.25000000 0.000978 0.000978 -0.999999 0.000000
229.76600647 160.03900146 368.75000000 0.588049 0.072970 -0.805527 0.000000
225.78100586 165.35200500 378.75000000 -0.310527 0.249866 0.917137 0.000000
120.19499969 207.18800354 376.25000000 0.306009 0.326907 0.894142 0.000000
33.86719894 215.82000732 336.25000000 -0.001380 0.686096 0.727510 0.000000
215.48800659 120.85900116 345.00000000 0.447973 0.687780 -0.571208 0.000000
152.07000732 178.96499634 367.50000000 -0.001373 0.781002 0.624527 0.000000
144.76600647 108.24199677 303.75000000 0.816685 -0.364563 0.447346 0.000000
35.52730179 166.01600647 350.00000000 -0.949175 -0.314746 -0.001234 0.000000
47.14839935 188.59399414 373.75000000 -0.540813 0.189360 0.819551 0.000000
98.94529724 221.13299561 303.75000000 0.540861 0.314306 -0.780180 0.000000
107.57800293 209.84399414 381.25000000 0.000978 0.000978 0.999999 0.000000
116.21099854 173.32000732 318.75000000 0.879718 -0.118341 -0.460533 0.000000
108.90599823 174.64799500 386.25000000 0.000978 0.000978 0.999999 0.000000
71.71880341 187.92999268 386.25000000 -0.246698 0.114953 0.962250 0.000000
82.01170349 177.30499268 227.50000000 0.514693 0.514693 -0.685698 0.000000
134.14100647 143.43800354 303.75000000 0.386881 0.451093 -0.804262 0.000000
83.00779724 239.06199646 298.75000000 0.816643 0.575712 0.040622 0.000000
68.39839935 224.45300293 273.75000000 0.405219 0.706239 -0.580538 0.000000
69.06250000 233.08599854 371.25000000 0.000978 0.000978 0.999999 0.000000
198.88699341 106.91400146 377.50000000 0.117615 -0.449204 0.885654 0.000000
57.77339935 155.72300720 252.50000000 -0.909682 -0.392274 -0.136382 0.000000
158.04699707 132.14799500 381.25000000 0.000978 0.000978 0.999999 0.000000
108.24199677 177.96899414 276.25000000 0.727477 0.317767 -0.608113 0.000000
127.50000000 96.95310211 358.75000000 -0.257273 -0.938700 0.229460 0.000000
231.09399414 146.75799561 376.25000000 0.245464 -0.253880 0.935570 0.000000
130.82000732 216.48399353 368.75000000 0.462257 0.388167 0.797273 0.000000
148.75000000 107.57800293 326.25000000 -0.656380 -0.254644 -0.710156 0.000000
123.51599884 140.78100586 383.75000000 -0.235009 -0.300526 0.924367 0.000000
176.64100647 138.12500000 316.25000000 0.432053 0.438526 -0.788052 0.000000
206.52299500 141.44500732 343.75000000 0.851985 0.486634 0.193156 0.000000
233.75000000 148.08599854 366.25000000 0.629351 0.247639 -0.736609 0.000000
33.86719894 192.57800293 326.25000000 -0.949298 -0.137909 -0.282513 0.000000
86.99220276 119.53099823 258.75000000 -0.520036 -0.780859 -0.346154 0.000000
106.91400146 113.55500031 238.75000000 -0.407350 -0.844353 -0.348042 0.000000
235.07800293 158.04699707 371.25000000 0.545607 0.303822 -0.781029 0.000000
237.07000732 154.06199646 371.25000000 0.295118 0.373816 -0.879299 0.000000
