36.05469894 124.11100006 382.50000000 -0.951119 -0.034104 -0.306935 0.000000
87.36329651 133.47200012 401.00000000 0.469944 0.159576 0.868152 0.000000
53.38869858 144.91200256 452.50000000 -0.577554 0.012347 0.816259 0.000000
131.39199829 119.95099640 423.00000000 -0.523918 0.083770 0.847639 0.000000
57.54880142 206.27400208 435.00000000 -0.460846 0.540704 0.703747 0.000000
208.00799561 87.36329651 454.50000000 0.174313 -0.452628 0.874496 0.000000
77.65619659 147.68600464 461.50000000 -0.216231 -0.361353 0.907010 0.000000
45.76169968 101.92400360 374.50000000 -0.949519 -0.303481 -0.079452 0.000000
104.35099792 138.67199707 361.00000000 0.886837 -0.111739 -0.448369 0.000000
48.18849945 177.50000000 341.00000000 -0.001296 0.908224 -0.418483 0.000000
109.20400238 151.84599304 369.00000000 0.761568 0.198469 -0.616947 0.000000
139.71200562 102.61699677 408.00000000 -0.261673 -0.654976 0.708896 0.000000
176.80700684 80.42970276 434.50000000 -0.744803 -0.064828 0.664128 0.000000
156.69900513 41.60160065 428.50000000 -0.934399 0.208110 0.289119 0.000000
79.38960266 104.69699860 327.00000000 0.657957 -0.453706 -0.601035 0.000000
53.38869858 191.71400452 353.00000000 0.043822 0.614915 -0.787374 0.000000
53.04199982 221.18200684 415.00000000 -0.773061 0.507271 0.380858 0.000000
83.20310211 185.82000732 383.50000000 0.471413 0.521387 -0.711284 0.000000
153.23199463 156.69900513 409.50000000 0.776078 0.517923 -0.359803 0.000000
139.01899719 120.64499664 428.00000000 -0.641007 0.395867 0.657570 0.000000
85.97660065 121.33799744 329.50000000 0.768932 0.204946 -0.605592 0.000000
121.33799744 108.16400146 411.50000000 -0.168917 -0.741102 0.649796 0.000000
71.76270294 76.26950073 333.00000000 0.697692 -0.697692 0.162643 0.000000
133.81799316 132.43200684 421.50000000 -0.661268 0.082840 0.745562 0.000000
127.92500305 67.25589752 427.00000000 -0.856597 0.339231 0.388799 0.000000
98.45700073 91.52339935 469.50000000 0.000978 0.000978 0.999999 0.000000
136.59199524 79.04299927 401.50000000 0.000978 0.000978 0.999999 0.000000
95.33689880 115.09799957 349.00000000 0.329006 0.190626 -0.924888 0.000000
128.27099609 135.89799500 381.50000000 0.582888 -0.586267 -0.562613 0.000000
54.08200073 104.69699860 315.50000000 -0.937517 -0.329543 -0.111641 0.000000
131.73800659 81.12300110 418.50000000 -0.613140 0.413745 0.672959 0.000000
67.94920349 73.14939880 336.00000000 0.756699 -0.205810 0.620524 0.000000
139.01899719 67.25589752 405.00000000 -0.443636 0.364132 0.818899 0.000000
135.89799500 94.29689789 402.50000000 -0.199934 -0.300600 0.932559 0.000000
44.37500000 145.95199585 343.00000000 -0.814983 0.564446 0.131164 0.000000
37.09469986 124.11100006 379.00000000 -0.935835 -0.123601 -0.330055 0.000000
114.05799866 208.70100403 430.00000000 0.887206 0.457957 -0.056048 0.000000
86.66989899 179.23300171 381.00000000 0.568425 0.538064 -0.622400 0.000000
150.45899963 38.48139954 433.00000000 -0.566650 -0.469701 0.676971 0.000000
109.20400238 207.31399536 444.00000000 0.492992 0.700216 0.516388 0.000000
111.63099670 66.56250000 449.50000000 -0.237013 -0.648254 0.723596 0.000000
49.92190170 153.23199463 329.50000000 -0.890806 0.061576 -0.450192 0.000000
75.92289734 81.81639862 334.00000000 -0.095433 -0.673903 -0.732631 0.000000
154.61900330 53.38869858 448.50000000 -0.161688 -0.602929 0.781239 0.000000
58.24219894 117.87100220 452.50000000 -0.635449 -0.635449 0.438644 0.000000
66.21579742 161.55299377 321.00000000 0.725351 0.619202 -0.300755 0.000000
33.62789917 128.27099609 428.00000000 -0.993983 0.072840 0.081805 0.000000
117.87100220 89.79000092 464.00000000 0.411475 -0.345764 0.843289 0.000000
129.65800476 108.16400146 468.50000000 0.760707 0.070730 0.645230 0.000000
56.16210175 145.25900269 315.00000000 -0.805060 0.213149 -0.553575 0.000000
89.09670258 208.00799561 401.00000000 0.337657 0.673684 -0.657372 0.000000
161.55299377 79.04299927 418.50000000 -0.702446 0.322833 0.634310 0.000000
30.16110039 140.05900574 399.00000000 -0.966528 0.233652 -0.105973 0.000000
37.09469986 107.47100067 411.00000000 -0.960092 -0.263479 -0.093824 0.000000
51.65530014 83.20310211 422.00000000 -0.769576 -0.496238 -0.401872 0.000000
102.61699677 133.12500000 468.50000000 -0.012153 0.514458 0.857430 0.000000
148.37899780 54.42869949 448.00000000 -0.134411 -0.364434 0.921478 0.000000
81.12300110 51.65530014 367.00000000 0.648440 0.155686 -0.745176 0.000000
90.13670349 108.16400146 342.50000000 0.809742 -0.492818 -0.318509 0.000000
30.16110039 169.17999268 386.00000000 -0.983659 0.165732 -0.070346 0.000000
57.20209885 124.11100006 453.00000000 -0.567426 -0.389797 0.725318 0.000000
142.48500061 173.33999634 441.00000000 0.398036 0.778202 0.485767 0.000000
61.01559830 65.52249908 430.00000000 -0.609338 -0.698029 0.376115 0.000000
53.04199982 107.47100067 316.00000000 -0.957402 -0.268904 -0.105223 0.000000
171.95300293 141.79200745 417.00000000 0.407215 -0.363192 0.838014 0.000000
158.08599854 93.25679779 460.00000000 0.253725 -0.341722 0.904903 0.000000
178.19299316 51.30860138 451.50000000 0.064869 -0.673191 0.736618 0.000000
128.96499634 106.77700043 423.50000000 -0.858167 0.009430 0.513284 0.000000
170.91299438 50.61520004 440.00000000 0.849884 0.515125 -0.111105 0.000000
42.29489899 152.19200134 348.00000000 -0.917193 0.011676 -0.398272 0.000000
112.32399750 93.60350037 469.50000000 0.166878 -0.246980 0.954543 0.000000
133.81799316 164.32600403 453.50000000 0.439966 0.306266 0.844175 0.000000
84.58979797 71.41600037 389.50000000 0.952789 -0.200800 -0.227753 0.000000
43.33499908 186.51400757 355.00000000 -0.830300 0.291306 -0.475125 0.000000
142.83200073 134.85800171 412.00000000 0.483055 -0.045158 0.874425 0.000000
115.44400024 169.17999268 388.00000000 0.382113 0.788411 -0.482076 0.000000
90.83010101 208.00799561 444.50000000 -0.078371 0.278793 0.957148 0.000000
135.89799500 86.66989899 460.50000000 0.132622 0.103947 0.985701 0.000000
140.75199890 40.56150055 438.00000000 0.117509 -0.688693 0.715467 0.000000
117.87100220 170.56599426 455.50000000 0.357498 0.268494 0.894486 0.000000
59.97560120 229.50199890 399.00000000 -0.740930 0.624520 0.246977 0.000000
57.54880142 89.79000092 324.00000000 -0.802216 -0.596449 -0.026416 0.000000
131.04499817 80.08300018 420.00000000 -0.613140 0.413745 0.672959 0.000000
131.39199829 104.00399780 467.00000000 0.357250 -0.228931 0.905518 0.000000
54.42869949 219.79499817 420.00000000 -0.840792 0.259769 0.474963 0.000000
180.27299500 61.70899963 443.50000000 -0.565826 0.203943 0.798904 0.000000
192.75399780 108.51100159 455.00000000 0.485019 -0.243274 0.839985 0.000000
87.01660156 146.99200439 340.00000000 0.721653 0.446264 -0.529212 0.000000
88.05660248 115.09799957 332.50000000 0.794250 -0.397930 -0.459150 0.000000
88.75000000 154.96600342 351.00000000 0.636797 0.633454 -0.439574 0.000000
182.35400391 92.91020203 459.50000000 0.062231 0.213537 0.974951 0.000000
65.86910248 225.68800354 389.00000000 0.735093 0.460879 -0.497221 0.000000
136.59199524 106.77700043 467.50000000 -0.096017 -0.205750 0.973883 0.000000
181.66000366 70.02929688 458.50000000 -0.023078 -0.506351 0.862019 0.000000
59.97560120 73.49610138 368.00000000 -0.947474 -0.312368 0.068695 0.000000
167.79299927 147.33900452 409.00000000 0.371727 0.322775 -0.870422 0.000000
50.61520004 197.60699463 434.50000000 -0.635507 0.362913 0.681487 0.000000
135.20500183 37.09469986 411.00000000 -0.198976 -0.927142 -0.317515 0.000000
120.29799652 133.81799316 421.00000000 -0.009731 -0.671464 -0.740973 0.000000
58.58890152 195.52699280 441.00000000 -0.602933 0.055328 0.795871 0.000000
88.75000000 105.04399872 346.00000000 0.662369 -0.487973 -0.568463 0.000000
62.74900055 217.71499634 429.00000000 -0.497096 0.628532 0.598200 0.000000
110.24400330 210.78100586 437.50000000 0.576423 0.647006 0.499119 0.000000
36.05469894 122.72499847 403.50000000 -0.974073 -0.001172 -0.226229 0.000000
120.64499664 165.02000427 387.50000000 0.365535 0.713039 -0.598297 0.000000
66.21579742 194.83399963 445.00000000 -0.600504 0.398682 0.693144 0.000000
30.85449982 171.25999451 405.00000000 -0.929345 -0.259649 0.262487 0.000000
94.99019623 123.41799927 469.50000000 -0.791786 -0.264974 0.550330 0.000000
181.31300354 50.61520004 448.00000000 0.531939 -0.093197 0.841639 0.000000
91.52339935 74.53610229 460.00000000 -0.379624 -0.760878 0.526260 0.000000
106.43099976 111.63099670 381.00000000 0.929157 -0.334719 -0.156943 0.000000
129.65800476 131.04499817 466.50000000 0.264974 0.791786 -0.550330 0.000000
71.06929779 61.01559830 361.00000000 -0.616193 -0.753472 -0.229317 0.000000
32.58789825 162.93899536 422.50000000 -0.986793 -0.133863 0.091216 0.000000
81.81639862 136.59199524 325.50000000 0.909864 0.103551 -0.401776 0.000000
192.75399780 77.65619659 458.50000000 0.000978 0.000978 0.999999 0.000000
116.48400116 122.03099823 470.50000000 -0.003437 0.189059 0.981960 0.000000
162.24600220 112.32399750 409.50000000 0.050964 -0.178966 0.982534 0.000000
69.68260193 156.69900513 320.00000000 0.117281 0.708140 -0.696263 0.000000
79.73629761 210.08799744 442.50000000 -0.171890 0.459843 0.871205 0.000000
60.32229996 75.57620239 438.50000000 -0.670206 -0.417424 0.613662 0.000000
187.20700073 120.64499664 426.50000000 -0.677359 -0.070769 0.732241 0.000000
116.48400116 142.13900757 403.50000000 -0.169079 -0.729631 -0.662609 0.000000
113.01799774 165.71299744 383.50000000 0.247065 0.627890 -0.738047 0.000000
188.59399414 91.87010193 441.00000000 -0.001359 0.822094 0.569351 0.000000
132.08500671 180.96699524 426.00000000 0.844749 0.357574 -0.398172 0.000000
138.67199707 170.22000122 446.00000000 0.691228 0.697386 0.189357 0.000000
71.06929779 198.99400330 383.00000000 0.591973 0.350617 -0.725697 0.000000
146.99200439 76.96289825 456.50000000 -0.090231 -0.542816 0.834991 0.000000
81.81639862 104.00399780 330.50000000 0.803608 -0.301550 -0.513109 0.000000
137.28500366 36.74800110 410.50000000 -0.198976 -0.927142 -0.317515 0.000000
104.69699860 218.06199646 436.00000000 -0.321766 0.321766 0.890468 0.000000
31.20120049 151.84599304 388.50000000 -0.639954 0.449472 -0.623245 0.000000
80.77639771 114.40399933 320.00000000 0.867758 -0.249009 -0.430106 0.000000
169.17999268 171.60600281 428.00000000 0.907768 0.001299 0.419470 0.000000
165.02000427 121.33799744 411.50000000 0.330904 -0.269135 0.904471 0.000000
163.63299561 159.81900024 444.00000000 0.218204 0.580329 0.784605 0.000000
55.12210083 197.60699463 360.00000000 0.695184 0.623212 -0.358224 0.000000
126.19100189 37.78810120 412.00000000 -0.103049 -0.993920 -0.038782 0.000000
32.93460083 174.03300476 391.00000000 -0.953019 0.271723 0.133873 0.000000
110.24400330 120.64499664 423.50000000 0.347521 0.173057 -0.921564 0.000000
91.17680359 148.37899780 348.00000000 0.772396 0.374053 -0.513311 0.000000
156.00599670 90.13670349 409.50000000 -0.574397 0.121931 0.809445 0.000000
40.56150055 130.35200500 368.00000000 -0.899738 -0.134606 -0.415155 0.000000
135.89799500 148.72599792 460.00000000 0.562165 0.124762 0.817561 0.000000
77.65619659 79.73629761 341.50000000 0.935427 0.193201 -0.296056 0.000000
91.17680359 154.61900330 354.00000000 0.666766 0.562636 -0.488738 0.000000
54.08200073 206.96800232 432.00000000 -0.414130 0.777914 0.472595 0.000000
53.38869858 217.02099609 380.50000000 -0.566650 0.676971 -0.469701 0.000000
133.12500000 79.73629761 428.50000000 -0.845910 0.515728 -0.135872 0.000000
118.21800232 161.55299377 380.00000000 0.467456 0.611546 -0.638354 0.000000
47.14839935 192.06100464 353.50000000 -0.574755 0.684708 -0.448142 0.000000
94.64360046 53.38869858 377.00000000 -0.617039 -0.698875 0.361713 0.000000
142.13900757 113.71099854 434.50000000 -0.538933 0.300467 0.786938 0.000000
65.86910248 77.30960083 331.00000000 -0.857513 -0.489798 -0.157382 0.000000
120.64499664 168.48599243 390.50000000 0.684514 0.513804 -0.517151 0.000000
116.48400116 120.64499664 470.50000000 0.000978 0.000978 0.999999 0.000000
94.29689789 37.78810120 397.00000000 -0.197247 -0.959758 -0.199894 0.000000
52.69530106 133.12500000 319.50000000 -0.937277 0.077996 -0.339747 0.000000
70.72270203 52.00199890 397.50000000 -0.666198 -0.745071 0.032394 0.000000
48.88180161 111.63099670 347.00000000 -0.738284 -0.440989 -0.510358 0.000000
153.92599487 65.17579651 417.50000000 -0.431435 0.591349 0.681301 0.000000
59.62889862 78.00289917 353.00000000 -0.932814 -0.297885 -0.202786 0.000000
83.20310211 80.08300018 373.00000000 0.947992 -0.315147 -0.044656 0.000000
90.48339844 138.67199707 406.00000000 0.140523 -0.988304 0.059229 0.000000
54.08200073 139.36500549 453.50000000 -0.542639 0.081182 0.836034 0.000000
144.56500244 95.68360138 403.00000000 0.037687 -0.234632 0.971353 0.000000
64.48239899 66.21579742 364.00000000 -0.635449 -0.635449 -0.438644 0.000000
38.82809830 102.27100372 419.00000000 -0.941713 -0.336415 0.001251 0.000000
143.52499390 60.32229996 449.50000000 -0.278497 -0.415463 0.865927 0.000000
114.40399933 137.63200378 394.00000000 -0.163463 -0.926293 0.339501 0.000000
130.35200500 138.67199707 407.50000000 0.071464 -0.992549 -0.098688 0.000000
138.67199707 79.38960266 458.00000000 0.001304 -0.434129 0.900850 0.000000
60.66889954 69.33589935 379.00000000 -0.858773 -0.483337 -0.169981 0.000000
115.09799957 145.60499573 464.50000000 0.077631 0.265983 0.960847 0.000000
106.08399963 140.05900574 364.50000000 0.808428 -0.122221 -0.575766 0.000000
105.73699951 220.48800659 422.00000000 -0.072446 0.903522 0.422373 0.000000
145.25900269 170.56599426 433.00000000 0.520466 0.313553 -0.794229 0.000000
153.23199463 81.12300110 458.50000000 0.303659 -0.133610 0.943366 0.000000
101.57700348 108.85700226 367.00000000 0.977922 -0.167325 -0.125184 0.000000
153.23199463 70.72270203 454.50000000 -0.001377 -0.654300 0.756234 0.000000
88.75000000 42.64160156 383.00000000 -0.396977 -0.899333 -0.183331 0.000000
94.64360046 100.53700256 354.00000000 0.623593 -0.566135 -0.539095 0.000000
48.18849945 187.20700073 347.00000000 -0.398800 0.690039 -0.603991 0.000000
136.24499512 83.89649963 426.00000000 -0.336592 0.697574 0.632532 0.000000
54.77539825 100.53700256 444.50000000 -0.639295 -0.213098 0.738844 0.000000
87.01660156 122.72499847 331.00000000 0.762317 0.215809 -0.610164 0.000000
134.51199341 158.08599854 394.50000000 0.518225 0.171746 0.837822 0.000000
100.53700256 133.47200012 468.00000000 0.001359 0.822094 0.569351 0.000000
74.18949890 88.75000000 457.50000000 -0.580903 -0.441087 0.684101 0.000000
32.58789825 150.45899963 424.50000000 -0.264974 -0.791786 -0.550330 0.000000
71.41600037 159.12600708 326.00000000 0.729461 0.545037 -0.413306 0.000000
55.46879959 72.10939789 387.50000000 -0.760507 -0.529261 -0.376182 0.000000
167.79299927 58.24219894 434.50000000 -0.824239 -0.001358 0.566240 0.000000
117.87100220 98.11039734 403.00000000 0.180461 -0.447484 0.875895 0.000000
134.51199341 105.39099884 466.50000000 0.278943 -0.448466 0.849158 0.000000
128.27099609 37.44139862 430.50000000 -0.392308 -0.833457 0.389157 0.000000
34.32130051 142.83200073 430.00000000 -0.000978 -0.999999 -0.000978 0.000000
101.23000336 103.31099701 386.50000000 0.775052 -0.608211 -0.171391 0.000000
83.89649963 155.31199646 342.50000000 0.818008 0.498938 -0.286224 0.000000
153.92599487 131.04499817 409.50000000 -0.193382 -0.092380 0.976765 0.000000
120.99099731 193.44700623 422.00000000 0.675541 0.514618 -0.528028 0.000000
108.16400146 133.81799316 411.50000000 -0.336346 -0.706815 -0.622322 0.000000
66.56250000 160.16600037 456.50000000 -0.380952 0.201340 0.902407 0.000000
144.21899414 48.53519821 415.50000000 -0.801533 -0.106579 0.588375 0.000000
41.60160065 197.26100159 378.00000000 -0.919133 0.300624 0.254596 0.000000
74.88279724 221.87500000 432.50000000 -0.330241 0.691391 0.642587 0.000000
47.49509811 106.77700043 365.00000000 -0.848441 -0.412545 -0.331593 0.000000
74.88279724 232.27499390 408.50000000 0.426405 0.854349 -0.297098 0.000000
32.93460083 160.85899353 426.00000000 -0.986788 -0.160852 0.019394 0.000000
72.80269623 227.07499695 427.00000000 -0.445973 0.495343 0.745482 0.000000
86.66989899 40.56150055 403.00000000 -0.481089 -0.869387 -0.112778 0.000000
85.97660065 46.45510101 425.50000000 -0.402275 -0.809358 0.427918 0.000000
133.47200012 173.33999634 448.00000000 0.557618 0.681534 0.473892 0.000000
144.91200256 94.99019623 463.50000000 0.080707 -0.172256 0.981740 0.000000
68.64260101 229.84899902 399.00000000 0.486830 0.817686 -0.307223 0.000000
208.70100403 126.19100189 453.50000000 0.000978 0.000978 0.999999 0.000000
96.72360229 144.21899414 405.00000000 0.888225 -0.388319 -0.245489 0.000000
72.80269623 151.84599304 460.50000000 -0.275780 -0.091927 0.956815 0.000000
124.80500031 64.13569641 451.00000000 -0.194583 -0.586814 0.785994 0.000000
123.41799927 82.50980377 401.50000000 0.167329 0.571331 0.803481 0.000000
204.88800049 81.12300110 455.00000000 -0.439338 0.711230 0.548758 0.000000
159.47300720 51.30860138 427.50000000 -0.590756 0.020753 0.806583 0.000000
58.93550110 84.58979797 442.50000000 -0.635428 -0.344667 0.690967 0.000000
169.17999268 75.57620239 427.50000000 -0.584843 -0.001363 0.811146 0.000000
174.03300476 84.93650055 429.00000000 -0.774446 0.397776 0.491943 0.000000
58.24219894 171.25999451 329.50000000 -0.001359 0.822094 -0.569351 0.000000
32.93460083 128.27099609 396.00000000 -0.961120 -0.241258 -0.134322 0.000000
176.80700684 55.46879959 453.50000000 -0.176235 -0.382560 0.906967 0.000000
75.22949982 54.08200073 372.00000000 -0.550540 -0.444091 -0.706887 0.000000
127.23100281 182.35400391 419.00000000 0.802379 0.579083 -0.144398 0.000000
50.26860046 106.77700043 346.00000000 -0.973713 -0.227081 -0.017834 0.000000
92.91020203 137.63200378 412.00000000 0.764253 -0.533841 -0.361844 0.000000
48.53519821 192.75399780 353.50000000 -0.267025 0.526242 -0.807321 0.000000
142.83200073 77.30960083 457.00000000 -0.025592 -0.470085 0.882250 0.000000
129.31199646 70.72270203 428.00000000 -0.812563 0.497004 0.304514 0.000000
170.22000122 164.32600403 438.00000000 0.801787 -0.353682 -0.481712 0.000000
92.56349945 189.28700256 393.00000000 0.586267 0.562613 -0.582888 0.000000
137.63200378 178.19299316 441.00000000 0.811217 0.160444 0.562304 0.000000
122.72499847 158.08599854 378.50000000 0.304439 0.655590 -0.691027 0.000000
109.55100250 118.21800232 411.00000000 0.784598 0.576407 0.228388 0.000000
54.08200073 179.58000183 345.50000000 0.162295 0.067524 -0.984429 0.000000
53.04199982 217.71499634 419.00000000 -0.798273 0.284985 0.530607 0.000000
54.08200073 222.56799316 414.50000000 -0.766015 0.529571 0.364384 0.000000
163.63299561 100.53700256 459.50000000 0.285344 0.070376 0.955838 0.000000
85.28320313 41.25490189 406.00000000 -0.381265 -0.923684 0.037996 0.000000
156.69900513 152.19200134 453.00000000 0.217322 0.099240 0.971042 0.000000
170.56599426 86.66989899 459.50000000 0.000978 0.000978 0.999999 0.000000
90.13670349 190.67399597 452.50000000 0.097024 0.320313 0.942330 0.000000
81.12300110 102.96399689 330.00000000 0.725139 -0.459642 -0.512741 0.000000
53.04199982 217.02099609 381.00000000 -0.563975 0.681121 -0.466911 0.000000
60.32229996 200.38099670 370.50000000 0.950442 -0.177109 -0.255524 0.000000
153.92599487 76.96289825 457.50000000 0.259794 -0.183624 0.948045 0.000000
71.41600037 162.24600220 331.50000000 0.760671 0.543337 -0.355196 0.000000
166.40600586 149.07200623 409.50000000 0.086949 0.148885 -0.985024 0.000000
65.86910248 220.14199829 429.00000000 -0.496094 0.627265 0.600358 0.000000
143.52499390 67.25589752 451.50000000 0.078234 -0.275742 0.958043 0.000000
66.56250000 209.39500427 382.50000000 0.773824 0.280096 -0.568104 0.000000
163.63299561 62.74900055 454.00000000 -0.071254 -0.383160 0.920929 0.000000
113.71099854 130.35200500 421.50000000 0.452495 -0.285705 -0.844761 0.000000
124.11100006 52.69530106 444.50000000 -0.150591 -0.297113 0.942892 0.000000
200.38099670 85.28320313 449.50000000 0.042797 0.086692 0.995315 0.000000
56.16210175 146.99200439 454.50000000 -0.554265 0.020630 0.832085 0.000000
68.64260101 115.79100037 305.50000000 0.627890 -0.247065 -0.738047 0.000000
40.56150055 97.07029724 414.00000000 -0.656933 -0.509081 0.556125 0.000000
149.07200623 120.99099731 436.00000000 -0.242814 0.970072 0.001184 0.000000
165.71299744 52.69530106 433.50000000 -0.641280 0.020957 0.767021 0.000000
153.92599487 157.73899841 450.00000000 0.210725 -0.126435 0.969334 0.000000
35.70800018 117.17800140 415.00000000 -0.995609 -0.088136 0.031555 0.000000
171.95300293 154.61900330 411.50000000 -0.224019 -0.260196 -0.939209 0.000000
100.53700256 131.73800659 402.50000000 -0.210048 0.664375 0.717276 0.000000
101.23000336 136.59199524 357.50000000 0.738994 -0.370313 -0.562810 0.000000
118.91100311 38.13479996 422.00000000 -0.590381 -0.597147 0.543015 0.000000
102.27100372 220.48800659 417.00000000 0.646502 0.471863 -0.599484 0.000000
147.68600464 125.84500122 434.00000000 0.120040 0.953721 -0.275695 0.000000
128.27099609 140.05900574 464.50000000 0.003295 0.128493 0.991705 0.000000
91.52339935 57.89550018 439.00000000 -0.302093 -0.520359 0.798728 0.000000
53.38869858 75.22949982 388.00000000 -0.820832 -0.488105 -0.296629 0.000000
74.18949890 60.32229996 438.50000000 -0.164454 -0.848939 0.502252 0.000000
72.45610046 90.83010101 457.00000000 -0.580903 -0.441087 0.684101 0.000000
31.20120049 146.64599609 406.00000000 -0.935510 -0.326404 0.135205 0.000000
75.57620239 149.41900635 321.00000000 0.745692 0.452683 -0.488898 0.000000
80.42970276 173.68699646 367.00000000 0.517293 0.621763 -0.588063 0.000000
91.52339935 187.89999390 390.50000000 0.580690 0.567146 -0.584076 0.000000
60.32229996 205.23399353 437.50000000 -0.245364 0.786104 0.567307 0.000000
97.41699982 85.97660065 467.00000000 -0.465862 -0.465862 0.752293 0.000000
53.38869858 120.64499664 451.50000000 -0.257786 -0.141452 0.955792 0.000000
181.66000366 55.46879959 447.50000000 -0.778405 0.191160 0.597950 0.000000
62.74900055 189.28700256 363.00000000 0.332047 0.843368 -0.422463 0.000000
172.30000305 119.95099640 413.00000000 -0.121128 0.023337 0.992363 0.000000
36.40140152 110.93800354 424.00000000 -0.940078 -0.066867 0.334337 0.000000
205.23399353 81.12300110 454.50000000 -0.701656 0.454993 0.548325 0.000000
119.25800323 156.69900513 460.50000000 0.228280 0.325909 0.917427 0.000000
162.24600220 64.48239899 454.50000000 -0.073798 -0.139396 0.987483 0.000000
82.50980377 149.07200623 462.50000000 0.000978 0.000978 0.999999 0.000000
72.10939789 210.78100586 388.50000000 0.725175 0.254364 -0.639860 0.000000
76.61620331 194.14100647 384.00000000 0.607527 0.450206 -0.654389 0.000000
201.76800537 109.55100250 443.50000000 0.478207 0.605729 -0.635932 0.000000
136.59199524 99.15039825 431.50000000 -0.120775 0.067864 0.990357 0.000000
70.37599945 119.25800323 306.00000000 0.729090 -0.107959 -0.675850 0.000000
124.80500031 117.17800140 469.50000000 0.064807 -0.024435 0.997599 0.000000
62.05569839 77.65619659 441.00000000 -0.622453 -0.432213 0.652491 0.000000
115.44400024 91.52339935 466.00000000 0.230392 -0.545829 0.805600 0.000000
110.59100342 34.66799927 425.00000000 0.911308 0.066154 0.406376 0.000000
41.94820023 202.46099854 421.00000000 -0.887327 0.415064 0.200932 0.000000
195.52699280 132.08500671 444.00000000 0.495059 0.864589 -0.086036 0.000000
115.79100037 205.58099365 435.00000000 0.793430 0.602660 0.085268 0.000000
91.52339935 135.89799500 340.50000000 0.903239 0.139938 -0.405680 0.000000
92.56349945 116.48400116 344.00000000 0.933479 -0.149852 -0.325824 0.000000
89.44339752 57.89550018 379.00000000 0.258588 0.949057 -0.180064 0.000000
92.21679688 190.32699585 394.00000000 0.599318 0.589188 -0.541918 0.000000
119.25800323 162.59300232 382.00000000 0.542996 0.586977 -0.600510 0.000000
156.69900513 146.99200439 457.50000000 -0.879230 0.476305 0.009339 0.000000
81.46970367 61.01559830 369.00000000 0.796186 0.309893 -0.519667 0.000000
133.12500000 159.81900024 395.00000000 0.651948 0.591614 -0.474296 0.000000
102.61699677 50.61520004 383.50000000 -0.650830 -0.556653 0.516292 0.000000
193.44700623 111.63099670 455.50000000 0.485019 -0.243274 0.839985 0.000000
134.16499329 176.11300659 424.00000000 0.702781 0.614319 -0.358762 0.000000
36.40140152 115.79100037 425.00000000 -0.968119 -0.055782 0.244199 0.000000
77.30960083 213.55499268 440.00000000 -0.285461 0.528339 0.799606 0.000000
73.49610138 97.07029724 459.50000000 -0.686964 -0.023882 0.726299 0.000000
126.88500214 137.63200378 465.00000000 0.087415 0.296167 0.951128 0.000000
161.55299377 50.61520004 447.50000000 -0.202218 -0.631351 0.748668 0.000000
35.01459885 120.64499664 415.00000000 -0.976359 -0.180807 -0.118460 0.000000
94.29689789 224.30200195 435.00000000 0.001358 0.566240 0.824239 0.000000
50.26860046 108.16400146 348.00000000 -0.944257 -0.313869 0.099326 0.000000
146.29899597 78.00289917 458.00000000 -0.101642 -0.513935 0.851786 0.000000
94.99019623 65.86910248 396.50000000 0.089041 -0.646642 0.757579 0.000000
67.25589752 65.86910248 354.50000000 -0.610859 -0.705845 -0.358655 0.000000
70.37599945 122.72499847 306.00000000 0.822094 -0.001359 -0.569351 0.000000
196.22099304 135.20500183 450.50000000 -0.001381 0.691755 0.722131 0.000000
117.52400208 58.24219894 421.00000000 -0.402051 0.295041 0.866779 0.000000
116.48400116 113.36399841 415.00000000 -0.311736 -0.861497 0.400803 0.000000
88.05660248 43.68159866 381.50000000 -0.426521 -0.869620 -0.248678 0.000000
44.72169876 211.47500610 402.00000000 -0.536691 -0.536691 0.651095 0.000000
97.76370239 153.23199463 463.50000000 0.000978 0.000978 0.999999 0.000000
97.07029724 70.72270203 401.50000000 -0.012413 -0.594423 0.804057 0.000000
99.15039825 38.48139954 424.00000000 -0.284288 -0.852863 0.437956 0.000000
30.85449982 158.77900696 419.00000000 -0.977164 -0.133193 -0.165558 0.000000
71.76270294 59.62889862 363.00000000 -0.523632 -0.766804 -0.371243 0.000000
189.28700256 83.20310211 443.50000000 -0.551986 0.501653 0.666075 0.000000
83.20310211 94.29689789 342.50000000 0.760878 -0.379624 -0.526260 0.000000
87.36329651 45.41500092 376.00000000 -0.426405 -0.854349 -0.297098 0.000000
31.54789925 134.51199341 396.00000000 -0.898949 0.411721 0.149587 0.000000
117.17800140 138.32499695 408.00000000 0.001334 -0.865851 -0.500299 0.000000
156.35299683 84.58979797 409.00000000 -0.395265 0.283197 0.873822 0.000000
51.65530014 81.12300110 402.00000000 -0.568771 -0.822468 0.006820 0.000000
84.58979797 110.24400330 330.50000000 0.810385 -0.429968 -0.398000 0.000000
70.37599945 125.49800110 306.00000000 0.669626 -0.049972 -0.741015 0.000000
101.23000336 222.91499329 419.00000000 0.563483 0.677183 -0.473192 0.000000
101.92400360 46.45510101 434.50000000 -0.603192 -0.689126 0.401577 0.000000
83.20310211 55.46879959 434.50000000 -0.398682 -0.600504 0.693144 0.000000
89.44339752 79.73629761 399.50000000 -0.884708 0.036581 0.464709 0.000000
200.38099670 95.33689880 445.00000000 -0.275723 0.500039 0.820937 0.000000
121.33799744 148.37899780 462.50000000 0.142890 0.152831 0.977868 0.000000
45.06840134 90.13670349 388.50000000 -0.541893 0.602667 -0.585785 0.000000
100.88400269 108.16400146 360.00000000 0.739966 -0.306580 -0.598714 0.000000
53.38869858 214.24800110 376.50000000 -0.512853 0.650735 -0.559934 0.000000
188.24699402 58.93550110 451.00000000 -0.910515 0.252031 0.327785 0.000000
55.46879959 79.04299927 375.50000000 -0.901813 -0.395532 -0.174034 0.000000
46.80179977 126.19100189 447.00000000 -0.541071 -0.205759 0.815417 0.000000
59.62889862 217.02099609 379.50000000 0.455505 0.575638 -0.679085 0.000000
68.29589844 169.87300110 341.00000000 0.690128 0.664509 -0.286619 0.000000
84.93650055 172.64599609 372.00000000 0.584653 0.700589 -0.409091 0.000000
124.80500031 143.52499390 463.50000000 0.256414 0.220377 0.941109 0.000000
106.77700043 208.00799561 444.50000000 0.289782 0.386881 0.875414 0.000000
89.44339752 59.97560120 385.00000000 0.272173 0.865174 -0.421183 0.000000
87.36329651 137.28500366 465.50000000 -0.000978 -0.000978 0.999999 0.000000
190.67399597 132.08500671 450.00000000 0.854349 0.426405 -0.297098 0.000000
46.45510101 184.43400574 347.50000000 -0.659628 0.083000 -0.746996 0.000000
160.16600037 157.39300537 410.50000000 0.926507 0.309779 -0.213592 0.000000
64.48239899 101.92400360 454.50000000 -0.533148 -0.339862 0.774756 0.000000
145.95199585 104.00399780 465.00000000 0.572346 -0.429674 0.698427 0.000000
78.34960175 70.37599945 357.00000000 0.951635 -0.302735 -0.052372 0.000000
95.68360138 139.71200562 415.00000000 0.541511 0.023306 -0.840370 0.000000
108.16400146 137.97900391 394.50000000 0.255672 0.563106 -0.785839 0.000000
110.93800354 156.00599670 462.50000000 0.001363 0.584843 0.811146 0.000000
66.90920258 67.94920349 351.00000000 -0.539136 -0.745614 -0.391652 0.000000
126.53800201 190.67399597 431.00000000 0.846591 0.490449 -0.206743 0.000000
56.16210175 215.28799438 425.00000000 -0.753866 0.355047 0.552835 0.000000
87.70999908 40.21480179 405.00000000 -0.481089 -0.869387 -0.112778 0.000000
158.08599854 72.45610046 456.00000000 -0.209778 -0.299884 0.930625 0.000000
39.52149963 158.77900696 354.50000000 -0.882706 -0.204835 -0.422933 0.000000
99.15039825 104.69699860 470.50000000 0.000978 0.000978 0.999999 0.000000
33.97460175 185.82000732 404.50000000 -0.194297 0.971486 -0.135881 0.000000
50.96189880 109.55100250 339.00000000 -0.988250 0.044868 -0.146109 0.000000
144.21899414 167.44599915 425.00000000 0.610551 0.729762 -0.307692 0.000000
71.41600037 81.46970367 452.00000000 -0.519578 -0.382761 0.763893 0.000000
162.24600220 133.12500000 457.50000000 -0.000978 -0.000978 0.999999 0.000000
136.24499512 87.36329651 424.00000000 -0.783360 0.148284 0.603622 0.000000
126.88500214 137.97900391 464.50000000 0.003295 0.128493 0.991705 0.000000
100.53700256 110.24400330 358.50000000 0.720592 -0.142915 -0.678470 0.000000
201.07400513 128.27099609 453.50000000 0.000978 0.000978 0.999999 0.000000
64.82910156 78.34960175 340.00000000 -0.604427 -0.699950 -0.380443 0.000000
167.10000610 110.24400330 459.50000000 0.510714 -0.025876 0.859361 0.000000
60.32229996 92.21679688 447.50000000 -0.462130 -0.218270 0.859531 0.000000
50.96189880 153.23199463 450.00000000 -0.270782 0.436005 0.858241 0.000000
171.25999451 92.21679688 425.50000000 -0.634754 0.711888 0.300504 0.000000
31.20120049 160.16600037 397.50000000 -0.963362 0.001203 0.268202 0.000000
63.78910065 80.77639771 332.00000000 -0.869274 -0.494241 -0.009376 0.000000
112.32399750 127.23100281 401.00000000 0.597823 0.274333 0.753226 0.000000
131.73800659 172.99299622 412.00000000 0.639515 0.685311 -0.348380 0.000000
59.97560120 132.43200684 306.00000000 -0.481001 0.448168 -0.753514 0.000000
43.33499908 143.52499390 347.00000000 -0.925729 -0.122059 -0.357949 0.000000
145.25900269 92.91020203 463.00000000 0.048722 -0.121237 0.991427 0.000000
66.21579742 55.46879959 400.00000000 -0.703330 -0.694255 -0.152766 0.000000
113.01799774 133.81799316 370.50000000 0.499757 -0.190598 -0.844935 0.000000
193.44700623 65.86910248 451.50000000 -0.226121 -0.276682 0.933979 0.000000
72.10939789 187.55400085 375.00000000 0.696178 0.408446 -0.590346 0.000000
59.62889862 224.30200195 421.00000000 -0.602478 0.754283 -0.260916 0.000000
152.53900146 133.12500000 457.50000000 0.723856 0.435639 0.535024 0.000000
130.35200500 158.43299866 458.00000000 0.357853 0.529493 0.769141 0.000000
186.51400757 70.02929688 458.50000000 0.000978 0.000978 0.999999 0.000000
100.53700256 40.56150055 384.00000000 0.072666 0.009478 0.997311 0.000000
178.53999329 140.05900574 431.00000000 0.947987 -0.227790 -0.222334 0.000000
68.29589844 217.02099609 386.00000000 0.683095 0.311672 -0.660486 0.000000
97.76370239 72.80269623 401.50000000 0.424671 -0.044209 0.904268 0.000000
115.44400024 119.95099640 388.00000000 0.851844 -0.510528 -0.117147 0.000000
204.19400024 104.69699860 444.00000000 -0.515521 0.797867 0.312485 0.000000
76.96289825 143.87199402 319.00000000 0.812144 0.338526 -0.475208 0.000000
58.93550110 168.83299255 325.00000000 -0.205966 0.732494 -0.648869 0.000000
39.17480087 109.55100250 396.00000000 -0.945148 -0.001242 -0.326641 0.000000
78.00289917 131.04499817 317.00000000 0.986238 0.147640 -0.074411 0.000000
129.65800476 68.64260101 428.50000000 -0.812563 0.497004 0.304514 0.000000
131.04499817 105.73699951 427.00000000 -0.714672 0.322494 0.620679 0.000000
103.31099701 124.11100006 414.50000000 0.332512 0.397468 0.855252 0.000000
172.64599609 132.08500671 416.00000000 -0.644870 -0.496701 0.580888 0.000000
121.33799744 67.25589752 401.50000000 -0.419755 0.162998 0.892881 0.000000
57.54880142 216.67500305 426.00000000 -0.753866 0.355047 0.552835 0.000000
200.38099670 85.97660065 456.50000000 0.424802 0.185395 0.886099 0.000000
175.07299805 107.47100067 420.00000000 -0.719253 0.321643 0.615810 0.000000
73.14939880 159.47300720 331.00000000 0.754582 0.560685 -0.340936 0.000000
53.73540115 97.07029724 345.00000000 -0.951905 -0.305658 -0.021209 0.000000
114.40399933 123.76499939 379.00000000 0.714473 -0.504628 -0.484643 0.000000
170.22000122 87.36329651 423.00000000 -0.275466 0.137068 0.951489 0.000000
125.49800110 148.37899780 375.50000000 0.345598 0.179147 -0.921124 0.000000
50.61520004 123.76499939 326.00000000 -0.978685 -0.032030 -0.202855 0.000000
159.47300720 103.31099701 409.50000000 -0.365118 0.422019 0.829813 0.000000
200.38099670 127.57800293 439.50000000 -0.562406 -0.280411 0.777862 0.000000
151.84599304 79.73629761 408.50000000 -0.793152 0.265431 0.548139 0.000000
56.85549927 227.07499695 395.00000000 -0.885808 0.341390 0.314319 0.000000
112.32399750 196.91400146 411.50000000 0.266833 0.266833 -0.926067 0.000000
129.31199646 110.93800354 424.00000000 -0.822094 0.001359 0.569351 0.000000
162.24600220 82.50980377 417.50000000 -0.869060 0.290701 0.400285 0.000000
121.33799744 140.05900574 465.50000000 0.060651 0.310996 0.948474 0.000000
140.75199890 88.05660248 461.50000000 -0.063395 -0.408698 0.910465 0.000000
145.60499573 37.09469986 429.00000000 0.188183 -0.981157 0.043791 0.000000
58.93550110 73.84279633 375.00000000 -0.819067 -0.522907 -0.236002 0.000000
70.02929688 80.42970276 323.50000000 0.417738 -0.556434 -0.718245 0.000000
173.33999634 166.40600586 421.50000000 0.632317 0.391277 -0.668638 0.000000
118.56400299 72.10939789 423.50000000 -0.843584 0.193979 0.500737 0.000000
37.44139862 176.46000671 366.00000000 -0.796975 0.445984 -0.407343 0.000000
54.77539825 198.99400330 362.50000000 0.695184 0.623212 -0.358224 0.000000
149.76600647 128.61799622 462.00000000 0.064719 0.760803 0.645748 0.000000
130.35200500 63.78910065 403.50000000 -0.067600 0.356559 0.931824 0.000000
106.77700043 168.13999939 382.00000000 0.479050 0.692704 -0.539140 0.000000
142.13900757 87.01660156 402.00000000 -0.287593 -0.256115 0.922873 0.000000
126.53800201 101.23000336 421.00000000 -0.110819 -0.666394 -0.737318 0.000000
119.95099640 136.59199524 391.50000000 0.117452 -0.938269 0.325356 0.000000
109.55100250 200.38099670 447.50000000 0.144446 0.334290 0.931335 0.000000
69.68260193 183.04699707 367.00000000 0.693322 0.506209 -0.512891 0.000000
89.09670258 40.90819931 416.00000000 -0.513023 -0.740667 0.433843 0.000000
44.72169876 131.04499817 350.00000000 -0.901248 -0.300416 -0.312255 0.000000
134.51199341 65.17579651 403.50000000 -0.300416 0.901248 0.312255 0.000000
42.64160156 205.23399353 397.00000000 -0.926610 0.373527 0.043251 0.000000
84.58979797 106.43099976 334.00000000 0.841675 -0.323241 -0.432549 0.000000
168.48599243 153.92599487 416.50000000 0.186078 0.118640 -0.975346 0.000000
60.66889954 230.88900757 411.00000000 -0.723133 0.688902 0.049920 0.000000
48.18849945 92.21679688 427.00000000 -0.997847 0.013669 0.064140 0.000000
143.52499390 102.61699677 465.50000000 0.511984 -0.341858 0.788039 0.000000
146.99200439 53.38869858 416.50000000 -0.687433 0.183008 0.702812 0.000000
30.16110039 134.51199341 408.00000000 -0.957306 -0.160657 0.240322 0.000000
93.60350037 37.78810120 399.00000000 -0.197247 -0.959758 -0.199894 0.000000
204.54100037 101.92400360 454.50000000 0.618940 0.406542 0.672039 0.000000
57.54880142 92.56349945 316.00000000 -0.831738 -0.278282 -0.480387 0.000000
59.62889862 223.95500183 383.50000000 0.310408 0.784774 -0.536448 0.000000
208.70100403 113.71099854 448.50000000 -0.884818 0.130078 0.447412 0.000000
83.20310211 184.77999878 383.00000000 0.083948 0.183711 -0.979389 0.000000
77.65619659 165.71299744 352.50000000 0.741346 0.607425 -0.285378 0.000000
203.15400696 135.89799500 450.50000000 -0.022501 -0.211983 0.977014 0.000000
133.81799316 172.99299622 415.00000000 0.588486 0.725419 -0.357004 0.000000
78.69629669 195.52699280 387.00000000 0.719283 0.286752 -0.632776 0.000000
150.45899963 126.53800201 417.00000000 0.462115 0.835542 0.297185 0.000000
42.64160156 160.85899353 347.00000000 -0.963695 -0.074519 -0.256396 0.000000
97.07029724 224.30200195 416.00000000 0.542496 0.711715 -0.446273 0.000000
43.33499908 128.96499634 357.00000000 -0.965066 -0.228670 -0.127900 0.000000
60.66889954 136.59199524 306.00000000 -0.539069 0.172682 -0.824370 0.000000
133.81799316 169.17999268 451.50000000 0.347584 0.465033 0.814205 0.000000
132.08500671 144.91200256 463.00000000 0.343290 0.343290 0.874245 0.000000
171.95300293 156.35299683 409.00000000 0.008861 -0.353190 -0.935510 0.000000
89.79000092 192.06100464 393.00000000 0.635449 0.635449 -0.438644 0.000000
113.01799774 93.60350037 401.50000000 0.401605 -0.536020 0.742560 0.000000
118.91100311 195.52699280 422.00000000 -0.000978 -0.000978 -0.999999 0.000000
144.21899414 122.72499847 465.50000000 0.180128 0.060838 0.981760 0.000000
79.73629761 84.58979797 459.50000000 -0.492477 -0.372991 0.786349 0.000000
109.55100250 118.91100311 377.00000000 0.523137 -0.550051 -0.650978 0.000000
164.32600403 153.23199463 409.50000000 0.232976 0.171737 -0.957198 0.000000
122.03099823 119.95099640 469.50000000 0.000978 0.000978 0.999999 0.000000
54.42869949 76.96289825 412.00000000 -0.967806 -0.242886 -0.066015 0.000000
200.38099670 94.99019623 455.50000000 0.080425 -0.164450 0.983101 0.000000
177.15299988 148.37899780 433.00000000 0.434129 0.001304 0.900850 0.000000
54.77539825 197.60699463 437.50000000 -0.721958 0.386470 0.573949 0.000000
74.18949890 219.79499817 394.50000000 0.606638 0.525528 -0.596499 0.000000
166.40600586 163.28599548 433.00000000 0.833455 -0.244050 -0.495775 0.000000
137.63200378 88.75000000 427.00000000 -0.424090 -0.630314 0.650271 0.000000
104.69699860 115.09799957 470.50000000 0.000978 0.000978 0.999999 0.000000
65.86910248 188.59399414 367.50000000 0.594487 0.733795 -0.328831 0.000000
138.32499695 137.97900391 463.00000000 0.694093 0.658827 0.290141 0.000000
76.96289825 208.70100403 442.50000000 -0.171294 0.401604 0.899651 0.000000
212.51499939 113.71099854 453.00000000 -0.822094 -0.001359 0.569351 0.000000
102.61699677 214.59500122 414.00000000 0.671588 0.412902 -0.615208 0.000000
117.52400208 137.28500366 394.00000000 0.486483 -0.614416 0.621150 0.000000
102.27100372 169.17999268 380.00000000 0.372516 0.857869 -0.353967 0.000000
127.23100281 66.56250000 424.00000000 -0.877485 0.339132 0.339132 0.000000
32.93460083 136.59199524 419.00000000 -0.831636 0.162162 0.531117 0.000000
99.15039825 205.23399353 446.50000000 0.084574 0.363802 0.927629 0.000000
142.48500061 164.32600403 449.00000000 0.365669 0.601795 0.710020 0.000000
94.99019623 187.20700073 393.50000000 0.559189 0.586220 -0.586220 0.000000
112.32399750 116.48400116 470.50000000 0.000978 0.000978 0.999999 0.000000
76.61620331 217.71499634 395.00000000 0.525142 0.394265 -0.754176 0.000000
163.63299561 45.06840134 441.50000000 -0.037273 -0.846244 0.531491 0.000000
155.31199646 49.22850037 424.50000000 -0.621286 0.076399 0.779851 0.000000
141.44500732 88.75000000 402.50000000 -0.136191 -0.229579 0.963714 0.000000
56.16210175 87.36329651 359.50000000 -0.874929 -0.336277 -0.348450 0.000000
122.03099823 45.06840134 392.50000000 0.061799 -0.694164 0.717159 0.000000
100.53700256 38.48139954 425.00000000 -0.293104 -0.860896 0.415870 0.000000
81.12300110 54.42869949 370.00000000 0.079657 0.627116 -0.774843 0.000000
93.95020294 148.37899780 352.00000000 0.747754 0.415784 -0.517676 0.000000
170.56599426 115.44400024 413.00000000 -0.423100 0.311513 0.850850 0.000000
82.16310120 48.53519821 374.00000000 -0.421251 -0.871189 -0.252147 0.000000
79.04299927 126.88500214 316.50000000 0.850656 0.268225 -0.452150 0.000000
78.34960175 65.17579651 446.50000000 -0.211659 -0.588628 0.780203 0.000000
212.86099243 122.03099823 453.50000000 -0.822094 0.001359 0.569351 0.000000
146.29899597 166.05999756 424.00000000 0.451931 0.840189 -0.299735 0.000000
192.75399780 125.49800110 453.50000000 -0.187917 0.374400 0.908027 0.000000
140.75199890 74.18949890 455.50000000 -0.266833 -0.266833 0.926067 0.000000
136.59199524 60.32229996 448.50000000 -0.082569 -0.783684 0.615648 0.000000
120.99099731 76.96289825 418.00000000 -0.637886 0.769670 0.026637 0.000000
165.36599731 46.45510101 444.00000000 -0.133349 -0.738664 0.660752 0.000000
109.55100250 132.08500671 418.00000000 -0.077253 -0.990455 -0.114150 0.000000
59.62889862 160.51300049 454.00000000 -0.438979 0.030689 0.897973 0.000000
76.26950073 62.05569839 440.00000000 0.055937 -0.684157 0.727186 0.000000
50.26860046 216.32800293 387.00000000 -0.773634 0.631682 -0.049683 0.000000
110.93800354 55.46879959 396.50000000 -0.607996 -0.343933 0.715577 0.000000
190.67399597 88.05660248 459.50000000 0.136717 0.117359 0.983634 0.000000
138.67199707 65.86910248 405.50000000 -0.443636 0.364132 0.818899 0.000000
158.08599854 126.19100189 419.50000000 -0.089415 0.978671 0.184955 0.000000
106.08399963 188.59399414 452.50000000 0.076456 0.374232 0.924178 0.000000
172.64599609 84.58979797 427.50000000 -0.674813 0.487272 0.554251 0.000000
129.65800476 188.24699402 442.00000000 0.637439 0.417747 0.647425 0.000000
36.05469894 171.25999451 428.50000000 -0.562489 0.388659 0.729760 0.000000
109.20400238 49.22850037 390.00000000 -0.555563 -0.606223 0.569072 0.000000
54.08200073 115.09799957 449.50000000 -0.674348 -0.012514 0.738307 0.000000
43.68159866 108.16400146 434.50000000 -0.773444 -0.428244 0.467323 0.000000
110.93800354 131.39199829 414.00000000 -0.261007 -0.955260 -0.139116 0.000000
81.46970367 115.09799957 321.00000000 0.885851 -0.223311 -0.406693 0.000000
63.09569931 170.91299438 331.00000000 0.500040 0.687346 -0.526798 0.000000
42.98830032 107.12400055 381.00000000 -0.910459 -0.383724 -0.154339 0.000000
110.59100342 212.86099243 431.00000000 0.786933 0.584447 0.197884 0.000000
118.91100311 201.07400513 437.00000000 0.707106 0.707106 -0.001384 0.000000
157.04600525 47.84180069 426.00000000 -0.676945 0.179598 0.713786 0.000000
34.32130051 171.25999451 372.00000000 -0.847486 0.509667 0.148347 0.000000
143.52499390 91.87010193 403.00000000 -0.231079 -0.008295 0.972900 0.000000
101.23000336 202.80799866 447.00000000 0.244847 0.416089 0.875740 0.000000
82.16310120 94.29689789 341.00000000 0.760878 -0.379624 -0.526260 0.000000
97.41699982 97.76370239 392.00000000 0.460930 -0.598371 -0.655359 0.000000
54.77539825 208.00799561 368.50000000 0.774611 0.561474 -0.291076 0.000000
151.84599304 114.75099945 417.00000000 0.446815 -0.715900 0.536510 0.000000
80.42970276 73.49610138 454.50000000 -0.641168 -0.513271 0.570488 0.000000
68.64260101 185.82000732 451.50000000 -0.162951 0.157898 0.973917 0.000000
182.35400391 129.65800476 423.50000000 -0.583894 -0.273750 0.764284 0.000000
82.50980377 230.88900757 427.50000000 0.173776 0.566662 0.805416 0.000000
194.48699951 67.25589752 452.00000000 -0.612146 -0.123022 0.781116 0.000000
55.81539917 71.41600037 388.00000000 -0.754039 -0.563511 -0.337461 0.000000
106.08399963 57.89550018 443.00000000 -0.327839 -0.476713 0.815638 0.000000
58.93550110 169.52600098 327.00000000 -0.158538 0.765513 -0.623583 0.000000
205.23399353 90.13670349 454.50000000 0.000978 0.000978 0.999999 0.000000
101.92400360 92.91020203 469.50000000 -0.016621 -0.127426 0.991709 0.000000
53.04199982 222.56799316 405.00000000 -0.723503 0.675370 -0.142896 0.000000
145.60499573 58.93550110 449.50000000 -0.278497 -0.415463 0.865927 0.000000
68.64260101 56.85549927 424.50000000 -0.727977 -0.574202 0.374622 0.000000
104.00399780 58.58890152 394.00000000 0.179283 0.942945 -0.280557 0.000000
158.43299866 148.37899780 453.00000000 -0.136325 0.266032 0.954276 0.000000
126.19100189 47.49509811 396.00000000 -0.351193 -0.687685 0.635415 0.000000
85.97660065 231.23500061 426.00000000 0.166118 0.662947 0.730004 0.000000
94.64360046 97.76370239 382.00000000 0.816718 -0.574936 -0.049200 0.000000
168.48599243 106.77700043 413.50000000 -0.549947 0.479741 0.683672 0.000000
40.21480179 98.45700073 420.50000000 -0.940819 -0.338795 0.008816 0.000000
99.84380341 70.72270203 400.50000000 0.225960 -0.250912 0.941268 0.000000
53.04199982 94.99019623 360.00000000 -0.912640 -0.339890 -0.227075 0.000000
116.13800049 47.14839935 429.00000000 -0.973700 0.175544 0.145234 0.000000
64.48239899 90.48339844 314.00000000 0.426405 -0.854349 0.297098 0.000000
123.76499939 194.14100647 429.00000000 0.812238 0.560938 -0.160054 0.000000
140.05900574 47.49509811 411.00000000 -0.857831 -0.151037 0.491237 0.000000
86.66989899 67.25589752 449.50000000 -0.095433 -0.673903 0.732631 0.000000
168.48599243 171.95300293 429.50000000 0.955702 0.175101 0.236586 0.000000
156.00599670 116.83100128 416.00000000 0.475794 -0.799397 0.366858 0.000000
89.44339752 123.41799927 334.50000000 0.775772 0.235697 -0.585341 0.000000
173.33999634 159.47300720 409.50000000 0.139374 0.301752 -0.943144 0.000000
101.92400360 58.24219894 391.50000000 0.624743 0.510235 -0.591064 0.000000
92.21679688 138.67199707 465.50000000 -0.584843 -0.001363 0.811146 0.000000
152.53900146 130.35200500 459.50000000 0.375299 0.518270 0.768470 0.000000
155.31199646 59.62889862 422.50000000 -0.560749 0.308332 0.768434 0.000000
155.31199646 50.61520004 446.50000000 -0.026475 -0.597781 0.801222 0.000000
95.68360138 37.78810120 418.00000000 -0.405006 -0.811614 0.421015 0.000000
48.53519821 92.91020203 431.50000000 -0.876437 -0.414997 0.244204 0.000000
100.53700256 106.43099976 375.00000000 0.828387 -0.551778 -0.096525 0.000000
196.22099304 131.39199829 441.00000000 0.495059 0.864589 -0.086036 0.000000
94.29689789 38.48139954 418.00000000 -0.405006 -0.811614 0.421015 0.000000
169.17999268 151.84599304 410.50000000 0.026613 0.172403 -0.984667 0.000000
61.36230087 74.88279724 349.00000000 -0.945148 0.001242 -0.326641 0.000000
112.32399750 116.48400116 385.50000000 0.764418 -0.551990 -0.333125 0.000000
45.76169968 94.99019623 384.50000000 -0.935497 -0.259471 -0.239835 0.000000
75.22949982 165.71299744 347.00000000 0.635449 0.635449 -0.438644 0.000000
118.91100311 60.32229996 403.00000000 0.838024 0.525790 -0.145807 0.000000
169.17999268 68.64260101 456.50000000 -0.255524 -0.177109 0.950442 0.000000
54.42869949 82.50980377 373.00000000 -0.904633 -0.394619 -0.160982 0.000000
123.76499939 82.50980377 427.00000000 -0.990459 -0.134395 -0.030493 0.000000
168.48599243 45.41500092 444.00000000 0.464727 -0.605654 0.645920 0.000000
97.07029724 161.20599365 369.00000000 0.507964 0.521376 -0.685668 0.000000
94.99019623 148.37899780 400.50000000 0.582816 -0.492119 -0.646641 0.000000
61.70899963 81.81639862 324.50000000 -0.697692 -0.697692 0.162643 0.000000
125.49800110 110.93800354 417.50000000 -0.694494 -0.513758 0.503717 0.000000
114.40399933 81.12300110 401.50000000 0.000978 0.000978 0.999999 0.000000
54.42869949 76.26950073 430.00000000 -0.483399 -0.761969 0.430963 0.000000
179.23300171 67.94920349 441.00000000 -0.562406 0.280411 0.777862 0.000000
89.44339752 39.17480087 403.00000000 -0.564597 -0.821882 -0.075756 0.000000
97.07029724 132.77799988 400.00000000 0.073014 0.591274 0.803159 0.000000
45.76169968 180.27299500 437.50000000 -0.715577 0.343933 0.607996 0.000000
92.56349945 153.92599487 355.00000000 0.635449 0.635449 -0.438644 0.000000
91.52339935 146.64599609 398.00000000 0.676598 -0.505350 -0.535570 0.000000
167.44599915 162.93899536 433.00000000 0.748666 -0.522592 -0.407917 0.000000
130.35200500 136.24499512 417.00000000 -0.001296 -0.908224 -0.418483 0.000000
38.48139954 149.07200623 358.00000000 -0.949908 -0.134938 -0.281899 0.000000
95.68360138 153.23199463 395.50000000 -0.384749 -0.188772 0.903512 0.000000
