83.64060211 229.61700439 93.75000000 0.935568 0.312775 -0.163966 0.000000
107.31199646 120.72599792 133.75000000 0.688683 -0.691807 0.217068 0.000000
74.17179871 226.06599426 237.50000000 0.621510 0.001372 0.783405 0.000000
145.97599792 138.08599854 191.25000000 0.088290 -0.794612 0.600663 0.000000
174.77699280 174.38299561 217.50000000 0.264009 -0.292863 0.918983 0.000000
183.85099792 198.84399414 201.25000000 -0.467117 0.334107 0.818642 0.000000
181.87899780 202.00000000 190.00000000 -0.676192 0.733863 0.064880 0.000000
97.84369659 168.46499634 237.50000000 -0.200318 -0.364608 0.909359 0.000000
74.96089935 218.57000732 241.25000000 -0.639228 0.004142 0.769006 0.000000
101.78900146 215.41400146 126.25000000 0.730780 -0.364572 -0.577103 0.000000
226.06599426 120.72599792 160.00000000 0.953933 -0.001225 -0.300017 0.000000
79.69529724 137.69099426 177.50000000 -0.648959 -0.760607 0.018143 0.000000
152.68400574 240.66400146 175.00000000 0.678216 0.258898 -0.687746 0.000000
157.41799927 257.23400879 185.00000000 0.777362 0.259121 -0.573206 0.000000
141.63699341 171.22599792 152.50000000 0.136205 0.881749 -0.451627 0.000000
205.15600586 171.22599792 171.25000000 0.279450 0.697828 -0.659503 0.000000
145.18699646 274.59399414 213.75000000 -0.303144 0.382358 0.872872 0.000000
213.44099426 179.90600586 190.00000000 0.453036 0.805219 -0.382599 0.000000
155.83999634 128.61700439 175.00000000 -0.073532 -0.780019 0.621420 0.000000
137.29699707 291.95300293 201.25000000 0.190295 0.911412 0.364851 0.000000
73.38279724 157.81199646 123.75000000 -0.846815 -0.506907 -0.161087 0.000000
117.56999969 217.78100586 143.75000000 0.584826 0.291616 -0.756927 0.000000
95.47650146 249.34399414 133.75000000 0.714248 0.114339 -0.690490 0.000000
143.60899353 289.98001099 197.50000000 0.540911 0.813664 0.212993 0.000000
134.14100647 136.11300659 187.50000000 -0.300697 -0.810780 0.502212 0.000000
87.19139862 242.24200439 117.50000000 0.953933 0.001225 -0.300017 0.000000
160.57400513 140.45300293 142.50000000 -0.620325 0.708245 -0.337027 0.000000
183.85099792 184.64100647 166.25000000 -0.000978 -0.000978 -0.999999 0.000000
180.69500732 182.27299500 216.25000000 0.568735 0.103274 0.816011 0.000000
196.47599792 145.97599792 148.75000000 0.206652 -0.101447 -0.973141 0.000000
63.91400146 168.46499634 212.50000000 -0.761249 -0.446927 0.469846 0.000000
77.32810211 194.89799500 76.25000000 0.835428 0.051777 -0.547156 0.000000
164.12500000 119.14800262 148.75000000 -0.103947 -0.985701 0.132622 0.000000
190.95300293 161.75799561 158.75000000 0.162985 0.693067 -0.702206 0.000000
185.42999268 179.11700439 213.75000000 0.427364 0.169497 0.888049 0.000000
220.93699646 116.78099823 166.25000000 -0.225568 -0.906640 0.356544 0.000000
95.47650146 288.00799561 153.75000000 -0.192342 0.964327 0.181874 0.000000
70.22650146 150.71099854 151.25000000 -0.856228 -0.513737 -0.054297 0.000000
67.07029724 262.75799561 128.75000000 -0.675065 0.652181 -0.344888 0.000000
89.16400146 129.01199341 142.50000000 -0.619433 -0.722404 -0.307303 0.000000
176.75000000 134.14100647 186.25000000 -0.039375 -0.881180 0.471139 0.000000
54.83980179 202.00000000 192.50000000 -0.993320 -0.110122 0.034483 0.000000
87.98040009 136.50799561 127.50000000 -0.793994 -0.568901 -0.214301 0.000000
65.49210358 156.23399353 156.25000000 -0.897864 -0.336885 -0.283458 0.000000
50.89450073 219.35899353 142.50000000 -0.953933 -0.001225 -0.300017 0.000000
138.08599854 166.49200439 223.75000000 0.789199 -0.231023 0.569029 0.000000
80.87889862 137.29699707 177.50000000 -0.608433 -0.793061 0.029373 0.000000
115.99199677 176.75000000 138.75000000 0.710072 -0.447329 -0.543779 0.000000
150.31599426 243.03100586 225.00000000 0.334430 0.331403 0.882229 0.000000
86.79679871 258.02301025 123.75000000 0.889211 -0.126624 -0.439626 0.000000
137.69099426 221.72599792 152.50000000 0.198148 0.252809 -0.947009 0.000000
73.38279724 158.99600220 120.00000000 -0.846815 -0.506907 -0.161087 0.000000
199.63299561 164.91400146 206.25000000 0.032355 -0.634437 0.772297 0.000000
194.10899353 178.32800293 171.25000000 0.421911 0.513845 -0.746963 0.000000
127.43399811 172.01600647 155.00000000 -0.489699 0.303897 -0.817215 0.000000
128.61700439 166.88699341 232.50000000 0.543290 -0.402133 0.736970 0.000000
93.10929871 229.61700439 241.25000000 -0.194664 0.373466 0.906989 0.000000
183.85099792 159.39100647 153.75000000 0.105121 0.842409 -0.528486 0.000000
228.82800293 146.76600647 201.25000000 0.000978 0.000978 0.999999 0.000000
83.64060211 183.85099792 238.75000000 -0.434812 -0.399513 0.807049 0.000000
61.94139862 179.11700439 125.00000000 -0.863262 -0.487302 -0.131586 0.000000
157.81199646 248.55499268 183.75000000 0.801669 0.138321 -0.581545 0.000000
108.10099792 165.30799866 237.50000000 -0.173330 -0.391067 0.903894 0.000000
68.25389862 267.49200439 155.00000000 -0.850580 0.520504 0.074761 0.000000
93.89839935 220.54299927 245.00000000 0.104265 0.418448 0.902236 0.000000
77.32810211 198.84399414 76.25000000 0.684247 -0.018191 -0.729024 0.000000
138.08599854 268.67599487 220.00000000 0.303116 0.818257 0.488442 0.000000
182.27299500 153.86700439 206.25000000 -0.169707 -0.424992 0.889147 0.000000
122.30500031 191.74200439 241.25000000 0.506851 -0.037087 0.861235 0.000000
161.75799561 158.60099792 163.75000000 -0.158869 0.832947 0.530057 0.000000
65.49210358 210.67999268 238.75000000 -0.670918 0.294432 0.680572 0.000000
92.32029724 125.85500336 147.50000000 -0.539535 -0.754698 -0.373274 0.000000
174.38299561 160.96899414 211.25000000 0.176465 -0.550512 0.815964 0.000000
231.19500732 141.24200439 181.25000000 0.709922 0.272802 -0.649300 0.000000
128.61700439 229.61700439 238.75000000 0.999999 0.000978 0.000978 0.000000
59.57419968 250.13299561 150.00000000 -0.900907 0.393516 -0.183064 0.000000
168.07000732 219.35899353 191.25000000 0.288411 -0.939752 -0.183535 0.000000
89.95310211 136.11300659 195.00000000 -0.428590 -0.901797 -0.055433 0.000000
160.96899414 119.14800262 146.25000000 -0.141348 -0.971607 0.189737 0.000000
89.16400146 190.95300293 91.25000000 0.875021 0.106364 -0.472256 0.000000
164.12500000 175.17199707 221.25000000 0.000978 0.000978 0.999999 0.000000
140.45300293 205.94500732 151.25000000 0.535888 -0.162707 -0.828462 0.000000
128.61700439 228.82800293 153.75000000 0.309940 0.386280 -0.868749 0.000000
96.26560211 218.57000732 246.25000000 0.297260 0.456006 0.838865 0.000000
119.14800262 156.62899780 230.00000000 -0.199620 -0.731939 0.651473 0.000000
139.66400146 219.35899353 236.25000000 0.648923 0.020933 0.760566 0.000000
140.45300293 282.48400879 208.75000000 0.234943 0.567909 0.788848 0.000000
121.51599884 194.10899353 243.75000000 0.511603 -0.057155 0.857319 0.000000
155.44500732 232.77299500 223.75000000 0.532286 0.009481 0.846511 0.000000
105.73400116 246.18699646 233.75000000 -0.414195 0.321118 0.851660 0.000000
194.89799500 148.34399414 148.75000000 0.404446 0.080345 -0.911026 0.000000
78.11710358 202.00000000 76.25000000 -0.612827 0.152078 -0.775445 0.000000
63.12500000 214.62500000 96.25000000 -0.953933 0.001225 -0.300017 0.000000
106.52300262 265.91400146 151.25000000 0.730780 -0.364572 -0.577103 0.000000
164.91400146 224.09399414 186.25000000 0.844879 -0.001347 -0.534955 0.000000
81.27339935 158.20700073 220.00000000 -0.445474 -0.685729 0.575612 0.000000
220.93699646 134.92999268 156.25000000 0.297727 0.552467 -0.778549 0.000000
93.89839935 157.02299500 228.75000000 -0.310956 -0.736305 0.600967 0.000000
208.31199646 151.89399719 160.00000000 0.572515 0.555627 -0.602914 0.000000
169.64799500 149.13299561 148.75000000 -0.411974 -0.159335 -0.897156 0.000000
100.21099854 161.75799561 113.75000000 0.960095 0.210559 -0.184073 0.000000
66.28119659 188.97999573 97.50000000 -0.952250 -0.176442 -0.249174 0.000000
220.14799500 139.66400146 196.25000000 -0.070938 -0.684766 0.725302 0.000000
189.37500000 202.78900146 206.25000000 -0.000978 -0.000978 0.999999 0.000000
133.35099792 191.74200439 148.75000000 0.773938 -0.287644 -0.564164 0.000000
117.56999969 123.88300323 113.75000000 -0.001225 -0.953933 -0.300017 0.000000
153.86700439 255.65600586 181.25000000 0.661025 0.220342 -0.717283 0.000000
62.33589935 239.87500000 111.25000000 -0.867774 0.411851 -0.278113 0.000000
106.52300262 148.73800659 222.50000000 -0.217240 -0.793466 0.568523 0.000000
198.84399414 153.07800293 153.75000000 0.259121 0.777362 -0.573206 0.000000
151.50000000 160.17999268 146.25000000 0.408602 0.355374 -0.840687 0.000000
63.12500000 254.07800293 206.25000000 -0.873262 0.309375 0.376432 0.000000
172.01600647 192.53100586 166.25000000 -0.259941 -0.291536 -0.920564 0.000000
101.00000000 123.88300323 156.25000000 -0.354787 -0.912105 0.205403 0.000000
124.67199707 266.70300293 223.75000000 0.243153 0.597685 0.763970 0.000000
54.83980179 229.61700439 137.50000000 -0.915870 0.270565 -0.296609 0.000000
115.20300293 119.93699646 131.25000000 -0.046919 -0.989885 -0.133892 0.000000
79.30069733 149.92199707 110.00000000 -0.690320 -0.690320 -0.216602 0.000000
182.66799927 159.39100647 152.50000000 0.229788 0.869590 -0.437048 0.000000
56.81250000 190.16400146 128.75000000 -0.926494 -0.291753 -0.237672 0.000000
79.69529724 147.55499268 206.25000000 -0.199249 -0.813725 0.546032 0.000000
133.35099792 198.05499268 238.75000000 0.383811 -0.141996 0.912429 0.000000
189.37500000 210.28500366 190.00000000 -0.167478 0.792127 -0.586929 0.000000
106.52300262 184.64100647 243.75000000 0.000978 0.000978 0.999999 0.000000
227.25000000 155.44500732 203.75000000 -0.000978 -0.000978 0.999999 0.000000
188.58599854 118.75399780 155.00000000 0.000000 0.000000 0.000000 0.000000
93.89839935 227.25000000 121.25000000 0.834883 0.330507 -0.440154 0.000000
134.92999268 269.07000732 221.25000000 0.282170 0.849594 0.445613 0.000000
143.60899353 160.96899414 143.75000000 0.390312 0.779004 -0.490724 0.000000
95.47650146 132.56199646 186.25000000 -0.208092 -0.827810 0.520988 0.000000
67.07029724 258.02301025 208.75000000 -0.755878 0.615612 0.222867 0.000000
136.50799561 147.55499268 198.75000000 0.000978 0.000978 0.999999 0.000000
109.28500366 253.28900146 150.00000000 0.625770 -0.119828 -0.770748 0.000000
68.25389862 173.59399414 105.00000000 -0.907385 -0.358599 -0.219224 0.000000
168.46499634 229.61700439 195.00000000 0.953933 0.001225 -0.300017 0.000000
120.72599792 173.59399414 238.75000000 0.371989 -0.448621 0.812627 0.000000
134.53500366 174.38299561 155.00000000 0.176475 0.885292 -0.430249 0.000000
77.72260284 206.73399353 77.50000000 0.588771 0.252779 -0.767757 0.000000
87.19139862 276.96099854 207.50000000 -0.487644 0.668625 0.561377 0.000000
89.55850220 190.95300293 92.50000000 0.873808 0.137209 -0.466512 0.000000
100.21099854 230.40600586 241.25000000 0.000978 0.000978 0.999999 0.000000
70.22650146 175.96099854 226.25000000 -0.587327 -0.587327 0.556861 0.000000
174.38299561 136.90199280 130.00000000 0.282170 0.849594 -0.445613 0.000000
75.75000000 207.52299500 76.25000000 0.594614 0.257088 -0.761800 0.000000
62.73040009 159.39100647 175.00000000 -0.894688 -0.446689 0.001310 0.000000
59.57419968 236.71899414 205.00000000 -0.879063 0.250091 0.405836 0.000000
79.30069733 149.13299561 112.50000000 -0.874116 -0.484105 -0.039547 0.000000
157.81199646 225.67199707 223.75000000 0.625112 0.282979 0.727432 0.000000
230.40600586 149.92199707 201.25000000 0.000978 0.000978 0.999999 0.000000
231.98399353 145.97599792 183.75000000 0.661332 0.365948 -0.654768 0.000000
148.34399414 185.42999268 166.25000000 -0.000978 -0.000978 -0.999999 0.000000
211.46899414 132.56199646 148.75000000 0.595846 0.595846 -0.538456 0.000000
145.97599792 275.38299561 213.75000000 -0.303144 0.382358 0.872872 0.000000
234.35099792 132.95700073 187.50000000 0.288065 -0.891062 0.350753 0.000000
177.53900146 173.59399414 216.25000000 0.307086 -0.421279 0.853360 0.000000
85.61319733 249.34399414 117.50000000 0.526406 0.526406 -0.667678 0.000000
165.70300293 208.31199646 176.25000000 0.760294 0.571421 -0.308919 0.000000
75.75000000 240.66400146 93.75000000 0.000978 0.000978 -0.999999 0.000000
225.67199707 159.39100647 203.75000000 0.000978 0.000978 0.999999 0.000000
115.99199677 131.37899780 180.00000000 0.105166 -0.921908 0.372861 0.000000
190.95300293 211.46899414 203.75000000 0.055519 0.624946 0.778691 0.000000
84.42960358 183.06199646 238.75000000 -0.434812 -0.399513 0.807049 0.000000
139.26899719 250.92199707 227.50000000 0.315220 0.079786 0.945659 0.000000
98.63279724 164.91400146 236.25000000 -0.378474 -0.413313 0.828209 0.000000
154.65600586 232.77299500 171.25000000 0.701991 0.498564 -0.508569 0.000000
74.17179871 151.89399719 205.00000000 -0.587327 -0.587327 0.556861 0.000000
141.63699341 241.45300293 230.00000000 0.525142 0.394265 0.754176 0.000000
121.51599884 174.38299561 146.25000000 0.747738 -0.501231 -0.435495 0.000000
216.99200439 122.69899750 175.00000000 0.098567 -0.950182 0.295700 0.000000
131.77299500 173.59399414 153.75000000 -0.271722 0.793176 -0.545014 0.000000
61.15230179 206.73399353 230.00000000 -0.953933 -0.001225 0.300017 0.000000
172.80499268 201.60499573 190.00000000 0.431249 0.860973 0.269721 0.000000
100.21099854 289.19100952 152.50000000 0.000978 0.000978 -0.999999 0.000000
219.35899353 168.07000732 206.25000000 0.000978 0.000978 0.999999 0.000000
162.15199280 209.10099792 170.00000000 0.731551 0.584915 -0.350297 0.000000
89.55850220 127.82800293 147.50000000 -0.635064 -0.726919 -0.261311 0.000000
68.64839935 232.77299500 93.75000000 -0.745331 0.345873 -0.569959 0.000000
132.95700073 141.24200439 120.00000000 0.569727 0.660480 -0.489058 0.000000
60.75780106 253.68299866 157.50000000 -0.882186 0.461430 -0.093969 0.000000
210.67999268 148.34399414 201.25000000 0.164755 -0.222749 0.960853 0.000000
82.06250000 177.14399719 235.00000000 -0.213053 -0.491081 0.844659 0.000000
139.66400146 206.73399353 151.25000000 0.502641 0.042690 -0.863441 0.000000
141.24200439 284.06201172 178.75000000 0.730096 0.331862 -0.597351 0.000000
187.00799561 152.68400574 147.50000000 0.882248 -0.253141 -0.396937 0.000000
101.00000000 179.90600586 113.75000000 0.819871 -0.245498 -0.517245 0.000000
67.07029724 182.27299500 98.75000000 -0.980991 -0.140841 -0.133493 0.000000
98.23819733 257.23400879 140.00000000 0.724826 -0.001381 -0.688930 0.000000
84.03510284 224.88299561 242.50000000 -0.383450 0.587518 0.712592 0.000000
69.04290009 238.29699707 222.50000000 -0.694074 0.533517 0.483343 0.000000
96.26560211 220.93699646 243.75000000 0.114498 0.324635 0.938883 0.000000
186.21899414 147.55499268 146.25000000 0.034352 0.197822 -0.979636 0.000000
82.06250000 144.79299927 122.50000000 -0.854788 -0.518834 -0.012192 0.000000
136.90199280 132.56199646 110.00000000 0.594110 0.296254 -0.747842 0.000000
170.43699646 142.82000732 143.75000000 0.100837 0.781854 -0.615253 0.000000
148.34399414 136.50799561 188.75000000 0.138039 -0.808941 0.571454 0.000000
208.31199646 143.60899353 153.75000000 0.369752 0.430055 -0.823611 0.000000
190.95300293 159.39100647 156.25000000 0.167879 0.588334 -0.790999 0.000000
139.66400146 128.61700439 173.75000000 -0.758418 -0.358909 0.544047 0.000000
138.87500000 209.10099792 236.25000000 0.212585 -0.072500 0.974449 0.000000
113.62500000 214.62500000 138.75000000 0.750920 0.327821 -0.573283 0.000000
97.84369659 227.25000000 126.25000000 0.804507 0.284962 -0.521119 0.000000
104.94499969 258.02301025 228.75000000 -0.004061 0.537396 0.843320 0.000000
118.35900116 227.25000000 241.25000000 0.104400 0.175638 0.978903 0.000000
123.88300323 253.28900146 161.25000000 0.532878 0.209181 -0.819930 0.000000
123.88300323 250.92199707 231.25000000 0.000978 0.000978 0.999999 0.000000
105.73400116 175.17199707 123.75000000 0.929623 -0.165359 -0.329328 0.000000
176.75000000 131.77299500 181.25000000 0.001225 -0.953933 0.300017 0.000000
81.27339935 194.10899353 241.25000000 -0.231088 -0.378277 0.896384 0.000000
184.64100647 207.91799927 192.50000000 -0.891952 0.446663 -0.070092 0.000000
197.26600647 132.16799927 132.50000000 0.325014 0.871283 -0.367739 0.000000
117.56999969 179.11700439 138.75000000 0.712523 -0.440137 -0.546434 0.000000
58.78509903 172.01600647 165.00000000 -0.879859 -0.473350 0.042288 0.000000
131.77299500 273.01501465 218.75000000 -0.055292 0.806701 0.588367 0.000000
194.10899353 142.82000732 201.25000000 0.172304 -0.736483 0.654144 0.000000
122.30500031 172.80499268 153.75000000 0.776830 -0.015286 -0.629524 0.000000
69.04290009 157.81199646 140.00000000 -0.803608 -0.513109 -0.301550 0.000000
78.51170349 279.32800293 160.00000000 -0.733477 0.667748 0.126977 0.000000
63.91400146 252.50000000 121.25000000 -0.694134 0.560967 -0.451104 0.000000
72.19920349 273.01501465 152.50000000 -0.727066 0.684045 -0.058796 0.000000
185.42999268 138.08599854 196.25000000 -0.014941 -0.848894 0.528352 0.000000
78.51170349 278.53900146 170.00000000 -0.593875 0.800940 -0.076212 0.000000
145.97599792 273.01501465 181.25000000 0.769776 0.032367 -0.637493 0.000000
104.15599823 246.97599792 143.75000000 0.676569 0.182566 -0.713389 0.000000
92.71479797 126.25000000 152.50000000 -0.650794 -0.751144 0.110679 0.000000
153.07800293 130.98399353 176.25000000 -0.113398 -0.787894 0.605280 0.000000
200.42199707 142.03100586 148.75000000 0.237301 0.347945 -0.906986 0.000000
120.72599792 144.79299927 212.50000000 0.653637 -0.743794 0.139743 0.000000
162.54699707 233.56199646 218.75000000 0.680398 -0.001380 0.732842 0.000000
114.41400146 279.32800293 213.75000000 -0.698017 0.206762 0.685581 0.000000
61.54679871 174.77699280 137.50000000 -0.899029 -0.346916 -0.267199 0.000000
100.21099854 264.33599854 143.75000000 0.827081 0.251989 -0.502432 0.000000
80.87889862 138.87500000 190.00000000 -0.609214 -0.719684 0.333037 0.000000
83.64060211 236.71899414 98.75000000 0.958148 0.157268 -0.239207 0.000000
93.89839935 189.37500000 243.75000000 0.000978 0.000978 0.999999 0.000000
203.18299866 116.78099823 150.00000000 -0.090389 -0.994279 0.056912 0.000000
216.99200439 155.44500732 171.25000000 0.670211 0.380390 -0.637276 0.000000
53.26169968 219.35899353 187.50000000 -0.953933 0.001225 0.300017 0.000000
182.27299500 138.08599854 193.75000000 -0.203170 -0.811154 0.548407 0.000000
59.17969894 187.79699707 121.25000000 -0.978537 -0.180483 -0.099450 0.000000
55.62889862 239.87500000 150.00000000 -0.974096 0.177681 -0.139877 0.000000
102.57800293 211.46899414 246.25000000 0.197185 0.155944 0.967884 0.000000
173.59399414 163.33599854 213.75000000 0.207531 -0.570327 0.794769 0.000000
91.13670349 155.44500732 92.50000000 0.953933 -0.001225 -0.300017 0.000000
142.82000732 270.64801025 176.25000000 0.540624 0.081308 -0.837326 0.000000
155.44500732 209.10099792 226.25000000 0.390163 -0.331562 0.858976 0.000000
202.39399719 187.00799561 192.50000000 0.782802 0.622085 0.015240 0.000000
118.35900116 169.64799500 238.75000000 0.108091 -0.227627 0.967731 0.000000
134.92999268 236.71899414 158.75000000 0.707106 -0.707106 -0.001384 0.000000
202.78900146 122.69899750 170.00000000 -0.055290 -0.904866 0.422091 0.000000
209.10099792 174.38299561 176.25000000 0.686846 0.543127 -0.482965 0.000000
141.24200439 181.48399353 231.25000000 0.179128 -0.472248 0.863073 0.000000
69.43750000 242.63699341 220.00000000 -0.543619 0.476712 0.690814 0.000000
194.10899353 130.98399353 183.75000000 -0.340456 -0.682542 0.646704 0.000000
76.93350220 141.24200439 182.50000000 -0.759264 -0.641320 0.110572 0.000000
172.01600647 124.27700043 165.00000000 -0.001225 -0.953933 0.300017 0.000000
145.97599792 149.13299561 203.75000000 -0.417287 -0.404497 0.813790 0.000000
86.00779724 269.85900879 213.75000000 -0.446321 0.489142 0.749358 0.000000
59.57419968 254.86700439 177.50000000 -0.919277 0.393609 -0.001282 0.000000
129.40600586 127.03900146 173.75000000 -0.001360 -0.825507 0.564391 0.000000
183.85099792 129.40600586 178.75000000 -0.375233 -0.896144 0.236912 0.000000
55.62889862 235.13999939 192.50000000 -0.955378 0.294440 -0.023605 0.000000
143.60899353 236.71899414 163.75000000 0.439476 0.650023 -0.619945 0.000000
168.85899353 138.87500000 193.75000000 -0.170817 -0.790594 0.588033 0.000000
135.71899414 269.46499634 220.00000000 0.282170 0.849594 0.445613 0.000000
63.91400146 262.36300659 145.00000000 -0.916130 0.392239 0.082791 0.000000
153.86700439 201.21099854 161.25000000 0.964327 -0.192342 -0.181874 0.000000
69.43750000 164.51899719 125.00000000 -0.904826 -0.372064 -0.207024 0.000000
64.70310211 225.27699280 230.00000000 -0.720931 0.522054 0.455761 0.000000
107.31199646 170.04299927 240.00000000 -0.061083 -0.589520 0.805441 0.000000
178.32800293 121.51599884 161.25000000 -0.123862 -0.914355 0.385504 0.000000
224.09399414 120.72599792 153.75000000 0.878511 0.297877 -0.373481 0.000000
94.68740082 258.02301025 136.25000000 0.844879 0.001347 -0.534955 0.000000
89.95310211 195.68699646 93.75000000 0.953933 -0.001225 -0.300017 0.000000
81.27339935 151.50000000 211.25000000 -0.432826 -0.748806 0.501947 0.000000
183.06199646 202.00000000 196.25000000 -0.997206 0.052825 0.052825 0.000000
98.63279724 280.90600586 211.25000000 -0.001383 0.726206 0.687475 0.000000
101.78900146 157.81199646 231.25000000 -0.202909 -0.698565 0.686174 0.000000
81.27339935 134.92999268 161.25000000 -0.685977 -0.725909 0.049915 0.000000
72.59369659 162.15199280 112.50000000 0.000978 0.000978 -0.999999 0.000000
129.40600586 201.21099854 146.25000000 0.330497 -0.011310 -0.943739 0.000000
78.11710358 211.46899414 243.75000000 -0.364269 0.246287 0.898137 0.000000
92.32029724 132.16799927 122.50000000 -0.849594 -0.282170 -0.445613 0.000000
125.06600189 220.14799500 147.50000000 0.186134 0.435290 -0.880839 0.000000
104.15599823 130.19500732 181.25000000 -0.001225 -0.953933 0.300017 0.000000
115.99199677 224.88299561 241.25000000 0.085074 0.022615 0.996118 0.000000
127.43399811 162.54699707 140.00000000 0.364572 0.730780 -0.577103 0.000000
169.64799500 138.87500000 133.75000000 0.001225 0.953933 -0.300017 0.000000
59.57419968 166.49200439 182.50000000 -0.987889 0.001116 0.155160 0.000000
167.28100586 171.22599792 166.25000000 0.011656 0.075233 -0.997098 0.000000
61.94139862 247.76499939 120.00000000 -0.739433 0.398408 -0.542688 0.000000
73.38279724 200.42199707 243.75000000 -0.457179 -0.033715 0.888735 0.000000
193.32000732 133.74600220 132.50000000 0.187139 0.842872 -0.504525 0.000000
65.88670349 157.02299500 190.00000000 -0.832985 -0.544255 0.099612 0.000000
132.56199646 285.64001465 208.75000000 0.055483 0.607464 0.792407 0.000000
160.96899414 206.73399353 221.25000000 0.587327 -0.587327 0.556861 0.000000
51.28900146 216.99200439 173.75000000 -0.995790 -0.066972 0.062580 0.000000
135.71899414 125.46099854 171.25000000 0.052540 -0.782416 0.620536 0.000000
130.19500732 235.92999268 236.25000000 0.106145 0.045810 0.993295 0.000000
60.75780106 257.62899780 175.00000000 -0.925742 0.367871 -0.087588 0.000000
74.96089935 173.59399414 78.75000000 0.275727 -0.553029 0.786215 0.000000
187.79699707 172.01600647 211.25000000 0.342217 -0.475920 0.810178 0.000000
68.64839935 246.97599792 216.25000000 -0.636662 0.158787 0.754618 0.000000
213.83599854 130.98399353 186.25000000 -0.114339 -0.690490 0.714248 0.000000
188.97999573 186.21899414 167.50000000 0.483358 0.206293 -0.850770 0.000000
151.50000000 246.18699646 176.25000000 0.462614 0.283138 -0.840132 0.000000
108.89099884 236.71899414 238.75000000 -0.036953 0.319832 0.946753 0.000000
109.68000031 265.91400146 223.75000000 0.107763 0.651004 0.751386 0.000000
63.51950073 163.33599854 147.50000000 -0.890697 -0.356577 -0.281979 0.000000
140.45300293 182.27299500 231.25000000 0.000978 0.000978 0.999999 0.000000
136.50799561 135.32400513 187.50000000 -0.291074 -0.835866 0.465408 0.000000
98.63279724 284.85101318 203.75000000 -0.357768 0.867550 0.345484 0.000000
145.18699646 225.67199707 231.25000000 0.417731 0.197873 0.886762 0.000000
61.15230179 177.53900146 217.50000000 -0.803548 -0.474461 0.359440 0.000000
99.42179871 283.27301025 208.75000000 -0.264091 0.760647 0.593020 0.000000
76.53900146 174.38299561 78.75000000 0.296254 -0.594110 -0.747842 0.000000
61.15230179 176.75000000 137.50000000 -0.856761 -0.170168 -0.486830 0.000000
120.33200073 164.12500000 235.00000000 0.270053 -0.510447 0.816404 0.000000
106.52300262 277.75000000 216.25000000 -0.012347 0.816259 0.577554 0.000000
190.95300293 202.00000000 181.25000000 0.349290 0.735945 -0.579984 0.000000
90.74210358 204.36700439 248.75000000 0.241055 0.319001 0.916587 0.000000
79.30069733 138.87500000 185.00000000 -0.804594 -0.536915 0.253673 0.000000
121.51599884 224.88299561 241.25000000 0.301215 0.203145 0.931666 0.000000
54.83980179 183.85099792 160.00000000 -0.932879 -0.164952 -0.320201 0.000000
95.87100220 219.35899353 120.00000000 0.825308 0.345588 -0.446582 0.000000
184.64100647 204.76199341 187.50000000 -0.810385 0.429968 -0.398000 0.000000
65.49210358 246.18699646 213.75000000 -0.639367 0.113698 0.760449 0.000000
108.10099792 228.82800293 138.75000000 0.702133 0.600184 -0.383131 0.000000
134.92999268 261.96899414 223.75000000 0.267199 0.346916 0.899029 0.000000
141.24200439 242.24200439 166.25000000 0.477325 0.349612 -0.806184 0.000000
154.65600586 237.50799561 223.75000000 0.633415 0.123123 0.763955 0.000000
130.98399353 188.58599854 148.75000000 0.700932 -0.444534 -0.557749 0.000000
51.68360138 226.46099854 177.50000000 -0.974090 0.090584 0.207227 0.000000
201.21099854 140.84800720 197.50000000 -0.052869 -0.655862 0.753027 0.000000
100.21099854 288.00799561 198.75000000 0.001225 0.953933 0.300017 0.000000
61.54679871 213.83599854 231.25000000 0.001347 -0.844879 0.534955 0.000000
142.03100586 238.29699707 231.25000000 0.326126 0.397225 0.857820 0.000000
117.56999969 133.35099792 183.75000000 0.204343 -0.863611 0.460891 0.000000
235.92999268 159.39100647 191.25000000 0.621510 -0.001372 -0.783405 0.000000
66.67569733 156.23399353 197.50000000 -0.857691 -0.467149 0.214798 0.000000
171.22599792 200.42199707 178.75000000 0.229218 0.923993 0.306099 0.000000
108.10099792 203.57800293 246.25000000 0.000978 0.000978 0.999999 0.000000
118.35900116 284.85101318 161.25000000 0.788116 -0.107137 -0.606131 0.000000
146.37100220 133.35099792 135.00000000 0.850461 0.151291 -0.503813 0.000000
101.78900146 281.69500732 143.75000000 0.593724 0.229075 -0.771373 0.000000
151.10499573 140.45300293 137.50000000 0.957295 0.196266 -0.212287 0.000000
194.10899353 206.73399353 206.25000000 0.503553 0.374022 0.778808 0.000000
57.99610138 239.08599854 127.50000000 -0.960840 0.273633 -0.043731 0.000000
128.61700439 166.49200439 146.25000000 -0.033715 0.888735 -0.457179 0.000000
61.15230179 258.02301025 190.00000000 -0.867388 0.458159 0.194236 0.000000
217.78100586 128.61700439 183.75000000 -0.006870 -0.803757 0.594918 0.000000
192.53100586 157.02299500 206.25000000 0.000978 0.000978 0.999999 0.000000
137.29699707 153.07800293 203.75000000 0.382002 -0.849761 0.363292 0.000000
60.75780106 256.44500732 171.25000000 -0.849522 0.523755 -0.063188 0.000000
57.99610138 213.83599854 220.00000000 -0.976318 0.182826 0.115666 0.000000
186.21899414 211.07400513 192.50000000 -0.711632 0.484976 -0.508309 0.000000
133.35099792 288.79699707 173.75000000 0.540108 0.275565 -0.795203 0.000000
172.01600647 206.73399353 213.75000000 0.088135 0.801887 0.590940 0.000000
157.02299500 185.42999268 223.75000000 -0.000978 -0.000978 0.999999 0.000000
158.60099792 157.02299500 211.25000000 0.058338 -0.427357 0.902199 0.000000
179.11700439 145.97599792 201.25000000 0.026536 -0.624305 0.780730 0.000000
160.96899414 145.18699646 201.25000000 0.158991 -0.743473 0.649592 0.000000
106.12899780 143.60899353 112.50000000 0.691807 0.688683 0.217068 0.000000
133.35099792 187.79699707 151.25000000 0.581270 -0.434704 -0.687864 0.000000
56.41790009 209.89100647 202.50000000 -0.984527 0.087327 0.151926 0.000000
213.04699707 157.02299500 168.75000000 0.607012 0.535997 -0.586722 0.000000
198.84399414 128.61700439 178.75000000 -0.125288 -0.803319 0.582222 0.000000
149.13299561 250.13299561 223.75000000 0.403576 0.504878 0.763036 0.000000
202.78900146 189.37500000 183.75000000 0.963176 0.239178 0.122821 0.000000
66.28119659 164.91400146 211.25000000 -0.776591 -0.560606 0.287450 0.000000
134.14100647 138.87500000 118.75000000 0.528261 0.701570 -0.478268 0.000000
209.89100647 145.97599792 156.25000000 0.560371 0.437322 -0.703373 0.000000
63.91400146 206.73399353 236.25000000 -0.825908 -0.029052 0.563056 0.000000
70.22650146 158.20700073 207.50000000 -0.753796 -0.518337 0.403878 0.000000
54.44530106 198.05499268 131.25000000 -0.952992 -0.274366 -0.128568 0.000000
91.53119659 283.27301025 143.75000000 -0.244607 0.913298 -0.325661 0.000000
195.68699646 180.69500732 173.75000000 0.745897 -0.107823 -0.657276 0.000000
92.71479797 205.94500732 107.50000000 0.716412 0.400202 -0.571482 0.000000
164.91400146 227.25000000 186.25000000 0.800401 -0.103513 -0.590460 0.000000
202.39399719 187.79699707 190.00000000 0.782802 0.622085 0.015240 0.000000
205.94500732 171.22599792 208.75000000 -0.018159 -0.080114 0.996620 0.000000
123.88300323 286.42999268 208.75000000 -0.139349 0.750684 0.645798 0.000000
123.88300323 232.77299500 238.75000000 0.221631 0.354900 0.908254 0.000000
146.37100220 238.29699707 167.50000000 0.466030 0.566251 -0.679835 0.000000
171.22599792 132.16799927 182.50000000 0.470451 -0.473753 0.744469 0.000000
123.88300323 231.19500732 151.25000000 0.343426 -0.016474 -0.939035 0.000000
168.07000732 160.96899414 153.75000000 -0.133862 0.825240 -0.548689 0.000000
183.06199646 149.13299561 146.25000000 -0.000978 -0.000978 -0.999999 0.000000
70.62100220 269.85900879 197.50000000 -0.640902 0.680241 0.355692 0.000000
73.38279724 206.73399353 243.75000000 -0.596698 0.004115 0.802456 0.000000
156.23399353 134.14100647 181.25000000 -0.070911 -0.874567 0.479691 0.000000
96.26560211 282.48400879 141.25000000 0.523538 0.270364 -0.807967 0.000000
65.09760284 165.70300293 140.00000000 -0.895295 -0.388303 -0.218329 0.000000
128.61700439 231.98399353 236.25000000 0.006215 0.316967 0.948416 0.000000
76.53900146 245.39799500 226.25000000 -0.550283 -0.072518 0.831823 0.000000
90.74210358 204.36700439 103.75000000 0.793337 0.405555 -0.454028 0.000000
75.75000000 262.75799561 118.75000000 -0.645945 0.645945 -0.406829 0.000000
128.61700439 121.12100220 120.00000000 -0.109310 -0.988488 -0.104608 0.000000
84.82420349 138.87500000 135.00000000 -0.828631 -0.552899 -0.087602 0.000000
151.89399719 250.13299561 177.50000000 0.597920 0.288596 -0.747799 0.000000
78.90619659 180.69500732 78.75000000 0.661025 0.220342 -0.717283 0.000000
237.11300659 137.29699707 190.00000000 0.268417 -0.614658 0.741719 0.000000
101.78900146 121.12100220 142.50000000 -0.478780 -0.876621 0.048015 0.000000
167.67599487 183.06199646 222.50000000 0.585341 -0.235697 0.775772 0.000000
189.76899719 130.98399353 125.00000000 0.205765 0.851598 -0.482122 0.000000
65.88670349 159.39100647 150.00000000 -0.698891 -0.627210 -0.343744 0.000000
235.13999939 149.92199707 201.25000000 0.000978 0.000978 0.999999 0.000000
108.10099792 205.94500732 131.25000000 0.755517 0.149294 -0.637892 0.000000
99.42179871 269.07000732 221.25000000 -0.264797 0.537428 0.800658 0.000000
203.97300720 147.55499268 152.50000000 0.797846 0.004120 -0.602847 0.000000
129.40600586 145.97599792 196.25000000 0.322803 -0.840536 0.435083 0.000000
167.28100586 194.89799500 166.25000000 -0.000978 -0.000978 -0.999999 0.000000
99.81629944 122.30500031 140.00000000 -0.508889 -0.860035 0.037035 0.000000
164.91400146 231.98399353 216.25000000 0.661474 -0.165749 0.731423 0.000000
68.25389862 269.07000732 185.00000000 -0.813152 0.580823 0.037788 0.000000
139.66400146 207.52299500 151.25000000 0.552261 -0.072404 -0.830521 0.000000
182.27299500 179.51199341 170.00000000 0.015039 -0.832587 -0.553691 0.000000
67.07029724 159.39100647 203.75000000 -0.645945 -0.645945 0.406829 0.000000
112.04699707 271.43701172 156.25000000 0.638663 -0.058580 -0.767253 0.000000
54.83980179 195.68699646 192.50000000 -0.996789 0.076181 0.024678 0.000000
119.54299927 142.82000732 207.50000000 0.544338 -0.827571 0.137191 0.000000
110.46900177 146.76600647 221.25000000 -0.301637 -0.942785 0.142026 0.000000
63.12500000 260.78500366 192.50000000 -0.845712 0.497213 0.193778 0.000000
78.11710358 183.06199646 78.75000000 0.671536 -0.104789 -0.733524 0.000000
106.52300262 128.61700439 173.75000000 0.001225 -0.953933 0.300017 0.000000
148.34399414 127.03900146 171.25000000 0.043231 -0.835326 0.548052 0.000000
95.47650146 282.08999634 207.50000000 -0.376831 0.663156 0.646701 0.000000
138.08599854 192.53100586 153.75000000 0.668762 -0.445285 -0.595381 0.000000
134.53500366 158.60099792 220.00000000 0.792295 -0.408250 0.453432 0.000000
89.16400146 130.58999634 170.00000000 -0.314656 -0.943968 0.099575 0.000000
159.39100647 259.60101318 188.75000000 0.845115 0.236023 -0.479660 0.000000
146.76600647 212.25799561 156.25000000 0.414997 0.244204 -0.876437 0.000000
142.82000732 122.69899750 165.00000000 -0.017601 -0.859740 0.510428 0.000000
53.26169968 213.04699707 132.50000000 -0.596913 0.358148 -0.717931 0.000000
118.35900116 239.08599854 151.25000000 0.471680 0.538349 -0.698354 0.000000
59.57419968 192.53100586 117.50000000 -0.956250 -0.166246 -0.240725 0.000000
193.32000732 179.90600586 166.25000000 -0.433291 -0.263015 -0.862022 0.000000
100.21099854 250.13299561 231.25000000 -0.221613 0.512003 0.829904 0.000000
108.89099884 280.11700439 151.25000000 0.663219 -0.334054 -0.669737 0.000000
185.42999268 192.53100586 166.25000000 0.349444 0.418393 -0.838353 0.000000
205.94500732 179.90600586 208.75000000 0.000978 0.000978 0.999999 0.000000
88.37490082 142.82000732 206.25000000 -0.590500 -0.660758 0.463367 0.000000
59.17969894 233.56199646 206.25000000 -0.882287 0.262140 0.390963 0.000000
164.91400146 120.33200073 155.00000000 0.001225 -0.953933 0.300017 0.000000
101.00000000 197.26600647 116.25000000 -0.000978 -0.000978 -0.999999 0.000000
142.82000732 246.97599792 226.25000000 0.000978 0.000978 0.999999 0.000000
127.82800293 272.22601318 218.75000000 0.059318 0.478685 0.875980 0.000000
134.92999268 215.80799866 150.00000000 -0.001246 0.332624 -0.943059 0.000000
210.28500366 127.03900146 137.50000000 0.717307 0.644145 -0.265610 0.000000
90.74210358 246.97599792 126.25000000 0.778202 0.129452 -0.614527 0.000000
187.79699707 118.35900116 133.75000000 0.001225 -0.953933 -0.300017 0.000000
75.75000000 160.17999268 216.25000000 -0.994569 0.001073 -0.104070 0.000000
91.53119659 223.30499268 243.75000000 -0.073716 0.238641 0.968306 0.000000
219.75399780 175.96099854 190.00000000 0.420994 0.549769 -0.721469 0.000000
183.06199646 134.14100647 128.75000000 0.149425 0.835891 -0.528165 0.000000
169.64799500 232.77299500 201.25000000 0.909199 0.303066 -0.285497 0.000000
76.53900146 231.98399353 236.25000000 -0.464785 0.387589 0.796084 0.000000
86.79679871 143.21499634 205.00000000 -0.496673 -0.697349 0.516740 0.000000
63.12500000 170.43699646 138.75000000 -0.863339 -0.386271 -0.324714 0.000000
166.09800720 238.29699707 190.00000000 0.884603 0.252104 -0.392328 0.000000
137.29699707 187.40199280 162.50000000 0.587327 -0.587327 0.556861 0.000000
160.17999268 157.81199646 163.75000000 -0.023732 0.771995 0.635186 0.000000
138.08599854 164.91400146 223.75000000 0.415215 -0.577331 0.703054 0.000000
188.58599854 133.74600220 130.00000000 0.190381 0.896678 -0.399654 0.000000
123.88300323 186.21899414 241.25000000 0.408197 -0.137007 0.902554 0.000000
93.10929871 134.53500366 192.50000000 -0.212870 -0.918629 0.332878 0.000000
184.64100647 195.68699646 168.75000000 0.261148 0.732798 -0.628338 0.000000
105.73400116 153.07800293 136.25000000 0.658056 -0.506585 -0.557076 0.000000
145.18699646 121.12100220 160.00000000 0.023931 -0.948412 0.316137 0.000000
81.66790009 187.79699707 80.00000000 0.378042 -0.344095 -0.859467 0.000000
209.10099792 142.03100586 198.75000000 -0.159628 -0.716044 0.679558 0.000000
68.25389862 188.58599854 80.00000000 -0.914925 -0.216882 -0.340404 0.000000
77.32810211 181.08999634 235.00000000 -0.376423 -0.462921 0.802502 0.000000
96.26560211 246.97599792 133.75000000 0.790652 0.135498 -0.597084 0.000000
79.69529724 188.58599854 78.75000000 0.378042 -0.344095 -0.859467 0.000000
171.22599792 173.59399414 218.75000000 0.294292 -0.511470 0.807336 0.000000
143.60899353 233.56199646 231.25000000 0.529877 0.198894 0.824422 0.000000
92.71479797 233.56199646 240.00000000 -0.139377 0.446867 0.883676 0.000000
155.44500732 250.92199707 181.25000000 0.721437 -0.092192 -0.686316 0.000000
184.64100647 177.53900146 171.25000000 -0.424772 -0.664643 -0.614670 0.000000
79.69529724 189.37500000 78.75000000 0.534955 0.001347 -0.844879 0.000000
66.28119659 154.65600586 181.25000000 -0.790805 -0.603701 0.100860 0.000000
158.60099792 141.24200439 146.25000000 -0.714909 0.156339 -0.681516 0.000000
61.15230179 256.44500732 167.50000000 -0.705176 0.705176 -0.073848 0.000000
158.20700073 239.87500000 180.00000000 0.364572 -0.730780 -0.577103 0.000000
144.39799500 276.56600952 212.50000000 0.339052 0.579146 0.741372 0.000000
62.33589935 164.51899719 197.50000000 -0.871237 -0.490324 0.022963 0.000000
71.41010284 239.08599854 225.00000000 -0.670170 0.495489 0.552596 0.000000
101.00000000 264.33599854 223.75000000 0.326759 0.822423 0.465671 0.000000
183.85099792 144.00399780 145.00000000 -0.175810 0.471290 -0.864278 0.000000
104.15599823 280.11700439 211.25000000 -0.001371 0.796531 0.604596 0.000000
196.47599792 200.42199707 183.75000000 0.468045 0.655934 -0.592186 0.000000
162.15199280 256.44500732 200.00000000 0.990128 0.110014 0.086853 0.000000
128.61700439 287.61300659 207.50000000 0.244164 0.879291 0.408938 0.000000
86.40229797 209.89100647 95.00000000 -0.922430 -0.169884 0.346789 0.000000
56.02339935 194.10899353 128.75000000 -0.958537 -0.241282 -0.151625 0.000000
141.63699341 203.57800293 235.00000000 0.487148 -0.138146 0.862324 0.000000
163.33599854 174.38299561 166.25000000 -0.000978 -0.000978 -0.999999 0.000000
197.26600647 198.84399414 206.25000000 0.000978 0.000978 0.999999 0.000000
105.73400116 288.40200806 202.50000000 -0.192525 0.880324 0.433548 0.000000
55.62889862 211.46899414 200.00000000 -0.959144 -0.238796 0.151722 0.000000
132.56199646 246.97599792 163.75000000 0.528120 0.397316 -0.750486 0.000000
60.75780106 218.57000732 103.75000000 -0.975539 0.087786 -0.201537 0.000000
89.55850220 234.35099792 117.50000000 0.887737 0.285932 -0.360784 0.000000
124.67199707 121.12100220 162.50000000 0.115647 -0.875205 0.469726 0.000000
155.44500732 155.44500732 211.25000000 -0.149313 -0.456637 0.877034 0.000000
134.92999268 153.07800293 206.25000000 0.538416 -0.786183 0.303355 0.000000
108.10099792 127.03900146 108.75000000 -0.475119 -0.708511 -0.521798 0.000000
157.02299500 124.67199707 168.75000000 -0.001227 -0.953712 0.300720 0.000000
59.96870041 250.13299561 126.25000000 -0.824750 0.452587 -0.339046 0.000000
121.51599884 251.71099854 231.25000000 0.000978 0.000978 0.999999 0.000000
129.40600586 257.23400879 228.75000000 0.285024 0.353669 0.890887 0.000000
68.64839935 268.28100586 138.75000000 -0.587327 0.587327 -0.556861 0.000000
194.89799500 117.56999969 151.25000000 -0.113604 -0.974993 0.191004 0.000000
101.78900146 224.88299561 128.75000000 0.782876 0.221686 -0.581344 0.000000
133.35099792 288.79699707 206.25000000 0.001372 0.621510 0.783405 0.000000
57.20700073 239.87500000 197.50000000 -0.948017 0.149262 0.281043 0.000000
190.16400146 177.53900146 211.25000000 0.440842 0.078771 0.894122 0.000000
134.14100647 222.51499939 236.25000000 0.000000 0.000000 0.000000 0.000000
111.25800323 153.07800293 128.75000000 -0.191461 0.770441 -0.608082 0.000000
115.20300293 230.01199341 240.00000000 0.095155 0.492817 0.864915 0.000000
138.08599854 208.31199646 236.25000000 0.212585 -0.072500 0.974449 0.000000
228.03900146 143.21499634 197.50000000 0.302950 -0.001227 0.953006 0.000000
183.06199646 158.99600220 152.50000000 0.229788 0.869590 -0.437048 0.000000
56.81250000 213.04699707 123.75000000 -0.923718 0.084955 -0.373533 0.000000
113.62500000 228.82800293 143.75000000 0.672254 0.330430 -0.662488 0.000000
91.13670349 274.59399414 132.50000000 0.777362 0.259121 -0.573206 0.000000
117.17600250 238.29699707 150.00000000 0.471680 0.538349 -0.698354 0.000000
97.84369659 178.32800293 108.75000000 0.899021 0.047175 -0.435358 0.000000
231.98399353 177.53900146 203.75000000 0.650286 0.739031 0.175960 0.000000
89.95310211 267.49200439 218.75000000 -0.486439 0.627826 0.607628 0.000000
158.60099792 157.81199646 148.75000000 0.206771 0.552920 -0.807171 0.000000
123.09400177 193.32000732 241.25000000 0.241316 -0.673476 0.698711 0.000000
97.84369659 275.77700806 215.00000000 -0.208983 0.611468 0.763173 0.000000
96.26560211 222.51499939 123.75000000 0.794123 0.157624 -0.586961 0.000000
56.81250000 202.78900146 121.25000000 -0.953933 -0.001225 -0.300017 0.000000
161.36300659 213.04699707 222.50000000 0.509573 -0.155088 0.846335 0.000000
112.04699707 140.45300293 211.25000000 0.136211 -0.884653 0.445911 0.000000
121.51599884 264.33599854 226.25000000 0.138498 0.588244 0.796735 0.000000
220.93699646 177.53900146 208.75000000 -0.000978 -0.000978 -0.999999 0.000000
58.39059830 251.71099854 188.75000000 -0.953933 -0.001225 0.300017 0.000000
65.88670349 173.59399414 117.50000000 -0.690320 -0.690320 0.216602 0.000000
218.57000732 152.28900146 203.75000000 0.282170 -0.849594 0.445613 0.000000
146.76600647 142.03100586 133.75000000 0.535141 0.705185 -0.465122 0.000000
139.66400146 205.94500732 151.25000000 0.579946 0.001365 -0.814654 0.000000
186.21899414 209.89100647 201.25000000 -0.371474 0.056845 0.926702 0.000000
141.63699341 151.50000000 140.00000000 0.626507 0.682415 -0.376562 0.000000
67.85929871 155.44500732 198.75000000 -0.857691 -0.467149 0.214798 0.000000
184.64100647 177.53900146 213.75000000 0.306632 0.121849 0.943997 0.000000
106.52300262 184.64100647 121.25000000 0.256793 -0.288354 -0.922447 0.000000
70.62100220 151.50000000 197.50000000 -0.587327 -0.587327 0.556861 0.000000
112.83599854 286.42999268 206.25000000 -0.085070 0.803115 0.589720 0.000000
199.23800659 147.55499268 202.50000000 -0.065095 -0.365329 0.928600 0.000000
137.29699707 210.67999268 148.75000000 0.584646 -0.170711 -0.793125 0.000000
130.98399353 209.89100647 146.25000000 -0.000978 -0.000978 -0.999999 0.000000
186.21899414 127.43399811 175.00000000 -0.043229 -0.928779 0.368105 0.000000
81.27339935 198.84399414 78.75000000 0.579482 -0.270004 -0.768959 0.000000
169.64799500 134.53500366 185.00000000 -0.560027 -0.748326 0.355496 0.000000
78.51170349 252.50000000 222.50000000 -0.354290 0.452792 0.818204 0.000000
81.27339935 150.71099854 211.25000000 -0.432826 -0.748806 0.501947 0.000000
212.25799561 163.33599854 171.25000000 0.749649 0.152343 -0.644064 0.000000
61.94139862 188.58599854 112.50000000 -0.990726 -0.134846 -0.016716 0.000000
119.54299927 136.50799561 187.50000000 0.721155 -0.552830 0.417511 0.000000
139.66400146 142.03100586 128.75000000 0.489334 0.576775 -0.654127 0.000000
210.67999268 115.99199677 141.25000000 -0.241597 -0.965108 -0.100985 0.000000
144.39799500 132.95700073 185.00000000 0.000978 0.000978 0.999999 0.000000
108.10099792 170.43699646 241.25000000 -0.236983 -0.861894 0.448306 0.000000
142.03100586 220.93699646 153.75000000 0.346916 0.267199 -0.899029 0.000000
163.33599854 212.25799561 183.75000000 0.916964 0.038262 -0.397131 0.000000
127.03900146 287.21899414 208.75000000 -0.052650 0.769832 0.636072 0.000000
165.70300293 143.60899353 143.75000000 0.129452 0.778202 -0.614527 0.000000
67.85929871 167.28100586 126.25000000 -0.849594 -0.282170 -0.445613 0.000000
171.62100220 228.82800293 205.00000000 0.999999 -0.000978 -0.000978 0.000000
202.00000000 140.45300293 148.75000000 0.109058 0.463144 -0.879548 0.000000
142.03100586 233.16799927 160.00000000 0.374770 0.412721 -0.830186 0.000000
126.25000000 294.32000732 193.75000000 -0.001225 0.953933 0.300017 0.000000
91.92569733 250.13299561 130.00000000 0.682542 0.340456 -0.646704 0.000000
90.74210358 172.01600647 236.25000000 -0.368679 -0.494255 0.787266 0.000000
54.05070114 198.05499268 135.00000000 -0.000978 0.999999 -0.000978 0.000000
147.55499268 258.02301025 176.25000000 0.633061 -0.032285 -0.773429 0.000000
106.52300262 254.86700439 231.25000000 0.006888 0.610295 0.792144 0.000000
50.50000000 216.99200439 143.75000000 -0.953933 -0.001225 -0.300017 0.000000
123.88300323 164.91400146 233.75000000 0.386441 -0.480221 0.787433 0.000000
171.62100220 228.03900146 207.50000000 0.999999 -0.000978 -0.000978 0.000000
145.97599792 119.93699646 156.25000000 0.001225 -0.953933 0.300017 0.000000
128.61700439 180.69500732 238.75000000 0.000978 0.000978 0.999999 0.000000
108.10099792 230.40600586 141.25000000 0.542678 0.660286 -0.519156 0.000000
121.51599884 177.53900146 241.25000000 0.286695 -0.246758 0.925698 0.000000
222.51499939 160.17999268 203.75000000 0.000978 0.000978 0.999999 0.000000
122.30500031 263.54699707 226.25000000 0.138498 0.588244 0.796735 0.000000
92.32029724 218.96499634 112.50000000 0.811690 0.324359 -0.485748 0.000000
54.83980179 243.82000732 162.50000000 -0.894885 0.444068 -0.044542 0.000000
103.36699677 270.64801025 221.25000000 0.004089 0.565656 0.824631 0.000000
93.89839935 140.05900574 205.00000000 -0.170168 -0.856761 0.486830 0.000000
80.48429871 135.71899414 151.25000000 -0.180539 -0.899805 -0.397185 0.000000
62.33589935 174.38299561 136.25000000 -0.899029 -0.346916 -0.267199 0.000000
175.96099854 198.84399414 178.75000000 0.445255 0.871150 0.206991 0.000000
197.26600647 191.74200439 176.25000000 0.676306 0.370241 -0.636814 0.000000
103.36699677 193.32000732 246.25000000 -0.000978 -0.000978 0.999999 0.000000
122.30500031 286.42999268 208.75000000 -0.204503 0.779573 0.591983 0.000000
52.86719894 209.89100647 183.75000000 -0.981806 -0.070728 0.176222 0.000000
67.85929871 205.15600586 78.75000000 -0.869903 -0.134164 -0.474624 0.000000
138.87500000 146.76600647 198.75000000 0.000978 0.000978 0.999999 0.000000
68.64839935 205.15600586 78.75000000 -0.869903 -0.134164 -0.474624 0.000000
155.44500732 147.55499268 203.75000000 -0.038144 -0.752991 0.656924 0.000000
75.75000000 229.61700439 236.25000000 -0.481375 0.371899 0.793706 0.000000
171.62100220 220.93699646 210.00000000 0.789007 0.113135 0.603877 0.000000
95.47650146 238.29699707 236.25000000 -0.076529 0.633894 0.769625 0.000000
101.78900146 239.87500000 236.25000000 -0.093887 0.561879 0.821874 0.000000
138.08599854 225.67199707 153.75000000 0.097982 0.288721 -0.952386 0.000000
77.72260284 277.75000000 167.50000000 -0.705724 0.708486 0.001381 0.000000
112.83599854 247.76499939 233.75000000 0.168578 0.464690 0.869278 0.000000
139.66400146 175.17199707 228.75000000 0.549065 -0.366586 0.751094 0.000000
150.31599426 148.34399414 142.50000000 0.179454 0.728552 -0.661065 0.000000
176.75000000 138.87500000 136.25000000 0.180539 0.899805 -0.397185 0.000000
115.20300293 187.00799561 243.75000000 0.000978 0.000978 0.999999 0.000000
78.90619659 254.86700439 108.75000000 -0.259121 0.777362 -0.573206 0.000000
67.46479797 206.73399353 80.00000000 -0.960304 -0.096675 -0.261667 0.000000
103.36699677 284.06201172 146.25000000 0.756401 -0.006914 -0.654072 0.000000
231.98399353 142.03100586 196.25000000 0.093816 -0.558566 0.824137 0.000000
135.71899414 294.71499634 192.50000000 0.122260 0.992395 -0.014319 0.000000
150.71099854 222.51499939 228.75000000 0.644457 0.123533 0.754595 0.000000
151.50000000 243.82000732 223.75000000 0.510641 0.290673 0.809170 0.000000
65.09760284 175.17199707 120.00000000 -0.953933 -0.001225 -0.300017 0.000000
67.85929871 207.52299500 78.75000000 -0.869903 -0.134164 -0.474624 0.000000
147.55499268 239.87500000 168.75000000 0.555623 0.369872 -0.744633 0.000000
198.84399414 136.50799561 193.75000000 0.020422 -0.856352 0.515989 0.000000
127.82800293 207.52299500 146.25000000 0.327478 0.042380 -0.943908 0.000000
126.25000000 172.80499268 156.25000000 0.460770 0.454211 -0.762485 0.000000
218.17599487 160.17999268 175.00000000 0.658700 0.251159 -0.709248 0.000000
151.50000000 224.09399414 228.75000000 0.619379 0.064370 0.782449 0.000000
201.21099854 189.37500000 208.75000000 0.313189 0.473719 0.823106 0.000000
