172.92199707 194.71899414 186.25000000 0.117111 0.739725 0.662640 0.000000
75.92569733 213.60899353 182.50000000 -0.031449 0.504557 0.862806 0.000000
127.14800262 219.42199707 123.75000000 0.536442 0.516262 -0.667610 0.000000
251.38999939 134.77699280 145.00000000 0.742318 -0.663255 0.095169 0.000000
90.82029724 183.82000732 78.75000000 0.620256 0.310933 -0.720141 0.000000
170.74200439 191.44900513 150.00000000 -0.107556 0.749943 -0.652701 0.000000
261.56201172 144.58599854 141.25000000 0.623799 -0.343660 -0.701978 0.000000
204.88999939 121.69899750 142.50000000 -0.315704 -0.944470 0.091145 0.000000
181.64100647 157.66400146 191.25000000 0.005773 -0.197445 0.980297 0.000000
110.43699646 246.30499268 181.25000000 -0.290430 0.637021 0.714041 0.000000
67.20700073 231.04699707 160.00000000 -0.885088 0.404739 0.229797 0.000000
153.66799927 126.42199707 157.50000000 -0.164129 -0.967973 0.189976 0.000000
105.35099792 247.39399719 102.50000000 0.037712 0.819894 -0.571272 0.000000
204.88999939 162.75000000 186.25000000 0.186503 -0.234806 0.953983 0.000000
195.44500732 142.40600586 126.25000000 -0.044209 -0.424671 0.904268 0.000000
174.37500000 158.39100647 136.25000000 -0.113311 -0.613648 0.781407 0.000000
154.75799561 194.71899414 153.75000000 0.351243 0.433147 0.830067 0.000000
217.96899414 143.13299561 178.75000000 0.461552 -0.551530 0.694827 0.000000
114.06999969 154.03100586 186.25000000 -0.313101 -0.582849 0.749836 0.000000
89.36710358 201.25799561 193.75000000 0.669637 -0.640022 0.376774 0.000000
119.88300323 211.42999268 198.75000000 0.000978 0.000978 0.999999 0.000000
215.06199646 138.77299500 178.75000000 0.557943 -0.224104 0.799048 0.000000
165.65600586 137.32000732 116.25000000 0.181618 -0.910950 0.370386 0.000000
82.10150146 203.43699646 58.75000000 0.778808 0.503553 -0.374022 0.000000
82.10150146 152.94099426 125.00000000 -0.566231 -0.823734 -0.029073 0.000000
62.84759903 211.42999268 117.50000000 -0.930319 0.343903 -0.127422 0.000000
77.74210358 196.89799500 186.25000000 -0.817357 -0.081879 0.570283 0.000000
135.86700439 215.78900146 196.25000000 0.472933 0.345544 0.810515 0.000000
178.00799561 189.26899719 190.00000000 -0.321291 0.605448 0.728152 0.000000
129.32800293 188.17999268 201.25000000 0.000978 0.000978 0.999999 0.000000
112.98000336 170.01600647 105.00000000 -0.852120 0.327500 0.408210 0.000000
93.72650146 242.67199707 178.75000000 -0.275047 0.618459 0.736110 0.000000
217.24200439 134.41400146 176.25000000 0.504619 -0.001339 0.863341 0.000000
138.04699707 143.49600220 112.50000000 -0.307198 -0.616005 0.725374 0.000000
134.41400146 213.60899353 198.75000000 0.438317 0.534251 0.722810 0.000000
86.46089935 229.22999573 185.00000000 -0.420446 0.426889 0.800619 0.000000
179.46099854 197.62500000 158.75000000 -0.770335 0.637566 -0.009681 0.000000
113.34400177 139.13699341 167.50000000 -0.405931 -0.803840 0.434812 0.000000
217.96899414 168.56199646 143.75000000 -0.468316 -0.782686 0.409979 0.000000
68.66010284 220.14799500 100.00000000 -0.808520 0.473630 -0.349242 0.000000
233.22599792 124.60500336 145.00000000 0.446689 -0.894688 0.001310 0.000000
110.07399750 149.67199707 107.50000000 -0.863838 -0.490131 0.116424 0.000000
122.06199646 131.50799561 151.25000000 -0.295919 -0.952369 -0.073657 0.000000
147.49200439 203.43699646 193.75000000 0.554075 0.827515 0.090667 0.000000
155.48399353 125.33200073 142.50000000 0.430908 -0.866351 0.252497 0.000000
77.74210358 225.23399353 181.25000000 -0.670138 0.283089 0.686131 0.000000
137.32000732 254.66000366 145.00000000 0.407927 0.798118 -0.443399 0.000000
115.52300262 210.70300293 198.75000000 0.025262 0.106538 0.993988 0.000000
247.03100586 179.46099854 176.25000000 0.198545 -0.206541 0.958082 0.000000
263.74200439 150.39799500 153.75000000 0.549247 -0.708545 0.443048 0.000000
170.74200439 151.85099792 191.25000000 -0.039243 -0.307617 0.950701 0.000000
184.54699707 151.12500000 133.75000000 -0.212993 -0.540911 0.813664 0.000000
100.99199677 150.03500366 175.00000000 -0.260916 -0.754283 0.602478 0.000000
106.44100189 167.83599854 95.00000000 -0.790568 0.103753 0.603521 0.000000
103.17199707 204.16400146 198.75000000 0.000978 0.000978 0.999999 0.000000
199.44099426 196.17199707 162.50000000 -0.889504 -0.416270 0.188417 0.000000
164.92999268 194.35499573 155.00000000 0.209330 0.952116 0.222836 0.000000
172.19500732 183.82000732 198.75000000 0.464504 0.256014 0.847758 0.000000
148.94500732 222.32800293 191.25000000 0.268944 0.558334 0.784813 0.000000
165.65600586 147.49200439 126.25000000 -0.098425 -0.747738 0.656658 0.000000
164.92999268 127.87500000 118.75000000 -0.541136 -0.464544 -0.700979 0.000000
140.95300293 198.35099792 118.75000000 0.443822 0.087651 -0.891818 0.000000
233.22599792 146.40199280 172.50000000 0.520959 -0.601885 0.605257 0.000000
171.46899414 190.35899353 191.25000000 0.396055 0.790494 0.467183 0.000000
136.59399414 173.64799500 201.25000000 0.000978 0.000978 0.999999 0.000000
74.47260284 225.23399353 92.50000000 -0.837236 0.400554 -0.372280 0.000000
93.72650146 171.46899414 78.75000000 0.619110 0.107352 -0.777932 0.000000
82.10150146 241.21899414 108.75000000 -0.602049 0.602049 -0.524474 0.000000
196.17199707 178.73399353 188.75000000 0.387578 0.019444 0.921632 0.000000
130.78100586 172.92199707 201.25000000 0.031143 -0.162636 0.986195 0.000000
245.57800293 169.28900146 151.25000000 -0.020753 -0.590756 0.806583 0.000000
119.88300323 189.63299561 201.25000000 0.000978 0.000978 0.999999 0.000000
112.98000336 238.31199646 107.50000000 0.550706 -0.533864 -0.641648 0.000000
148.94500732 207.07000732 126.25000000 0.502432 0.251989 -0.827081 0.000000
257.92999268 179.46099854 163.75000000 -0.709244 -0.576984 0.405046 0.000000
103.89800262 141.67999268 163.75000000 -0.435083 -0.840536 0.322803 0.000000
82.10150146 207.43299866 60.00000000 -0.536791 0.328484 -0.777145 0.000000
91.54679871 145.67599487 105.00000000 -0.445735 -0.892841 0.064460 0.000000
106.07800293 252.84399414 171.25000000 -0.103559 0.806590 0.581970 0.000000
106.07800293 138.41000366 130.00000000 -0.274499 -0.958830 0.072774 0.000000
138.04699707 138.41000366 180.00000000 -0.001378 -0.753685 0.657235 0.000000
125.33200073 141.67999268 107.50000000 -0.171152 -0.840875 0.513455 0.000000
220.87500000 174.73800659 147.50000000 -0.009025 -0.999814 0.017048 0.000000
152.57800293 231.41000366 182.50000000 0.479050 0.643776 0.596711 0.000000
221.60099792 174.37500000 146.25000000 -0.266910 -0.576462 0.772302 0.000000
127.14800262 146.03900146 116.25000000 -0.001211 -0.960094 0.279674 0.000000
193.26600647 198.35099792 151.25000000 -0.463580 -0.677797 0.570688 0.000000
84.28119659 208.88699341 60.00000000 -0.192262 0.622930 -0.758283 0.000000
82.10150146 167.83599854 61.25000000 0.230650 -0.962995 -0.139432 0.000000
133.32400513 129.32800293 115.00000000 -0.245693 -0.945712 0.212751 0.000000
198.35099792 145.31199646 183.75000000 0.535391 -0.111721 0.837183 0.000000
261.19900513 175.82800293 165.00000000 -0.783720 -0.582766 0.214866 0.000000
180.18699646 139.13699341 120.00000000 -0.184509 -0.835539 0.517524 0.000000
175.10099792 191.08599854 186.25000000 0.018115 0.756667 0.653549 0.000000
236.13299561 155.48399353 176.25000000 0.365978 -0.150037 0.918449 0.000000
251.38999939 134.77699280 140.00000000 0.747703 -0.662575 -0.043983 0.000000
149.30900574 140.95300293 182.50000000 0.226015 -0.621931 0.749746 0.000000
196.17199707 121.69899750 157.50000000 -0.146241 -0.985641 0.084416 0.000000
233.22599792 126.05899811 155.00000000 0.476052 -0.858088 -0.192510 0.000000
130.05499268 251.02699280 125.00000000 0.449602 0.673568 -0.586656 0.000000
251.02699280 145.31199646 162.50000000 0.516485 -0.540038 0.664532 0.000000
212.88299561 136.59399414 126.25000000 -0.466911 -0.563975 0.681121 0.000000
237.58599854 185.27299500 178.75000000 0.000978 0.000978 0.999999 0.000000
206.34399414 122.78900146 171.25000000 0.189976 -0.967973 0.164129 0.000000
176.55499268 138.41000366 117.50000000 0.037887 -0.926270 0.374950 0.000000
108.25800323 138.04699707 133.75000000 -0.266027 -0.961984 0.061779 0.000000
73.38279724 178.00799561 78.75000000 -0.798175 -0.265013 -0.541003 0.000000
101.71900177 189.63299561 91.25000000 0.610625 0.070402 -0.788784 0.000000
73.38279724 167.83599854 166.25000000 -0.866701 -0.450565 0.214056 0.000000
61.75780106 212.15600586 138.75000000 -0.996733 0.039956 0.070192 0.000000
109.34799957 151.12500000 107.50000000 -0.948307 -0.316937 0.016285 0.000000
159.11700439 189.63299561 138.75000000 0.127569 0.460109 -0.878650 0.000000
232.13699341 183.82000732 180.00000000 0.392018 -0.011644 0.919884 0.000000
127.87500000 147.85499573 190.00000000 -0.347134 -0.617671 0.705677 0.000000
85.73429871 253.20700073 142.50000000 -0.692828 0.692828 -0.199944 0.000000
111.16400146 137.68400574 145.00000000 -0.401497 -0.911247 -0.091810 0.000000
178.73399353 198.71499634 187.50000000 -0.766858 0.385871 0.512867 0.000000
134.41400146 188.54299927 122.50000000 -0.692828 0.692828 -0.199944 0.000000
224.50799561 159.11700439 178.75000000 0.270261 -0.250451 0.929641 0.000000
124.24199677 254.29699707 126.25000000 0.345416 0.874953 -0.339330 0.000000
143.13299561 196.17199707 201.25000000 -0.073087 0.124131 0.989570 0.000000
140.95300293 199.80499268 118.75000000 0.338995 0.226477 -0.913121 0.000000
237.22300720 135.86700439 165.00000000 0.636848 -0.276127 0.719846 0.000000
147.49200439 141.67999268 183.75000000 0.067806 -0.702588 0.708359 0.000000
204.88999939 122.42600250 167.50000000 -0.123215 -0.982062 0.142734 0.000000
87.18740082 149.30900574 90.00000000 -0.692828 -0.692828 -0.199944 0.000000
252.11700439 178.00799561 173.75000000 0.321848 -0.224579 0.919771 0.000000
222.32800293 183.82000732 181.25000000 0.000978 0.000978 0.999999 0.000000
80.28510284 173.64799500 62.50000000 0.754189 -0.129930 0.643674 0.000000
66.11710358 227.41400146 131.25000000 -0.826210 0.526046 -0.201626 0.000000
216.51499939 122.42600250 122.50000000 -0.250964 -0.802774 -0.540898 0.000000
84.28119659 220.14799500 188.75000000 -0.574829 0.252173 0.778447 0.000000
174.37500000 177.28100586 196.25000000 0.229960 -0.045019 0.972158 0.000000
129.32800293 256.47601318 138.75000000 0.589539 0.763397 -0.263949 0.000000
200.89399719 190.35899353 160.00000000 -0.953510 -0.211741 0.214439 0.000000
156.21099854 178.00799561 158.75000000 0.272935 0.659194 0.700693 0.000000
124.24199677 209.25000000 201.25000000 0.091810 0.401497 0.911247 0.000000
227.41400146 175.10099792 181.25000000 0.218183 -0.922642 0.318005 0.000000
79.92179871 244.48800659 125.00000000 -0.630104 0.742678 -0.226712 0.000000
79.92179871 174.73800659 62.50000000 0.194880 -0.254842 -0.947142 0.000000
129.32800293 189.63299561 148.75000000 -0.822114 0.199070 0.533386 0.000000
233.22599792 191.81199646 171.25000000 0.303143 -0.915232 0.265432 0.000000
94.45310211 255.75000000 161.25000000 -0.306598 0.838865 0.449781 0.000000
131.50799561 215.06199646 198.75000000 0.058378 0.613682 0.787392 0.000000
143.85899353 186.72599792 203.75000000 0.000978 0.000978 0.999999 0.000000
205.61700439 187.81599426 157.50000000 -0.234454 -0.933603 0.270955 0.000000
169.28900146 152.57800293 191.25000000 -0.070427 -0.282990 0.956533 0.000000
203.43699646 171.46899414 188.75000000 0.552444 0.216977 0.804814 0.000000
155.12100220 201.98399353 137.50000000 0.999892 -0.006978 0.012960 0.000000
98.08589935 222.32800293 96.25000000 0.857515 -0.071576 -0.509456 0.000000
181.64100647 204.16400146 161.25000000 -0.914766 -0.332773 0.229052 0.000000
185.27299500 188.90600586 191.25000000 -0.097110 0.147463 0.984289 0.000000
132.96099854 128.96499634 112.50000000 -0.232384 -0.957421 0.171300 0.000000
85.73429871 225.59800720 77.50000000 -0.107850 0.743131 -0.660397 0.000000
107.53099823 206.34399414 103.75000000 0.595792 0.324537 -0.734648 0.000000
247.03100586 168.56199646 173.75000000 0.303207 -0.336067 0.891698 0.000000
219.05799866 146.76600647 180.00000000 0.372162 -0.290799 0.881437 0.000000
140.58999634 203.43699646 200.00000000 0.275293 0.486817 0.828989 0.000000
162.02299500 216.87899780 187.50000000 0.582794 0.525360 0.619958 0.000000
124.24199677 249.21099854 116.25000000 0.644870 0.580888 -0.496701 0.000000
74.10929871 234.31599426 112.50000000 -0.692828 0.692828 -0.199944 0.000000
200.53100586 177.28100586 143.75000000 -0.222688 -0.365325 0.903852 0.000000
249.93699646 133.68699646 146.25000000 0.691928 -0.707003 0.146225 0.000000
168.19900513 223.05499268 162.50000000 0.967043 0.210451 -0.143313 0.000000
237.58599854 130.05499268 158.75000000 -0.586414 -0.613453 0.528956 0.000000
107.16799927 237.58599854 187.50000000 -0.361733 0.543411 0.757531 0.000000
143.49600220 251.38999939 147.50000000 0.562800 0.750940 -0.345465 0.000000
130.05499268 223.05499268 196.25000000 0.245489 0.388319 0.888225 0.000000
106.80500031 204.16400146 198.75000000 -0.157981 0.186238 0.969720 0.000000
122.06199646 192.53900146 108.75000000 0.404517 0.452866 -0.794530 0.000000
91.54679871 226.68699646 81.25000000 0.856646 0.267225 -0.441303 0.000000
123.51599884 142.76899719 182.50000000 -0.369417 -0.678086 0.635398 0.000000
63.57419968 191.81199646 145.00000000 -0.955538 -0.239219 0.172398 0.000000
89.36710358 202.71099854 193.75000000 0.669637 -0.640022 0.376774 0.000000
245.57800293 171.10499573 152.50000000 -0.162306 -0.741752 0.650739 0.000000
79.92179871 178.73399353 61.25000000 0.168366 -0.324209 -0.930882 0.000000
127.14800262 143.85899353 111.25000000 -0.098071 -0.862743 0.496041 0.000000
81.01170349 178.73399353 62.50000000 0.618853 -0.215590 -0.755342 0.000000
78.46869659 179.46099854 61.25000000 0.096362 -0.134431 -0.986226 0.000000
77.37889862 157.66400146 137.50000000 -0.756816 -0.644695 0.107695 0.000000
103.17199707 151.12500000 86.25000000 0.793262 0.381345 -0.474670 0.000000
159.11700439 193.62899780 155.00000000 0.234232 0.712128 0.661823 0.000000
112.61699677 211.42999268 198.75000000 -0.060955 0.125361 0.990237 0.000000
241.21899414 188.17999268 178.75000000 0.028686 0.062683 0.997621 0.000000
78.46869659 180.18699646 61.25000000 0.150252 -0.016946 -0.988502 0.000000
132.23399353 236.13299561 126.25000000 0.151595 -0.510712 -0.846281 0.000000
115.52300262 252.11700439 116.25000000 0.147658 0.912667 -0.381098 0.000000
217.24200439 120.97299957 140.00000000 0.000000 0.000000 0.000000 0.000000
176.91799927 191.08599854 187.50000000 -0.319300 0.563187 0.762147 0.000000
140.58999634 153.30499268 195.00000000 -0.091188 -0.461550 0.882415 0.000000
149.67199707 202.71099854 196.25000000 0.534064 0.839243 0.102206 0.000000
125.69499969 145.31199646 186.25000000 -0.344925 -0.658790 0.668598 0.000000
172.92199707 152.57800293 191.25000000 0.000978 0.000978 0.999999 0.000000
122.42600250 238.31199646 117.50000000 0.582595 -0.599482 -0.548821 0.000000
205.61700439 190.35899353 171.25000000 -0.508422 -0.860928 0.017625 0.000000
77.37889862 246.30499268 157.50000000 -0.674443 0.696556 0.244821 0.000000
193.26600647 159.11700439 138.75000000 -0.448403 -0.247762 0.858806 0.000000
81.37490082 180.91400146 61.25000000 0.147063 -0.052109 -0.987754 0.000000
72.65619659 240.12899780 160.00000000 -0.747873 0.637305 0.185817 0.000000
140.95300293 135.14100647 176.25000000 -0.087319 -0.896756 0.433825 0.000000
184.54699707 126.42199707 171.25000000 -0.124044 -0.912909 0.388857 0.000000
138.41000366 183.09399414 147.50000000 -0.446185 -0.817742 0.363617 0.000000
99.53900146 173.64799500 193.75000000 -0.110725 -0.510486 0.852727 0.000000
233.58999634 175.82800293 152.50000000 -0.352800 -0.577161 0.736490 0.000000
232.50000000 183.82000732 158.75000000 -0.079888 -0.681224 0.727704 0.000000
140.22599792 209.97599792 198.75000000 -0.330332 0.685073 0.649273 0.000000
81.37490082 240.49200439 108.75000000 -0.602049 0.602049 -0.524474 0.000000
93.72650146 245.57800293 176.25000000 -0.352187 0.666698 0.656870 0.000000
251.38999939 190.72300720 175.00000000 0.221472 0.141172 0.964894 0.000000
158.39100647 199.07800293 173.75000000 0.722470 0.550532 -0.418272 0.000000
115.52300262 193.99200439 103.75000000 0.548935 0.216806 -0.807258 0.000000
153.30499268 128.60099792 166.25000000 -0.231691 -0.877435 0.420033 0.000000
168.92599487 215.78900146 172.50000000 0.766233 0.319665 0.557406 0.000000
167.10899353 144.58599854 123.75000000 -0.064828 -0.664128 0.744803 0.000000
107.53099823 174.37500000 96.25000000 0.575483 0.081802 -0.813713 0.000000
162.02299500 170.01600647 163.75000000 -0.180420 0.115718 0.976759 0.000000
154.39399719 171.46899414 157.50000000 -0.797029 -0.602356 0.043731 0.000000
121.33599854 183.09399414 201.25000000 0.000978 0.000978 0.999999 0.000000
207.79699707 135.86700439 123.75000000 -0.344153 -0.654054 0.673626 0.000000
140.95300293 178.37100220 142.50000000 -0.386830 -0.716047 0.581068 0.000000
138.04699707 228.86700439 131.25000000 0.076813 0.035702 -0.996406 0.000000
77.74210358 183.82000732 61.25000000 -0.908033 -0.336686 -0.249235 0.000000
136.22999573 227.41400146 130.00000000 0.436614 0.120104 -0.891596 0.000000
66.84369659 211.42999268 98.75000000 -0.941727 0.236469 -0.239235 0.000000
196.89799500 198.71499634 182.50000000 0.684929 0.480622 0.547608 0.000000
108.98400116 160.93299866 190.00000000 -0.589963 -0.760784 0.270466 0.000000
116.25000000 211.42999268 198.75000000 0.025262 0.106538 0.993988 0.000000
142.76899719 181.64100647 150.00000000 -0.630104 -0.275970 0.725816 0.000000
154.03100586 126.05899811 155.00000000 -0.112252 -0.992125 0.055559 0.000000
66.48040009 216.51499939 105.00000000 -0.959255 0.243432 -0.143428 0.000000
146.03900146 166.74600220 130.00000000 -0.175321 -0.766837 0.617433 0.000000
160.57000732 191.44900513 197.50000000 0.251280 0.696945 0.671659 0.000000
90.09369659 201.25799561 193.75000000 0.669637 -0.640022 0.376774 0.000000
240.49200439 168.56199646 151.25000000 -0.020822 -0.609377 0.792607 0.000000
238.31199646 183.82000732 178.75000000 0.000978 0.000978 0.999999 0.000000
67.20700073 230.32000732 160.00000000 -0.889023 -0.053259 -0.454754 0.000000
105.35099792 144.58599854 86.25000000 0.670715 0.114007 -0.732901 0.000000
77.74210358 185.27299500 61.25000000 -0.967673 -0.251860 0.013256 0.000000
73.38279724 235.04299927 117.50000000 -0.771365 0.613758 -0.168215 0.000000
156.21099854 231.77299500 138.75000000 0.576024 0.559132 -0.596295 0.000000
73.74600220 236.85899353 122.50000000 -0.836374 0.531706 -0.133293 0.000000
71.92960358 239.03900146 161.25000000 -0.697149 0.645389 0.312180 0.000000
215.78900146 148.21899414 181.25000000 0.134166 -0.051602 0.989614 0.000000
118.43000031 202.71099854 201.25000000 0.000978 0.000978 0.999999 0.000000
212.15600586 133.68699646 126.25000000 -0.405770 -0.624389 0.667450 0.000000
190.35899353 191.81199646 191.25000000 0.057789 0.163933 0.984777 0.000000
150.39799500 155.48399353 126.25000000 -0.427408 -0.218916 0.877154 0.000000
194.71899414 180.18699646 143.75000000 -0.336437 -0.226698 0.914012 0.000000
132.23399353 231.77299500 191.25000000 -0.108195 0.520779 0.846807 0.000000
154.75799561 148.21899414 188.75000000 0.029502 -0.639215 0.768462 0.000000
130.78100586 134.05099487 172.50000000 -0.139709 -0.877144 0.459456 0.000000
175.10099792 167.10899353 193.75000000 0.214970 -0.387532 0.896441 0.000000
136.59399414 145.31199646 188.75000000 -0.009657 -0.784987 0.619436 0.000000
159.11700439 198.35099792 186.25000000 0.683141 0.730254 -0.006928 0.000000
104.62500000 257.56600952 130.00000000 -0.120274 0.971055 -0.206365 0.000000
151.85099792 188.90600586 203.75000000 0.236084 -0.211521 0.948432 0.000000
124.60500336 183.09399414 117.50000000 -0.692828 -0.692828 -0.199944 0.000000
82.82810211 154.75799561 93.75000000 -0.868099 -0.419657 -0.265126 0.000000
63.57419968 208.52299500 110.00000000 -0.960094 -0.001211 -0.279674 0.000000
111.52700043 230.32000732 112.50000000 0.794085 0.394626 -0.462276 0.000000
220.87500000 183.09399414 181.25000000 0.000978 0.000978 0.999999 0.000000
258.29299927 140.95300293 147.50000000 0.660739 -0.740918 0.120269 0.000000
194.71899414 182.36700439 191.25000000 0.688853 -0.004158 0.724889 0.000000
212.15600586 170.74200439 186.25000000 0.319062 0.036864 0.947017 0.000000
177.28100586 189.26899719 190.00000000 -0.255358 0.693114 0.674081 0.000000
100.99199677 230.32000732 98.75000000 0.803608 -0.301550 -0.513109 0.000000
122.78900146 141.67999268 181.25000000 -0.342372 -0.744782 0.572784 0.000000
76.28900146 188.54299927 62.50000000 -0.272733 0.241644 -0.931249 0.000000
154.03100586 163.47599792 198.75000000 0.000978 0.000978 0.999999 0.000000
71.56639862 171.46899414 165.00000000 -0.842909 -0.417545 0.339353 0.000000
94.45310211 223.05499268 86.25000000 0.864020 -0.001335 -0.503455 0.000000
92.99990082 239.76499939 93.75000000 -0.294199 0.813373 -0.501868 0.000000
116.25000000 182.36700439 198.75000000 -0.400748 0.003866 0.916180 0.000000
186.72599792 144.22300720 127.50000000 -0.226650 -0.723718 0.651815 0.000000
183.82000732 199.07800293 146.25000000 0.454011 -0.641647 0.618193 0.000000
80.64839935 189.63299561 61.25000000 0.485313 -0.636448 -0.599504 0.000000
253.57000732 187.45300293 168.75000000 -0.490565 -0.457530 0.741628 0.000000
112.98000336 172.19500732 110.00000000 -0.675900 0.675900 -0.293800 0.000000
261.56201172 146.03900146 141.25000000 0.770129 -0.181476 -0.611529 0.000000
83.55460358 239.03900146 176.25000000 -0.560672 0.480337 0.674480 0.000000
99.53900146 253.93299866 120.00000000 -0.280557 0.942945 -0.179283 0.000000
121.69899750 211.42999268 117.50000000 0.483475 0.185952 -0.855379 0.000000
122.78900146 238.67599487 117.50000000 0.575630 -0.609391 -0.545245 0.000000
127.87500000 253.57000732 171.25000000 0.145089 0.782287 0.605786 0.000000
177.28100586 193.99200439 171.25000000 0.001211 0.960094 0.279674 0.000000
215.06199646 181.64100647 151.25000000 -0.199896 -0.677166 0.708158 0.000000
237.58599854 171.46899414 176.25000000 0.274807 -0.200236 0.940418 0.000000
122.06199646 141.31599426 105.00000000 -0.258952 -0.779995 0.569694 0.000000
172.55799866 164.20300293 195.00000000 0.780479 -0.485163 0.394296 0.000000
90.82029724 242.67199707 98.75000000 -0.263361 0.863156 -0.430817 0.000000
66.48040009 231.77299500 147.50000000 -0.944470 0.315704 0.091145 0.000000
110.80100250 218.69500732 112.50000000 0.880142 0.036616 -0.473297 0.000000
167.10899353 193.99200439 183.75000000 0.242968 0.945791 0.215514 0.000000
100.99199677 197.62500000 93.75000000 0.661954 0.123466 -0.739306 0.000000
132.23399353 246.30499268 178.75000000 0.159342 0.699588 0.696553 0.000000
147.49200439 133.32400513 172.50000000 -0.032029 -0.817435 0.575129 0.000000
179.46099854 144.58599854 186.25000000 0.060303 -0.304081 0.950736 0.000000
101.71900177 256.83999634 127.50000000 -0.184063 0.969226 -0.163468 0.000000
150.39799500 147.49200439 188.75000000 0.156039 -0.707476 0.689297 0.000000
71.20310211 167.47300720 127.50000000 -0.903742 -0.424095 -0.058262 0.000000
236.13299561 173.28500366 177.50000000 0.395438 -0.127155 0.909648 0.000000
143.13299561 229.59399414 131.25000000 0.248957 0.197261 -0.948213 0.000000
103.17199707 208.16000366 100.00000000 0.680882 0.387427 -0.621531 0.000000
243.39799500 129.69099426 137.50000000 0.578269 -0.815649 0.017942 0.000000
104.62500000 257.92999268 131.25000000 -0.131527 0.969214 -0.208145 0.000000
146.03900146 245.57800293 171.25000000 0.388797 0.788887 0.475914 0.000000
86.46089935 251.38999939 131.25000000 -0.776213 0.497489 0.387296 0.000000
108.25800323 144.58599854 88.75000000 0.725226 0.182456 -0.663896 0.000000
73.01950073 238.31199646 135.00000000 -0.778622 0.622027 -0.082647 0.000000
159.84399414 217.60499573 155.00000000 0.811014 -0.484069 -0.328532 0.000000
124.24199677 236.85899353 121.25000000 0.521731 -0.626415 -0.579138 0.000000
144.58599854 174.73800659 140.00000000 -0.295352 -0.829798 0.473500 0.000000
166.38299561 171.46899414 163.75000000 0.000978 0.000978 0.999999 0.000000
187.45300293 175.82800293 141.25000000 0.104293 -0.001075 0.994546 0.000000
143.13299561 127.87500000 106.25000000 -0.803483 -0.346632 -0.484006 0.000000
70.47650146 168.19900513 145.00000000 -0.879354 -0.476151 0.003979 0.000000
232.50000000 151.85099792 141.25000000 0.119998 -0.851552 0.510353 0.000000
81.37490082 195.44500732 61.25000000 0.665057 -0.206183 -0.717766 0.000000
62.48429871 213.97300720 122.50000000 -0.913943 0.235344 -0.330637 0.000000
156.21099854 164.20300293 136.25000000 -0.496330 -0.654483 0.570359 0.000000
257.92999268 177.28100586 161.25000000 -0.371617 -0.587711 0.718677 0.000000
171.46899414 184.54699707 138.75000000 -0.557722 0.043332 -0.828896 0.000000
144.58599854 144.58599854 186.25000000 -0.044054 -0.751758 0.657966 0.000000
115.52300262 262.65200806 150.00000000 -0.001211 0.960094 0.279674 0.000000
160.20700073 214.33599854 165.00000000 0.704562 -0.707432 0.055963 0.000000
92.27339935 207.79699707 81.25000000 0.731332 0.243777 -0.636966 0.000000
111.89099884 221.60099792 196.25000000 0.066867 0.148984 0.986576 0.000000
119.15599823 132.59800720 150.00000000 -0.454467 -0.875324 -0.165128 0.000000
241.21899414 189.63299561 178.75000000 0.037793 0.072347 0.996663 0.000000
90.09369659 219.42199707 76.25000000 0.856969 0.147955 -0.493673 0.000000
102.44499969 180.18699646 196.25000000 -0.412959 -0.220541 0.883644 0.000000
203.43699646 151.85099792 186.25000000 0.112177 -0.286382 0.951526 0.000000
148.94500732 169.28900146 133.75000000 -0.477986 -0.704488 0.524619 0.000000
200.53100586 151.85099792 186.25000000 -0.000978 -0.000978 0.999999 0.000000
205.61700439 150.39799500 186.25000000 0.358231 -0.205731 0.910684 0.000000
61.39450073 208.52299500 125.00000000 -0.999999 0.000978 0.000978 0.000000
62.12110138 211.42999268 145.00000000 -0.996463 0.078810 0.029149 0.000000
257.92999268 166.01899719 152.50000000 -0.240129 -0.481787 0.842745 0.000000
138.04699707 194.71899414 201.25000000 -0.001358 0.566240 0.824239 0.000000
87.18740082 176.55499268 188.75000000 -0.589507 -0.426770 0.685820 0.000000
223.78100586 132.96099854 171.25000000 0.437048 -0.229788 0.869590 0.000000
167.10899353 194.71899414 173.75000000 0.196487 0.943964 -0.265189 0.000000
181.64100647 199.07800293 163.75000000 -0.675614 0.354983 0.646168 0.000000
254.29699707 145.31199646 138.75000000 -0.098273 -0.502760 0.858822 0.000000
112.61699677 142.40600586 96.25000000 -0.944754 -0.314918 0.090918 0.000000
138.77299500 130.78100586 166.25000000 -0.001211 -0.960094 0.279674 0.000000
72.65619659 237.22300720 130.00000000 -0.870792 0.489564 -0.045254 0.000000
124.96900177 132.23399353 98.75000000 -0.356222 -0.275737 -0.892791 0.000000
191.81199646 200.53100586 186.25000000 0.573737 0.509801 0.641037 0.000000
152.57800293 186.00000000 151.25000000 0.038200 0.964851 0.260005 0.000000
73.01950073 241.21899414 157.50000000 -0.692828 0.692828 0.199944 0.000000
126.42199707 178.00799561 133.75000000 -0.494487 -0.014821 0.869058 0.000000
120.60900116 199.80499268 201.25000000 0.000978 0.000978 0.999999 0.000000
137.32000732 194.35499573 147.50000000 -0.009622 0.809589 0.586918 0.000000
205.61700439 142.40600586 181.25000000 0.294304 0.294304 0.909269 0.000000
124.24199677 172.19500732 198.75000000 -0.259197 -0.099295 0.960707 0.000000
68.66010284 172.92199707 122.50000000 -0.921586 -0.384327 0.054524 0.000000
110.43699646 136.95700073 127.50000000 -0.262181 -0.959610 0.102031 0.000000
153.30499268 220.14799500 191.25000000 0.355585 0.634154 0.686591 0.000000
62.48429871 204.88999939 116.25000000 -0.989219 0.046997 -0.138697 0.000000
178.00799561 180.18699646 193.75000000 0.392124 -0.032786 0.919328 0.000000
62.84759903 188.17999268 125.00000000 -0.980491 -0.196558 -0.001149 0.000000
73.01950073 164.20300293 117.50000000 -0.836908 -0.535215 -0.114585 0.000000
255.02299500 188.17999268 171.25000000 -0.376831 0.646701 0.663156 0.000000
99.53900146 258.29299927 157.50000000 -0.234788 0.926344 0.294552 0.000000
157.66400146 164.92999268 198.75000000 0.322312 -0.325310 0.888982 0.000000
160.57000732 124.24199677 156.25000000 -0.276284 -0.945899 0.170126 0.000000
82.82810211 155.48399353 163.75000000 -0.628627 -0.684432 0.369298 0.000000
78.10540009 162.75000000 82.50000000 -0.889409 -0.366227 -0.273549 0.000000
141.67999268 238.31199646 183.75000000 0.280208 0.469077 0.837527 0.000000
124.24199677 208.88699341 117.50000000 0.500133 0.486841 -0.716138 0.000000
231.04699707 164.92999268 178.75000000 0.188772 0.384749 0.903512 0.000000
205.61700439 154.75799561 138.75000000 -0.619884 0.101116 0.778152 0.000000
79.19529724 157.66400146 101.25000000 -0.846839 -0.505730 -0.164622 0.000000
117.33999634 236.13299561 115.00000000 0.513667 -0.628189 -0.584401 0.000000
84.64450073 202.71099854 62.50000000 0.831264 0.049063 -0.553709 0.000000
145.31199646 132.96099854 171.25000000 -0.124708 -0.872953 0.471595 0.000000
146.03900146 220.14799500 193.75000000 0.302952 0.354197 0.884740 0.000000
138.77299500 252.11700439 166.25000000 0.133114 0.665569 0.734369 0.000000
95.17960358 251.02699280 115.00000000 -0.573356 0.802097 -0.167041 0.000000
164.20300293 169.28900146 156.25000000 -0.267198 0.008463 0.963605 0.000000
135.86700439 128.96499634 160.00000000 -0.141412 -0.987547 0.068953 0.000000
191.81199646 184.54699707 138.75000000 -0.886184 0.194814 0.420388 0.000000
70.11319733 175.82800293 95.00000000 -0.841675 -0.323241 -0.432549 0.000000
78.10540009 204.16400146 62.50000000 -0.798175 0.265013 -0.541003 0.000000
96.99600220 223.05499268 192.50000000 -0.219857 0.281473 0.934043 0.000000
115.52300262 157.66400146 191.25000000 -0.323853 -0.385247 0.864120 0.000000
127.14800262 190.35899353 201.25000000 0.000978 0.000978 0.999999 0.000000
251.38999939 165.65600586 151.25000000 -0.248660 -0.420462 0.872571 0.000000
101.71900177 234.67999268 96.25000000 0.845690 -0.269573 -0.460585 0.000000
209.97599792 134.41400146 181.25000000 0.417636 -0.098512 0.903258 0.000000
75.19920349 162.02299500 115.00000000 -0.848724 -0.520645 -0.092718 0.000000
163.47599792 194.71899414 183.75000000 0.346538 0.930896 0.115513 0.000000
143.13299561 167.83599854 131.25000000 -0.038011 -0.626473 0.778516 0.000000
78.46869659 205.25399780 62.50000000 -0.534379 -0.026101 -0.844842 0.000000
138.04699707 252.84399414 143.75000000 0.407927 0.798118 -0.443399 0.000000
169.28900146 188.90600586 196.25000000 0.351509 0.704652 0.616366 0.000000
183.09399414 178.37100220 142.50000000 0.219748 0.307647 0.925777 0.000000
139.50000000 144.58599854 186.25000000 0.056052 -0.889993 0.452516 0.000000
67.57029724 232.50000000 158.75000000 -0.884977 0.419665 0.201734 0.000000
83.19139862 191.08599854 190.00000000 -0.667022 -0.223382 0.710761 0.000000
102.44499969 196.89799500 93.75000000 0.667202 0.337679 -0.663939 0.000000
103.89800262 170.01600647 91.25000000 -0.825216 0.072687 0.560121 0.000000
261.56201172 159.11700439 161.25000000 0.835891 -0.149425 0.528165 0.000000
111.16400146 249.57400513 177.50000000 -0.351043 0.716782 0.602489 0.000000
115.52300262 176.55499268 198.75000000 -0.221492 -0.200014 0.954430 0.000000
134.41400146 238.31199646 186.25000000 0.270330 0.573859 0.773050 0.000000
79.92179871 207.07000732 61.25000000 -0.571421 0.308919 -0.760294 0.000000
161.29699707 178.00799561 151.25000000 -0.493972 -0.237045 0.836541 0.000000
112.61699677 245.57800293 103.75000000 0.566240 -0.001358 -0.824239 0.000000
115.52300262 215.78900146 116.25000000 0.193276 0.438191 -0.877857 0.000000
178.37100220 193.26600647 187.50000000 -0.507733 0.422289 0.750919 0.000000
74.47260284 241.94500732 160.00000000 -0.692828 0.692828 0.199944 0.000000
95.17960358 190.35899353 196.25000000 -0.278178 -0.105786 0.954686 0.000000
128.60099792 209.61300659 200.00000000 0.183077 0.483741 0.855849 0.000000
204.16400146 176.55499268 146.25000000 -0.295434 -0.437737 0.849179 0.000000
104.26200104 231.04699707 102.50000000 0.763032 -0.280783 -0.582188 0.000000
116.25000000 261.92599487 142.50000000 0.050090 0.986655 -0.154929 0.000000
107.53099823 191.44900513 97.50000000 0.599021 0.194567 -0.776735 0.000000
100.26599884 188.90600586 198.75000000 -0.000978 -0.000978 0.999999 0.000000
219.42199707 156.93699646 141.25000000 0.136728 -0.310007 0.940851 0.000000
137.32000732 151.12500000 193.75000000 -0.113266 -0.494644 0.861683 0.000000
86.82420349 254.29699707 150.00000000 -0.514788 0.857075 0.020374 0.000000
154.03100586 209.97599792 131.25000000 0.728569 -0.233455 -0.643961 0.000000
183.82000732 126.78500366 122.50000000 0.001106 -0.989771 -0.142660 0.000000
144.58599854 216.87899780 195.00000000 0.312929 0.283546 0.906464 0.000000
252.11700439 176.55499268 173.75000000 0.311657 -0.065952 0.947903 0.000000
233.95300293 181.64100647 156.25000000 -0.404273 -0.579183 0.707891 0.000000
153.30499268 242.30799866 145.00000000 0.810214 0.577477 -0.100368 0.000000
166.38299561 151.12500000 191.25000000 -0.041162 -0.407641 0.912214 0.000000
83.91790009 156.21099854 80.00000000 -0.777847 -0.559226 -0.286742 0.000000
233.22599792 178.00799561 153.75000000 -0.391934 -0.555924 0.733032 0.000000
211.42999268 133.68699646 178.75000000 0.779609 -0.310887 0.543654 0.000000
93.36319733 252.11700439 167.50000000 -0.385241 0.846906 0.366525 0.000000
106.07800293 148.21899414 88.75000000 0.758805 0.316035 -0.569505 0.000000
132.23399353 184.54699707 143.75000000 -0.538274 -0.793993 0.282554 0.000000
68.29679871 207.79699707 173.75000000 -0.870830 -0.017497 0.491272 0.000000
146.03900146 168.92599487 132.50000000 -0.179013 -0.732883 0.656382 0.000000
241.21899414 143.13299561 138.75000000 0.000978 0.000978 0.999999 0.000000
241.94500732 148.21899414 141.25000000 0.037712 -0.571272 0.819894 0.000000
157.66400146 192.53900146 196.25000000 -0.034890 0.576387 0.816432 0.000000
157.66400146 174.37500000 203.75000000 0.105224 -0.186927 0.976722 0.000000
63.93750000 197.62500000 108.75000000 -0.989783 0.070616 -0.123868 0.000000
110.43699646 159.84399414 121.25000000 -0.906249 -0.121860 0.404800 0.000000
150.39799500 195.44500732 156.25000000 0.373461 0.430672 0.821614 0.000000
132.23399353 221.60099792 126.25000000 0.177022 0.392903 -0.902381 0.000000
201.62100220 193.26600647 170.00000000 -0.822480 -0.568780 -0.004092 0.000000
100.99199677 153.30499268 83.75000000 0.749110 0.044065 -0.660979 0.000000
68.66010284 174.37500000 112.50000000 -0.918997 -0.393482 -0.024838 0.000000
90.82029724 223.78100586 191.25000000 -0.724429 0.479085 0.495662 0.000000
125.69499969 202.71099854 113.75000000 0.622438 -0.155233 -0.767121 0.000000
121.33599854 179.46099854 126.25000000 -0.747723 0.619184 0.239836 0.000000
103.17199707 208.52299500 101.25000000 0.680882 0.387427 -0.621531 0.000000
261.92599487 152.57800293 157.50000000 0.656933 -0.509081 0.556125 0.000000
159.84399414 169.28900146 151.25000000 -0.783452 0.037977 -0.620291 0.000000
89.00379944 148.21899414 150.00000000 -0.487776 -0.859833 0.150874 0.000000
159.84399414 194.35499573 152.50000000 0.597689 0.736236 0.317371 0.000000
143.13299561 179.09800720 147.50000000 -0.576984 -0.709244 0.405046 0.000000
148.21899414 200.53100586 153.75000000 0.164966 0.175197 0.970614 0.000000
134.41400146 139.50000000 181.25000000 -0.239831 -0.960634 0.140229 0.000000
62.84759903 206.34399414 112.50000000 -0.984029 -0.012601 -0.177561 0.000000
225.59800720 163.47599792 180.00000000 0.498543 -0.279747 0.820486 0.000000
107.53099823 175.10099792 96.25000000 0.575483 0.081802 -0.813713 0.000000
122.42600250 241.21899414 115.00000000 0.569436 -0.579575 -0.582954 0.000000
199.80499268 140.22599792 126.25000000 -0.107334 -0.493735 0.862963 0.000000
128.23800659 186.72599792 137.50000000 -0.529160 0.848031 -0.028863 0.000000
155.48399353 164.92999268 198.75000000 0.184520 -0.298284 0.936472 0.000000
207.79699707 124.96900177 121.25000000 -0.001211 -0.960094 -0.279674 0.000000
150.76199341 196.17199707 157.50000000 0.166164 0.540408 0.824833 0.000000
78.10540009 242.67199707 122.50000000 -0.605064 0.773562 -0.188412 0.000000
108.62100220 201.98399353 102.50000000 0.350053 0.230948 -0.907814 0.000000
102.80899811 236.85899353 97.50000000 0.819689 -0.156771 -0.550938 0.000000
152.57800293 180.91400146 203.75000000 0.000978 0.000978 0.999999 0.000000
161.29699707 170.01600647 163.75000000 -0.400882 -0.100565 0.910594 0.000000
234.67999268 140.22599792 168.75000000 0.459047 -0.237856 0.855979 0.000000
157.30099487 211.42999268 180.00000000 0.582932 -0.809231 0.073046 0.000000
86.09760284 212.88299561 62.50000000 0.284915 0.762427 -0.580972 0.000000
199.07800293 126.42199707 118.75000000 -0.101105 -0.986076 -0.132032 0.000000
168.56199646 146.03900146 126.25000000 -0.149267 -0.737287 0.658884 0.000000
148.94500732 209.97599792 196.25000000 0.408601 0.292295 0.864643 0.000000
147.49200439 199.80499268 201.25000000 0.030570 0.423997 0.905147 0.000000
161.29699707 168.92599487 162.50000000 -0.400882 -0.100565 0.910594 0.000000
255.02299500 139.50000000 151.25000000 0.599529 -0.726259 0.336321 0.000000
90.82029724 190.35899353 78.75000000 0.787639 0.119697 -0.604398 0.000000
182.36700439 156.93699646 191.25000000 0.127900 -0.228670 0.965066 0.000000
156.21099854 230.32000732 138.75000000 0.572600 0.559087 -0.599625 0.000000
173.64799500 127.51200104 117.50000000 0.001211 -0.960094 -0.279674 0.000000
237.58599854 193.99200439 173.75000000 0.265013 -0.798175 0.541003 0.000000
220.87500000 145.67599487 135.00000000 -0.277857 -0.582705 0.763709 0.000000
124.24199677 247.03100586 113.75000000 0.749466 0.264611 -0.606862 0.000000
92.99990082 192.53900146 81.25000000 0.803010 0.046572 -0.594143 0.000000
108.25800323 237.94900513 187.50000000 -0.071914 0.525962 0.847462 0.000000
160.57000732 188.90600586 138.75000000 0.127569 0.460109 -0.878650 0.000000
263.01501465 174.01199341 167.50000000 0.894190 -0.323939 0.309011 0.000000
139.50000000 254.66000366 160.00000000 0.369134 0.927467 -0.059538 0.000000
135.86700439 188.54299927 135.00000000 -0.043188 0.927881 -0.370367 0.000000
140.22599792 143.13299561 113.75000000 -0.472526 -0.535975 0.699606 0.000000
189.63299561 185.27299500 191.25000000 0.000978 0.000978 0.999999 0.000000
226.68699646 138.77299500 133.75000000 0.000978 0.000978 0.999999 0.000000
114.06999969 148.94500732 181.25000000 -0.377260 -0.621079 0.686976 0.000000
201.98399353 144.58599854 181.25000000 0.351749 -0.061918 0.934044 0.000000
188.17999268 208.88699341 170.00000000 -0.572592 -0.805815 0.150997 0.000000
85.37100220 165.65600586 65.00000000 0.014756 -0.486956 -0.873302 0.000000
121.33599854 243.76199341 182.50000000 0.175610 0.652047 0.737561 0.000000
105.71499634 236.13299561 102.50000000 0.553399 -0.583862 -0.594016 0.000000
71.92960358 229.59399414 171.25000000 -0.751240 0.313687 0.580723 0.000000
120.60900116 201.98399353 111.25000000 0.420134 0.354045 -0.835547 0.000000
153.30499268 197.62500000 128.75000000 0.770668 -0.201512 -0.604536 0.000000
108.98400116 184.91000366 97.50000000 0.586172 0.073092 -0.806883 0.000000
105.71499634 233.22599792 190.00000000 -0.198659 0.422335 0.884402 0.000000
148.94500732 248.84700012 162.50000000 0.476154 0.821877 0.312722 0.000000
233.22599792 183.82000732 158.75000000 -0.182704 -0.652514 0.735422 0.000000
135.14100647 184.18299866 147.50000000 -0.395304 -0.811414 0.430514 0.000000
85.37100220 167.10899353 65.00000000 -0.155859 -0.962660 -0.221346 0.000000
159.84399414 208.52299500 193.75000000 0.694569 -0.001381 -0.719425 0.000000
137.68400574 196.89799500 117.50000000 0.346110 -0.042778 -0.937218 0.000000
152.57800293 126.05899811 150.00000000 -0.000978 -0.999999 -0.000978 0.000000
83.55460358 167.83599854 63.75000000 -0.155859 -0.962660 -0.221346 0.000000
210.70300293 166.38299561 143.75000000 -0.503485 0.418204 0.756048 0.000000
123.51599884 191.81199646 108.75000000 0.342161 0.525290 -0.779100 0.000000
85.73429871 150.03500366 105.00000000 -0.703437 -0.703437 -0.101755 0.000000
81.37490082 168.56199646 63.75000000 -0.425432 -0.892405 0.150405 0.000000
115.52300262 135.14100647 148.75000000 -0.571982 -0.820071 -0.017918 0.000000
79.92179871 235.76899719 100.00000000 -0.000978 -0.000978 -0.999999 0.000000
138.04699707 164.92999268 128.75000000 0.330240 -0.512112 0.792895 0.000000
100.62899780 135.86700439 85.00000000 -0.681749 -0.725732 0.092366 0.000000
208.52299500 123.87899780 172.50000000 0.261585 -0.872455 0.412791 0.000000
123.51599884 260.10900879 156.25000000 0.192736 0.963679 0.184869 0.000000
98.81240082 163.47599792 186.25000000 -0.416347 -0.582222 0.698335 0.000000
86.46089935 226.68699646 186.25000000 -0.420446 0.426889 0.800619 0.000000
120.60900116 250.66400146 113.75000000 0.595101 0.611959 -0.520924 0.000000
162.02299500 148.94500732 188.75000000 0.099088 -0.845836 0.524160 0.000000
118.43000031 238.31199646 113.75000000 0.559087 -0.599625 -0.572600 0.000000
148.94500732 136.59399414 176.25000000 -0.028941 -0.836546 0.547132 0.000000
177.28100586 127.87500000 116.25000000 -0.001211 -0.960094 -0.279674 0.000000
162.02299500 216.51499939 166.25000000 0.656746 -0.722265 0.216835 0.000000
192.53900146 143.49600220 127.50000000 0.101526 -0.690086 0.716571 0.000000
84.64450073 170.01600647 65.00000000 -0.230222 -0.659344 0.715725 0.000000
156.21099854 143.85899353 186.25000000 0.104274 -0.638859 0.762225 0.000000
161.29699707 215.06199646 136.25000000 -0.475482 0.845472 0.243092 0.000000
111.89099884 138.04699707 163.75000000 -0.434999 -0.817415 0.377636 0.000000
94.45310211 256.11300659 160.00000000 -0.306598 0.838865 0.449781 0.000000
77.37889862 158.39100647 147.50000000 -0.929160 0.180243 0.322761 0.000000
98.08589935 239.03900146 183.75000000 -0.490066 0.684085 0.540243 0.000000
202.71099854 169.28900146 143.75000000 0.000978 0.000978 0.999999 0.000000
66.84369659 216.51499939 103.75000000 -0.959255 0.243432 -0.143428 0.000000
218.69500732 175.82800293 181.25000000 0.409578 -0.019628 0.912064 0.000000
65.02729797 188.17999268 107.50000000 -0.975605 -0.054673 -0.212616 0.000000
104.62500000 141.67999268 86.25000000 0.613648 0.113311 -0.781407 0.000000
74.47260284 164.92999268 162.50000000 -0.803443 -0.550536 0.226691 0.000000
77.01560211 162.75000000 166.25000000 -0.639648 -0.733483 0.229898 0.000000
114.79699707 149.67199707 183.75000000 -0.300874 -0.658061 0.690240 0.000000
99.17569733 168.56199646 190.00000000 -0.293897 -0.423150 0.857070 0.000000
87.18740082 161.29699707 176.25000000 -0.518225 0.171746 0.837822 0.000000
97.35929871 217.24200439 93.75000000 0.883186 0.056315 -0.465630 0.000000
235.40600586 193.26600647 173.75000000 0.608529 -0.793434 -0.012419 0.000000
99.53900146 211.42999268 196.25000000 -0.279554 0.046383 0.959009 0.000000
133.68699646 187.08999634 132.50000000 -0.040354 0.969711 -0.240899 0.000000
93.36319733 178.00799561 80.00000000 0.750348 0.032379 -0.660250 0.000000
164.20300293 176.55499268 153.75000000 -0.197965 0.835684 0.512291 0.000000
82.82810211 165.65600586 176.25000000 -0.653713 -0.583132 0.482303 0.000000
150.39799500 221.60099792 133.75000000 0.146826 0.252647 -0.956353 0.000000
114.43399811 143.85899353 102.50000000 -0.758283 -0.622930 0.192262 0.000000
79.19529724 174.37500000 63.75000000 0.968733 -0.081459 0.234351 0.000000
175.10099792 176.55499268 196.25000000 0.145425 -0.057007 0.987726 0.000000
159.84399414 221.60099792 186.25000000 0.430015 0.579441 0.692341 0.000000
218.69500732 167.10899353 181.25000000 -0.000978 -0.000978 0.999999 0.000000
186.36300659 154.75799561 190.00000000 0.064143 -0.438085 0.896642 0.000000
258.65600586 159.84399414 166.25000000 0.511371 0.051276 0.857829 0.000000
156.93699646 201.98399353 193.75000000 -0.343825 -0.067184 -0.936627 0.000000
85.73429871 150.03500366 145.00000000 -0.579956 -0.810211 0.084907 0.000000
145.31199646 196.89799500 201.25000000 -0.034609 0.117225 0.992502 0.000000
180.91400146 123.51599884 153.75000000 -0.078297 -0.992892 0.089644 0.000000
244.85099792 186.72599792 178.75000000 0.212156 0.157490 0.964462 0.000000
61.75780106 212.88299561 136.25000000 -0.996672 0.044465 0.068325 0.000000
226.68699646 125.33200073 162.50000000 0.602049 -0.602049 -0.524474 0.000000
241.94500732 175.82800293 156.25000000 -0.116806 -0.619517 0.776244 0.000000
222.32800293 174.37500000 148.75000000 -0.310605 -0.609944 0.729036 0.000000
178.00799561 139.13699341 120.00000000 -0.144090 -0.865995 0.478844 0.000000
186.72599792 209.97599792 171.25000000 -0.488803 -0.854291 0.176801 0.000000
135.86700439 201.98399353 201.25000000 0.009694 0.774168 0.632906 0.000000
98.81240082 151.12500000 81.25000000 0.792993 0.032167 -0.608381 0.000000
106.07800293 259.38299561 136.25000000 -0.165040 0.971046 -0.172716 0.000000
260.10900879 146.03900146 141.25000000 0.623799 -0.343660 -0.701978 0.000000
63.93750000 217.96899414 153.75000000 -0.978916 0.196265 0.056592 0.000000
235.40600586 145.31199646 138.75000000 -0.210166 -0.845199 0.491395 0.000000
76.28900146 237.94900513 170.00000000 -0.602049 0.602049 0.524474 0.000000
75.19920349 164.92999268 92.50000000 -0.912764 -0.391976 -0.114961 0.000000
260.10900879 175.82800293 171.25000000 0.397890 -0.691767 0.602613 0.000000
158.02699280 200.53100586 175.00000000 0.722470 0.550532 -0.418272 0.000000
242.67199707 138.41000366 132.50000000 0.651261 -0.758164 0.032352 0.000000
68.29679871 193.26600647 171.25000000 -0.857515 0.071576 0.509456 0.000000
103.89800262 249.21099854 106.25000000 -0.191574 0.862824 -0.467796 0.000000
230.68299866 139.50000000 170.00000000 0.317923 0.063585 0.945982 0.000000
168.19900513 179.46099854 200.00000000 0.000978 0.000978 0.999999 0.000000
212.88299561 175.82800293 146.25000000 -0.110434 -0.494802 0.861960 0.000000
151.12500000 171.46899414 201.25000000 -0.468238 -0.541556 0.698191 0.000000
119.88300323 147.85499573 185.00000000 -0.511478 -0.534956 0.672468 0.000000
75.56250000 211.42999268 183.75000000 -0.670352 0.213082 0.710791 0.000000
106.80500031 207.79699707 103.75000000 0.645605 0.289962 -0.706481 0.000000
238.31199646 170.01600647 176.25000000 0.141910 -0.195606 0.970361 0.000000
149.67199707 204.88999939 153.75000000 0.610122 -0.401788 0.682874 0.000000
184.54699707 146.76600647 128.75000000 -0.424696 -0.667856 0.611230 0.000000
216.51499939 139.50000000 176.25000000 0.461729 -0.178496 0.868876 0.000000
77.74210358 172.92199707 176.25000000 -0.602049 0.602049 0.524474 0.000000
200.53100586 146.03900146 183.75000000 0.187421 -0.502288 0.844144 0.000000
101.71900177 225.96099854 101.25000000 0.824916 -0.105833 -0.555260 0.000000
135.50399780 241.94500732 127.50000000 -0.001377 -0.651358 -0.758770 0.000000
156.93699646 196.17199707 163.75000000 0.746221 0.571402 -0.341546 0.000000
240.49200439 154.03100586 173.75000000 0.571891 0.006824 0.820301 0.000000
173.64799500 194.35499573 182.50000000 -0.569423 0.576182 0.586320 0.000000
192.17599487 201.25799561 152.50000000 -0.912764 -0.391976 0.114961 0.000000
124.24199677 143.13299561 108.75000000 -0.171152 -0.840875 0.513455 0.000000
98.08589935 203.43699646 91.25000000 0.750441 -0.035331 -0.659992 0.000000
93.72650146 174.37500000 191.25000000 -0.995207 -0.036130 -0.090871 0.000000
174.37500000 152.57800293 131.25000000 -0.331013 -0.479890 0.812487 0.000000
111.52700043 207.79699707 107.50000000 0.168287 0.175995 -0.969900 0.000000
66.84369659 178.00799561 113.75000000 -0.912386 -0.407999 -0.033010 0.000000
77.01560211 238.67599487 170.00000000 -0.602049 0.602049 0.524474 0.000000
152.57800293 166.01899719 135.00000000 -0.647929 -0.546953 0.530123 0.000000
130.78100586 254.66000366 135.00000000 0.517661 0.811680 -0.270560 0.000000
70.83979797 239.03900146 152.50000000 -0.760893 0.635815 -0.129545 0.000000
161.29699707 125.33200073 127.50000000 0.057201 -0.974846 -0.215415 0.000000
154.75799561 172.19500732 158.75000000 -0.797029 -0.602356 0.043731 0.000000
159.11700439 207.79699707 193.75000000 0.754176 0.394265 -0.525142 0.000000
62.84759903 188.17999268 120.00000000 -0.999999 0.000978 0.000978 0.000000
152.57800293 231.04699707 183.75000000 0.442605 0.596264 0.669753 0.000000
197.62500000 195.44500732 183.75000000 0.735093 0.460879 0.497221 0.000000
68.66010284 201.98399353 175.00000000 -0.753685 0.001378 0.657235 0.000000
236.13299561 155.48399353 143.75000000 -0.437612 -0.246819 0.864625 0.000000
213.60899353 138.04699707 128.75000000 -0.399382 -0.628073 0.667846 0.000000
