225.07800293 187.28500366 397.50000000 -0.429937 0.166474 0.887378 0.000000
208.28100586 224.23800659 387.50000000 0.000978 0.000978 0.999999 0.000000
101.20099640 327.53900146 405.00000000 -0.054461 0.956230 0.287502 0.000000
140.25399780 299.82400513 427.50000000 0.176607 0.073286 0.981549 0.000000
151.17199707 212.47999573 387.50000000 -0.000978 -0.000978 -0.999999 0.000000
77.26560211 241.03500366 332.50000000 -0.553855 -0.234263 -0.798978 0.000000
113.37899780 183.92599487 357.50000000 -0.000978 -0.000978 -0.999999 0.000000
177.20700073 254.47300720 402.50000000 0.553590 -0.414780 -0.722146 0.000000
135.21499634 240.19500732 452.50000000 0.000978 0.000978 0.999999 0.000000
130.17599487 267.91000366 377.50000000 0.279233 0.416560 -0.865163 0.000000
100.78099823 218.35899353 442.50000000 -0.433594 -0.132211 0.891356 0.000000
131.01600647 283.86700439 437.50000000 0.000978 0.000978 0.999999 0.000000
159.57000732 172.16799927 447.50000000 0.767232 -0.496828 0.405607 0.000000
89.86329651 291.84600830 430.00000000 -0.540243 0.684085 0.490066 0.000000
77.26560211 269.58999634 362.50000000 0.041162 0.407641 -0.912214 0.000000
178.04699707 230.11700439 397.50000000 0.000978 0.000978 0.999999 0.000000
83.98439789 273.78900146 432.50000000 -0.112616 0.568931 0.814638 0.000000
94.06250000 251.11300659 352.50000000 -0.000978 -0.000978 -0.999999 0.000000
78.10549927 238.51600647 432.50000000 -0.842695 -0.519147 0.142655 0.000000
181.40600586 136.05499268 407.50000000 -0.702227 -0.702227 0.117285 0.000000
246.91400146 199.04299927 412.50000000 0.000978 0.000978 0.999999 0.000000
111.69899750 240.19500732 352.50000000 -0.000978 -0.000978 -0.999999 0.000000
145.29299927 267.07000732 442.50000000 0.236625 0.236625 0.942347 0.000000
94.06250000 241.87500000 342.50000000 -0.201568 0.832037 -0.516803 0.000000
72.64649963 231.79699707 420.00000000 0.001355 -0.830587 0.556887 0.000000
205.76199341 196.52299500 382.50000000 -0.284975 -0.137805 0.948578 0.000000
88.18360138 235.99600220 337.50000000 0.502233 -0.132473 -0.854525 0.000000
72.22660065 304.02301025 387.50000000 -0.000978 -0.000978 -0.999999 0.000000
233.47700500 184.76600647 427.50000000 0.000978 0.000978 0.999999 0.000000
211.64100647 181.40600586 432.50000000 0.000978 0.000978 0.999999 0.000000
242.71499634 191.48399353 427.50000000 0.000978 0.000978 0.999999 0.000000
125.97699738 273.78900146 442.50000000 0.022467 0.424225 0.905278 0.000000
59.62889862 242.71499634 332.50000000 -0.810211 -0.084907 -0.579956 0.000000
110.01999664 187.28500366 447.50000000 0.000978 0.000978 0.999999 0.000000
202.40199280 192.32400513 437.50000000 0.272458 0.677161 0.683535 0.000000
171.32800293 191.48399353 367.50000000 0.000978 0.000978 0.999999 0.000000
245.23399353 206.60200500 412.50000000 -0.636575 0.079753 0.767080 0.000000
233.47700500 164.60899353 427.50000000 0.365654 -0.293426 0.883288 0.000000
170.48800659 199.88299561 452.50000000 -0.000978 -0.000978 0.999999 0.000000
225.07800293 204.92199707 432.50000000 0.000978 0.000978 0.999999 0.000000
77.68550110 289.74600220 425.00000000 -0.589269 0.225446 0.775845 0.000000
194.84399414 165.44900513 372.50000000 -0.000978 -0.000978 0.999999 0.000000
72.22660065 266.23001099 357.50000000 0.315430 0.932395 -0.176474 0.000000
72.64649963 212.47999573 390.00000000 -0.996523 0.001055 0.083307 0.000000
68.02729797 258.25201416 345.00000000 -0.210389 0.843070 -0.494944 0.000000
116.73799896 293.10501099 387.50000000 0.000978 0.000978 -0.999999 0.000000
165.44900513 291.42599487 417.50000000 0.629390 0.464910 0.622677 0.000000
102.46099854 230.11700439 442.50000000 -0.228151 0.247509 0.941640 0.000000
238.51600647 163.77000427 412.50000000 -0.319322 -0.071684 0.944931 0.000000
238.51600647 176.36700439 412.50000000 -0.000978 -0.000978 0.999999 0.000000
217.52000427 229.27699280 387.50000000 -0.507911 0.770792 0.384585 0.000000
146.13299561 171.32800293 352.50000000 -0.552494 -0.046158 0.832238 0.000000
126.81600189 224.23800659 372.50000000 0.876166 -0.094530 -0.472650 0.000000
99.52149963 214.16000366 440.00000000 -0.893111 -0.001311 0.449834 0.000000
176.36700439 198.20300293 372.50000000 0.000978 0.000978 0.999999 0.000000
149.49200439 294.78500366 427.50000000 0.250642 0.267635 0.930350 0.000000
236.83599854 209.12100220 427.50000000 0.000978 0.000978 0.999999 0.000000
60.46879959 260.35198975 392.50000000 -0.850937 -0.340686 0.399800 0.000000
98.26170349 238.51600647 342.50000000 -0.000978 -0.000978 -0.999999 0.000000
61.30860138 288.06600952 377.50000000 -0.112570 0.949561 -0.292682 0.000000
90.28320313 320.82000732 410.00000000 -0.230835 0.705066 0.670520 0.000000
75.58589935 254.05299377 345.00000000 0.181950 0.524797 -0.831555 0.000000
76.42579651 293.10501099 422.50000000 -0.494072 0.275870 0.824493 0.000000
199.04299927 144.45300293 417.50000000 0.020800 -0.797324 0.603193 0.000000
236.83599854 199.88299561 402.50000000 0.000978 0.000978 0.999999 0.000000
157.05099487 188.12500000 452.50000000 0.000978 -0.999999 0.000978 0.000000
200.72300720 202.40199280 437.50000000 0.210373 -0.145841 0.966682 0.000000
230.95700073 173.00799561 402.50000000 -0.738766 -0.083057 0.668824 0.000000
117.57800293 262.87100220 367.50000000 0.203353 0.693883 -0.690778 0.000000
104.98000336 262.87100220 447.50000000 0.000978 0.000978 0.999999 0.000000
178.04699707 200.72300720 447.50000000 0.000978 0.000978 0.999999 0.000000
116.73799896 196.52299500 457.50000000 0.000978 0.000978 0.999999 0.000000
73.90619659 243.13499451 335.00000000 0.362631 0.694085 -0.621888 0.000000
223.39799500 135.21499634 397.50000000 -0.682625 -0.358501 0.636789 0.000000
131.01600647 229.27699280 452.50000000 0.000978 0.000978 0.999999 0.000000
202.40199280 156.63099670 425.00000000 -0.001377 -0.648407 0.761293 0.000000
136.89500427 259.51199341 447.50000000 0.000978 0.000978 0.999999 0.000000
100.78099823 298.14498901 432.50000000 -0.214288 0.861649 0.460046 0.000000
124.29699707 308.22299194 397.50000000 0.069182 0.408310 -0.910218 0.000000
221.71899414 209.96099854 432.50000000 0.000978 0.000978 0.999999 0.000000
100.78099823 236.83599854 442.50000000 0.000978 0.000978 0.999999 0.000000
115.89800262 244.39500427 447.50000000 0.000978 0.000978 0.999999 0.000000
88.18360138 271.26998901 437.50000000 0.000978 0.000978 0.999999 0.000000
167.96899414 245.23399353 382.50000000 -0.024570 -0.373730 -0.927212 0.000000
128.49600220 185.60499573 457.50000000 0.000978 0.000978 0.999999 0.000000
87.34380341 272.52899170 370.00000000 0.413898 0.382182 -0.826211 0.000000
159.57000732 207.86099243 375.00000000 0.152694 -0.920364 0.360021 0.000000
208.28100586 142.77299500 382.50000000 -0.646279 -0.652891 0.395040 0.000000
204.08200073 202.40199280 437.50000000 0.416746 -0.075151 0.905911 0.000000
71.38670349 244.39500427 332.50000000 0.403293 0.914914 0.016967 0.000000
158.72999573 270.85000610 435.00000000 0.694117 -0.179275 0.697182 0.000000
220.03900146 188.12500000 392.50000000 -0.845116 -0.060265 0.531176 0.000000
89.86329651 183.08599854 402.50000000 -0.747127 -0.643655 0.165859 0.000000
59.62889862 245.23399353 332.50000000 -0.000978 -0.000978 -0.999999 0.000000
123.45700073 172.58799744 445.00000000 -0.315985 -0.665999 0.675721 0.000000
207.44099426 170.48800659 427.50000000 0.474324 0.020155 0.880120 0.000000
82.30470276 231.79699707 432.50000000 -0.452336 -0.372418 0.810368 0.000000
223.39799500 128.07600403 400.00000000 -0.165648 -0.913188 0.372354 0.000000
62.56840134 292.26599121 400.00000000 -0.947621 0.315016 0.052717 0.000000
177.20700073 129.33599854 382.50000000 -0.340376 -0.940146 -0.016449 0.000000
157.05099487 237.67599487 392.50000000 0.125369 -0.585546 -0.800886 0.000000
67.18750000 245.23399353 332.50000000 -0.000978 -0.000978 -0.999999 0.000000
203.24200439 183.08599854 432.50000000 0.000978 0.000978 0.999999 0.000000
239.35499573 163.77000427 422.50000000 0.187536 -0.149263 0.970850 0.000000
117.99800110 227.59800720 450.00000000 -0.645179 0.326652 0.690683 0.000000
188.12500000 174.68800354 432.50000000 0.000978 0.000978 0.999999 0.000000
164.60899353 293.10501099 407.50000000 0.762198 0.437649 -0.476988 0.000000
57.52930069 266.23001099 375.00000000 -0.995898 0.042635 -0.079803 0.000000
168.80900574 231.37699890 450.00000000 0.549229 0.354812 0.756608 0.000000
235.15600586 141.93400574 417.50000000 0.205259 -0.970200 -0.128765 0.000000
215.00000000 206.60200500 387.50000000 -0.809697 -0.301466 0.503496 0.000000
129.33599854 193.16400146 372.50000000 0.192540 0.087072 -0.977418 0.000000
131.01600647 145.29299927 397.50000000 -0.001376 -0.766300 -0.642481 0.000000
193.16400146 141.93400574 417.50000000 -0.136130 -0.522563 0.841663 0.000000
131.01600647 229.27699280 377.50000000 0.212467 -0.299706 -0.930072 0.000000
232.63699341 202.40199280 402.50000000 0.000978 0.000978 0.999999 0.000000
153.69099426 139.83399963 355.00000000 -0.815878 -0.577625 -0.026319 0.000000
129.33599854 218.35899353 457.50000000 -0.186543 0.391886 0.900903 0.000000
227.59800720 223.39799500 427.50000000 0.177589 0.290475 0.940259 0.000000
222.55900574 128.49600220 392.50000000 -0.702951 -0.001381 -0.711237 0.000000
160.41000366 198.62300110 455.00000000 0.682674 0.023830 0.730335 0.000000
141.93400574 287.22698975 432.50000000 0.165394 0.368955 0.914613 0.000000
65.08789825 241.87500000 410.00000000 -0.924511 -0.369534 0.093399 0.000000
134.37500000 281.34799194 437.50000000 -0.046177 0.268324 0.962221 0.000000
201.56199646 203.24200439 382.50000000 0.000978 0.000978 0.999999 0.000000
185.60499573 240.61500549 430.00000000 0.751676 0.635799 0.175340 0.000000
76.42579651 230.95700073 427.50000000 -0.779986 0.519454 0.348983 0.000000
60.46879959 246.91400146 332.50000000 -0.000978 -0.000978 -0.999999 0.000000
146.13299561 306.54299927 417.50000000 0.144965 0.986467 0.076607 0.000000
112.53900146 236.83599854 447.50000000 0.000978 0.000978 0.999999 0.000000
110.43900299 295.62500000 390.00000000 0.070818 0.698068 -0.712521 0.000000
78.10549927 237.67599487 427.50000000 -0.935541 -0.242652 0.256678 0.000000
68.02729797 277.14801025 417.50000000 0.000978 0.000978 0.999999 0.000000
171.32800293 172.16799927 367.50000000 0.000978 0.000978 0.999999 0.000000
173.84800720 221.71899414 402.50000000 0.000978 0.000978 0.999999 0.000000
67.18750000 246.91400146 332.50000000 -0.000978 -0.000978 -0.999999 0.000000
173.84800720 131.01600647 397.50000000 -0.150172 -0.955520 0.253831 0.000000
151.17199707 269.58999634 437.50000000 0.494944 0.210389 0.843070 0.000000
116.73799896 324.17999268 412.50000000 -0.067921 0.724010 0.686437 0.000000
157.89100647 194.00399780 362.50000000 0.000978 0.000978 0.999999 0.000000
162.92999268 254.47300720 442.50000000 0.000978 0.000978 0.999999 0.000000
174.68800354 256.99200439 397.50000000 0.625069 -0.098079 -0.774383 0.000000
161.25000000 248.59399414 382.50000000 -0.400549 -0.118630 -0.908563 0.000000
111.69899750 292.26599121 437.50000000 -0.085995 0.270820 0.958781 0.000000
133.53500366 270.85000610 380.00000000 -0.117834 0.833565 -0.539708 0.000000
62.98830032 247.75399780 332.50000000 -0.000978 -0.000978 -0.999999 0.000000
128.49600220 260.35198975 367.50000000 0.854781 0.511735 -0.086470 0.000000
122.61699677 218.77900696 455.00000000 -0.297499 0.631984 0.715605 0.000000
86.50389862 195.68400574 417.50000000 -0.948432 -0.236084 0.211521 0.000000
68.02729797 256.99200439 422.50000000 -0.714640 0.429447 -0.552146 0.000000
134.37500000 179.72700500 352.50000000 0.598716 0.764418 0.239174 0.000000
107.50000000 178.46699524 440.00000000 -0.544185 -0.544185 0.638533 0.000000
183.08599854 149.49200439 422.50000000 0.000978 0.000978 0.999999 0.000000
74.74610138 288.90600586 377.50000000 0.000978 0.000978 -0.999999 0.000000
133.53500366 317.46099854 417.50000000 0.000978 0.000978 0.999999 0.000000
126.81600189 251.95300293 447.50000000 0.000978 0.000978 0.999999 0.000000
154.11099243 222.55900574 455.00000000 0.813897 0.297537 0.499043 0.000000
248.59399414 216.67999268 427.50000000 0.000978 0.000978 0.999999 0.000000
220.03900146 193.16400146 392.50000000 -0.460345 -0.042096 0.886741 0.000000
69.28710175 221.71899414 375.00000000 -0.937074 -0.311443 -0.157780 0.000000
245.23399353 175.52699280 422.50000000 0.000978 0.000978 0.999999 0.000000
181.40600586 171.32800293 432.50000000 0.000978 0.000978 0.999999 0.000000
248.59399414 213.32000732 412.50000000 -0.521119 0.284962 0.804507 0.000000
178.88699341 204.92199707 377.50000000 0.168687 -0.618519 0.767450 0.000000
76.42579651 207.86099243 410.00000000 -0.785710 -0.498530 0.366234 0.000000
88.60350037 241.03500366 340.00000000 0.540050 0.651088 -0.533320 0.000000
101.62100220 169.64799500 397.50000000 -0.702227 -0.702227 0.117285 0.000000
153.69099426 172.16799927 447.50000000 0.000978 0.000978 0.999999 0.000000
141.09399414 277.14801025 387.50000000 0.210109 0.670794 -0.711259 0.000000
105.81999969 216.67999268 447.50000000 -0.566618 0.049210 0.822510 0.000000
206.60200500 221.71899414 437.50000000 -0.513804 0.684514 -0.517151 0.000000
94.90229797 276.30899048 437.50000000 -0.175092 0.334776 0.925887 0.000000
166.28900146 272.94900513 427.50000000 0.788922 0.283000 0.545447 0.000000
236.83599854 163.77000427 412.50000000 -0.059654 -0.869838 0.489717 0.000000
107.08000183 206.60200500 345.00000000 0.766533 -0.382453 -0.515904 0.000000
159.57000732 297.30499268 417.50000000 0.686184 0.430319 0.586496 0.000000
156.21099854 226.75799561 452.50000000 0.118689 0.218234 0.968652 0.000000
97.84179688 175.52699280 415.00000000 -0.794585 -0.593349 -0.128732 0.000000
180.56599426 153.69099426 422.50000000 -0.142882 -0.308898 0.940301 0.000000
152.01199341 208.28100586 382.50000000 0.379822 -0.884250 0.271730 0.000000
126.81600189 209.96099854 377.50000000 -0.000978 -0.000978 -0.999999 0.000000
145.29299927 264.55099487 377.50000000 -0.000978 -0.000978 -0.999999 0.000000
240.19500732 167.96899414 412.50000000 0.000978 0.000978 0.999999 0.000000
138.99400330 183.08599854 355.00000000 -0.189436 -0.651474 0.734640 0.000000
193.16400146 130.17599487 402.50000000 0.001125 -0.986241 0.165311 0.000000
118.41799927 215.83999634 452.50000000 0.408094 0.476381 0.778794 0.000000
203.24200439 219.19900513 437.50000000 0.000978 0.000978 0.999999 0.000000
140.25399780 269.58999634 442.50000000 0.000978 0.000978 0.999999 0.000000
122.61699677 282.18798828 442.50000000 -0.000978 -0.000978 0.999999 0.000000
181.40600586 241.03500366 442.50000000 0.000978 0.000978 0.999999 0.000000
164.60899353 245.23399353 442.50000000 -0.000978 -0.000978 0.999999 0.000000
115.89800262 219.19900513 357.50000000 0.986241 -0.001125 -0.165311 0.000000
137.31399536 179.72700500 455.00000000 -0.089309 -0.695442 0.713011 0.000000
235.99600220 210.80099487 427.50000000 0.000978 0.000978 0.999999 0.000000
122.61699677 155.79100037 410.00000000 -0.450298 -0.795688 0.405107 0.000000
129.33599854 239.35499573 372.50000000 0.295978 -0.328699 -0.896858 0.000000
206.60200500 170.48800659 382.50000000 -0.426475 0.783221 0.452420 0.000000
136.89500427 299.82400513 427.50000000 0.000978 0.000978 0.999999 0.000000
88.18360138 258.67199707 437.50000000 0.000978 0.000978 0.999999 0.000000
163.77000427 188.12500000 447.50000000 -0.000978 -0.000978 0.999999 0.000000
198.20300293 178.88699341 432.50000000 -0.000978 -0.000978 0.999999 0.000000
174.68800354 222.55900574 452.50000000 0.000978 0.000978 0.999999 0.000000
99.10160065 309.06201172 392.50000000 0.098109 0.199944 -0.974883 0.000000
141.93400574 283.86700439 392.50000000 0.492249 0.423563 -0.760451 0.000000
153.27099609 223.39799500 455.00000000 0.622438 0.155233 0.767121 0.000000
179.72700500 267.07000732 422.50000000 0.457671 0.635374 0.621963 0.000000
180.56599426 170.48800659 367.50000000 0.000978 0.000978 0.999999 0.000000
211.64100647 235.99600220 427.50000000 0.000978 0.000978 0.999999 0.000000
152.01199341 204.08200073 372.50000000 0.621439 -0.594493 0.510287 0.000000
116.73799896 219.19900513 362.50000000 0.877353 -0.437939 -0.196114 0.000000
220.03900146 129.33599854 402.50000000 -0.101259 -0.903008 0.417520 0.000000
117.57800293 184.76600647 357.50000000 -0.000978 -0.000978 -0.999999 0.000000
137.73399353 203.24200439 382.50000000 0.377734 -0.027259 -0.925513 0.000000
76.42579651 246.07400513 337.50000000 0.366900 0.505901 -0.780672 0.000000
220.03900146 236.83599854 392.50000000 0.000978 0.000978 0.999999 0.000000
152.85200500 188.12500000 362.50000000 -0.000978 -0.000978 0.999999 0.000000
184.76600647 244.39500427 397.50000000 0.000978 0.000978 0.999999 0.000000
184.76600647 257.83200073 427.50000000 0.730780 -0.364572 0.577103 0.000000
115.05899811 210.80099487 452.50000000 -0.367006 -0.070732 0.927525 0.000000
232.63699341 146.97300720 422.50000000 -0.000978 -0.000978 0.999999 0.000000
241.03500366 188.12500000 412.50000000 0.000978 0.000978 0.999999 0.000000
121.77700043 217.52000427 372.50000000 0.348201 -0.218167 -0.911679 0.000000
162.92999268 139.41400146 337.50000000 0.001125 -0.986241 -0.165311 0.000000
146.13299561 262.03100586 442.50000000 0.000978 0.000978 0.999999 0.000000
163.77000427 138.99400330 340.00000000 0.001125 -0.986241 -0.165311 0.000000
153.69099426 148.65199280 417.50000000 0.018172 -0.745045 0.666766 0.000000
146.97300720 235.99600220 452.50000000 0.000978 0.000978 0.999999 0.000000
90.70310211 198.20300293 427.50000000 -0.744080 -0.215923 0.632235 0.000000
250.27299500 189.80499268 427.50000000 0.000978 0.000978 0.999999 0.000000
86.92379761 186.44500732 390.00000000 0.000978 0.000978 -0.999999 0.000000
193.16400146 181.40600586 372.50000000 0.000978 0.000978 0.999999 0.000000
102.46099854 181.82600403 355.00000000 -0.407183 -0.815962 -0.410376 0.000000
146.13299561 286.38699341 432.50000000 0.156505 0.472439 0.867357 0.000000
76.84570313 204.08200073 405.00000000 -0.884212 -0.442827 0.148571 0.000000
243.55499268 171.32800293 422.50000000 0.000978 0.000978 0.999999 0.000000
168.80900574 134.79499817 355.00000000 -0.253271 -0.952783 -0.167507 0.000000
124.29699707 216.67999268 457.50000000 -0.088410 0.215422 0.972511 0.000000
130.17599487 249.43400574 367.50000000 -0.000978 -0.000978 -0.999999 0.000000
189.80499268 234.31599426 392.50000000 0.000978 0.000978 0.999999 0.000000
97.42189789 276.30899048 377.50000000 -0.000978 -0.000978 -0.999999 0.000000
128.49600220 288.06600952 392.50000000 0.445374 0.892127 0.075838 0.000000
224.23800659 205.76199341 432.50000000 0.000978 0.000978 0.999999 0.000000
128.49600220 232.63699341 452.50000000 0.000978 0.000978 0.999999 0.000000
102.46099854 232.63699341 342.50000000 -0.000978 -0.000978 -0.999999 0.000000
68.86720276 284.70700073 372.50000000 -0.148381 0.883081 -0.445142 0.000000
214.16000366 143.61300659 417.50000000 0.000978 0.000978 0.999999 0.000000
80.62500000 283.02700806 377.50000000 0.169274 0.374110 -0.911805 0.000000
125.13700104 165.44900513 437.50000000 -0.000978 -0.000978 0.999999 0.000000
85.24410248 188.12500000 405.00000000 -0.702227 -0.702227 -0.117285 0.000000
151.17199707 258.67199707 377.50000000 -0.000978 -0.000978 -0.999999 0.000000
68.86720276 267.07000732 357.50000000 0.001289 0.913864 -0.406019 0.000000
100.78099823 231.79699707 442.50000000 0.000978 0.000978 0.999999 0.000000
166.28900146 257.83200073 437.50000000 0.208884 0.325404 0.922215 0.000000
225.07800293 227.17799377 405.00000000 0.480867 0.847964 -0.222989 0.000000
134.37500000 194.00399780 457.50000000 0.000978 0.000978 0.999999 0.000000
113.37899780 315.78100586 422.50000000 0.268988 0.200016 0.942146 0.000000
216.67999268 157.05099487 392.50000000 -0.458081 -0.093858 0.883942 0.000000
64.66799927 233.47700500 352.50000000 -0.830587 -0.001355 0.556887 0.000000
183.50599670 255.31199646 425.00000000 0.501575 -0.501575 0.704872 0.000000
114.63899994 156.21099854 350.00000000 -0.600294 -0.705551 -0.376623 0.000000
188.12500000 134.79499817 410.00000000 -0.837418 -0.419495 0.350364 0.000000
241.87500000 153.69099426 422.50000000 -0.043130 -0.546778 0.836166 0.000000
215.00000000 167.12899780 427.50000000 0.000978 0.000978 0.999999 0.000000
121.77700043 317.46099854 402.50000000 -0.000978 -0.000978 -0.999999 0.000000
144.45300293 267.07000732 442.50000000 0.000978 0.000978 0.999999 0.000000
198.20300293 130.59599304 405.00000000 -0.001125 -0.986241 0.165311 0.000000
230.11700439 176.36700439 427.50000000 0.000978 0.000978 0.999999 0.000000
251.11300659 181.40600586 422.50000000 -0.609240 0.788684 -0.082486 0.000000
124.29699707 314.10198975 422.50000000 0.040676 0.582083 0.812111 0.000000
84.82420349 294.78500366 382.50000000 0.299454 0.741429 -0.600509 0.000000
120.93800354 255.31199646 362.50000000 0.016904 0.399192 -0.916712 0.000000
109.18000031 318.30099487 397.50000000 0.258819 0.033119 -0.965358 0.000000
86.92379761 194.00399780 355.00000000 -0.702227 -0.702227 0.117285 0.000000
173.00799561 157.05099487 357.50000000 -0.223382 -0.667022 0.710761 0.000000
206.60200500 126.81600189 382.50000000 -0.001125 -0.986241 -0.165311 0.000000
162.08999634 205.76199341 452.50000000 0.272951 0.879174 0.390577 0.000000
193.16400146 199.04299927 377.50000000 0.000978 0.000978 0.999999 0.000000
226.75799561 156.63099670 400.00000000 -0.474695 0.341336 0.811267 0.000000
157.89100647 287.22698975 427.50000000 0.535196 0.105308 0.838138 0.000000
212.47999573 179.72700500 387.50000000 0.000978 0.000978 0.999999 0.000000
69.70700073 230.95700073 412.50000000 -0.920782 -0.096853 0.377862 0.000000
82.30470276 288.06600952 427.50000000 0.000978 0.000978 0.999999 0.000000
140.25399780 215.00000000 457.50000000 0.000978 0.000978 0.999999 0.000000
212.47999573 148.65199280 422.50000000 0.000978 0.000978 0.999999 0.000000
108.76000214 266.23001099 370.00000000 0.392374 0.727287 -0.563114 0.000000
191.48399353 144.45300293 357.50000000 -0.608076 -0.608076 0.510380 0.000000
215.00000000 243.55499268 387.50000000 0.000978 0.000978 0.999999 0.000000
222.55900574 230.95700073 412.50000000 0.674630 0.601337 0.428099 0.000000
252.79299927 205.76199341 427.50000000 0.419769 -0.188677 0.887804 0.000000
188.12500000 241.87500000 417.50000000 0.351661 0.910265 0.218522 0.000000
120.93800354 192.32400513 367.50000000 -0.544185 0.544185 -0.638533 0.000000
70.54689789 219.19900513 372.50000000 -0.940268 -0.283047 -0.189158 0.000000
201.56199646 233.47700500 427.50000000 0.000978 0.000978 0.999999 0.000000
124.29699707 230.11700439 372.50000000 -0.000978 -0.000978 -0.999999 0.000000
175.52699280 197.36300659 397.50000000 0.000978 0.000978 0.999999 0.000000
78.94529724 236.83599854 432.50000000 -0.892127 -0.445374 0.075838 0.000000
91.12300110 239.35499573 340.00000000 0.471566 0.432405 -0.768539 0.000000
158.72999573 239.35499573 387.50000000 0.000978 0.000978 -0.999999 0.000000
180.56599426 256.99200439 402.50000000 0.586150 -0.097449 -0.804320 0.000000
141.09399414 236.83599854 452.50000000 0.000978 0.000978 0.999999 0.000000
183.08599854 258.67199707 427.50000000 0.730780 -0.364572 0.577103 0.000000
130.17599487 197.36300659 457.50000000 0.000978 0.000978 0.999999 0.000000
63.40819931 235.99600220 380.00000000 -0.893111 -0.001311 -0.449834 0.000000
141.93400574 267.91000366 382.50000000 0.970397 -0.120507 0.209301 0.000000
132.27499390 286.38699341 390.00000000 0.151492 0.793458 -0.589469 0.000000
73.48629761 278.82800293 425.00000000 -0.812739 -0.081993 0.576829 0.000000
165.44900513 284.70700073 407.50000000 0.525553 0.724501 -0.445974 0.000000
151.17199707 197.36300659 367.50000000 -0.000978 -0.000978 0.999999 0.000000
141.93400574 204.08200073 382.50000000 -0.000978 -0.000978 -0.999999 0.000000
156.21099854 220.87899780 397.50000000 0.903188 0.302045 -0.304992 0.000000
105.81999969 239.35499573 347.50000000 -0.431061 0.431061 -0.792700 0.000000
215.83999634 163.77000427 427.50000000 0.000978 0.000978 0.999999 0.000000
203.24200439 245.65400696 415.00000000 0.169923 0.855526 0.489083 0.000000
174.68800354 144.45300293 337.50000000 -0.479000 -0.788657 0.385458 0.000000
175.52699280 144.45300293 337.50000000 -0.001236 -0.948187 0.317711 0.000000
85.66410065 214.16000366 427.50000000 -0.766533 -0.382453 0.515904 0.000000
142.77299500 151.17199707 412.50000000 -0.779986 0.519454 0.348983 0.000000
65.08789825 228.43800354 385.00000000 -0.971373 -0.225120 -0.075869 0.000000
146.13299561 157.89100647 347.50000000 -0.766533 -0.382453 0.515904 0.000000
73.90619659 262.87100220 427.50000000 -0.000978 -0.000978 0.999999 0.000000
104.14099884 308.22299194 427.50000000 0.000978 0.000978 0.999999 0.000000
60.46879959 236.41600037 340.00000000 -0.955743 -0.225903 0.188475 0.000000
117.57800293 242.71499634 357.50000000 -0.000978 -0.000978 -0.999999 0.000000
186.02499390 146.13299561 355.00000000 -0.496219 -0.780696 0.379842 0.000000
230.11700439 136.05499268 412.50000000 0.666485 -0.666485 -0.334057 0.000000
124.29699707 191.48399353 457.50000000 0.000978 0.000978 0.999999 0.000000
193.58399963 230.11700439 435.00000000 0.592950 0.579436 0.559164 0.000000
102.46099854 270.42999268 442.50000000 0.000978 0.000978 0.999999 0.000000
86.92379761 191.48399353 415.00000000 -0.986241 -0.001125 -0.165311 0.000000
63.82809830 282.60699463 370.00000000 -0.148381 0.883081 -0.445142 0.000000
158.72999573 278.82800293 397.50000000 0.667845 -0.473685 -0.574113 0.000000
168.80900574 131.43600464 395.00000000 -0.255921 -0.894983 0.365390 0.000000
115.89800262 182.24600220 447.50000000 -0.178702 -0.636913 0.749938 0.000000
237.67599487 218.35899353 427.50000000 0.000978 0.000978 0.999999 0.000000
171.32800293 266.23001099 397.50000000 0.571927 0.224741 -0.788918 0.000000
193.16400146 220.87899780 442.50000000 0.048928 0.384812 0.921697 0.000000
62.14839935 279.66799927 407.50000000 -0.945888 -0.135896 0.294665 0.000000
136.89500427 303.18399048 427.50000000 0.000978 0.000978 0.999999 0.000000
128.49600220 183.92599487 457.50000000 -0.305831 -0.568429 0.763777 0.000000
133.53500366 269.58999634 442.50000000 0.000978 0.000978 0.999999 0.000000
190.64500427 129.33599854 367.50000000 -0.005430 -0.993709 -0.111860 0.000000
202.40199280 231.79699707 427.50000000 0.475554 0.288451 0.831050 0.000000
96.58200073 298.56399536 430.00000000 -0.118691 0.819114 0.561217 0.000000
117.57800293 262.03100586 447.50000000 0.000978 0.000978 0.999999 0.000000
188.12500000 166.28900146 427.50000000 -0.000978 -0.000978 0.999999 0.000000
127.65599823 180.56599426 452.50000000 0.000978 0.000978 0.999999 0.000000
192.32400513 179.72700500 372.50000000 -0.255165 -0.257984 0.931845 0.000000
163.77000427 241.87500000 387.50000000 -0.180276 -0.901379 -0.393722 0.000000
178.04699707 162.50999451 365.00000000 -0.629275 -0.511181 0.585412 0.000000
215.41999817 218.35899353 435.00000000 0.853906 -0.031525 0.519471 0.000000
100.78099823 304.02301025 427.50000000 0.049656 0.216791 0.974954 0.000000
78.10549927 249.43400574 342.50000000 0.082664 0.639561 -0.764283 0.000000
167.12899780 146.97300720 337.50000000 -0.082589 -0.945180 0.315934 0.000000
176.36700439 224.23800659 402.50000000 -0.006830 0.566921 0.823744 0.000000
99.94139862 324.17999268 412.50000000 -0.245655 0.823486 0.511395 0.000000
89.02339935 293.10501099 427.50000000 -0.212678 0.363144 0.907136 0.000000
203.24200439 156.63099670 425.00000000 -0.001377 -0.648407 0.761293 0.000000
162.92999268 177.20700073 447.50000000 0.577789 -0.728375 0.368279 0.000000
94.06250000 201.56199646 432.50000000 -0.693456 -0.261831 0.671240 0.000000
153.69099426 215.83999634 392.50000000 -0.000978 -0.000978 -0.999999 0.000000
60.04880142 240.19500732 345.00000000 -0.939691 -0.331734 0.083264 0.000000
220.03900146 192.32400513 432.50000000 0.448488 -0.039057 0.892935 0.000000
183.92599487 130.17599487 362.50000000 -0.110653 -0.993685 -0.018625 0.000000
110.85900116 304.86300659 392.50000000 0.657909 -0.101556 -0.746219 0.000000
194.00399780 232.63699341 432.50000000 0.602931 0.643238 0.471932 0.000000
123.87699890 148.65199280 375.00000000 -0.438103 -0.898706 -0.019854 0.000000
211.64100647 137.73399353 377.50000000 -0.689351 -0.683041 0.241352 0.000000
225.07800293 157.05099487 422.50000000 0.422782 -0.581947 0.694689 0.000000
76.42579651 264.55099487 432.50000000 -0.889197 0.295399 0.349381 0.000000
204.08200073 143.61300659 417.50000000 0.000978 0.000978 0.999999 0.000000
169.64799500 183.92599487 442.50000000 0.000978 0.000978 0.999999 0.000000
96.58200073 233.47700500 337.50000000 -0.000978 -0.000978 -0.999999 0.000000
68.44730377 223.39799500 405.00000000 -0.856357 -0.287502 0.428947 0.000000
180.56599426 212.47999573 402.50000000 0.508312 -0.291139 0.810467 0.000000
136.89500427 176.36700439 452.50000000 0.026646 -0.660551 0.750308 0.000000
224.65800476 175.52699280 395.00000000 -0.566711 0.147256 0.810650 0.000000
62.98830032 241.03500366 367.50000000 -0.845402 -0.529258 0.071979 0.000000
135.21499634 216.67999268 457.50000000 0.000978 0.000978 0.999999 0.000000
144.45300293 280.50799561 392.50000000 0.573589 0.604045 -0.553285 0.000000
164.18899536 206.60200500 395.00000000 -0.001236 -0.948187 0.317711 0.000000
167.96899414 147.81199646 337.50000000 0.265097 -0.871033 0.413551 0.000000
73.06639862 214.16000366 367.50000000 -0.917015 -0.393390 -0.065789 0.000000
169.64799500 147.81199646 337.50000000 0.265097 -0.871033 0.413551 0.000000
160.41000366 133.95500183 390.00000000 -0.442827 -0.884212 -0.148571 0.000000
147.81199646 181.40600586 357.50000000 -0.145912 -0.457961 0.876916 0.000000
113.37899780 314.10198975 397.50000000 0.629717 0.468509 -0.619641 0.000000
209.96099854 128.49600220 402.50000000 -0.001311 -0.893111 0.449834 0.000000
104.14099884 314.10198975 397.50000000 0.090810 0.165879 -0.981956 0.000000
154.53100586 279.66799927 432.50000000 0.000978 0.000978 0.999999 0.000000
167.96899414 256.99200439 437.50000000 0.166723 0.346055 0.923282 0.000000
254.05299377 199.88299561 420.00000000 -0.986241 -0.001125 0.165311 0.000000
182.24600220 166.70899963 430.00000000 0.320750 -0.833950 0.449050 0.000000
246.07400513 210.80099487 412.50000000 -0.614446 0.212038 0.759932 0.000000
211.64100647 131.85499573 407.50000000 0.104140 -0.931848 0.347583 0.000000
145.71299744 230.11700439 385.00000000 0.739276 -0.229754 -0.632996 0.000000
130.17599487 284.70700073 387.50000000 -0.019490 0.388506 -0.921240 0.000000
110.01999664 215.83999634 447.50000000 0.000978 0.000978 0.999999 0.000000
90.70310211 237.67599487 337.50000000 0.011580 0.379559 -0.925095 0.000000
190.64500427 193.16400146 442.50000000 0.000978 0.000978 0.999999 0.000000
61.72850037 248.59399414 385.00000000 -0.986241 -0.001125 0.165311 0.000000
213.32000732 188.96499634 387.50000000 0.000978 0.000978 0.999999 0.000000
62.98830032 273.78900146 407.50000000 -0.902002 -0.128053 0.412304 0.000000
117.57800293 307.38299561 427.50000000 0.000978 0.000978 0.999999 0.000000
179.72700500 147.81199646 417.50000000 0.601147 -0.201407 0.773342 0.000000
137.73399353 264.55099487 442.50000000 0.000978 0.000978 0.999999 0.000000
151.17199707 194.00399780 457.50000000 0.000978 0.000978 0.999999 0.000000
177.20700073 195.68400574 447.50000000 0.000978 0.000978 0.999999 0.000000
89.02339935 209.12100220 427.50000000 -0.862120 -0.221172 0.455886 0.000000
129.33599854 163.35000610 435.00000000 -0.163308 -0.925412 0.341970 0.000000
176.36700439 202.40199280 402.50000000 0.000978 0.000978 0.999999 0.000000
135.21499634 245.23399353 447.50000000 0.000978 0.000978 0.999999 0.000000
94.06250000 228.43800354 337.50000000 -0.000978 -0.000978 -0.999999 0.000000
224.23800659 188.12500000 427.50000000 0.259350 -0.020699 0.965562 0.000000
135.21499634 270.42999268 382.50000000 0.182518 0.719336 -0.670256 0.000000
115.05899811 272.94900513 377.50000000 0.038792 0.286558 -0.957277 0.000000
64.66799927 235.15600586 377.50000000 -0.893111 -0.001311 -0.449834 0.000000
216.67999268 230.11700439 427.50000000 0.114274 0.675253 0.728680 0.000000
173.00799561 246.49400330 385.00000000 0.648770 0.297822 -0.700285 0.000000
241.87500000 199.04299927 427.50000000 0.000978 0.000978 0.999999 0.000000
166.28900146 146.13299561 417.50000000 0.333332 0.665039 0.668291 0.000000
58.36909866 267.07000732 365.00000000 -0.921899 -0.001279 -0.387428 0.000000
181.82600403 252.79299927 425.00000000 0.567725 -0.377938 0.731335 0.000000
171.32800293 253.63299561 392.50000000 0.769868 0.462575 -0.439691 0.000000
209.96099854 173.00799561 382.50000000 0.000978 0.000978 0.999999 0.000000
177.20700073 274.20901489 420.00000000 0.585848 0.394416 0.707968 0.000000
181.40600586 152.01199341 422.50000000 0.000978 0.000978 0.999999 0.000000
83.98439789 268.75000000 367.50000000 0.388389 0.855694 -0.341968 0.000000
118.41799927 306.54299927 397.50000000 -0.000978 -0.000978 -0.999999 0.000000
146.97300720 280.50799561 437.50000000 0.830587 -0.001355 0.556887 0.000000
135.21499634 226.33799744 455.00000000 -0.391013 0.704483 0.592294 0.000000
166.70899963 132.69500732 380.00000000 -0.350585 -0.928981 -0.118680 0.000000
162.08999634 149.91200256 340.00000000 -0.892127 -0.445374 0.075838 0.000000
89.86329651 298.98400879 387.50000000 0.000000 0.000000 0.000000 0.000000
116.73799896 204.08200073 367.50000000 -0.000978 -0.000978 -0.999999 0.000000
146.13299561 137.73399353 382.50000000 -0.339470 -0.935218 -0.100633 0.000000
157.05099487 296.46499634 422.50000000 0.414374 -0.033097 0.909505 0.000000
112.95899963 161.25000000 405.00000000 -0.508833 -0.849033 0.142239 0.000000
120.93800354 194.00399780 457.50000000 0.000978 0.000978 0.999999 0.000000
120.09799957 163.77000427 427.50000000 -0.873014 -0.441712 0.206727 0.000000
182.24600220 208.28100586 377.50000000 0.544185 -0.544185 0.638533 0.000000
192.32400513 241.03500366 417.50000000 0.137269 0.922059 0.361891 0.000000
129.33599854 144.87300110 390.00000000 -0.526188 -0.845609 0.089837 0.000000
106.23999786 165.44900513 400.00000000 -0.708486 -0.705724 0.001381 0.000000
231.79699707 167.96899414 402.50000000 -0.711214 -0.012526 0.702864 0.000000
189.80499268 240.19500732 392.50000000 0.000978 0.000978 0.999999 0.000000
178.88699341 156.63099670 425.00000000 0.029416 -0.774620 0.631743 0.000000
175.52699280 192.32400513 367.50000000 0.000978 0.000978 0.999999 0.000000
224.23800659 133.53500366 412.50000000 0.000978 0.000978 0.999999 0.000000
236.83599854 196.52299500 427.50000000 -0.000978 -0.000978 0.999999 0.000000
250.27299500 213.32000732 427.50000000 0.000978 0.000978 0.999999 0.000000
115.89800262 161.66999817 420.00000000 -0.387769 -0.857418 0.338333 0.000000
160.41000366 249.43400574 382.50000000 -0.000978 -0.000978 -0.999999 0.000000
136.05499268 158.72999573 427.50000000 -0.212287 -0.957295 0.196266 0.000000
230.11700439 153.69099426 422.50000000 0.000978 0.000978 0.999999 0.000000
151.17199707 140.25399780 407.50000000 -0.467117 -0.334107 0.818642 0.000000
213.32000732 145.29299927 422.50000000 0.000978 0.000978 0.999999 0.000000
224.23800659 181.40600586 392.50000000 -0.893111 0.001311 0.449834 0.000000
224.23800659 145.71299744 400.00000000 -0.668753 0.064718 0.740662 0.000000
103.30100250 288.06600952 437.50000000 0.000978 0.000978 0.999999 0.000000
143.61300659 232.63699341 382.50000000 0.684623 -0.073818 -0.725150 0.000000
81.46479797 296.46499634 382.50000000 0.234192 0.715152 -0.658568 0.000000
245.23399353 201.56199646 412.50000000 0.000978 0.000978 0.999999 0.000000
209.96099854 137.31399536 375.00000000 -0.603019 -0.734880 0.310354 0.000000
181.82600403 211.64100647 400.00000000 0.586827 -0.408299 0.699233 0.000000
143.61300659 157.47099304 425.00000000 0.148266 -0.852898 0.500582 0.000000
185.60499573 238.51600647 392.50000000 0.000978 0.000978 0.999999 0.000000
128.49600220 240.19500732 447.50000000 0.000978 0.000978 0.999999 0.000000
152.85200500 167.12899780 447.50000000 0.000978 0.000978 0.999999 0.000000
196.52299500 184.76600647 372.50000000 0.000978 0.000978 0.999999 0.000000
171.32800293 177.20700073 367.50000000 0.000978 0.000978 0.999999 0.000000
167.96899414 207.02099609 380.00000000 0.286363 -0.286363 0.914326 0.000000
160.41000366 193.16400146 452.50000000 0.688180 -0.394424 0.608965 0.000000
148.23199463 269.58999634 385.00000000 0.702227 0.702227 -0.117285 0.000000
172.16799927 133.53500366 402.50000000 -0.539975 -0.810732 0.226143 0.000000
140.25399780 292.26599121 432.50000000 0.026364 0.310086 0.950343 0.000000
180.14599609 160.41000366 365.00000000 -0.588824 -0.649216 0.481460 0.000000
194.84399414 173.84800720 372.50000000 0.000978 0.000978 0.999999 0.000000
118.41799927 208.28100586 367.50000000 -0.000978 -0.000978 -0.999999 0.000000
76.00589752 286.38699341 425.00000000 -0.462612 0.413916 0.784005 0.000000
178.88699341 254.47300720 402.50000000 0.553590 -0.414780 -0.722146 0.000000
150.33200073 161.25000000 357.50000000 -0.711363 0.064932 0.699819 0.000000
160.41000366 299.40399170 415.00000000 0.791702 0.395045 0.465991 0.000000
163.77000427 270.01000977 395.00000000 0.677788 0.597853 -0.427989 0.000000
162.08999634 173.00799561 437.50000000 0.519561 0.389264 0.760612 0.000000
184.76600647 241.87500000 392.50000000 0.000978 0.000978 0.999999 0.000000
67.18750000 225.91799927 347.50000000 -0.827118 -0.462998 0.318605 0.000000
196.52299500 136.05499268 412.50000000 -0.104543 -0.425141 0.899069 0.000000
173.00799561 278.40798950 420.00000000 0.431061 0.431061 0.792700 0.000000
90.28320313 191.48399353 360.00000000 -0.702227 -0.702227 -0.117285 0.000000
130.17599487 219.19900513 377.50000000 0.181390 0.972909 0.143336 0.000000
215.83999634 236.83599854 387.50000000 0.000978 0.000978 0.999999 0.000000
120.09799957 201.56199646 372.50000000 0.549804 0.823969 -0.137082 0.000000
58.36909866 263.71099854 365.00000000 -0.946312 -0.087937 -0.311062 0.000000
154.53100586 154.95100403 355.00000000 -0.428947 0.856357 -0.287502 0.000000
252.79299927 191.48399353 417.50000000 -0.995704 0.082154 -0.042720 0.000000
117.57800293 294.78500366 392.50000000 0.000978 0.000978 -0.999999 0.000000
124.29699707 287.22698975 437.50000000 -0.000978 -0.000978 0.999999 0.000000
62.14839935 245.23399353 387.50000000 -0.986241 -0.001125 0.165311 0.000000
146.13299561 252.79299927 447.50000000 0.060800 0.319521 0.945627 0.000000
179.72700500 188.96499634 442.50000000 0.363537 0.021838 0.931324 0.000000
162.92999268 246.91400146 442.50000000 -0.000978 -0.000978 0.999999 0.000000
230.11700439 143.61300659 402.50000000 0.000978 0.000978 0.999999 0.000000
134.37500000 314.94100952 417.50000000 0.326278 0.468138 0.821212 0.000000
76.42579651 283.44699097 375.00000000 0.278961 0.741240 -0.610527 0.000000
183.08599854 241.03500366 392.50000000 0.000978 0.000978 0.999999 0.000000
212.89999390 246.91400146 405.00000000 0.528103 0.846372 0.069005 0.000000
241.03500366 217.52000427 427.50000000 0.000978 0.000978 0.999999 0.000000
99.10160065 319.14099121 397.50000000 -0.000978 -0.000978 -0.999999 0.000000
189.80499268 159.57000732 427.50000000 0.000978 0.000978 0.999999 0.000000
177.20700073 160.41000366 362.50000000 -0.588824 -0.649216 0.481460 0.000000
207.44099426 245.65400696 400.00000000 -0.230227 0.922337 -0.310306 0.000000
156.21099854 266.23001099 437.50000000 0.399884 0.444851 0.801374 0.000000
225.91799927 146.13299561 402.50000000 -0.226348 -0.027545 0.973657 0.000000
80.20510101 261.19100952 355.00000000 0.596656 0.603417 -0.529046 0.000000
136.05499268 219.19900513 457.50000000 -0.000978 -0.000978 0.999999 0.000000
205.76199341 184.76600647 432.50000000 0.000978 0.000978 0.999999 0.000000
85.66410065 256.15200806 437.50000000 0.000978 0.000978 0.999999 0.000000
177.20700073 186.44500732 442.50000000 0.000978 0.000978 0.999999 0.000000
125.97699738 233.47700500 367.50000000 0.728566 -0.654317 -0.202637 0.000000
136.89500427 260.35198975 447.50000000 0.000978 0.000978 0.999999 0.000000
138.57400513 308.22299194 402.50000000 -0.000978 -0.000978 -0.999999 0.000000
99.94139862 202.40199280 437.50000000 -0.665757 -0.665757 0.336948 0.000000
102.04100037 169.64799500 415.00000000 -0.754288 -0.655596 -0.035247 0.000000
216.67999268 242.71499634 412.50000000 0.599655 0.743572 0.295830 0.000000
172.16799927 269.58999634 427.50000000 0.331666 0.219675 0.917464 0.000000
176.36700439 209.12100220 452.50000000 0.000978 0.000978 0.999999 0.000000
245.23399353 178.04699707 427.50000000 0.000978 0.000978 0.999999 0.000000
157.89100647 276.30899048 397.50000000 0.400442 0.183596 -0.897741 0.000000
156.21099854 168.80900574 447.50000000 0.161208 0.021723 0.986681 0.000000
124.29699707 148.23199463 385.00000000 -0.546144 -0.837602 -0.012258 0.000000
160.41000366 152.01199341 417.50000000 0.000978 0.000978 0.999999 0.000000
71.38670349 230.11700439 417.50000000 -0.833703 -0.284111 0.473519 0.000000
132.69500732 230.95700073 452.50000000 0.000978 0.000978 0.999999 0.000000
183.08599854 246.07400513 427.50000000 0.666485 0.666485 -0.334057 0.000000
222.55900574 221.71899414 397.50000000 -0.000978 -0.000978 0.999999 0.000000
188.12500000 149.49200439 362.50000000 -0.655302 -0.718160 0.234149 0.000000
137.73399353 317.88101196 410.00000000 -0.475482 -0.845472 -0.243092 0.000000
194.00399780 198.20300293 442.50000000 0.000978 0.000978 0.999999 0.000000
110.85900116 246.07400513 447.50000000 0.000978 0.000978 0.999999 0.000000
104.56099701 167.12899780 400.00000000 -0.670261 -0.742124 0.001382 0.000000
148.65199280 309.90200806 412.50000000 0.438530 0.831478 0.341079 0.000000
229.27699280 211.64100647 427.50000000 0.864805 -0.367120 0.342543 0.000000
220.87899780 193.16400146 432.50000000 0.448488 -0.039057 0.892935 0.000000
228.43800354 134.37500000 412.50000000 0.000978 0.000978 0.999999 0.000000
140.25399780 266.23001099 377.50000000 -0.000978 -0.000978 -0.999999 0.000000
224.23800659 154.53100586 422.50000000 0.542751 -0.479291 0.689711 0.000000
216.67999268 216.67999268 432.50000000 0.669515 0.152643 0.726945 0.000000
162.92999268 287.22698975 422.50000000 0.538176 0.365829 0.759299 0.000000
167.96899414 277.98800659 422.50000000 0.001376 -0.766300 0.642481 0.000000
178.88699341 145.29299927 417.50000000 -0.742386 0.247462 0.622596 0.000000
235.15600586 167.96899414 427.50000000 0.206140 -0.134439 0.969243 0.000000
111.69899750 183.08599854 447.50000000 -0.293650 -0.455235 0.840554 0.000000
161.25000000 181.40600586 452.50000000 0.381278 -0.261661 0.886657 0.000000
113.79900360 157.05099487 385.00000000 -0.661331 -0.750063 0.006932 0.000000
161.25000000 204.08200073 367.50000000 -0.152694 -0.920364 0.360021 0.000000
165.86900330 271.26998901 430.00000000 0.754768 0.452203 0.475224 0.000000
150.33200073 251.95300293 377.50000000 -0.000978 -0.000978 -0.999999 0.000000
177.20700073 136.89500427 342.50000000 -0.957688 -0.086359 0.274546 0.000000
218.35899353 224.23800659 392.50000000 -0.965014 -0.239652 0.106369 0.000000
141.93400574 141.09399414 402.50000000 -0.227663 -0.835783 0.499636 0.000000
77.26560211 204.08200073 407.50000000 -0.882993 -0.414042 0.221119 0.000000
98.26170349 298.98400879 432.50000000 -0.231088 0.896384 0.378277 0.000000
162.08999634 251.95300293 382.50000000 -0.000978 -0.000978 -0.999999 0.000000
194.00399780 157.89100647 427.50000000 -0.000978 -0.000978 0.999999 0.000000
94.90229797 277.14801025 377.50000000 -0.000978 -0.000978 -0.999999 0.000000
104.98000336 301.50399780 392.50000000 -0.000978 -0.000978 -0.999999 0.000000
210.80099487 204.08200073 437.50000000 -0.324756 -0.318770 0.890460 0.000000
219.61900330 141.09399414 395.00000000 -0.925867 -0.110449 0.361347 0.000000
121.77700043 272.10900879 442.50000000 -0.093369 0.303778 0.948157 0.000000
104.98000336 326.69900513 397.50000000 0.180276 -0.901379 -0.393722 0.000000
209.96099854 207.44099426 437.50000000 0.000978 0.000978 0.999999 0.000000
220.87899780 235.99600220 392.50000000 0.000978 0.000978 0.999999 0.000000
167.54899597 251.95300293 385.00000000 0.702227 0.702227 -0.117285 0.000000
155.37100220 178.88699341 452.50000000 0.000978 0.000978 0.999999 0.000000
113.37899780 251.95300293 447.50000000 0.000978 0.000978 0.999999 0.000000
137.73399353 295.20498657 430.00000000 0.042754 0.856465 0.514431 0.000000
95.74220276 263.71099854 367.50000000 0.356111 0.803245 -0.477476 0.000000
95.74220276 241.87500000 342.50000000 -0.000978 -0.000978 -0.999999 0.000000
131.01600647 310.74200439 422.50000000 0.087093 0.427173 0.899966 0.000000
204.92199707 193.16400146 432.50000000 0.377078 -0.298330 0.876819 0.000000
124.29699707 325.43899536 410.00000000 0.214479 0.782308 0.584802 0.000000
198.20300293 236.83599854 427.50000000 0.000978 0.000978 0.999999 0.000000
244.39500427 161.25000000 422.50000000 -0.000978 -0.000978 0.999999 0.000000
235.99600220 184.76600647 407.50000000 0.000978 0.000978 0.999999 0.000000
62.56840134 238.51600647 385.00000000 -0.982909 -0.164418 -0.082809 0.000000
115.89800262 295.62500000 432.50000000 -0.000978 -0.000978 0.999999 0.000000
168.80900574 215.83999634 397.50000000 -0.395045 -0.791702 0.465991 0.000000
76.42579651 256.99200439 432.50000000 -0.729732 -0.314123 0.607304 0.000000
167.96899414 155.37100220 422.50000000 -0.000978 -0.000978 0.999999 0.000000
109.18000031 216.67999268 447.50000000 0.000978 0.000978 0.999999 0.000000
95.32230377 205.76199341 435.00000000 -0.823352 -0.153355 0.546420 0.000000
147.81199646 218.35899353 457.50000000 0.000978 0.000978 0.999999 0.000000
173.00799561 155.37100220 422.50000000 0.000978 0.000978 0.999999 0.000000
94.48239899 190.64500427 430.00000000 -0.437525 -0.700373 0.563958 0.000000
168.80900574 230.11700439 397.50000000 0.000978 0.000978 -0.999999 0.000000
108.33999634 257.83200073 362.50000000 -0.000978 -0.000978 -0.999999 0.000000
94.06250000 238.51600647 442.50000000 -0.273587 -0.008512 0.961810 0.000000
89.02339935 278.82800293 377.50000000 -0.000978 -0.000978 -0.999999 0.000000
120.09799957 212.47999573 457.50000000 -0.274561 0.001210 0.961569 0.000000
122.61699677 313.26199341 402.50000000 -0.000978 -0.000978 -0.999999 0.000000
189.80499268 203.24200439 377.50000000 0.000978 0.000978 0.999999 0.000000
95.74220276 231.79699707 442.50000000 0.000978 0.000978 0.999999 0.000000
156.21099854 305.70300293 412.50000000 0.000978 0.000978 -0.999999 0.000000
193.16400146 213.32000732 447.50000000 0.716736 -0.015369 0.697176 0.000000
156.21099854 192.32400513 457.50000000 -0.285166 -0.407162 0.867698 0.000000
144.87300110 256.99200439 445.00000000 0.328188 0.480392 0.813336 0.000000
105.81999969 322.50000000 417.50000000 0.000978 0.000978 0.999999 0.000000
228.43800354 168.80900574 427.50000000 0.000978 0.000978 0.999999 0.000000
169.64799500 235.99600220 397.50000000 0.000978 0.000978 -0.999999 0.000000
238.51600647 152.85200500 412.50000000 0.000000 0.000000 0.000000 0.000000
99.10160065 251.95300293 447.50000000 -0.343476 0.142081 0.928352 0.000000
119.25800323 291.42599487 437.50000000 0.000978 0.000978 0.999999 0.000000
131.01600647 299.82400513 427.50000000 0.246269 0.200009 0.948340 0.000000
110.85900116 217.52000427 447.50000000 0.000978 0.000978 0.999999 0.000000
111.69899750 206.60200500 452.50000000 0.000978 0.000978 0.999999 0.000000
183.92599487 222.55900574 447.50000000 0.449097 0.727504 0.518699 0.000000
139.41400146 196.94299316 375.00000000 0.506618 0.414804 -0.755828 0.000000
148.65199280 172.16799927 352.50000000 0.000978 0.000978 0.999999 0.000000
178.88699341 199.88299561 402.50000000 0.854278 -0.358146 0.376751 0.000000
129.33599854 283.02700806 437.50000000 0.000978 0.000978 0.999999 0.000000
215.83999634 157.47099304 390.00000000 -0.626286 0.518248 0.582396 0.000000
229.27699280 199.88299561 427.50000000 0.000978 0.000978 0.999999 0.000000
71.38670349 273.78900146 422.50000000 -0.001339 0.512919 0.858436 0.000000
165.44900513 228.43800354 452.50000000 0.383390 0.169604 0.907880 0.000000
255.73199463 211.64100647 425.00000000 -0.921848 0.143213 -0.360119 0.000000
138.57400513 207.44099426 382.50000000 -0.000978 -0.000978 -0.999999 0.000000
147.81199646 263.71099854 442.50000000 0.000978 0.000978 0.999999 0.000000
230.11700439 183.08599854 427.50000000 0.000978 0.000978 0.999999 0.000000
76.42579651 307.38299561 387.50000000 0.086335 0.499612 -0.861936 0.000000
94.90229797 221.71899414 437.50000000 -0.266523 -0.171820 0.948390 0.000000
81.46479797 217.93899536 425.00000000 -0.592530 -0.100453 0.799260 0.000000
