247.41200256 161.71899414 215.00000000 -0.840024 -0.017757 -0.542259 0.000000
94.92189789 216.21099854 257.50000000 -0.663526 0.052797 0.746288 0.000000
163.47700500 193.79899597 170.00000000 0.665066 0.709089 -0.234267 0.000000
72.94920349 169.62899780 192.50000000 -0.000978 -0.000978 -0.999999 0.000000
57.12889862 245.21499634 167.50000000 0.913839 0.153480 -0.375955 0.000000
152.92999268 219.72700500 132.50000000 -0.751123 -0.001378 0.660161 0.000000
222.36300659 116.45500183 195.00000000 0.125014 0.942311 -0.310519 0.000000
62.40230179 239.06199646 197.50000000 0.307238 0.340210 -0.888742 0.000000
239.94099426 177.97799683 225.00000000 -0.578659 0.001362 -0.815569 0.000000
191.60200500 218.40800476 170.00000000 -0.095559 -0.951660 0.291912 0.000000
179.29699707 182.81199646 247.50000000 -0.516485 0.540038 -0.664532 0.000000
101.07399750 313.76901245 202.50000000 0.549962 -0.822719 -0.143791 0.000000
172.26600647 197.75399780 257.50000000 -0.435468 0.284670 -0.854009 0.000000
64.59960175 244.33599854 205.00000000 0.885003 0.001319 -0.465583 0.000000
110.74199677 261.91400146 147.50000000 -0.708866 -0.505380 0.492036 0.000000
94.92189789 292.67599487 232.50000000 0.917310 -0.364951 -0.159226 0.000000
246.97300720 116.89499664 187.50000000 0.051670 0.959042 -0.278513 0.000000
225.00000000 160.83999634 227.50000000 -0.000978 -0.000978 -0.999999 0.000000
232.03100586 116.01599884 152.50000000 0.441748 0.428803 -0.788027 0.000000
143.70100403 201.26899719 115.00000000 -0.738924 0.409782 0.534856 0.000000
136.22999573 208.30099487 102.50000000 -0.792463 -0.073350 0.605493 0.000000
140.62500000 278.61300659 242.50000000 -0.202659 0.478876 -0.854171 0.000000
164.35499573 141.50399780 227.50000000 0.159342 0.699588 -0.696553 0.000000
138.42799377 233.78900146 145.00000000 -0.270806 -0.809289 0.521263 0.000000
231.15199280 202.14799500 227.50000000 -0.000978 -0.000978 -0.999999 0.000000
128.32000732 311.57199097 225.00000000 0.049641 -0.625480 -0.778659 0.000000
202.14799500 163.47700500 232.50000000 0.218874 0.355127 -0.908834 0.000000
195.11700439 221.92399597 210.00000000 0.043842 -0.997664 0.052396 0.000000
105.46900177 138.42799377 170.00000000 0.701680 0.701680 -0.123651 0.000000
59.32619858 210.93699646 85.00000000 0.001347 -0.534955 -0.844879 0.000000
98.43750000 253.12500000 122.50000000 -0.566930 -0.754291 0.331113 0.000000
166.11300659 261.91400146 187.50000000 0.000978 0.000978 0.999999 0.000000
243.89599609 211.81599426 225.00000000 0.533884 -0.464030 -0.706855 0.000000
87.45110321 237.30499268 250.00000000 0.699499 -0.654680 -0.286523 0.000000
123.04699707 214.45300293 92.50000000 -0.000978 -0.000978 0.999999 0.000000
129.19900513 234.66799927 137.50000000 -0.459738 -0.795266 0.395213 0.000000
107.66600037 192.47999573 265.00000000 0.852726 -0.427134 -0.300690 0.000000
172.26600647 123.92600250 207.50000000 -0.337636 0.676903 -0.654068 0.000000
99.31639862 210.05900574 262.50000000 -0.000978 -0.000978 -0.999999 0.000000
213.57400513 215.33200073 227.50000000 -0.278452 -0.596684 -0.752617 0.000000
186.32800293 214.45300293 152.50000000 -0.475693 -0.752220 0.455941 0.000000
176.66000366 183.69099426 252.50000000 -0.593441 0.270609 -0.758022 0.000000
104.15000153 140.62500000 160.00000000 0.616257 0.770700 -0.162014 0.000000
113.81800079 130.07800293 155.00000000 0.620374 0.647129 -0.443125 0.000000
129.19900513 183.69099426 262.50000000 -0.135545 0.612186 -0.779010 0.000000
195.99600220 194.67799377 190.00000000 -0.371694 0.371694 -0.850698 0.000000
161.71899414 190.28300476 145.00000000 0.261300 0.833376 -0.487038 0.000000
134.47300720 113.37899780 142.50000000 0.108091 0.967731 0.227627 0.000000
174.02299500 202.14799500 257.50000000 -0.462561 0.262784 -0.846748 0.000000
112.50000000 297.07000732 237.50000000 -0.000978 -0.000978 -0.999999 0.000000
97.11910248 276.85501099 140.00000000 -0.901606 -0.164841 0.399917 0.000000
201.26899719 221.92399597 205.00000000 0.663050 -0.596244 -0.452611 0.000000
242.57800293 168.75000000 192.50000000 0.739433 0.542688 -0.398408 0.000000
165.23399353 271.58200073 192.50000000 -0.559669 -0.509248 0.653787 0.000000
68.55470276 210.93699646 212.50000000 0.606294 0.171707 -0.776482 0.000000
68.99410248 201.26899719 210.00000000 -0.001361 -0.817758 -0.575560 0.000000
102.83200073 131.83599854 137.50000000 0.720385 0.531595 -0.445480 0.000000
255.76199341 214.45300293 227.50000000 0.000978 0.000978 0.999999 0.000000
252.24600220 156.44500732 212.50000000 -0.148530 0.126435 -0.980792 0.000000
169.62899780 176.66000366 252.50000000 -0.450485 0.383153 -0.806385 0.000000
107.22699738 216.21099854 267.50000000 0.583862 -0.594016 -0.553399 0.000000
192.91999817 243.45700073 200.00000000 -0.963208 0.192642 0.187400 0.000000
153.80900574 278.61300659 237.50000000 -0.513511 -0.687469 -0.513511 0.000000
108.54499817 260.15600586 255.00000000 0.246121 -0.518557 -0.818855 0.000000
262.79299927 134.91200256 205.00000000 -0.708260 0.528278 -0.468285 0.000000
61.08399963 207.42199707 110.00000000 0.984777 0.163933 -0.057789 0.000000
141.50399780 210.05900574 267.50000000 -0.000978 -0.000978 -0.999999 0.000000
166.99200439 187.20700073 142.50000000 0.433370 0.309106 -0.846548 0.000000
83.93550110 163.47700500 140.00000000 0.859973 0.482352 -0.166684 0.000000
123.92600250 274.21899414 167.50000000 0.163939 -0.392028 0.905228 0.000000
142.38299561 153.80900574 117.50000000 -0.426677 -0.163439 0.889513 0.000000
227.63699341 171.38699341 227.50000000 0.000978 0.000978 -0.999999 0.000000
65.03900146 279.05300903 155.00000000 0.586827 -0.699233 0.408299 0.000000
92.28510284 284.76599121 237.50000000 0.296539 -0.209405 -0.931780 0.000000
189.84399414 208.30099487 152.50000000 0.000978 0.000978 0.999999 0.000000
160.83999634 219.72700500 142.50000000 -0.701680 -0.701680 0.123651 0.000000
90.08789825 276.85501099 240.00000000 0.742137 -0.302946 -0.597877 0.000000
93.16400146 279.49200439 242.50000000 0.670806 -0.664309 -0.329718 0.000000
64.16010284 213.57400513 212.50000000 0.616769 0.250809 -0.746117 0.000000
53.61330032 225.87899780 142.50000000 0.974586 0.220456 0.039754 0.000000
105.46900177 228.07600403 75.00000000 -0.701680 -0.701680 0.123651 0.000000
215.77099609 123.92600250 145.00000000 0.522589 0.482518 -0.702907 0.000000
159.08200073 256.20098877 250.00000000 -0.579178 -0.548784 -0.602818 0.000000
105.02899933 195.11700439 75.00000000 -0.571092 0.467257 0.674926 0.000000
162.59800720 177.10000610 255.00000000 -0.653486 -0.216789 -0.725230 0.000000
251.80700684 124.80500031 195.00000000 -0.885003 0.001319 -0.465583 0.000000
167.87100220 297.94900513 217.50000000 -0.816206 0.572349 -0.078895 0.000000
143.26199341 157.32400513 242.50000000 -0.300166 0.601937 -0.739981 0.000000
203.90600586 116.89499664 202.50000000 -0.221057 0.930691 -0.291457 0.000000
199.95100403 202.14799500 240.00000000 -0.558963 -0.381931 -0.735995 0.000000
66.79689789 278.61300659 182.50000000 0.912587 -0.235739 -0.334085 0.000000
188.08599854 225.87899780 197.50000000 -0.600043 0.600043 -0.529052 0.000000
89.64839935 154.68699646 182.50000000 0.592717 0.773177 -0.225575 0.000000
183.69099426 183.69099426 247.50000000 -0.000978 -0.000978 -0.999999 0.000000
190.28300476 232.91000366 215.00000000 -0.943055 0.210639 0.257447 0.000000
103.71099854 127.44100189 117.50000000 0.464282 0.662063 -0.588315 0.000000
166.99200439 230.27299500 162.50000000 -0.361743 -0.840934 0.402458 0.000000
166.99200439 203.02699280 182.50000000 -0.195070 -0.975352 0.103126 0.000000
128.32000732 196.87500000 92.50000000 -0.744887 -0.123404 0.655679 0.000000
61.08399963 216.21099854 190.00000000 0.943247 0.161972 -0.289916 0.000000
59.76559830 206.10299683 150.00000000 0.949253 0.270638 0.160229 0.000000
61.52339935 246.09399414 117.50000000 -0.001331 -0.493986 0.869469 0.000000
109.86299896 126.12300110 135.00000000 0.531157 0.750157 -0.393873 0.000000
60.64450073 174.90199280 87.50000000 0.980870 0.088509 -0.173380 0.000000
147.65600586 110.74199677 162.50000000 0.210356 0.955312 -0.207676 0.000000
86.13279724 152.05099487 127.50000000 0.686203 -0.686203 -0.241354 0.000000
116.89499664 290.03900146 242.50000000 0.045615 -0.855623 -0.515585 0.000000
112.50000000 202.14799500 267.50000000 -0.000978 -0.000978 -0.999999 0.000000
91.84570313 140.62500000 120.00000000 0.751123 -0.001378 0.660161 0.000000
259.27700806 143.26199341 207.50000000 -0.000978 -0.000978 -0.999999 0.000000
148.53500366 163.47700500 122.50000000 -0.699775 -0.110958 0.705693 0.000000
123.04699707 203.02699280 87.50000000 0.000978 0.000978 0.999999 0.000000
123.92600250 254.44299316 155.00000000 -0.578416 -0.378510 0.722610 0.000000
141.50399780 320.80099487 207.50000000 -0.287964 -0.866940 -0.406807 0.000000
224.12100220 211.81599426 212.50000000 0.244792 0.826750 -0.506519 0.000000
145.89799500 280.37100220 242.50000000 -0.380427 0.666982 -0.640632 0.000000
217.08999634 150.29299927 222.50000000 -0.291580 0.044179 -0.955526 0.000000
161.71899414 211.81599426 162.50000000 -0.136511 0.988244 -0.068839 0.000000
112.50000000 248.29100037 135.00000000 -0.535257 -0.679558 0.501698 0.000000
91.40619659 224.12100220 252.50000000 0.523985 -0.092804 -0.846657 0.000000
171.38699341 245.21499634 247.50000000 -0.459279 -0.001316 -0.888291 0.000000
126.56199646 199.51199341 267.50000000 -0.000978 -0.000978 -0.999999 0.000000
107.22699738 174.90199280 257.50000000 0.155730 0.742364 -0.651647 0.000000
161.27900696 228.51600647 260.00000000 -0.701867 -0.545155 -0.458464 0.000000
261.03500366 134.47300720 202.50000000 -0.373816 0.879299 -0.295118 0.000000
123.92600250 198.63299561 267.50000000 -0.000978 -0.000978 -0.999999 0.000000
225.00000000 194.23800659 227.50000000 0.000978 0.000978 -0.999999 0.000000
188.96499634 134.47300720 222.50000000 0.365731 0.916445 -0.162390 0.000000
240.82000732 162.59800720 187.50000000 -0.000978 -0.000978 -0.999999 0.000000
182.81199646 231.15199280 197.50000000 -0.911011 0.251363 0.326918 0.000000
195.99600220 115.13700104 127.50000000 0.070346 0.886908 -0.456558 0.000000
94.92189789 223.24200439 257.50000000 0.575718 -0.144301 -0.804815 0.000000
203.02699280 229.39399719 177.50000000 -0.898123 0.341790 -0.276687 0.000000
127.44100189 213.57400513 267.50000000 -0.000978 -0.000978 -0.999999 0.000000
193.35899353 189.40400696 245.00000000 -0.350869 0.544897 -0.761563 0.000000
75.58589935 176.66000366 147.50000000 0.821634 0.542248 0.175742 0.000000
184.13099670 235.54699707 195.00000000 -0.985975 0.141193 -0.088987 0.000000
122.16799927 234.66799927 127.50000000 -0.817758 0.001361 0.575560 0.000000
108.10500336 234.66799927 262.50000000 -0.000978 -0.000978 -0.999999 0.000000
149.41400146 315.52700806 212.50000000 -0.252968 -0.817878 -0.516800 0.000000
165.23399353 259.27700806 187.50000000 -0.016573 -0.355681 0.934460 0.000000
128.32000732 275.97698975 247.50000000 -0.000978 -0.000978 -0.999999 0.000000
61.52339935 256.64099121 127.50000000 0.903763 -0.357709 0.235066 0.000000
114.25800323 271.58200073 252.50000000 -0.000978 -0.000978 -0.999999 0.000000
85.25389862 221.48399353 32.50000000 -0.501936 0.676522 0.538868 0.000000
97.99800110 284.76599121 240.00000000 0.541853 -0.508301 -0.669347 0.000000
167.87100220 185.44900513 257.50000000 -0.575045 0.400389 -0.713451 0.000000
145.01899719 187.20700073 147.50000000 0.064718 -0.740662 0.668753 0.000000
54.49219894 233.78900146 157.50000000 0.925228 0.365472 0.101897 0.000000
190.72300720 233.78900146 237.50000000 -0.810515 -0.472933 -0.345544 0.000000
139.74600220 158.64300537 245.00000000 -0.230903 0.689567 -0.686426 0.000000
131.83599854 271.58200073 252.50000000 -0.793993 -0.538274 -0.282554 0.000000
126.12300110 311.13299561 165.00000000 -0.800328 0.404190 0.442838 0.000000
103.71099854 297.94900513 232.50000000 0.305781 -0.478273 -0.823257 0.000000
174.90199280 200.39100647 257.50000000 -0.427529 0.297881 -0.853514 0.000000
141.50399780 137.10899353 217.50000000 -0.874569 0.395602 0.280408 0.000000
119.53099823 175.78100586 257.50000000 0.360739 0.479382 -0.800038 0.000000
220.60499573 153.80900574 167.50000000 0.176321 0.224047 -0.958496 0.000000
113.37899780 296.63101196 160.00000000 -0.458859 -0.723904 0.515181 0.000000
79.10150146 183.69099426 237.50000000 0.785883 -0.091517 -0.611565 0.000000
144.14100647 235.54699707 267.50000000 -0.420359 -0.659615 -0.623062 0.000000
177.97799683 251.36700439 240.00000000 -0.368790 -0.588424 -0.719549 0.000000
143.26199341 137.98800659 222.50000000 -0.011413 0.937151 -0.348737 0.000000
177.53900146 113.37899780 197.50000000 0.000978 0.000978 -0.999999 0.000000
195.99600220 115.13700104 197.50000000 -0.133541 0.709718 -0.691713 0.000000
87.89060211 223.24200439 32.50000000 0.000978 0.000978 0.999999 0.000000
131.83599854 235.10699463 140.00000000 -0.426001 -0.772024 0.471702 0.000000
128.32000732 186.76800537 120.00000000 -0.465033 0.814205 -0.347584 0.000000
94.48239899 172.26600647 245.00000000 0.263451 0.949775 -0.168879 0.000000
78.22260284 294.43399048 197.50000000 0.831745 -0.421396 -0.361422 0.000000
143.26199341 163.91600037 250.00000000 -0.297411 0.558242 -0.774540 0.000000
116.01599884 145.89799500 227.50000000 0.480237 0.722848 -0.496854 0.000000
270.26400757 192.47999573 225.00000000 -0.436206 -0.870914 0.226348 0.000000
199.51199341 218.40800476 170.00000000 -0.254721 -0.889288 0.379847 0.000000
81.73829651 259.27700806 97.50000000 -0.368596 -0.839145 0.399966 0.000000
117.77300262 217.96899414 267.50000000 -0.000978 -0.000978 -0.999999 0.000000
88.76950073 224.12100220 32.50000000 -0.701420 0.609430 0.369601 0.000000
70.75189972 279.49200439 205.00000000 0.922541 -0.307514 -0.233138 0.000000
236.42599487 187.20700073 192.50000000 0.859467 0.344095 -0.378042 0.000000
238.18400574 137.10899353 177.50000000 0.850035 0.001347 -0.526725 0.000000
94.92189789 308.05700684 150.00000000 0.718858 -0.479792 0.503034 0.000000
171.38699341 214.45300293 142.50000000 -0.221209 -0.118916 0.967949 0.000000
160.39999390 137.98800659 130.00000000 -0.640973 0.098273 0.761247 0.000000
85.25389862 179.29699707 237.50000000 0.347459 0.870944 -0.347459 0.000000
101.95300293 308.49600220 147.50000000 -0.305400 -0.507945 0.805433 0.000000
82.61720276 226.75799561 247.50000000 0.539241 -0.069351 -0.839291 0.000000
129.19900513 133.59399414 102.50000000 0.000978 0.000978 0.999999 0.000000
102.83200073 261.91400146 252.50000000 -0.000978 -0.000978 -0.999999 0.000000
101.95300293 164.35499573 87.50000000 -0.378658 0.011552 0.925465 0.000000
81.29879761 212.69500732 245.00000000 0.652173 0.079888 -0.753849 0.000000
72.50969696 225.87899780 35.00000000 0.878052 -0.350311 0.326047 0.000000
132.71499634 152.92999268 107.50000000 -0.890150 -0.197324 0.410726 0.000000
207.42199707 118.65200043 207.50000000 0.829395 -0.162305 -0.534565 0.000000
177.53900146 211.81599426 147.50000000 -0.885003 0.001319 0.465583 0.000000
101.07399750 208.30099487 262.50000000 -0.000978 -0.000978 -0.999999 0.000000
187.20700073 152.92999268 232.50000000 -0.000978 -0.000978 -0.999999 0.000000
58.88669968 245.21499634 127.50000000 0.685225 -0.086201 0.723212 0.000000
193.35899353 151.17199707 227.50000000 -0.000978 -0.000978 -0.999999 0.000000
188.08599854 189.84399414 247.50000000 -0.224577 0.075686 -0.971513 0.000000
117.77300262 152.92999268 237.50000000 -0.134455 0.951833 -0.275566 0.000000
100.19499969 171.38699341 82.50000000 -0.777145 0.328484 0.536791 0.000000
137.98800659 319.04299927 212.50000000 -0.000978 -0.000978 -0.999999 0.000000
89.64839935 226.75799561 32.50000000 -0.879890 0.230766 0.415380 0.000000
90.52729797 226.75799561 32.50000000 -0.879890 0.230766 0.415380 0.000000
69.43360138 222.36300659 222.50000000 0.001316 0.459279 -0.888291 0.000000
129.19900513 146.77699280 232.50000000 0.031985 0.821872 -0.568774 0.000000
94.92189789 283.00799561 237.50000000 0.410302 -0.555309 -0.723384 0.000000
111.62100220 262.35299683 255.00000000 0.481214 -0.441797 -0.757132 0.000000
159.08200073 145.01899719 232.50000000 0.001299 0.419470 -0.907768 0.000000
217.08999634 134.47300720 222.50000000 -0.464468 -0.231478 -0.854803 0.000000
92.28510284 151.61099243 150.00000000 0.894013 0.446332 0.039105 0.000000
154.68699646 188.52499390 135.00000000 0.493986 -0.001331 -0.869469 0.000000
74.70700073 152.05099487 77.50000000 0.883935 0.441244 0.154797 0.000000
65.91799927 173.14399719 67.50000000 0.600043 -0.600043 0.529052 0.000000
198.63299561 123.04699707 132.50000000 0.193264 0.966321 0.169917 0.000000
70.75189972 171.38699341 180.00000000 0.909199 0.415896 0.019680 0.000000
181.05499268 227.63699341 177.50000000 -0.058803 -0.752960 0.655434 0.000000
217.08999634 113.81800079 180.00000000 0.001131 0.984919 -0.173011 0.000000
111.18199921 253.12500000 140.00000000 -0.630540 0.001374 0.776155 0.000000
68.11519623 191.60200500 125.00000000 0.850053 0.485959 -0.203110 0.000000
229.39399719 150.29299927 172.50000000 -0.000978 -0.000978 -0.999999 0.000000
242.57800293 211.81599426 217.50000000 0.542400 0.465630 -0.699279 0.000000
99.31639862 207.42199707 262.50000000 -0.000978 -0.000978 -0.999999 0.000000
86.57219696 250.48800659 90.00000000 -0.693456 -0.671240 0.261831 0.000000
90.96679688 229.39399719 35.00000000 -0.954996 0.018580 0.296036 0.000000
154.68699646 210.05900574 162.50000000 0.270806 0.809289 -0.521263 0.000000
260.15600586 167.87100220 212.50000000 0.967036 -0.235088 0.097847 0.000000
123.92600250 323.87701416 205.00000000 0.164415 -0.902140 -0.398886 0.000000
123.92600250 302.34399414 172.50000000 -0.892288 -0.203658 0.402921 0.000000
99.31639862 165.23399353 87.50000000 -0.378658 0.011552 0.925465 0.000000
112.50000000 218.84800720 267.50000000 -0.000978 -0.000978 -0.999999 0.000000
172.26600647 177.10000610 250.00000000 -0.571106 0.437904 -0.694319 0.000000
74.70700073 231.15199280 32.50000000 0.644680 -0.584083 0.493188 0.000000
85.25389862 306.73800659 182.50000000 0.701680 -0.701680 0.123651 0.000000
161.27900696 299.70700073 205.00000000 -0.763014 -0.198846 0.615036 0.000000
53.17380142 226.75799561 175.00000000 0.982581 -0.149391 -0.110525 0.000000
150.29299927 181.49400330 260.00000000 0.049328 0.587707 -0.807569 0.000000
176.66000366 248.29100037 180.00000000 -0.254781 -0.855880 0.450062 0.000000
74.70700073 157.76400757 70.00000000 0.664397 0.546656 0.509651 0.000000
170.50799561 269.82400513 197.50000000 -0.401687 -0.686009 0.606663 0.000000
62.40230179 255.76199341 122.50000000 0.870319 -0.435909 0.229189 0.000000
122.16799927 281.25000000 172.50000000 -0.000978 -0.000978 0.999999 0.000000
113.37899780 304.10101318 232.50000000 -0.000978 -0.000978 -0.999999 0.000000
164.35499573 170.50799561 137.50000000 0.669836 -0.268889 -0.692111 0.000000
94.04290009 189.84399414 257.50000000 0.680998 -0.441234 -0.584426 0.000000
193.35899353 194.23800659 172.50000000 -0.686203 0.686203 -0.241354 0.000000
90.52729797 232.03100586 32.50000000 -0.801181 -0.193810 0.566168 0.000000
184.13099670 237.30499268 190.00000000 -0.990230 -0.131345 -0.046827 0.000000
111.62100220 163.03700256 110.00000000 -0.701680 -0.701680 0.123651 0.000000
83.49610138 293.99398804 215.00000000 0.733316 -0.343081 -0.586978 0.000000
148.53500366 196.87500000 132.50000000 -0.420566 0.842695 -0.336140 0.000000
90.52729797 155.56599426 187.50000000 0.482343 0.844481 -0.232803 0.000000
96.67970276 129.19900513 132.50000000 0.796356 0.538758 -0.274876 0.000000
204.78500366 114.25800323 182.50000000 0.001131 0.984919 -0.173011 0.000000
201.26899719 115.13700104 187.50000000 -0.001131 0.984919 -0.173011 0.000000
64.59960175 196.87500000 170.00000000 0.999999 -0.000978 -0.000978 0.000000
152.05099487 234.22799683 155.00000000 -0.475611 -0.542364 0.692557 0.000000
203.90600586 116.45500183 130.00000000 0.420468 0.810559 -0.407678 0.000000
128.32000732 203.02699280 92.50000000 0.000978 0.000978 0.999999 0.000000
145.89799500 321.67999268 192.50000000 -0.752280 -0.629208 0.195377 0.000000
125.68399811 275.09799194 247.50000000 -0.000978 -0.000978 -0.999999 0.000000
255.76199341 161.27900696 210.00000000 0.798624 -0.457963 0.390474 0.000000
199.95100403 132.71499634 145.00000000 0.188644 0.753044 -0.630348 0.000000
79.10150146 233.78900146 32.50000000 0.504863 -0.771093 0.387981 0.000000
163.47700500 275.97698975 237.50000000 -0.139731 -0.695648 -0.704663 0.000000
170.50799561 196.87500000 257.50000000 -0.000978 -0.000978 -0.999999 0.000000
78.66210175 176.66000366 220.00000000 -0.000978 -0.000978 -0.999999 0.000000
121.28900146 223.24200439 267.50000000 0.000978 0.000978 -0.999999 0.000000
103.71099854 245.21499634 257.50000000 0.356778 -0.142989 -0.923181 0.000000
86.13279724 251.36700439 242.50000000 0.097661 0.333118 -0.937814 0.000000
240.82000732 200.83000183 210.00000000 0.699061 0.515537 -0.495516 0.000000
54.49219894 236.42599487 137.50000000 0.980338 -0.046456 0.191779 0.000000
152.92999268 173.14399719 122.50000000 0.000978 0.000978 -0.999999 0.000000
159.08200073 295.31201172 202.50000000 -0.371138 -0.368032 0.852531 0.000000
150.29299927 288.28100586 192.50000000 0.000978 0.000978 0.999999 0.000000
135.35200500 239.06199646 267.50000000 -0.000978 -0.000978 -0.999999 0.000000
204.78500366 239.06199646 202.50000000 -0.000978 -0.000978 -0.999999 0.000000
135.35200500 188.96499634 267.50000000 -0.166082 0.732895 -0.659758 0.000000
157.32400513 134.47300720 217.50000000 0.136782 0.704956 -0.695937 0.000000
87.89060211 234.66799927 32.50000000 -0.419207 -0.747996 0.514556 0.000000
71.19139862 153.80900574 97.50000000 0.663898 0.735833 -0.133379 0.000000
104.58999634 290.03900146 242.50000000 0.000978 0.000978 -0.999999 0.000000
90.52729797 234.22799683 35.00000000 -0.879022 -0.281951 0.384478 0.000000
60.20510101 200.39100647 95.00000000 0.984919 0.001131 -0.173011 0.000000
116.89499664 290.03900146 167.50000000 -0.730780 0.364572 0.577103 0.000000
70.31250000 243.01800537 75.00000000 0.758619 -0.615893 0.212538 0.000000
140.62500000 249.60899353 162.50000000 -0.250675 -0.838145 0.484433 0.000000
180.17599487 239.94099426 242.50000000 0.446377 -0.891371 0.078772 0.000000
246.09399414 178.41799927 222.50000000 -0.000978 -0.000978 -0.999999 0.000000
160.39999390 241.69900513 170.00000000 -0.642635 -0.336773 0.688189 0.000000
122.16799927 320.36099243 210.00000000 0.490076 -0.784446 -0.380092 0.000000
157.76400757 311.13299561 210.00000000 -0.532430 -0.768706 -0.354414 0.000000
152.05099487 166.55299377 250.00000000 -0.132261 0.792079 -0.595917 0.000000
232.03100586 122.60700226 205.00000000 -0.166987 0.852667 -0.495049 0.000000
124.80500031 181.93400574 132.50000000 -0.795266 0.459738 0.395213 0.000000
240.82000732 186.32800293 202.50000000 0.766811 0.554612 -0.323121 0.000000
210.05900574 226.75799561 162.50000000 0.000000 0.000000 0.000000 0.000000
101.95300293 129.19900513 117.50000000 0.517218 0.735342 -0.437900 0.000000
130.95700073 272.46099854 172.50000000 -0.769576 -0.401872 0.496238 0.000000
182.81199646 168.75000000 147.50000000 0.375377 -0.188408 -0.907521 0.000000
194.23800659 226.75799561 242.50000000 0.016514 -0.344245 -0.938735 0.000000
179.29699707 108.10500336 142.50000000 0.177681 0.974096 -0.139877 0.000000
243.45700073 114.25800323 172.50000000 -0.109998 0.992248 -0.057834 0.000000
169.62899780 226.75799561 157.50000000 -0.000978 -0.000978 0.999999 0.000000
79.54100037 172.26600647 205.00000000 0.664051 0.597144 -0.449949 0.000000
68.55470276 181.93400574 112.50000000 0.847815 0.232883 -0.476420 0.000000
82.61720276 236.42599487 32.50000000 0.092066 -0.743832 0.661996 0.000000
177.53900146 197.75399780 187.50000000 -0.584958 -0.356841 0.728346 0.000000
239.94099426 202.14799500 227.50000000 0.000978 0.000978 -0.999999 0.000000
53.61330032 251.36700439 162.50000000 -0.187763 -0.596873 -0.780056 0.000000
163.47700500 299.70700073 207.50000000 -0.177281 -0.396359 0.900817 0.000000
94.04290009 205.66400146 257.50000000 0.404847 -0.257357 -0.877420 0.000000
159.96099854 164.35499573 242.50000000 -0.254725 0.631276 -0.732534 0.000000
217.08999634 217.08999634 167.50000000 0.593215 0.636908 -0.492386 0.000000
89.20899963 236.42599487 35.00000000 -0.690814 -0.543619 0.476712 0.000000
109.86299896 141.50399780 202.50000000 0.549962 0.822719 -0.143791 0.000000
78.22260284 145.01899719 92.50000000 0.069170 0.845571 0.529364 0.000000
220.60499573 193.35899353 232.50000000 -0.555949 -0.078605 -0.827492 0.000000
123.92600250 124.36499786 180.00000000 0.701680 0.701680 -0.123651 0.000000
87.89060211 239.06199646 247.50000000 0.662761 -0.662761 -0.348563 0.000000
160.39999390 233.78900146 160.00000000 -0.403130 -0.658612 0.635387 0.000000
112.50000000 246.09399414 262.50000000 0.153521 -0.146033 -0.977295 0.000000
135.35200500 187.20700073 267.50000000 -0.166082 0.732895 -0.659758 0.000000
216.21099854 201.26899719 232.50000000 -0.000978 -0.000978 -0.999999 0.000000
120.41000366 115.13700104 127.50000000 0.381278 0.886657 0.261661 0.000000
199.07200623 222.36300659 215.00000000 -0.121213 -0.975949 0.181194 0.000000
133.59399414 239.94099426 267.50000000 -0.000978 -0.000978 -0.999999 0.000000
133.59399414 214.45300293 267.50000000 -0.000978 -0.000978 -0.999999 0.000000
109.86299896 301.46499634 152.50000000 -0.404514 0.398168 0.823305 0.000000
70.31250000 154.68699646 92.50000000 0.984919 0.001131 -0.173011 0.000000
220.60499573 160.83999634 167.50000000 -0.000978 -0.000978 -0.999999 0.000000
212.69500732 218.84800720 162.50000000 0.000978 0.000978 0.999999 0.000000
109.86299896 264.55099487 252.50000000 0.153349 -0.199740 -0.967775 0.000000
224.12100220 213.13499451 180.00000000 0.950242 0.188422 -0.248066 0.000000
178.41799927 261.03500366 192.50000000 -0.240832 -0.684719 0.687867 0.000000
105.46900177 187.20700073 262.50000000 -0.000978 -0.000978 -0.999999 0.000000
172.26600647 238.18400574 252.50000000 -0.596024 -0.649751 -0.471783 0.000000
212.69500732 198.19299316 165.00000000 -0.235780 0.763553 0.601161 0.000000
146.77699280 122.16799927 117.50000000 -0.768561 0.256187 0.586244 0.000000
202.14799500 116.45500183 130.00000000 0.482519 0.796717 -0.363893 0.000000
64.59960175 249.60899353 205.00000000 0.885003 0.001319 -0.465583 0.000000
223.24200439 201.26899719 177.50000000 0.601937 0.300166 0.739981 0.000000
163.47700500 152.92999268 132.50000000 0.344747 -0.217811 -0.913076 0.000000
72.94920349 223.24200439 227.50000000 0.885003 0.001319 -0.465583 0.000000
166.11300659 222.36300659 257.50000000 -0.349380 -0.874212 -0.337174 0.000000
55.37110138 232.03100586 157.50000000 0.925228 0.365472 0.101897 0.000000
74.70700073 274.65798950 220.00000000 0.881289 -0.114951 -0.458384 0.000000
181.93400574 203.90600586 252.50000000 -0.000978 -0.000978 -0.999999 0.000000
141.50399780 302.34399414 227.50000000 -0.290105 -0.697213 -0.655540 0.000000
239.94099426 173.58399963 225.00000000 -0.468061 0.188710 -0.863312 0.000000
147.65600586 239.94099426 157.50000000 0.000978 0.000978 0.999999 0.000000
54.49219894 250.48800659 137.50000000 0.230077 -0.492152 0.839554 0.000000
150.73199463 166.11300659 250.00000000 -0.046802 0.767263 -0.639622 0.000000
89.20899963 145.01899719 85.00000000 -0.534077 0.534077 0.655381 0.000000
234.66799927 135.35200500 217.50000000 -0.000978 -0.000978 -0.999999 0.000000
199.51199341 201.26899719 162.50000000 0.000978 0.000978 0.999999 0.000000
116.89499664 249.60899353 262.50000000 0.067286 -0.154639 -0.985677 0.000000
205.66400146 188.08599854 237.50000000 -0.000978 -0.000978 -0.999999 0.000000
98.43750000 207.42199707 62.50000000 0.000978 0.000978 0.999999 0.000000
112.93900299 207.42199707 75.00000000 -0.727789 0.335529 0.598116 0.000000
130.07800293 319.92199707 167.50000000 -0.505909 -0.203874 0.838148 0.000000
79.98040009 254.00399780 87.50000000 -0.201494 -0.937990 0.282092 0.000000
204.78500366 116.89499664 202.50000000 -0.205100 0.949438 -0.237699 0.000000
128.32000732 166.99200439 127.50000000 0.000978 0.000978 0.999999 0.000000
230.27299500 152.92999268 222.50000000 -0.911328 0.266837 -0.313497 0.000000
153.80900574 184.57000732 262.50000000 -0.572234 0.717354 -0.397431 0.000000
82.61720276 158.64300537 185.00000000 0.187352 0.936760 -0.295600 0.000000
184.57000732 261.03500366 202.50000000 0.000978 0.000978 0.999999 0.000000
79.98040009 174.02299500 207.50000000 0.664051 0.597144 -0.449949 0.000000
213.57400513 165.23399353 227.50000000 -0.000978 -0.000978 -0.999999 0.000000
135.79100037 249.60899353 160.00000000 -0.343561 -0.772610 0.533891 0.000000
160.83999634 218.84800720 137.50000000 -0.765454 -0.419449 0.487998 0.000000
159.08200073 193.35899353 262.50000000 -0.000978 -0.000978 -0.999999 0.000000
151.17199707 260.59600830 180.00000000 -0.375533 -0.531599 0.759195 0.000000
105.46900177 123.92600250 127.50000000 0.512649 0.793728 0.327393 0.000000
214.01400757 223.24200439 200.00000000 -0.000978 -0.000978 -0.999999 0.000000
191.60200500 179.29699707 157.50000000 -0.962488 -0.240297 -0.125994 0.000000
148.53500366 312.89099121 192.50000000 -0.825563 0.443563 0.348852 0.000000
131.83599854 154.68699646 242.50000000 0.000978 0.000978 -0.999999 0.000000
61.52339935 246.97300720 197.50000000 0.781769 -0.293362 -0.550251 0.000000
204.78500366 126.12300110 140.00000000 0.379254 0.756880 -0.532258 0.000000
64.16010284 271.58200073 142.50000000 0.783855 -0.496172 0.373341 0.000000
73.82810211 204.78500366 37.50000000 -0.351923 0.633461 0.689114 0.000000
121.28900146 203.02699280 87.50000000 0.000978 0.000978 0.999999 0.000000
67.67579651 249.60899353 212.50000000 0.953341 -0.097812 -0.285611 0.000000
81.73829651 174.02299500 232.50000000 0.561194 0.474083 -0.678459 0.000000
181.05499268 209.17999268 162.50000000 0.001247 0.943838 -0.330406 0.000000
227.63699341 155.56599426 167.50000000 -0.000978 -0.000978 -0.999999 0.000000
232.03100586 186.32800293 227.50000000 -0.000978 -0.000978 -0.999999 0.000000
97.11910248 287.40200806 140.00000000 -0.751123 -0.001378 0.660161 0.000000
142.38299561 271.58200073 247.50000000 -0.000978 -0.000978 -0.999999 0.000000
81.73829651 282.12899780 227.50000000 0.676751 -0.522257 -0.518898 0.000000
87.89060211 259.71701050 110.00000000 -0.775179 -0.516247 0.364124 0.000000
84.37500000 209.17999268 247.50000000 0.544570 0.205930 -0.813041 0.000000
118.65200043 283.00799561 247.50000000 -0.000978 -0.000978 -0.999999 0.000000
137.10899353 248.72999573 262.50000000 -0.306812 -0.389239 -0.868538 0.000000
111.62100220 127.88099670 145.00000000 0.303714 0.914048 0.268838 0.000000
253.12500000 157.32400513 212.50000000 -0.295928 0.127209 -0.946702 0.000000
62.40230179 227.63699341 82.50000000 0.951666 -0.280058 0.126092 0.000000
53.17380142 228.51600647 140.00000000 0.600043 0.600043 0.529052 0.000000
222.36300659 141.50399780 222.50000000 -0.000978 -0.000978 -0.999999 0.000000
84.37500000 169.18899536 70.00000000 -0.162626 0.648985 0.743217 0.000000
78.22260284 205.66400146 37.50000000 -0.465990 0.802272 0.373112 0.000000
61.52339935 205.22500610 130.00000000 0.935064 0.350812 0.050861 0.000000
106.34799957 317.72500610 200.00000000 -0.000978 -0.000978 -0.999999 0.000000
135.35200500 129.19900513 202.50000000 -0.001319 0.885003 -0.465583 0.000000
96.24019623 283.00799561 240.00000000 0.344726 -0.638804 -0.687818 0.000000
215.33200073 148.53500366 162.50000000 0.300351 0.150855 -0.941824 0.000000
185.44900513 191.60200500 187.50000000 -0.750666 0.229413 0.619573 0.000000
182.81199646 245.21499634 182.50000000 -0.538546 0.679474 0.498281 0.000000
108.98400116 270.70300293 152.50000000 -0.701680 -0.701680 0.123651 0.000000
89.64839935 153.80900574 177.50000000 0.602730 0.785194 -0.142083 0.000000
130.07800293 219.72700500 267.50000000 -0.000978 -0.000978 -0.999999 0.000000
86.13279724 301.46499634 147.50000000 0.140641 -0.949659 0.279942 0.000000
259.27700806 130.51800537 195.00000000 -0.812411 0.579889 0.060966 0.000000
76.02539825 183.69099426 230.00000000 0.818159 -0.023534 -0.574511 0.000000
203.90600586 174.90199280 157.50000000 -0.000978 -0.000978 -0.999999 0.000000
181.93400574 130.51800537 135.00000000 0.098906 0.427663 -0.898511 0.000000
89.20899963 308.49600220 155.00000000 0.409782 -0.738924 0.534856 0.000000
148.53500366 134.47300720 217.50000000 -0.984919 0.001131 0.173011 0.000000
179.29699707 189.84399414 177.50000000 -0.710643 -0.268677 0.650230 0.000000
80.41989899 206.54299927 40.00000000 -0.832803 0.240792 0.498455 0.000000
265.42999268 190.72300720 222.50000000 0.464616 -0.837551 -0.287471 0.000000
160.83999634 141.50399780 227.50000000 -0.419524 0.518236 -0.745272 0.000000
72.94920349 156.44500732 72.50000000 0.408613 0.770016 0.490010 0.000000
213.57400513 168.75000000 162.50000000 -0.000978 -0.000978 -0.999999 0.000000
87.89060211 155.56599426 137.50000000 0.943879 0.269875 -0.190420 0.000000
109.86299896 159.52099609 240.00000000 0.381147 0.776890 -0.501167 0.000000
118.65200043 217.96899414 267.50000000 -0.000978 -0.000978 -0.999999 0.000000
123.04699707 145.45899963 230.00000000 0.162305 0.829395 -0.534565 0.000000
102.83200073 180.17599487 262.50000000 -0.000978 -0.000978 -0.999999 0.000000
130.07800293 311.13299561 227.50000000 0.861722 -0.147266 -0.485539 0.000000
73.82810211 279.49200439 132.50000000 0.655654 -0.595287 0.464491 0.000000
155.56599426 204.78500366 262.50000000 -0.676903 -0.337636 -0.654068 0.000000
130.07800293 308.49600220 172.50000000 -0.600043 0.600043 0.529052 0.000000
226.75799561 178.41799927 172.50000000 0.602470 0.369362 -0.707533 0.000000
98.43750000 208.30099487 62.50000000 0.000978 0.000978 0.999999 0.000000
163.91600037 283.00799561 200.00000000 -0.720385 -0.445480 0.531595 0.000000
108.98400116 239.06199646 262.50000000 -0.000978 -0.000978 -0.999999 0.000000
129.19900513 134.47300720 207.50000000 0.115380 0.989468 -0.087409 0.000000
111.62100220 268.06600952 152.50000000 -0.636664 -0.472038 0.609786 0.000000
203.02699280 145.89799500 157.50000000 0.515930 -0.133002 -0.846243 0.000000
116.89499664 130.95700073 182.50000000 0.662761 0.662761 -0.348563 0.000000
70.31250000 290.03900146 167.50000000 0.000978 0.000978 0.999999 0.000000
259.27700806 173.14399719 212.50000000 -0.000978 -0.000978 -0.999999 0.000000
167.87100220 299.70700073 217.50000000 -0.376603 -0.330488 -0.865418 0.000000
146.77699280 145.89799500 117.50000000 -0.809879 -0.049297 0.584522 0.000000
61.52339935 261.47500610 135.00000000 0.797948 -0.480053 0.364455 0.000000
124.80500031 277.73400879 172.50000000 -0.507733 -0.422289 0.750919 0.000000
74.70700073 166.11300659 172.50000000 0.701680 0.701680 -0.123651 0.000000
146.77699280 215.33200073 267.50000000 -0.000978 -0.000978 -0.999999 0.000000
253.12500000 127.88099670 200.00000000 -0.760737 0.622978 -0.182148 0.000000
79.10150146 208.30099487 37.50000000 -0.837491 0.313474 0.447597 0.000000
246.09399414 184.57000732 227.50000000 -0.031016 0.959022 -0.281628 0.000000
200.39100647 158.20300293 157.50000000 -0.000978 -0.000978 -0.999999 0.000000
114.25800323 172.26600647 252.50000000 0.354468 0.619093 -0.700768 0.000000
204.78500366 107.66600037 135.00000000 -0.029256 0.809413 0.586511 0.000000
118.65200043 186.32800293 92.50000000 -0.000978 -0.000978 0.999999 0.000000
206.54299927 219.72700500 217.50000000 0.230903 -0.689567 0.686426 0.000000
115.13700104 127.44100189 152.50000000 0.619945 0.650023 -0.439476 0.000000
234.66799927 214.45300293 217.50000000 0.001319 0.885003 -0.465583 0.000000
108.98400116 301.46499634 152.50000000 -0.404514 0.398168 0.823305 0.000000
207.42199707 204.78500366 162.50000000 -0.554730 0.406583 0.725923 0.000000
245.21499634 137.98800659 212.50000000 -0.159107 0.149085 -0.975940 0.000000
142.38299561 190.72300720 122.50000000 -0.404957 0.808313 -0.427365 0.000000
116.89499664 234.66799927 122.50000000 -0.585999 -0.596132 0.548846 0.000000
104.15000153 239.94099426 110.00000000 -0.519473 -0.817202 0.249657 0.000000
211.81599426 165.23399353 227.50000000 -0.784474 -0.132482 -0.605846 0.000000
156.44500732 306.73800659 217.50000000 -0.565574 -0.659557 -0.495087 0.000000
179.29699707 252.24600220 237.50000000 -0.222036 -0.295577 -0.929158 0.000000
161.71899414 225.00000000 262.50000000 0.599055 -0.100571 -0.794367 0.000000
208.74000549 193.35899353 235.00000000 -0.722169 0.026747 -0.691199 0.000000
229.39399719 147.65600586 172.50000000 -0.000978 -0.000978 -0.999999 0.000000
146.77699280 283.00799561 192.50000000 -0.132746 -0.253664 0.958140 0.000000
133.59399414 133.59399414 102.50000000 0.000978 0.000978 0.999999 0.000000
162.59800720 191.60200500 147.50000000 0.260628 0.834317 -0.485786 0.000000
130.95700073 161.71899414 247.50000000 0.174911 0.768089 -0.615992 0.000000
135.79100037 254.00399780 165.00000000 -0.384079 -0.664309 0.641231 0.000000
152.92999268 312.89099121 212.50000000 -0.454939 -0.771276 -0.445155 0.000000
95.36129761 235.54699707 70.00000000 -0.701680 -0.701680 0.123651 0.000000
156.88499451 172.26600647 130.00000000 0.825890 -0.006826 -0.563790 0.000000
181.93400574 278.61300659 207.50000000 -0.908254 -0.221631 0.354900 0.000000
70.31250000 159.96099854 102.50000000 0.832027 0.415224 -0.367860 0.000000
223.24200439 116.89499664 197.50000000 -0.026698 0.942066 -0.334363 0.000000
98.43750000 259.27700806 127.50000000 -0.784216 -0.392916 0.480231 0.000000
155.56599426 193.35899353 262.50000000 -0.000978 -0.000978 -0.999999 0.000000
117.77300262 244.33599854 262.50000000 -0.000978 -0.000978 -0.999999 0.000000
221.48399353 182.81199646 227.50000000 -0.000978 -0.000978 -0.999999 0.000000
186.32800293 165.23399353 152.50000000 -0.000978 -0.000978 -0.999999 0.000000
136.22999573 137.10899353 107.50000000 -0.589047 0.049440 0.806585 0.000000
218.84800720 214.45300293 222.50000000 -0.020508 -0.968720 -0.247307 0.000000
218.84800720 217.08999634 167.50000000 0.593215 0.636908 -0.492386 0.000000
76.02539825 207.42199707 235.00000000 0.948730 0.126764 -0.289556 0.000000
180.17599487 193.79899597 185.00000000 -0.778674 -0.578934 0.241873 0.000000
114.25800323 262.79299927 257.50000000 -0.322589 -0.624103 -0.711640 0.000000
66.79689789 267.18701172 202.50000000 0.975866 -0.164106 -0.144062 0.000000
105.02899933 154.68699646 230.00000000 0.460879 0.741701 -0.487309 0.000000
253.12500000 187.20700073 212.50000000 0.555756 0.429674 -0.711699 0.000000
196.87500000 131.83599854 142.50000000 0.176214 0.718647 -0.672678 0.000000
191.60200500 255.76199341 202.50000000 0.000978 0.000978 0.999999 0.000000
188.52499390 231.15199280 210.00000000 -0.923326 0.170049 0.344315 0.000000
177.10000610 289.16000366 215.00000000 -0.757855 -0.564771 -0.326634 0.000000
64.16010284 196.87500000 197.50000000 0.626986 0.778473 -0.029456 0.000000
125.68399811 186.32800293 122.50000000 -0.495091 0.803925 -0.329530 0.000000
54.49219894 271.58200073 157.50000000 0.947226 0.315742 -0.055416 0.000000
259.27700806 151.17199707 197.50000000 -0.001381 -0.688930 -0.724826 0.000000
59.32619858 209.17999268 95.00000000 0.984919 0.001131 -0.173011 0.000000
155.56599426 186.32800293 262.50000000 -0.000978 -0.000978 -0.999999 0.000000
122.16799927 222.36300659 102.50000000 -0.662761 -0.662761 0.348563 0.000000
79.10150146 297.51000977 195.00000000 0.829301 -0.495728 -0.257902 0.000000
108.10500336 167.87100220 97.50000000 -0.996839 0.015992 0.077828 0.000000
118.21299744 132.71499634 190.00000000 0.857066 0.514240 -0.031540 0.000000
214.01400757 226.75799561 215.00000000 0.606755 -0.676574 -0.417248 0.000000
249.60899353 156.44500732 212.50000000 -0.084209 0.104973 -0.990903 0.000000
108.98400116 214.45300293 267.50000000 -0.000978 -0.000978 -0.999999 0.000000
179.29699707 185.44900513 177.50000000 -0.810228 0.078872 0.580783 0.000000
105.46900177 227.63699341 72.50000000 -0.549962 -0.822719 0.143791 0.000000
67.23629761 261.03500366 115.00000000 0.824193 -0.414478 0.385894 0.000000
130.95700073 192.47999573 127.50000000 -0.167508 0.934445 -0.314250 0.000000
106.34799957 305.85900879 147.50000000 -0.305400 -0.507945 0.805433 0.000000
119.97100067 123.92600250 155.00000000 0.716040 0.594789 -0.365394 0.000000
165.67399597 296.19100952 220.00000000 -0.521681 -0.511616 -0.682714 0.000000
102.83200073 228.51600647 67.50000000 -0.590543 -0.787896 0.174582 0.000000
109.86299896 299.70700073 232.50000000 0.691519 -0.500639 -0.520732 0.000000
87.89060211 182.81199646 67.50000000 0.000978 0.000978 0.999999 0.000000
259.27700806 150.29299927 207.50000000 -0.176913 0.093947 -0.979732 0.000000
181.93400574 270.70300293 202.50000000 -0.531989 -0.120973 0.838065 0.000000
157.32400513 275.97698975 237.50000000 0.000978 0.000978 -0.999999 0.000000
76.46479797 165.23399353 192.50000000 0.747519 0.656466 0.101334 0.000000
185.44900513 152.92999268 232.50000000 -0.000978 -0.000978 -0.999999 0.000000
128.32000732 170.50799561 252.50000000 -0.000978 -0.000978 -0.999999 0.000000
141.50399780 298.82800293 232.50000000 -0.000978 -0.000978 -0.999999 0.000000
130.51800537 117.77300262 175.00000000 0.392190 0.868312 -0.303680 0.000000
249.60899353 204.78500366 227.50000000 -0.000978 -0.000978 -0.999999 0.000000
137.98800659 242.57800293 157.50000000 0.000978 0.000978 0.999999 0.000000
239.94099426 137.10899353 177.50000000 0.669876 0.046934 -0.740988 0.000000
110.74199677 268.94500732 152.50000000 -0.707012 -0.467460 0.530675 0.000000
66.79689789 203.02699280 207.50000000 0.716047 0.386830 -0.581068 0.000000
65.03900146 172.26600647 67.50000000 0.600043 -0.600043 0.529052 0.000000
114.69699860 220.60499573 85.00000000 -0.816222 -0.453457 0.357992 0.000000
88.76950073 217.96899414 252.50000000 -0.000978 -0.000978 -0.999999 0.000000
54.05270004 233.78900146 185.00000000 0.918283 0.228493 -0.323339 0.000000
97.55860138 268.94500732 247.50000000 -0.000978 -0.000978 -0.999999 0.000000
110.74199677 210.05900574 267.50000000 -0.000978 -0.000978 -0.999999 0.000000
216.21099854 188.08599854 167.50000000 -0.000978 -0.000978 -0.999999 0.000000
189.84399414 171.38699341 152.50000000 -0.000978 -0.000978 -0.999999 0.000000
102.83200073 223.24200439 62.50000000 -0.879744 -0.208477 0.427304 0.000000
134.47300720 192.47999573 132.50000000 0.163520 0.979891 -0.114341 0.000000
119.53099823 147.65600586 232.50000000 0.343952 0.689533 -0.637370 0.000000
107.22699738 278.61300659 247.50000000 0.000978 0.000978 -0.999999 0.000000
161.71899414 253.12500000 182.50000000 -0.629596 -0.481851 0.609449 0.000000
107.22699738 170.50799561 252.50000000 0.326146 0.712329 -0.621463 0.000000
68.55470276 180.17599487 112.50000000 0.984919 -0.001131 -0.173011 0.000000
166.11300659 182.81199646 257.50000000 -0.829845 0.436180 -0.348000 0.000000
174.90199280 275.97698975 227.50000000 -0.670102 -0.606916 -0.427336 0.000000
94.04290009 166.99200439 82.50000000 -0.370831 0.926414 0.065128 0.000000
140.62500000 251.36700439 257.50000000 -0.000978 -0.000978 -0.999999 0.000000
127.44100189 316.40600586 162.50000000 -0.670771 0.384004 0.634513 0.000000
116.01599884 260.15600586 257.50000000 0.269645 0.091602 -0.958593 0.000000
181.93400574 181.93400574 162.50000000 -0.574296 0.687491 -0.444455 0.000000
91.40619659 242.13900757 80.00000000 -0.736914 -0.636781 0.226863 0.000000
166.11300659 297.07000732 217.50000000 -0.804420 0.390168 -0.447970 0.000000
55.37110138 221.48399353 137.50000000 0.964884 0.214274 0.151940 0.000000
190.72300720 129.19900513 217.50000000 -0.243848 0.166563 -0.955403 0.000000
109.42400360 317.28500366 160.00000000 0.168741 -0.524143 0.834746 0.000000
125.68399811 297.94900513 172.50000000 -0.669876 0.046934 0.740988 0.000000
234.66799927 145.01899719 217.50000000 -0.447676 -0.275375 -0.850738 0.000000
106.34799957 309.81399536 150.00000000 -0.321942 -0.536570 0.780029 0.000000
229.39399719 208.74000549 210.00000000 0.395581 0.263219 -0.879904 0.000000
194.23800659 185.44900513 162.50000000 0.244417 0.319622 -0.915479 0.000000
120.41000366 182.81199646 122.50000000 -0.935568 0.312775 0.163966 0.000000
190.72300720 182.81199646 242.50000000 -0.559030 0.602942 -0.569163 0.000000
190.72300720 232.47099304 225.00000000 -0.790112 -0.282295 0.544089 0.000000
227.63699341 129.63900757 160.00000000 0.201991 0.769414 -0.605972 0.000000
117.77300262 163.47700500 247.50000000 0.287964 0.866940 -0.406807 0.000000
222.36300659 161.71899414 167.50000000 -0.000978 -0.000978 -0.999999 0.000000
92.28510284 188.52499390 70.00000000 -0.790005 0.073388 0.608692 0.000000
94.92189789 183.69099426 262.50000000 0.000978 0.000978 -0.999999 0.000000
214.45300293 116.01599884 137.50000000 0.790629 0.221252 -0.570924 0.000000
187.20700073 241.69900513 197.50000000 0.000978 0.000978 0.999999 0.000000
128.32000732 288.28100586 242.50000000 -0.936107 0.342930 -0.078119 0.000000
180.17599487 185.44900513 182.50000000 -0.953258 0.235289 0.189576 0.000000
79.10150146 147.65600586 87.50000000 0.604296 0.794828 0.055453 0.000000
130.07800293 134.91200256 210.00000000 0.154068 0.979871 -0.126952 0.000000
226.75799561 112.06099701 165.00000000 -0.033943 0.995283 -0.090878 0.000000
246.09399414 157.32400513 192.50000000 0.611759 0.457563 -0.645280 0.000000
166.55299377 246.97300720 250.00000000 -0.488583 -0.229832 -0.841703 0.000000
138.86700439 232.03100586 267.50000000 -0.000978 -0.000978 -0.999999 0.000000
112.50000000 271.58200073 157.50000000 -0.734031 -0.216625 0.643640 0.000000
108.10500336 280.37100220 247.50000000 0.000978 0.000978 -0.999999 0.000000
179.73599243 280.37100220 215.00000000 0.001300 0.427862 0.903843 0.000000
116.01599884 236.42599487 122.50000000 -0.583561 -0.603859 0.542965 0.000000
193.35899353 166.11300659 237.50000000 -0.262430 0.072263 -0.962242 0.000000
159.96099854 297.94900513 202.50000000 -0.782819 -0.113516 0.611808 0.000000
138.86700439 230.27299500 137.50000000 -0.470026 -0.470026 0.747095 0.000000
185.44900513 210.93699646 252.50000000 -0.517177 -0.063070 -0.853552 0.000000
223.24200439 179.29699707 167.50000000 0.533368 0.493240 -0.687192 0.000000
151.17199707 224.12100220 262.50000000 -0.585605 -0.184047 -0.789426 0.000000
82.61720276 299.70700073 147.50000000 -0.000978 -0.000978 0.999999 0.000000
122.16799927 288.28100586 242.50000000 -0.000978 -0.000978 -0.999999 0.000000
63.28120041 197.75399780 192.50000000 0.831264 0.553709 -0.049063 0.000000
99.31639862 275.97698975 142.50000000 -0.901606 -0.164841 0.399917 0.000000
237.30499268 139.74600220 217.50000000 -0.415276 0.060871 -0.907656 0.000000
61.52339935 219.72700500 192.50000000 0.984919 -0.001131 -0.173011 0.000000
203.90600586 222.80299377 165.00000000 0.386922 -0.065603 0.919776 0.000000
93.16400146 184.57000732 72.50000000 -0.729004 0.257761 0.634123 0.000000
195.11700439 239.94099426 227.50000000 -0.595079 0.474387 0.648720 0.000000
103.71099854 290.91799927 147.50000000 -0.885003 0.001319 0.465583 0.000000
53.61330032 245.21499634 162.50000000 0.822771 -0.031912 -0.567476 0.000000
68.11519623 231.15199280 220.00000000 0.984919 -0.001131 -0.173011 0.000000
114.25800323 214.45300293 267.50000000 -0.000978 -0.000978 -0.999999 0.000000
210.93699646 182.81199646 162.50000000 -0.000978 -0.000978 -0.999999 0.000000
188.96499634 120.41000366 207.50000000 -0.000978 -0.000978 -0.999999 0.000000
109.86299896 151.61099243 230.00000000 0.451358 0.787854 -0.419002 0.000000
117.77300262 138.86700439 212.50000000 0.500119 0.841590 -0.203976 0.000000
139.74600220 307.61700439 187.50000000 0.000978 0.000978 0.999999 0.000000
225.87899780 112.93900299 175.00000000 -0.001131 0.984919 -0.173011 0.000000
102.83200073 170.50799561 87.50000000 -0.545600 0.726917 0.417029 0.000000
109.86299896 237.30499268 262.50000000 -0.000978 -0.000978 -0.999999 0.000000
108.10500336 140.18600464 190.00000000 0.601456 0.778086 -0.181198 0.000000
151.17199707 220.60499573 267.50000000 -0.000978 -0.000978 -0.999999 0.000000
148.53500366 180.17599487 122.50000000 -0.000978 -0.000978 -0.999999 0.000000
167.87100220 287.84201050 205.00000000 -0.559121 -0.465656 0.685966 0.000000
248.72999573 160.83999634 212.50000000 -0.082678 0.159365 -0.983751 0.000000
187.20700073 195.11700439 187.50000000 -0.447614 0.467289 0.762419 0.000000
261.03500366 132.71499634 197.50000000 -0.894407 0.446537 -0.025326 0.000000
173.58399963 263.67199707 190.00000000 -0.387373 -0.753498 0.531208 0.000000
118.21299744 268.94500732 160.00000000 -0.430672 -0.373461 0.821614 0.000000
