143.17399597 137.63699341 216.25000000 -0.431282 0.377173 -0.819595 0.000000
214.36500549 97.29499817 136.25000000 -0.009694 -0.649505 0.760295 0.000000
80.68360138 259.05801392 192.50000000 0.507599 -0.585172 -0.632390 0.000000
236.51400757 117.86100006 156.25000000 -0.436081 -0.011857 0.899829 0.000000
191.42599487 73.16899872 162.50000000 -0.095565 0.964568 -0.245920 0.000000
51.81150055 166.90400696 170.00000000 0.971447 0.109618 -0.210417 0.000000
93.33989716 115.48799896 123.75000000 -0.789792 0.405394 0.460308 0.000000
94.13089752 187.07499695 90.00000000 -0.182006 -0.304269 0.935037 0.000000
88.59380341 102.43699646 167.50000000 0.559546 0.808234 -0.183483 0.000000
136.44999695 265.78100586 152.50000000 -0.658440 -0.611766 0.438405 0.000000
120.23400116 173.23199463 133.75000000 0.203943 0.276086 -0.939247 0.000000
146.33799744 128.93600464 138.75000000 0.331666 -0.917464 0.219675 0.000000
126.56300354 153.45700073 228.75000000 0.007954 0.171576 -0.985139 0.000000
57.74420166 148.71099854 178.75000000 0.906159 0.391199 -0.160747 0.000000
66.84089661 121.02500153 130.00000000 0.826928 0.542902 0.146451 0.000000
113.51100159 157.41200256 92.50000000 -0.668875 0.061853 0.740797 0.000000
197.75399780 170.46400452 192.50000000 -0.302235 -0.441728 -0.844707 0.000000
191.42599487 125.77200317 203.75000000 -0.000978 -0.000978 -0.999999 0.000000
136.84599304 165.32200623 131.25000000 -0.162738 0.964710 -0.207003 0.000000
86.22070313 266.57199097 191.25000000 0.330395 -0.678693 -0.655907 0.000000
47.06549835 214.36500549 142.50000000 0.958406 -0.285196 -0.011016 0.000000
139.61399841 234.93200684 137.50000000 -0.757418 -0.373008 0.535894 0.000000
46.66989899 201.70899963 108.75000000 0.945845 -0.096299 0.310005 0.000000
271.31799316 124.19000244 183.75000000 -0.555667 0.780467 0.286541 0.000000
120.23400116 168.48599243 133.75000000 -0.048310 -0.054751 -0.997331 0.000000
235.72300720 158.99400330 198.75000000 0.167684 -0.067787 -0.983508 0.000000
51.02050018 221.48399353 115.00000000 0.903843 0.001300 0.427862 0.000000
73.56449890 234.93200684 201.25000000 0.498528 -0.167162 -0.850604 0.000000
137.63699341 219.11099243 211.25000000 -0.472606 -0.127848 -0.871951 0.000000
64.86329651 219.90199280 93.75000000 -0.296285 -0.244757 0.923206 0.000000
128.93600464 270.92300415 185.00000000 -0.392971 -0.718529 -0.573837 0.000000
107.57800293 108.36900330 133.75000000 0.000978 0.000978 0.999999 0.000000
153.45700073 80.28810120 177.50000000 0.129998 0.721714 -0.679875 0.000000
160.57600403 123.39800262 206.25000000 -0.160589 0.342124 -0.925830 0.000000
203.29100037 162.15800476 193.75000000 -0.452203 -0.475224 -0.754768 0.000000
263.01300049 102.04100037 190.00000000 -0.198574 0.532056 -0.823095 0.000000
227.02200317 170.85899353 171.25000000 -0.284706 -0.517504 0.806928 0.000000
215.94700623 168.48599243 193.75000000 -0.000978 -0.000978 -0.999999 0.000000
270.92300415 112.32399750 190.00000000 -0.933412 0.185013 0.307428 0.000000
77.91510010 172.44099426 217.50000000 0.380143 -0.380143 -0.843198 0.000000
225.44000244 117.06999969 151.25000000 -0.283182 -0.427070 0.858731 0.000000
56.95320129 240.86399841 132.50000000 0.690320 -0.690320 0.216602 0.000000
146.33799744 168.48599243 123.75000000 -0.231485 0.927359 0.293972 0.000000
57.74420166 230.97700500 186.25000000 0.855212 -0.257631 -0.449710 0.000000
84.63870239 128.14500427 86.25000000 -0.442073 0.451860 0.774851 0.000000
71.58689880 162.15800476 70.00000000 -0.698384 -0.064799 0.712784 0.000000
81.47460175 219.90199280 213.75000000 0.205631 -0.238314 -0.949169 0.000000
188.26199341 94.52639771 135.00000000 0.008469 -0.264950 0.964225 0.000000
95.31739807 227.81300354 215.00000000 0.192047 -0.202643 -0.960236 0.000000
201.70899963 90.17579651 128.75000000 0.171795 -0.773836 0.609643 0.000000
180.35200500 138.42799377 141.25000000 0.001371 -0.618487 0.785794 0.000000
51.02050018 206.45500183 177.50000000 0.960353 -0.156765 -0.230537 0.000000
275.27398682 137.63699341 188.75000000 -0.742182 0.172211 0.647695 0.000000
260.24398804 119.44300079 196.25000000 -0.092558 0.196223 -0.976181 0.000000
189.84399414 169.27699280 138.75000000 -0.369566 -0.207247 0.905798 0.000000
146.33799744 206.45500183 123.75000000 -0.647309 -0.701920 0.297152 0.000000
226.23100281 117.86100006 151.25000000 -0.283182 -0.427070 0.858731 0.000000
110.74199677 188.26199341 93.75000000 -0.567068 -0.570454 0.594152 0.000000
238.88699341 82.66120148 160.00000000 -0.169741 0.985409 0.012531 0.000000
125.77200317 226.62600708 127.50000000 -0.269542 -0.313252 0.910615 0.000000
211.20100403 127.35399628 148.75000000 -0.012503 0.748805 0.662672 0.000000
83.84770203 219.11099243 213.75000000 0.294823 -0.280300 -0.913516 0.000000
113.90599823 135.26400757 221.25000000 0.062352 0.486344 -0.871540 0.000000
115.48799896 145.94200134 142.50000000 -0.894799 -0.381800 0.231439 0.000000
120.23400116 213.57400513 218.75000000 -0.215428 -0.271023 -0.938156 0.000000
98.08599854 269.34100342 125.00000000 -0.201669 -0.777425 0.595769 0.000000
156.22599792 207.24600220 152.50000000 -0.969048 -0.120972 0.215202 0.000000
81.07910156 137.63699341 210.00000000 0.681400 0.391021 -0.618705 0.000000
95.71289825 133.68200684 216.25000000 0.330488 0.376603 -0.865418 0.000000
230.97700500 155.03900146 166.25000000 0.890909 -0.254333 0.376294 0.000000
190.63499451 119.44300079 136.25000000 -0.493336 -0.450437 0.744128 0.000000
255.49800110 174.81500244 198.75000000 -0.000978 -0.000978 -0.999999 0.000000
161.36700439 196.56700134 167.50000000 -0.644981 -0.754702 0.120100 0.000000
136.05499268 240.07299805 202.50000000 -0.367651 0.006361 -0.929942 0.000000
241.25999451 172.44099426 198.75000000 0.317920 -0.417174 -0.851406 0.000000
118.65200043 122.60700226 216.25000000 -0.298117 0.506325 -0.809173 0.000000
49.43849945 155.03900146 145.00000000 0.985294 0.160888 -0.057544 0.000000
174.41900635 190.63499451 180.00000000 -0.086214 -0.970847 0.223657 0.000000
106.78700256 285.16101074 160.00000000 0.694416 -0.520394 0.496968 0.000000
164.53100586 166.90400696 211.25000000 -0.331610 -0.340695 -0.879751 0.000000
95.71289825 191.42599487 91.25000000 -0.143879 -0.370174 0.917753 0.000000
86.61620331 131.30900574 210.00000000 0.438807 0.528225 -0.726930 0.000000
248.37899780 107.18299866 195.00000000 -0.101943 0.305829 -0.946613 0.000000
193.00799561 155.03900146 148.75000000 -0.909982 -0.184863 0.371158 0.000000
63.28129959 134.07699585 95.00000000 0.923232 0.367925 0.110788 0.000000
151.87500000 234.93200684 153.75000000 -0.921149 -0.254358 0.294595 0.000000
248.37899780 151.08399963 173.75000000 -0.502351 -0.410717 0.760890 0.000000
189.84399414 189.44799805 150.00000000 -0.517423 -0.648885 0.557873 0.000000
162.94900513 96.50399780 141.25000000 0.000978 0.000978 0.999999 0.000000
264.19900513 116.67500305 182.50000000 -0.372531 -0.070767 0.925318 0.000000
173.23199463 83.84770203 183.75000000 -0.124946 0.812881 -0.568870 0.000000
82.26570129 270.92300415 142.50000000 0.708486 -0.705724 -0.001381 0.000000
230.18600464 150.29299927 166.25000000 0.000978 0.000978 0.999999 0.000000
143.17399597 210.01499939 125.00000000 -0.612011 -0.715906 0.336038 0.000000
218.32000732 78.70610046 142.50000000 -0.242120 0.967224 0.076525 0.000000
128.93600464 249.16999817 136.25000000 -0.690961 -0.480159 0.540388 0.000000
50.22949982 181.93400574 95.00000000 0.970622 0.003555 0.240582 0.000000
94.13089752 146.33799744 221.25000000 0.300363 0.360738 -0.882978 0.000000
85.42970276 158.20300293 221.25000000 0.534955 0.001347 -0.844879 0.000000
130.12199402 83.05670166 172.50000000 0.372586 0.866301 -0.332721 0.000000
90.57129669 274.48300171 132.50000000 -0.075931 -0.890460 0.448682 0.000000
76.72859955 265.38598633 145.00000000 0.793869 -0.590543 0.145019 0.000000
53.78910065 157.41200256 98.75000000 0.892355 0.390866 0.225670 0.000000
198.54499817 134.47300720 143.75000000 -0.486426 -0.059591 0.871687 0.000000
196.96299744 104.41400146 196.25000000 -0.222444 0.766887 -0.601999 0.000000
66.04979706 121.02500153 157.50000000 0.781239 0.602929 -0.161688 0.000000
208.82800293 105.99600220 198.75000000 -0.093160 0.432431 -0.896842 0.000000
264.98999023 142.38299561 181.25000000 -0.308527 -0.207093 0.928398 0.000000
135.65899658 250.75199890 197.50000000 0.380143 -0.380143 -0.843198 0.000000
71.19139862 165.32200623 68.75000000 -0.752963 -0.049818 0.656174 0.000000
43.90140152 196.96299744 137.50000000 0.994137 -0.052323 -0.094627 0.000000
66.04979706 171.64999390 205.00000000 0.745937 0.070698 -0.662254 0.000000
120.23400116 211.20100403 113.75000000 -0.523000 -0.737480 0.427310 0.000000
101.25000000 95.31739807 175.00000000 0.587327 0.587327 -0.556861 0.000000
178.77000427 177.97900391 203.75000000 -0.692854 0.058814 -0.718675 0.000000
244.42399597 111.53299713 196.25000000 0.120859 0.453578 -0.882984 0.000000
127.35399628 143.17399597 146.25000000 0.000978 0.000978 0.999999 0.000000
103.22799683 221.48399353 115.00000000 -0.305168 -0.663619 0.682995 0.000000
95.71289825 206.45500183 218.75000000 0.166226 -0.158613 -0.973248 0.000000
155.43499756 194.58999634 115.00000000 -0.643501 -0.653427 0.398673 0.000000
136.84599304 225.44000244 208.75000000 -0.251733 -0.388771 -0.886278 0.000000
223.85800171 159.78500366 166.25000000 -0.582227 -0.442092 0.682324 0.000000
144.75599670 154.24800110 146.25000000 0.000978 0.000978 0.999999 0.000000
139.21899414 75.93750000 163.75000000 0.452367 0.827501 -0.332576 0.000000
158.59899902 136.84599304 210.00000000 -0.433888 0.108121 -0.894456 0.000000
54.18460083 151.87500000 165.00000000 0.922481 0.375223 -0.090758 0.000000
113.90599823 109.16000366 133.75000000 -0.000978 -0.000978 0.999999 0.000000
114.69699860 268.15399170 193.75000000 -0.164334 -0.797545 -0.580444 0.000000
134.47300720 134.47300720 218.75000000 -0.340801 0.310775 -0.887284 0.000000
125.77200317 155.03900146 228.75000000 0.021592 0.155693 -0.987570 0.000000
104.41400146 284.36999512 162.50000000 -0.405680 -0.903239 -0.139938 0.000000
221.48399353 177.97900391 176.25000000 -0.009600 -0.810533 0.585614 0.000000
158.99400330 89.38480377 141.25000000 0.000978 0.000978 0.999999 0.000000
49.43849945 166.11300659 110.00000000 0.905044 0.394799 0.158205 0.000000
51.02050018 167.69500732 97.50000000 0.958232 0.192710 0.211316 0.000000
106.78700256 167.69500732 231.25000000 0.477546 -0.071005 -0.875733 0.000000
151.08399963 206.45500183 133.75000000 -0.831521 -0.477153 0.284427 0.000000
190.63499451 167.69500732 196.25000000 -0.169456 -0.728202 -0.664083 0.000000
190.63499451 84.63870239 183.75000000 0.587327 0.587327 -0.556861 0.000000
76.72859955 110.34700012 105.00000000 0.797308 0.598341 0.079298 0.000000
66.44529724 126.95800018 117.50000000 0.792213 0.561864 0.238131 0.000000
70.40039825 228.60400391 203.75000000 0.588781 -0.324233 -0.740412 0.000000
142.38299561 219.90199280 208.75000000 -0.525095 -0.130177 -0.841029 0.000000
87.40730286 120.23400116 92.50000000 -0.380143 0.380143 0.843198 0.000000
81.47460175 266.57199097 186.25000000 0.467698 -0.581689 -0.665505 0.000000
123.39800262 192.21699524 98.75000000 -0.119356 -0.358067 0.926036 0.000000
130.91299438 84.63870239 177.50000000 0.334582 0.889718 -0.310576 0.000000
109.16000366 176.39700317 91.25000000 -0.000978 -0.000978 0.999999 0.000000
200.52299500 165.32200623 157.50000000 -0.778245 0.605973 0.164716 0.000000
113.11499786 177.97900391 228.75000000 -0.517288 -0.259421 -0.815545 0.000000
266.57199097 122.60700226 183.75000000 0.000978 0.000978 0.999999 0.000000
48.64749908 208.82800293 165.00000000 0.959144 -0.238796 -0.151722 0.000000
204.08200073 73.95999908 147.50000000 -0.335951 0.940921 0.042477 0.000000
55.37110138 228.60400391 111.25000000 0.781848 -0.568759 0.255393 0.000000
168.48599243 103.62300110 136.25000000 0.248819 0.333214 0.909427 0.000000
184.30700684 94.92189789 193.75000000 -0.000978 -0.000978 -0.999999 0.000000
161.36700439 87.01180267 188.75000000 0.233518 0.539721 -0.808808 0.000000
145.54699707 182.72500610 218.75000000 -0.000978 -0.000978 -0.999999 0.000000
210.80599976 176.39700317 187.50000000 0.734286 -0.672974 -0.089049 0.000000
133.68200684 166.11300659 226.25000000 -0.117118 -0.134022 -0.984033 0.000000
174.02400208 185.09800720 206.25000000 -0.669213 -0.219951 0.709771 0.000000
236.51400757 83.84770203 141.25000000 -0.820884 0.360427 0.442992 0.000000
46.66989899 194.98500061 107.50000000 0.961132 -0.041138 0.273006 0.000000
132.89100647 258.66198730 193.75000000 -0.542271 -0.555785 -0.630115 0.000000
148.71099854 189.05299377 216.25000000 -0.226453 -0.620014 -0.751200 0.000000
59.32619858 158.20300293 188.75000000 0.953006 0.001227 0.302950 0.000000
153.06199646 197.75399780 117.50000000 -0.748183 -0.638021 0.182073 0.000000
95.71289825 114.69699860 128.75000000 -0.782815 0.331376 0.526679 0.000000
111.53299713 157.41200256 91.25000000 -0.641240 0.023750 0.766973 0.000000
65.65429688 168.48599243 68.75000000 0.000978 0.000978 0.999999 0.000000
123.79399872 161.36700439 102.50000000 -0.755485 0.380190 0.533571 0.000000
55.37110138 240.07299805 147.50000000 0.925245 -0.370367 -0.082154 0.000000
44.69240189 193.00799561 117.50000000 0.690320 0.690320 0.216602 0.000000
145.54699707 124.98100281 133.75000000 -0.040775 -0.606005 0.794415 0.000000
66.44529724 189.05299377 206.25000000 0.702561 -0.029567 -0.711009 0.000000
231.37199402 83.05670166 170.00000000 -0.310153 0.930458 -0.195073 0.000000
64.86329651 234.53599548 195.00000000 0.677031 -0.405556 -0.614128 0.000000
88.59380341 115.88400269 107.50000000 -0.706618 -0.703716 -0.073999 0.000000
60.11719894 169.27699280 68.75000000 0.134198 0.071183 0.988395 0.000000
260.24398804 97.29499817 183.75000000 0.221426 0.881244 -0.417588 0.000000
222.27499390 90.96679688 131.25000000 -0.394937 -0.665939 0.632890 0.000000
146.33799744 140.00999451 216.25000000 -0.503802 0.261977 -0.823135 0.000000
126.95800018 164.53100586 105.00000000 -0.643899 0.764543 0.029459 0.000000
209.61900330 155.83000183 156.25000000 0.000978 0.000978 0.999999 0.000000
207.64199829 128.93600464 147.50000000 -0.040622 0.816643 0.575712 0.000000
100.45899963 122.21199799 210.00000000 0.262234 0.820840 -0.507400 0.000000
72.77349854 249.96099854 193.75000000 0.612894 -0.369708 -0.698338 0.000000
76.72859955 206.45500183 93.75000000 -0.196148 -0.647133 0.736712 0.000000
215.15600586 115.48799896 143.75000000 -0.470929 -0.571483 0.672037 0.000000
196.96299744 103.62300110 136.25000000 -0.229625 -0.283157 0.931179 0.000000
129.72700500 177.18800354 96.25000000 -0.160491 0.019350 0.986848 0.000000
62.88579941 139.21899414 87.50000000 0.939910 0.334278 0.069477 0.000000
116.27899933 156.62100220 138.75000000 -0.773786 -0.273752 -0.571240 0.000000
73.16899872 115.48799896 110.00000000 0.896855 0.441054 0.033515 0.000000
144.75599670 207.24600220 121.25000000 -0.690320 -0.690320 0.216602 0.000000
109.16000366 165.32200623 133.75000000 -0.000978 -0.000978 -0.999999 0.000000
125.77200317 137.63699341 223.75000000 -0.161559 0.316213 -0.934831 0.000000
197.75399780 87.80280304 186.25000000 -0.088444 0.795994 -0.598808 0.000000
82.26570129 267.36300659 126.25000000 0.544897 -0.761563 0.350869 0.000000
47.85649872 200.91799927 165.00000000 0.993356 0.075545 -0.086820 0.000000
59.32619858 133.68200684 153.75000000 0.931836 0.349270 -0.098443 0.000000
264.98999023 116.27899933 183.75000000 -0.372531 -0.070767 0.925318 0.000000
246.79699707 127.35399628 201.25000000 -0.000978 -0.000978 -0.999999 0.000000
163.74000549 81.87020111 180.00000000 -0.145535 0.842338 -0.518927 0.000000
76.72859955 174.02400208 216.25000000 0.117821 -0.389502 -0.913459 0.000000
102.83200073 115.48799896 203.75000000 0.184478 0.599172 -0.779077 0.000000
148.71099854 151.87500000 146.25000000 0.000978 0.000978 0.999999 0.000000
102.04100037 100.45899963 133.75000000 -0.216865 -0.233232 0.947931 0.000000
70.40039825 170.06799316 68.75000000 -0.000978 -0.000978 0.999999 0.000000
262.61700439 161.36700439 198.75000000 -0.000978 -0.000978 -0.999999 0.000000
87.80280304 224.64900208 213.75000000 -0.000978 -0.000978 -0.999999 0.000000
59.72169876 170.85899353 70.00000000 0.623206 -0.055618 0.780077 0.000000
206.45500183 114.69699860 141.25000000 -0.312733 -0.434092 0.844845 0.000000
161.76300049 196.96299744 177.50000000 -0.867368 -0.468173 0.168777 0.000000
109.16000366 205.66400146 103.75000000 -0.134606 -0.563568 0.815029 0.000000
231.76800537 159.78500366 168.75000000 0.663175 -0.508714 0.549008 0.000000
70.79589844 189.84399414 212.50000000 0.625522 -0.006904 -0.780176 0.000000
215.94700623 112.32399750 201.25000000 -0.000978 -0.000978 -0.999999 0.000000
91.75789642 246.00599670 206.25000000 0.327344 -0.479155 -0.814406 0.000000
66.44529724 153.85299683 200.00000000 0.779109 0.279721 -0.561022 0.000000
242.05099487 126.56300354 168.75000000 -0.859769 0.051226 0.508108 0.000000
246.79699707 132.89100647 173.75000000 -0.164191 -0.098515 0.981497 0.000000
110.74199677 160.97200012 142.50000000 -0.863145 -0.504294 -0.025826 0.000000
131.30900574 206.45500183 111.25000000 -0.247595 -0.714398 0.654471 0.000000
134.07699585 268.15399170 185.00000000 -0.408215 -0.745935 -0.526253 0.000000
158.59899902 135.26400757 210.00000000 -0.433888 0.108121 -0.894456 0.000000
102.83200073 204.08200073 101.25000000 -0.202837 -0.541408 0.815925 0.000000
146.33799744 182.72500610 101.25000000 -0.260473 0.315769 0.912383 0.000000
80.68360138 223.85800171 106.25000000 -0.270181 -0.096955 0.957915 0.000000
238.09599304 146.33799744 168.75000000 0.000978 0.000978 0.999999 0.000000
97.29499817 209.61900330 218.75000000 -0.000978 -0.000978 -0.999999 0.000000
53.39360046 144.75599670 137.50000000 0.879615 0.468476 0.082508 0.000000
149.50199890 251.93899536 162.50000000 -0.823015 -0.420229 0.382171 0.000000
261.82598877 173.23199463 198.75000000 -0.000978 -0.000978 -0.999999 0.000000
268.94500732 134.86799622 197.50000000 -0.409174 0.431638 -0.803906 0.000000
106.78700256 122.60700226 133.75000000 -0.000978 -0.000978 0.999999 0.000000
93.33989716 174.02400208 81.25000000 -0.348838 -0.161110 0.923231 0.000000
103.62300110 261.82598877 123.75000000 -0.426173 -0.558834 0.711394 0.000000
93.33989716 167.69500732 81.25000000 -0.265274 -0.501073 0.823745 0.000000
65.25879669 122.60700226 157.50000000 -0.000978 -0.000978 -0.999999 0.000000
215.15600586 148.71099854 156.25000000 -0.524415 -0.350148 0.776135 0.000000
60.90819931 172.44099426 68.75000000 0.070048 0.037718 0.996830 0.000000
236.51400757 166.11300659 173.75000000 -0.450863 -0.434587 0.779652 0.000000
198.14999390 162.94900513 155.00000000 -0.788330 0.614082 -0.037941 0.000000
58.93069839 161.36700439 190.00000000 0.794871 0.309381 -0.521981 0.000000
238.09599304 103.62300110 193.75000000 -0.299712 0.607438 -0.735657 0.000000
157.41200256 124.98100281 208.75000000 -0.316494 0.470804 -0.823514 0.000000
99.66799927 136.05499268 218.75000000 0.303595 0.385978 -0.871120 0.000000
142.38299561 114.69699860 203.75000000 -0.310153 0.930458 0.195073 0.000000
163.34500122 194.58999634 150.00000000 -0.445287 -0.889169 0.105352 0.000000
114.69699860 250.35699463 130.00000000 -0.528371 0.012225 0.848925 0.000000
238.09599304 111.53299713 198.75000000 -0.562810 0.370313 -0.738994 0.000000
208.82800293 97.29499817 136.25000000 0.110782 -0.639579 0.760701 0.000000
160.97200012 208.03700256 182.50000000 -0.935276 0.267823 0.231365 0.000000
189.84399414 87.40730286 130.00000000 0.249974 -0.765645 0.592707 0.000000
91.75789642 226.23100281 111.25000000 -0.390423 -0.132940 0.910987 0.000000
246.79699707 85.82520294 152.50000000 -0.320438 0.908638 0.267763 0.000000
61.69919968 173.23199463 68.75000000 0.070048 0.037718 0.996830 0.000000
204.08200073 115.48799896 141.25000000 -0.312733 -0.434092 0.844845 0.000000
112.32399750 79.89260101 148.75000000 0.471887 0.847563 -0.242815 0.000000
87.80280304 129.72700500 208.75000000 0.438807 0.528225 -0.726930 0.000000
167.69500732 148.71099854 208.75000000 -0.325356 -0.117452 -0.938269 0.000000
135.26400757 249.16999817 141.25000000 -0.539640 -0.417520 0.731072 0.000000
164.53100586 178.77000427 206.25000000 -0.656264 0.046978 -0.753067 0.000000
106.78700256 208.82800293 106.25000000 -0.178429 -0.623740 0.760994 0.000000
68.02739716 202.89599609 87.50000000 -0.365892 -0.788198 0.494840 0.000000
184.30700684 121.02500153 203.75000000 0.200323 0.402107 -0.893409 0.000000
44.69240189 193.79899597 115.00000000 0.690320 0.690320 0.216602 0.000000
81.47460175 183.51600647 218.75000000 0.532720 -0.080974 -0.842409 0.000000
250.75199890 170.06799316 183.75000000 -0.116806 -0.619517 0.776244 0.000000
94.13089752 250.75199890 116.25000000 -0.676569 0.182566 0.713389 0.000000
64.86329651 244.42399597 113.75000000 0.789070 -0.564955 0.241234 0.000000
103.62300110 268.15399170 128.75000000 -0.499766 -0.523166 0.690312 0.000000
147.12899780 198.14999390 110.00000000 -0.121993 -0.480797 0.868304 0.000000
64.07230377 179.56100464 203.75000000 0.773001 0.015266 -0.634221 0.000000
194.58999634 157.41200256 151.25000000 -0.052830 -0.672515 0.738196 0.000000
230.18600464 90.17579651 183.75000000 -0.055643 0.897076 -0.438359 0.000000
141.59199524 154.24800110 223.75000000 -0.528371 0.012225 -0.848925 0.000000
62.09479904 252.33399963 152.50000000 0.819740 -0.545992 0.172973 0.000000
161.76300049 192.21699524 202.50000000 -0.207247 -0.369566 -0.905798 0.000000
200.12699890 122.60700226 141.25000000 -0.220452 -0.553441 0.803184 0.000000
152.66600037 115.48799896 203.75000000 -0.244470 0.166988 -0.955170 0.000000
254.70700073 155.83000183 198.75000000 -0.000978 -0.000978 -0.999999 0.000000
67.23639679 227.81300354 96.25000000 0.758988 -0.301997 0.576831 0.000000
225.04400635 150.29299927 162.50000000 -0.659501 -0.156158 0.735305 0.000000
130.51800537 256.28900146 198.75000000 -0.283711 -0.684433 -0.671610 0.000000
183.11999512 145.54699707 145.00000000 0.347048 -0.301976 0.887901 0.000000
48.64749908 205.66400146 170.00000000 0.985975 -0.141193 -0.088987 0.000000
192.21699524 127.35399628 203.75000000 -0.082567 -0.117454 -0.989640 0.000000
72.77349854 140.00999451 201.25000000 0.728693 0.523800 -0.441181 0.000000
162.15800476 162.94900513 141.25000000 0.481712 0.801787 0.353682 0.000000
203.29100037 124.98100281 143.75000000 -0.398755 -0.300976 0.866261 0.000000
90.96679688 110.74199677 193.75000000 0.419988 0.675633 -0.605912 0.000000
50.62500000 160.97200012 117.50000000 0.922704 0.375314 0.088070 0.000000
212.78300476 77.12409973 155.00000000 -0.141279 0.988956 -0.044796 0.000000
236.51400757 90.96679688 183.75000000 -0.070524 0.767134 -0.637599 0.000000
207.24600220 143.17399597 201.25000000 -0.000978 -0.000978 -0.999999 0.000000
159.78500366 219.11099243 161.25000000 -0.952935 -0.219701 0.208918 0.000000
216.73800659 108.36900330 201.25000000 0.053617 0.479800 -0.875738 0.000000
151.08399963 154.64399719 217.50000000 -0.476577 0.033944 -0.878477 0.000000
181.14300537 170.06799316 138.75000000 0.000978 0.000978 0.999999 0.000000
98.87699890 137.63699341 88.75000000 -0.327684 0.516302 0.791237 0.000000
149.50199890 210.41000366 206.25000000 -0.633434 -0.370189 -0.679502 0.000000
107.97399902 86.22070313 160.00000000 0.535844 0.841233 -0.072106 0.000000
110.74199677 173.23199463 146.25000000 0.000978 0.000978 0.999999 0.000000
240.46899414 153.45700073 171.25000000 -0.200809 0.200809 0.958828 0.000000
55.76660156 149.50199890 170.00000000 0.916721 0.373686 -0.141357 0.000000
65.65429688 175.60600281 68.75000000 0.000978 0.000978 0.999999 0.000000
198.54499817 164.13600159 152.50000000 -0.929954 0.003817 0.367656 0.000000
103.62300110 161.36700439 83.75000000 -0.313167 0.096461 0.944787 0.000000
192.21699524 150.29299927 201.25000000 -0.307514 -0.233138 -0.922541 0.000000
133.28599548 274.48300171 175.00000000 -0.444907 -0.814866 -0.371553 0.000000
73.16899872 250.75199890 107.50000000 0.514256 -0.568211 0.642399 0.000000
70.00489807 236.51400757 200.00000000 0.436105 -0.176484 -0.882420 0.000000
135.26400757 270.92300415 180.00000000 -0.208021 -0.833601 -0.511700 0.000000
60.90819931 176.39700317 68.75000000 0.083523 0.063478 0.994482 0.000000
274.48300171 141.59199524 196.25000000 -0.706773 0.422077 -0.567735 0.000000
199.33599854 72.37799835 145.00000000 -0.262221 0.964730 -0.023173 0.000000
94.92189789 165.32200623 81.25000000 -0.325621 -0.422217 0.845993 0.000000
93.33989716 190.63499451 223.75000000 0.148091 -0.102340 -0.983664 0.000000
219.90199280 111.53299713 143.75000000 -0.413344 -0.599265 0.685586 0.000000
96.50399780 214.36500549 218.75000000 -0.000978 -0.000978 -0.999999 0.000000
140.80099487 176.39700317 103.75000000 -0.329203 0.491419 0.806308 0.000000
100.45899963 89.78029633 155.00000000 0.631320 0.720824 -0.286092 0.000000
107.57800293 200.52299500 100.00000000 -0.437752 -0.728486 0.526955 0.000000
99.66799927 131.30900574 216.25000000 0.320271 0.413103 -0.852509 0.000000
56.95320129 241.25999451 161.25000000 0.979732 -0.176913 0.093947 0.000000
108.36900330 234.14100647 123.75000000 -0.345438 -0.221138 0.912014 0.000000
236.51400757 85.42970276 176.25000000 0.017057 0.909243 -0.415916 0.000000
85.42970276 134.47300720 83.75000000 -0.435934 0.148189 0.887694 0.000000
132.89100647 213.57400513 216.25000000 -0.349541 -0.208574 -0.913410 0.000000
185.09800720 74.35549927 168.75000000 -0.116375 0.943037 -0.311670 0.000000
68.42289734 259.45300293 177.50000000 0.763872 -0.554812 -0.329671 0.000000
236.51400757 87.01180267 138.75000000 -0.688126 -0.032499 0.724863 0.000000
261.43099976 160.57600403 185.00000000 -0.406306 -0.236640 0.882563 0.000000
113.11499786 166.11300659 133.75000000 0.022220 -0.062429 -0.997802 0.000000
272.10900879 155.83000183 198.75000000 -0.000978 -0.000978 -0.999999 0.000000
52.20709991 216.34300232 102.50000000 0.873982 -0.375432 0.308554 0.000000
89.38480377 161.36700439 223.75000000 0.524153 0.108296 -0.844710 0.000000
109.95099640 190.63499451 93.75000000 -0.567068 -0.570454 0.594152 0.000000
121.81600189 226.23100281 126.25000000 -0.435070 -0.225758 0.871635 0.000000
123.39800262 124.98100281 133.75000000 0.000978 0.000978 0.999999 0.000000
265.78100586 147.91999817 198.75000000 -0.000978 -0.000978 -0.999999 0.000000
230.18600464 118.65200043 153.75000000 -0.491017 -0.153901 0.857448 0.000000
236.51400757 184.30700684 186.25000000 -0.130045 -0.710013 0.692076 0.000000
124.98100281 140.00999451 223.75000000 -0.000978 -0.000978 -0.999999 0.000000
75.93750000 266.96798706 180.00000000 0.597821 -0.651407 -0.467204 0.000000
70.40039825 155.83000183 206.25000000 0.771872 0.253099 -0.583227 0.000000
234.14100647 98.08599854 143.75000000 -0.416494 -0.672032 0.612296 0.000000
238.88699341 176.39700317 196.25000000 0.152973 -0.416029 -0.896392 0.000000
167.69500732 108.36900330 201.25000000 -0.319068 0.460526 -0.828318 0.000000
164.53100586 191.02999878 127.50000000 -0.556046 -0.775916 0.297939 0.000000
189.84399414 192.21699524 178.75000000 -0.748326 -0.560027 -0.355496 0.000000
142.38299561 130.51800537 213.75000000 -0.380143 0.380143 -0.843198 0.000000
193.79899597 159.78500366 151.25000000 0.067793 -0.690909 0.719757 0.000000
106.78700256 226.23100281 118.75000000 -0.456682 -0.376562 0.806004 0.000000
110.74199677 113.11499786 203.75000000 0.084871 0.568203 -0.818500 0.000000
96.50399780 121.42099762 122.50000000 -0.764868 0.497409 0.409343 0.000000
56.55759811 140.80099487 127.50000000 0.910937 0.346127 0.224476 0.000000
274.08700562 125.77200317 187.50000000 -0.831087 0.152588 0.534800 0.000000
165.32200623 172.44099426 208.75000000 -0.635457 -0.318537 -0.703369 0.000000
53.39360046 154.24800110 120.00000000 0.890841 0.421520 0.169477 0.000000
77.91510010 268.15399170 152.50000000 0.626297 -0.757988 0.182223 0.000000
59.72169876 135.26400757 165.00000000 0.800185 0.532933 -0.275113 0.000000
106.78700256 200.91799927 101.25000000 -0.211128 -0.574822 0.790573 0.000000
128.93600464 233.35000610 208.75000000 -0.392527 -0.476524 -0.786669 0.000000
79.10160065 256.28900146 193.75000000 0.545375 -0.585899 -0.599406 0.000000
108.36900330 181.14300537 91.25000000 -0.969007 -0.240709 0.055548 0.000000
166.11300659 121.02500153 136.25000000 0.000978 0.000978 0.999999 0.000000
223.06700134 117.06999969 151.25000000 -0.343470 -0.421888 0.839070 0.000000
62.49029922 180.35200500 68.75000000 0.057068 -0.282805 0.957478 0.000000
151.87500000 141.59199524 213.75000000 -0.279942 0.207519 -0.937320 0.000000
139.21899414 264.98999023 156.25000000 -0.703628 -0.605218 0.372316 0.000000
49.04299927 166.11300659 111.25000000 0.950625 0.310282 0.006181 0.000000
231.76800537 95.31739807 140.00000000 -0.416494 -0.612296 0.672032 0.000000
168.48599243 88.59380341 188.75000000 -0.026690 0.686915 -0.726248 0.000000
174.02400208 174.02400208 131.25000000 -0.574860 0.700766 0.422448 0.000000
176.39700317 193.79899597 158.75000000 0.415064 -0.887327 0.200932 0.000000
124.19000244 234.93200684 211.25000000 -0.391315 -0.465392 -0.793903 0.000000
155.03900146 233.35000610 158.75000000 -0.599987 -0.427137 0.676439 0.000000
220.69299316 83.45220184 175.00000000 -0.068052 0.873568 -0.481921 0.000000
169.27699280 90.96679688 191.25000000 0.106516 0.397014 -0.911611 0.000000
91.36229706 272.10900879 127.50000000 -0.067903 -0.877190 0.475318 0.000000
76.72859955 155.03900146 213.75000000 0.682967 0.114075 -0.721486 0.000000
254.70700073 162.15800476 181.25000000 -0.436540 -0.075740 0.896491 0.000000
262.61700439 160.57600403 186.25000000 -0.267122 -0.230760 0.935626 0.000000
262.61700439 105.60099792 192.50000000 -0.025325 0.441196 -0.897054 0.000000
122.60700226 117.06999969 133.75000000 0.000978 0.000978 0.999999 0.000000
45.48339844 192.21699524 152.50000000 0.995176 -0.092854 0.031680 0.000000
87.01180267 117.06999969 93.75000000 -0.380143 0.380143 0.843198 0.000000
128.93600464 238.09599304 133.75000000 -0.258117 -0.211187 0.942749 0.000000
84.63870239 102.43699646 152.50000000 0.596254 0.765271 -0.242571 0.000000
112.32399750 143.96499634 116.25000000 -0.814014 0.560102 0.153841 0.000000
136.05499268 120.23400116 133.75000000 0.000978 0.000978 0.999999 0.000000
161.76300049 185.09800720 112.50000000 -0.578598 -0.400568 0.710472 0.000000
263.80398560 106.78700256 192.50000000 0.006603 0.458263 -0.888792 0.000000
198.54499817 85.03420258 182.50000000 -0.043603 0.808757 -0.586525 0.000000
48.64749908 217.52900696 120.00000000 0.844879 0.001347 -0.534955 0.000000
52.20709991 195.38099670 88.75000000 0.724826 -0.001381 0.688930 0.000000
45.08789825 193.79899597 113.75000000 0.690320 0.690320 0.216602 0.000000
204.08200073 126.95800018 202.50000000 -0.305091 -0.428986 -0.850229 0.000000
131.30900574 147.12899780 146.25000000 0.000978 0.000978 0.999999 0.000000
73.56449890 246.79699707 106.25000000 0.221134 -0.461824 0.858963 0.000000
272.10900879 143.96499634 186.25000000 -0.279961 0.036084 0.959333 0.000000
140.80099487 171.64999390 108.75000000 -0.415635 0.803989 0.425264 0.000000
204.87300110 129.72700500 201.25000000 -0.112287 -0.291947 -0.949820 0.000000
64.86329651 125.77200317 166.25000000 0.815189 0.524382 -0.245949 0.000000
78.31060028 229.39500427 208.75000000 0.441193 -0.371112 -0.817083 0.000000
117.06999969 215.15600586 116.25000000 -0.377605 -0.667816 0.641433 0.000000
79.10160065 263.80398560 125.00000000 0.690320 -0.690320 0.216602 0.000000
186.67999268 179.56100464 138.75000000 -0.625759 -0.554918 0.548171 0.000000
88.59380341 96.89949799 140.00000000 0.690320 0.690320 -0.216602 0.000000
113.90599823 208.82800293 108.75000000 -0.294164 -0.644589 0.705672 0.000000
64.86329651 247.58799744 123.75000000 0.810211 -0.579956 0.084907 0.000000
147.91999817 211.99200439 133.75000000 -0.572934 -0.535752 0.620255 0.000000
154.64399719 209.61900330 202.50000000 -0.710446 -0.244167 -0.660037 0.000000
192.21699524 189.05299377 153.75000000 -0.639474 -0.681996 0.354900 0.000000
81.47460175 147.12899780 213.75000000 0.566168 0.193810 -0.801181 0.000000
71.19139862 126.56300354 181.25000000 0.758422 0.483228 -0.437362 0.000000
93.33989716 172.44099426 226.25000000 0.405967 0.071961 -0.911050 0.000000
98.08599854 140.00999451 86.25000000 -0.388136 0.616063 0.685432 0.000000
114.69699860 151.87500000 93.75000000 -0.810381 0.070033 0.581702 0.000000
253.12500000 166.90400696 181.25000000 -0.320927 -0.363515 0.874564 0.000000
105.99600220 91.75789642 128.75000000 -0.359851 -0.558502 0.747384 0.000000
59.32619858 213.57400513 91.25000000 0.082602 -0.471812 0.877822 0.000000
154.24800110 151.87500000 146.25000000 0.000978 0.000978 0.999999 0.000000
268.94500732 105.60099792 187.50000000 -0.928267 0.210520 0.306597 0.000000
158.99400330 129.72700500 138.75000000 0.275727 -0.553029 0.786215 0.000000
104.41400146 281.20599365 177.50000000 0.347566 -0.831955 -0.432491 0.000000
116.67500305 147.91999817 120.00000000 -0.691807 0.688683 0.217068 0.000000
137.63699341 251.54299927 143.75000000 -0.415406 -0.444501 0.793635 0.000000
132.10000610 93.33989716 188.75000000 0.290224 0.671845 -0.681465 0.000000
157.41200256 154.24800110 213.75000000 -0.501540 0.177102 -0.846813 0.000000
239.67799377 171.64999390 198.75000000 0.317920 -0.417174 -0.851406 0.000000
99.66799927 127.74900055 97.50000000 -0.544957 0.788213 0.285905 0.000000
94.13089752 200.12699890 93.75000000 -0.322855 -0.328862 0.887476 0.000000
109.95099640 229.39500427 216.25000000 0.999999 -0.000978 -0.000978 0.000000
67.23639679 240.46899414 103.75000000 0.406839 -0.545197 0.732969 0.000000
99.27249908 200.91799927 222.50000000 0.690320 -0.690320 -0.216602 0.000000
215.15600586 88.59380341 183.75000000 0.069231 0.843494 -0.532659 0.000000
171.64999390 109.95099640 136.25000000 0.000978 0.000978 0.999999 0.000000
63.28129959 168.48599243 201.25000000 0.834513 0.026208 -0.550365 0.000000
177.18800354 193.00799561 176.25000000 0.790847 -0.478374 0.381733 0.000000
140.00999451 166.50900269 132.50000000 -0.162738 0.964710 -0.207003 0.000000
70.40039825 171.64999390 211.25000000 0.866555 0.053901 -0.496162 0.000000
129.72700500 141.59199524 223.75000000 -0.235629 0.301319 -0.923951 0.000000
89.38480377 141.59199524 216.25000000 0.219868 0.399893 -0.889800 0.000000
151.87500000 160.57600403 146.25000000 0.249434 0.286493 0.925043 0.000000
68.81839752 242.05099487 103.75000000 0.200509 -0.564792 0.800504 0.000000
140.00999451 174.81500244 103.75000000 -0.406319 0.738612 0.537920 0.000000
101.25000000 126.16699982 125.00000000 -0.605283 0.706984 0.365795 0.000000
133.68200684 105.20500183 198.75000000 0.172564 0.682619 -0.710107 0.000000
115.48799896 156.62100220 93.75000000 -0.590267 0.040660 0.806184 0.000000
143.17399597 168.88200378 145.00000000 0.364457 0.342928 0.865778 0.000000
141.59199524 256.28900146 151.25000000 -0.753390 -0.310030 0.579901 0.000000
76.33300018 109.95099640 160.00000000 0.690320 0.690320 -0.216602 0.000000
157.01699829 230.97700500 182.50000000 -0.952810 -0.284401 -0.106159 0.000000
96.50399780 227.81300354 113.75000000 -0.539535 -0.373274 0.754698 0.000000
177.18800354 100.06400299 195.00000000 -0.283820 0.211117 -0.935348 0.000000
112.32399750 215.94700623 113.75000000 -0.280039 -0.699299 0.657693 0.000000
64.46779633 158.99400330 200.00000000 0.592266 0.235969 -0.770415 0.000000
211.99200439 87.01180267 126.25000000 -0.129110 -0.790983 0.598060 0.000000
255.49800110 105.99600220 171.25000000 -0.736257 -0.395184 0.549323 0.000000
98.48149872 103.62300110 132.50000000 -0.543933 -0.081376 0.835173 0.000000
232.95399475 115.48799896 155.00000000 -0.364061 -0.043061 0.930379 0.000000
136.05499268 138.42799377 146.25000000 0.000978 0.000978 0.999999 0.000000
190.63499451 170.06799316 141.25000000 -0.392409 -0.269124 0.879538 0.000000
145.54699707 179.56100464 103.75000000 -0.220605 0.372545 0.901412 0.000000
168.48599243 113.90599823 203.75000000 -0.000978 -0.000978 -0.999999 0.000000
111.13800049 142.38299561 112.50000000 -0.822215 0.568802 0.020659 0.000000
166.90400696 120.23400116 136.25000000 0.000978 0.000978 0.999999 0.000000
90.17579651 96.89949799 145.00000000 0.529511 0.838757 -0.126908 0.000000
124.19000244 158.99400330 111.25000000 -0.763771 0.616242 0.192095 0.000000
180.35200500 184.30700684 201.25000000 -0.001347 -0.844879 -0.534955 0.000000
94.13089752 240.46899414 116.25000000 -0.633056 -0.293289 0.716395 0.000000
204.08200073 118.65200043 203.75000000 -0.166424 0.077824 -0.982978 0.000000
85.42970276 274.08700562 157.50000000 0.521208 -0.818157 0.242818 0.000000
179.56100464 87.80280304 133.75000000 0.435714 -0.366000 0.822312 0.000000
269.73599243 122.60700226 183.75000000 -0.565746 0.747303 0.348525 0.000000
272.90100098 139.61399841 197.50000000 -0.222905 0.185531 -0.957022 0.000000
235.72300720 145.54699707 168.75000000 0.000978 0.000978 0.999999 0.000000
99.66799927 272.10900879 188.75000000 0.189206 -0.815855 -0.546426 0.000000
232.95399475 135.26400757 165.00000000 -0.489492 -0.247048 0.836280 0.000000
192.21699524 72.37799835 132.50000000 -0.417660 0.781690 0.463164 0.000000
97.29499817 238.09599304 211.25000000 0.030762 -0.440033 -0.897454 0.000000
112.32399750 279.22900391 181.25000000 -0.107426 -0.899867 -0.422728 0.000000
72.77349854 246.79699707 103.75000000 -0.720688 -0.104640 0.685317 0.000000
196.17199707 75.54199982 167.50000000 -0.209912 0.907690 -0.363366 0.000000
197.75399780 98.08599854 193.75000000 -0.088745 0.397303 -0.913387 0.000000
147.91999817 214.76100159 137.50000000 -0.752285 -0.462565 0.469149 0.000000
98.87699890 174.81500244 228.75000000 0.000978 0.000978 -0.999999 0.000000
158.20300293 80.68360138 178.75000000 0.107137 0.606131 -0.788116 0.000000
202.50000000 105.99600220 198.75000000 0.069628 0.564128 -0.822746 0.000000
147.91999817 257.07998657 163.75000000 -0.957260 -0.287551 -0.031120 0.000000
104.41400146 140.00999451 88.75000000 -0.348324 0.688472 0.636142 0.000000
211.20100403 147.91999817 151.25000000 -0.560685 -0.340936 0.754582 0.000000
115.48799896 220.69299316 216.25000000 0.075022 -0.207847 -0.975280 0.000000
86.22070313 260.24398804 196.25000000 0.500086 -0.574173 -0.648259 0.000000
77.51959991 230.97700500 106.25000000 -0.310653 -0.039307 0.949710 0.000000
101.25000000 146.33799744 83.75000000 0.000000 0.000000 0.000000 0.000000
166.90400696 74.35549927 168.75000000 0.084249 0.899114 -0.429531 0.000000
220.69299316 145.54699707 198.75000000 -0.000978 -0.000978 -0.999999 0.000000
153.45700073 197.75399780 208.75000000 -0.636243 -0.322169 -0.701001 0.000000
132.10000610 162.55400085 120.00000000 -0.429536 0.860600 0.273619 0.000000
104.01899719 129.72700500 122.50000000 -0.581962 0.719665 0.378685 0.000000
182.72500610 98.08599854 136.25000000 0.000978 0.000978 0.999999 0.000000
153.45700073 117.06999969 133.75000000 -0.181716 -0.071002 0.980784 0.000000
122.60700226 82.26570129 163.75000000 0.395040 0.646279 -0.652891 0.000000
73.56449890 121.02500153 178.75000000 0.762485 0.454211 -0.460770 0.000000
208.82800293 95.31739807 192.50000000 -0.095068 0.650850 -0.753231 0.000000
146.33799744 169.27699280 121.25000000 -0.076189 0.928969 0.362231 0.000000
70.40039825 149.50199890 71.25000000 -0.462205 0.064847 0.884399 0.000000
84.63870239 268.94500732 126.25000000 0.481431 -0.779691 0.400382 0.000000
87.01180267 136.84599304 83.75000000 -0.328931 0.174963 0.928005 0.000000
47.46099854 212.78300476 116.25000000 0.979828 -0.096637 0.174926 0.000000
166.11300659 75.14649963 171.25000000 0.084249 0.899114 -0.429531 0.000000
177.97900391 129.72700500 206.25000000 -0.233610 0.063038 -0.970285 0.000000
60.90819931 244.81900024 132.50000000 0.731462 -0.657856 0.179415 0.000000
191.82099915 184.30700684 147.50000000 -0.660331 -0.522552 0.539354 0.000000
55.76660156 151.87500000 175.00000000 0.943874 0.282752 -0.170744 0.000000
46.27439880 211.99200439 135.00000000 0.940620 -0.338928 0.019041 0.000000
257.07998657 90.96679688 178.75000000 0.117312 0.743967 0.657839 0.000000
196.17199707 96.50399780 136.25000000 0.369708 -0.612894 0.698338 0.000000
87.80280304 216.73800659 106.25000000 0.000978 0.000978 0.999999 0.000000
148.31500244 238.88699341 192.50000000 -0.545519 -0.548896 -0.633342 0.000000
77.12409973 240.46899414 202.50000000 0.464154 -0.112135 -0.878628 0.000000
113.11499786 183.51600647 141.25000000 0.486001 0.873725 0.020194 0.000000
62.09479904 127.35399628 157.50000000 0.829746 0.541905 -0.133641 0.000000
105.20500183 164.53100586 231.25000000 0.373039 0.226749 -0.899682 0.000000
215.15600586 104.41400146 138.75000000 -0.247048 -0.489492 0.836280 0.000000
151.08399963 160.57600403 146.25000000 0.249434 0.286493 0.925043 0.000000
246.79699707 90.17579651 178.75000000 -0.236634 0.805792 -0.542866 0.000000
247.58799744 140.00999451 173.75000000 -0.593405 -0.204994 0.778362 0.000000
95.71289825 217.52900696 108.75000000 -0.351400 -0.671745 0.652132 0.000000
254.70700073 150.29299927 198.75000000 -0.000978 -0.000978 -0.999999 0.000000
71.19139862 242.05099487 103.75000000 -0.053467 -0.252415 0.966141 0.000000
89.38480377 102.43699646 170.00000000 0.544471 0.806681 -0.229819 0.000000
98.87699890 147.91999817 223.75000000 0.388113 0.265236 -0.882620 0.000000
52.20709991 165.32200623 171.25000000 0.971447 0.109618 -0.210417 0.000000
278.43798828 154.24800110 193.75000000 -0.551682 -0.832436 -0.051940 0.000000
83.05670166 211.20100403 216.25000000 0.150966 -0.042639 -0.987619 0.000000
54.18460083 143.17399597 135.00000000 0.897535 0.422619 0.125796 0.000000
85.42970276 202.50000000 93.75000000 -0.327143 -0.518641 0.789930 0.000000
44.69240189 186.67999268 132.50000000 0.985116 0.142096 -0.096721 0.000000
121.02500153 77.51959991 153.75000000 0.358516 0.863209 -0.355439 0.000000
133.68200684 272.10900879 156.25000000 -0.668831 -0.622361 0.406609 0.000000
211.99200439 113.11499786 201.25000000 0.000978 0.000978 -0.999999 0.000000
69.60939789 246.40100098 192.50000000 0.735669 -0.367019 -0.569287 0.000000
66.44529724 158.20300293 201.25000000 0.828262 0.264734 -0.493861 0.000000
121.81600189 260.24398804 136.25000000 -0.525351 -0.263455 0.809072 0.000000
174.02400208 172.83700562 132.50000000 -0.547087 0.680931 0.486857 0.000000
234.14100647 129.72700500 158.75000000 -0.938116 0.312705 -0.148842 0.000000
62.09479904 204.08200073 82.50000000 -0.149785 -0.685380 0.712614 0.000000
63.28129959 198.54499817 203.75000000 0.698214 0.092217 -0.709924 0.000000
61.30369949 230.18600464 192.50000000 0.817737 -0.150440 -0.555584 0.000000
201.31399536 131.30900574 202.50000000 -0.168758 -0.265963 -0.949097 0.000000
184.30700684 102.04100037 136.25000000 0.000978 0.000978 0.999999 0.000000
190.63499451 169.67300415 140.00000000 -0.369566 -0.207247 0.905798 0.000000
255.89399719 125.77200317 200.00000000 -0.418714 0.175309 -0.891036 0.000000
139.21899414 167.69500732 116.25000000 -0.465292 0.772222 0.432640 0.000000
70.40039825 245.21499634 103.75000000 0.114378 -0.280030 0.953153 0.000000
135.26400757 152.66600037 226.25000000 -0.332589 0.366308 -0.869024 0.000000
52.99810028 164.13600159 175.00000000 0.977643 0.102326 -0.183693 0.000000
76.33300018 153.45700073 72.50000000 -0.679775 0.055813 0.731294 0.000000
76.72859955 214.36500549 101.25000000 -0.369362 -0.602470 0.707533 0.000000
252.33399963 87.01180267 171.25000000 -0.369269 0.860598 -0.350729 0.000000
227.02200317 182.72500610 193.75000000 -0.000978 -0.000978 -0.999999 0.000000
69.60939789 160.57600403 206.25000000 0.791606 0.157720 -0.590325 0.000000
254.70700073 170.06799316 198.75000000 -0.000978 -0.000978 -0.999999 0.000000
113.90599823 247.58799744 128.75000000 -0.536366 -0.178789 0.824831 0.000000
147.91999817 76.33300018 167.50000000 0.146282 0.876246 -0.459124 0.000000
52.20709991 196.17199707 88.75000000 0.724826 -0.001381 0.688930 0.000000
221.88000488 147.12899780 157.50000000 -0.293885 -0.631129 0.717849 0.000000
87.80280304 109.95099640 191.25000000 0.323064 0.689961 -0.647752 0.000000
84.63870239 266.57199097 121.25000000 0.252562 -0.816566 0.519069 0.000000
67.23639679 121.02500153 163.75000000 0.725363 0.622883 -0.293027 0.000000
119.44300079 265.78100586 196.25000000 -0.133164 -0.728661 -0.671804 0.000000
199.33599854 106.78700256 198.75000000 0.109205 0.566411 -0.816855 0.000000
188.26199341 136.84599304 203.75000000 -0.000978 -0.000978 -0.999999 0.000000
47.85649872 201.70899963 167.50000000 0.989717 -0.023699 -0.141066 0.000000
131.30900574 185.09800720 98.75000000 -0.507311 -0.181075 0.842525 0.000000
196.96299744 90.17579651 188.75000000 -0.107695 0.756816 -0.644695 0.000000
91.75789642 206.45500183 96.25000000 -0.239838 -0.366378 0.899024 0.000000
81.47460175 193.00799561 88.75000000 -0.000978 -0.000978 0.999999 0.000000
144.75599670 164.53100586 146.25000000 0.144919 0.340904 0.928861 0.000000
144.75599670 174.02400208 221.25000000 -0.301060 -0.057650 -0.951861 0.000000
47.06549835 165.32200623 137.50000000 0.994569 0.001073 -0.104070 0.000000
88.59380341 223.06700134 108.75000000 -0.313059 -0.479814 0.819617 0.000000
103.62300110 88.98930359 160.00000000 0.526046 0.826210 -0.201626 0.000000
198.54499817 138.82299805 145.00000000 -0.479784 -0.068143 0.874736 0.000000
196.96299744 174.02400208 148.75000000 -0.790110 -0.338161 0.511248 0.000000
208.03700256 140.00999451 148.75000000 -0.312031 -0.145796 0.938818 0.000000
129.72700500 239.67799377 206.25000000 -0.392597 -0.367570 -0.843066 0.000000
193.79899597 95.31739807 192.50000000 -0.087939 0.372050 -0.924038 0.000000
224.64900208 159.78500366 166.25000000 -0.632726 -0.464894 0.619299 0.000000
114.69699860 238.88699341 211.25000000 -0.023741 -0.638216 -0.769491 0.000000
247.58799744 176.00100708 185.00000000 0.201530 -0.944588 0.259111 0.000000
69.60939789 117.86100006 161.25000000 0.740147 0.641255 -0.202420 0.000000
71.19139862 265.38598633 162.50000000 -0.001227 -0.953006 0.302950 0.000000
98.87699890 131.30900574 216.25000000 0.349256 0.389615 -0.852186 0.000000
46.66989899 170.85899353 133.75000000 0.979568 0.200127 -0.019896 0.000000
140.40499878 196.17199707 217.50000000 -0.327817 -0.080309 -0.941322 0.000000
122.60700226 280.81100464 156.25000000 -0.507307 -0.761776 0.402910 0.000000
230.97700500 121.02500153 201.25000000 0.000978 0.000978 -0.999999 0.000000
124.19000244 267.36300659 191.25000000 -0.340865 -0.627910 -0.699671 0.000000
53.78910065 147.91999817 153.75000000 -0.908436 -0.302812 -0.288183 0.000000
118.65200043 161.36700439 146.25000000 0.000978 0.000978 0.999999 0.000000
98.87699890 99.66799927 131.25000000 -0.532395 -0.324553 0.781806 0.000000
44.69240189 186.67999268 135.00000000 0.976845 0.160936 -0.140975 0.000000
94.92189789 241.65499878 210.00000000 0.180712 -0.323601 -0.928776 0.000000
196.17199707 123.39800262 141.25000000 -0.281451 -0.483599 0.828805 0.000000
151.47999573 251.54299927 175.00000000 -0.882794 -0.466718 0.053378 0.000000
73.56449890 158.20300293 71.25000000 -0.586612 -0.082154 0.805690 0.000000
242.84199524 183.51600647 196.25000000 -0.860600 -0.429536 -0.273619 0.000000
188.26199341 141.59199524 203.75000000 -0.000978 -0.000978 -0.999999 0.000000
229.39500427 92.15339661 187.50000000 -0.047292 0.895845 -0.441842 0.000000
128.14500427 160.18099976 127.50000000 -0.552899 0.828631 -0.087602 0.000000
190.23899841 178.77000427 142.50000000 -0.749602 -0.479416 0.456351 0.000000
139.21899414 239.67799377 201.25000000 -0.507563 -0.428718 -0.747382 0.000000
219.90199280 82.26570129 173.75000000 0.001381 0.724826 -0.688930 0.000000
60.51269913 158.99400330 72.50000000 0.785791 0.217675 0.578922 0.000000
65.25879669 129.72700500 115.00000000 0.784709 0.569421 0.244929 0.000000
67.23639679 133.68200684 181.25000000 0.678844 0.703699 -0.209712 0.000000
137.24099731 178.77000427 100.00000000 -0.509394 0.224868 0.830634 0.000000
189.05299377 74.35549927 166.25000000 -0.131186 0.939942 -0.315117 0.000000
251.14799500 89.38480377 155.00000000 -0.915510 0.277119 0.291628 0.000000
90.96679688 226.23100281 111.25000000 -0.317771 -0.125756 0.939791 0.000000
104.41400146 175.60600281 136.25000000 -0.091700 -0.275099 -0.957033 0.000000
60.90819931 159.78500366 71.25000000 0.587327 0.587327 0.556861 0.000000
107.57800293 155.83000183 86.25000000 -0.619936 -0.088562 0.779638 0.000000
256.28900146 155.03900146 198.75000000 -0.000978 -0.000978 -0.999999 0.000000
