216.34199524 102.81600189 256.50000000 0.000978 0.000978 0.999999 0.000000
155.65199280 107.81400299 190.50000000 0.001372 0.794201 -0.607653 0.000000
149.94000244 88.53600311 244.50000000 0.125671 -0.790988 0.598786 0.000000
108.52799988 124.23600006 283.50000000 -0.101556 -0.657909 0.746219 0.000000
180.64199829 105.67199707 196.50000000 0.391315 0.465392 -0.793903 0.000000
104.60099792 222.05400085 192.00000000 0.706002 -0.492365 -0.509056 0.000000
108.52799988 177.07200623 181.50000000 0.336637 0.075248 -0.938623 0.000000
80.68199921 229.19400024 256.50000000 -0.393794 0.814692 0.425680 0.000000
152.08200073 114.95400238 199.50000000 0.058796 0.684045 -0.727066 0.000000
153.50999451 159.22200012 211.50000000 -0.000978 -0.000978 -0.999999 0.000000
62.83200073 202.77600098 163.50000000 -0.835995 0.410913 -0.363681 0.000000
204.91799927 107.09999847 256.50000000 0.467772 -0.133855 0.873654 0.000000
197.77799988 142.08599854 265.50000000 0.000978 0.000978 0.999999 0.000000
101.38800049 121.37999725 163.50000000 0.607254 0.717960 0.340258 0.000000
57.83399963 205.98899841 186.00000000 -0.981211 0.179387 -0.071032 0.000000
144.58500671 182.78399658 210.00000000 0.827260 -0.075464 -0.556728 0.000000
81.03900146 202.06199646 171.00000000 0.707712 -0.276375 -0.650200 0.000000
134.94599915 172.07400513 196.50000000 0.681561 -0.095272 -0.725533 0.000000
76.39800262 202.06199646 277.50000000 -0.501167 0.381147 0.776890 0.000000
99.24600220 217.77000427 274.50000000 -0.243469 0.811046 0.531910 0.000000
85.68000031 215.62800598 271.50000000 -0.344408 0.557844 0.755111 0.000000
104.95800018 181.35600281 295.50000000 -0.033434 0.439996 0.897377 0.000000
241.33200073 156.36599731 253.50000000 0.321870 0.773448 -0.546057 0.000000
122.09400177 170.64599609 187.50000000 0.629635 -0.085793 -0.772139 0.000000
75.32700348 218.48399353 264.00000000 -0.473961 0.661536 0.581147 0.000000
255.25500488 170.64599609 285.00000000 -0.640524 -0.282725 0.714000 0.000000
206.34599304 101.38800049 256.50000000 0.178750 -0.019605 0.983699 0.000000
228.47999573 102.45899963 252.00000000 0.369485 -0.704485 0.605955 0.000000
269.89199829 176.71499634 279.00000000 0.355448 0.692878 -0.627357 0.000000
222.76800537 136.37399292 235.50000000 0.615186 -0.126002 -0.778248 0.000000
53.19300079 166.36199951 177.00000000 -0.979365 -0.111822 -0.168347 0.000000
168.50399780 103.52999878 184.50000000 0.292920 0.786925 -0.543089 0.000000
94.24800110 230.62199402 178.50000000 0.394889 0.669164 -0.629510 0.000000
177.07200623 172.78799438 256.50000000 0.544462 0.314543 0.777575 0.000000
232.76400757 129.94799805 259.50000000 0.000978 0.000978 0.999999 0.000000
78.54000092 113.88300323 177.00000000 -0.813130 -0.540555 -0.215916 0.000000
112.81199646 114.23999786 277.50000000 -0.135334 -0.428796 0.893207 0.000000
146.36999512 126.37799835 205.50000000 0.138982 0.623178 -0.769632 0.000000
237.76199341 126.02100372 240.00000000 0.267741 0.196344 -0.943273 0.000000
104.95800018 134.23199463 205.50000000 0.104245 -0.492667 -0.863952 0.000000
75.68399811 199.20599365 166.50000000 0.863111 -0.346167 -0.367707 0.000000
114.23999786 166.36199951 298.50000000 0.000978 0.000978 0.999999 0.000000
184.92599487 116.02500153 207.00000000 0.399101 0.680625 -0.614384 0.000000
84.60900116 217.77000427 270.00000000 -0.333770 0.636606 0.695219 0.000000
128.52000427 107.81400299 190.50000000 0.463408 0.680892 -0.567132 0.000000
149.94000244 118.16699982 270.00000000 0.335188 -0.390796 0.857279 0.000000
215.62800598 166.36199951 250.50000000 -0.006611 0.889867 -0.456172 0.000000
169.93200684 182.78399658 253.50000000 0.222532 0.751630 0.620912 0.000000
121.37999725 109.24199677 181.50000000 0.688511 0.649631 -0.322385 0.000000
216.34199524 93.17700195 240.00000000 0.141632 -0.912898 0.382828 0.000000
97.81800079 214.91400146 187.50000000 0.786318 -0.177948 -0.591640 0.000000
64.97399902 189.92399597 142.50000000 -0.887773 0.350002 -0.298929 0.000000
126.37799835 181.35600281 292.50000000 0.354147 0.251283 0.900798 0.000000
112.09799957 141.72900391 201.00000000 0.584070 -0.739390 -0.334910 0.000000
179.92799377 167.78999329 211.50000000 0.523469 0.644658 -0.557132 0.000000
77.82599640 234.90600586 241.50000000 -0.563791 0.788682 0.245194 0.000000
238.47599792 119.95200348 238.50000000 -0.000978 -0.000978 -0.999999 0.000000
132.80400085 117.09600067 199.50000000 0.407303 0.069012 -0.910682 0.000000
97.81800079 109.24199677 265.50000000 -0.324291 -0.784370 0.528771 0.000000
119.23799896 123.87899780 198.00000000 0.060983 0.818306 -0.571538 0.000000
134.23199463 180.64199829 286.50000000 0.480579 0.418674 0.770556 0.000000
148.15499878 208.48800659 216.00000000 0.587191 0.144930 -0.796368 0.000000
185.63999939 88.89299774 225.00000000 0.001050 -0.996891 0.078785 0.000000
125.66400146 118.52400208 280.50000000 0.246783 -0.485902 0.838449 0.000000
89.25000000 183.49800110 292.50000000 -0.492086 0.351032 0.796635 0.000000
173.85899353 159.93600464 270.00000000 0.461509 0.311323 0.830715 0.000000
88.53600311 202.77600098 280.50000000 -0.330166 0.502427 0.799098 0.000000
182.78399658 105.67199707 262.50000000 -0.315163 -0.495708 0.809287 0.000000
214.19999695 109.24199677 226.50000000 0.404123 0.366383 -0.838122 0.000000
163.50599670 171.36000061 268.50000000 0.741358 0.366606 0.562129 0.000000
134.94599915 113.52600098 274.50000000 0.334595 -0.564123 0.754858 0.000000
114.95400238 99.95999908 259.50000000 -0.173114 -0.817398 0.549448 0.000000
60.68999863 192.06599426 268.50000000 -0.736554 0.264526 0.622507 0.000000
48.55199814 175.64399719 217.50000000 -0.972780 0.001176 -0.231726 0.000000
56.40599823 182.78399658 166.50000000 -0.887629 0.295876 -0.352949 0.000000
176.35800171 147.08399963 268.50000000 0.000978 0.000978 0.999999 0.000000
103.52999878 164.22000122 172.50000000 0.707278 0.524218 -0.474292 0.000000
149.94000244 150.65400696 226.50000000 0.212266 0.293798 -0.932001 0.000000
119.23799896 98.53199768 259.50000000 -0.219696 -0.843937 0.489392 0.000000
252.75599670 146.36999512 256.50000000 0.500039 0.275723 -0.820937 0.000000
194.20799255 126.37799835 265.50000000 0.000978 0.000978 0.999999 0.000000
196.35000610 124.94999695 265.50000000 0.000978 0.000978 0.999999 0.000000
50.69400024 202.77600098 211.50000000 -0.000978 -0.000978 0.999999 0.000000
137.80200195 82.82399750 211.50000000 -0.159052 -0.952974 -0.257958 0.000000
83.53800201 218.48399353 166.50000000 0.610241 -0.532481 -0.586575 0.000000
174.92999268 106.38600159 259.50000000 -0.094922 -0.491608 0.865628 0.000000
127.09200287 180.28500366 192.00000000 0.389504 0.255192 -0.884965 0.000000
130.66200256 124.59300232 201.00000000 0.350853 0.375582 -0.857811 0.000000
70.68599701 153.50999451 283.50000000 -0.635142 -0.527319 0.564383 0.000000
214.91400146 149.22599792 235.50000000 0.362902 0.338402 -0.868209 0.000000
91.03500366 244.18800354 222.00000000 -0.402173 0.906640 0.127518 0.000000
65.68800354 199.56300354 150.00000000 -0.701444 0.568783 -0.429490 0.000000
235.61999512 102.81600189 235.50000000 0.485154 -0.076898 -0.871041 0.000000
106.38600159 241.33200073 244.50000000 0.189009 0.754500 0.628494 0.000000
53.19300079 202.77600098 240.00000000 -0.919737 0.384912 -0.076982 0.000000
224.19599915 152.79600525 241.50000000 0.562489 0.388659 -0.729760 0.000000
89.96399689 147.08399963 148.50000000 0.944240 0.144540 -0.295835 0.000000
243.47399902 124.23600006 256.50000000 0.110738 -0.898522 0.424730 0.000000
252.04200745 132.08999634 262.50000000 -0.145376 -0.618972 0.771842 0.000000
184.21200562 167.43299866 261.00000000 -0.449859 0.127103 0.884009 0.000000
157.08000183 179.21400452 229.50000000 -0.296473 0.132809 -0.945762 0.000000
89.60700226 123.52200317 138.00000000 0.533028 0.001349 -0.846097 0.000000
253.47000122 159.57899475 261.00000000 0.349438 0.483469 -0.802590 0.000000
100.67400360 93.89099884 237.00000000 -0.445098 -0.838658 0.313911 0.000000
127.80599976 234.19200134 205.50000000 0.530305 -0.155972 -0.833336 0.000000
109.24199677 216.34199524 274.50000000 0.297203 0.554674 0.777179 0.000000
102.10199738 141.37199402 163.50000000 0.841590 -0.203976 -0.500119 0.000000
104.60099792 209.91600037 279.00000000 0.094718 0.484899 0.869426 0.000000
154.93800354 146.36999512 274.50000000 0.000978 0.000978 0.999999 0.000000
141.37199402 188.49600220 277.50000000 0.511248 0.338161 0.790110 0.000000
148.51199341 91.39199829 247.50000000 0.123074 -0.766618 0.630198 0.000000
212.05799866 161.36399841 244.50000000 0.194963 0.766034 -0.612520 0.000000
153.50999451 135.66000366 214.50000000 0.320573 0.742634 -0.587986 0.000000
89.25000000 123.87899780 138.00000000 0.533028 0.001349 -0.846097 0.000000
112.09799957 89.25000000 178.50000000 -0.099417 -0.889154 -0.446678 0.000000
168.50399780 188.13900757 246.00000000 0.487328 0.858346 0.160480 0.000000
267.75000000 145.65600586 262.50000000 0.745071 0.032394 -0.666198 0.000000
77.11199951 124.94999695 136.50000000 -0.541972 -0.702062 -0.461927 0.000000
144.94200134 129.94799805 280.50000000 0.592707 -0.249974 0.765645 0.000000
85.68000031 135.66000366 286.50000000 -0.269891 -0.464213 0.843603 0.000000
141.01499939 227.76600647 240.00000000 0.389637 -0.389637 0.834486 0.000000
91.39199829 107.09999847 256.50000000 -0.322341 -0.646302 0.691657 0.000000
62.47499847 194.20799255 150.00000000 -0.878053 0.279587 -0.388399 0.000000
227.05200195 95.67600250 247.50000000 -0.009638 -0.794477 0.607217 0.000000
227.05200195 165.64799500 271.50000000 -0.313474 -0.447597 0.837491 0.000000
268.82101440 139.94400024 261.00000000 0.434515 0.219497 -0.873509 0.000000
147.79800415 164.22000122 211.50000000 -0.000978 -0.000978 -0.999999 0.000000
98.53199768 128.52000427 196.50000000 0.642481 0.001376 -0.766300 0.000000
247.75799561 174.92999268 274.50000000 0.247950 0.559838 -0.790634 0.000000
76.39800262 125.66400146 136.50000000 -0.541972 -0.702062 -0.461927 0.000000
103.52999878 209.20199585 280.50000000 0.056691 0.485331 0.872490 0.000000
134.23199463 123.52200317 283.50000000 0.788934 -0.524362 -0.320355 0.000000
99.24600220 154.93800354 157.50000000 0.751109 -0.236780 -0.616255 0.000000
85.68000031 125.66400146 136.50000000 0.570011 0.234528 -0.787454 0.000000
86.39399719 125.66400146 136.50000000 0.587149 0.174476 -0.790452 0.000000
124.94999695 212.05799866 271.50000000 0.000978 0.000978 0.999999 0.000000
182.78399658 127.80599976 265.50000000 0.000978 0.000978 0.999999 0.000000
105.67199707 177.07200623 298.50000000 -0.003890 0.411062 0.911599 0.000000
125.66400146 146.72700500 294.00000000 0.001340 -0.516071 0.856545 0.000000
269.17800903 151.36799622 277.50000000 0.369692 -0.505300 0.779744 0.000000
86.39399719 152.08200073 292.50000000 -0.197434 0.017524 0.980160 0.000000
227.05200195 97.10399628 247.50000000 0.170257 -0.803072 0.571040 0.000000
89.60700226 170.64599609 162.00000000 0.588786 0.609031 -0.531426 0.000000
95.67600250 95.31900024 228.00000000 -0.488332 -0.862189 0.134762 0.000000
148.51199341 105.67199707 187.50000000 0.073601 0.645096 -0.760549 0.000000
129.94799805 183.49800110 286.50000000 0.456727 0.630718 0.627372 0.000000
85.68000031 126.37799835 136.50000000 0.570011 0.234528 -0.787454 0.000000
131.37600708 147.44099426 222.00000000 -0.236210 0.154395 -0.959358 0.000000
146.72700500 209.91600037 258.00000000 0.603997 0.549857 0.576927 0.000000
87.82199860 215.27099609 270.00000000 -0.286541 0.555667 0.780467 0.000000
81.39600372 105.31500244 231.00000000 -0.619249 -0.783627 -0.049597 0.000000
156.36599731 204.20399475 229.50000000 0.930695 0.186139 -0.314897 0.000000
127.09200287 98.53199768 259.50000000 -0.893665 -0.290926 -0.341651 0.000000
47.48099899 174.21600342 225.00000000 -0.987915 0.151899 0.030837 0.000000
104.95800018 207.77400208 280.50000000 0.118896 0.474150 0.872379 0.000000
102.81600189 176.35800171 298.50000000 -0.205894 0.623876 0.753914 0.000000
50.69400024 185.63999939 247.50000000 -0.976300 0.082279 0.200172 0.000000
87.10800171 127.09200287 136.50000000 0.559071 0.220240 -0.799333 0.000000
115.66799927 115.31099701 180.00000000 0.487694 0.801098 -0.346982 0.000000
251.32800293 125.30699921 255.00000000 0.343964 -0.798316 0.494348 0.000000
61.04700089 126.37799835 222.00000000 -0.842214 -0.526202 -0.117417 0.000000
72.11399841 127.09200287 175.50000000 -0.929862 -0.364316 -0.051294 0.000000
100.67400360 240.61799622 247.50000000 -0.032367 0.769776 0.637493 0.000000
89.96399689 192.06599426 178.50000000 0.552693 0.373353 -0.745076 0.000000
257.75399780 173.50199890 274.50000000 -0.097545 0.872246 -0.479241 0.000000
124.94999695 124.23600006 283.50000000 0.341698 -0.478377 0.808949 0.000000
169.93200684 140.65800476 214.50000000 -0.049135 0.394405 -0.917622 0.000000
113.52600098 232.76400757 256.50000000 0.352420 0.742193 0.570043 0.000000
273.46200562 171.36000061 277.50000000 0.395104 0.502416 -0.769071 0.000000
59.26200104 212.05799866 196.50000000 -0.000978 -0.000978 -0.999999 0.000000
77.11199951 174.92999268 289.50000000 -0.491395 0.210166 0.845199 0.000000
104.95800018 118.52400208 277.50000000 -0.009473 -0.529123 0.848492 0.000000
157.79400635 142.08599854 217.50000000 -0.364162 0.420914 -0.830793 0.000000
47.83800125 162.07800293 214.50000000 -0.845153 -0.170813 -0.506498 0.000000
121.37999725 192.06599426 193.50000000 0.252710 0.473257 -0.843899 0.000000
156.36599731 199.91999817 256.50000000 0.689941 0.576891 0.437240 0.000000
220.62600708 100.67400360 223.50000000 0.794894 0.440174 -0.417601 0.000000
227.05200195 98.53199768 226.50000000 -0.540922 0.497380 -0.678245 0.000000
151.36799622 122.09400177 271.50000000 0.328049 -0.313070 0.891275 0.000000
142.08599854 232.76400757 235.50000000 0.697260 0.697260 0.166305 0.000000
262.75201416 134.94599915 259.50000000 0.483186 -0.250030 -0.839057 0.000000
63.54600143 137.80200195 184.50000000 -0.792510 -0.388992 -0.469695 0.000000
247.04400635 165.64799500 277.50000000 -0.680953 -0.206302 0.702669 0.000000
224.91000366 165.64799500 271.50000000 -0.293123 -0.422036 0.857884 0.000000
100.67400360 90.32099915 204.00000000 -0.000978 -0.000978 0.999999 0.000000
82.11000061 193.49400330 283.50000000 -0.040660 0.590267 0.806184 0.000000
69.61499786 134.23199463 168.00000000 -0.926978 -0.375114 -0.001272 0.000000
93.53399658 167.07600403 298.50000000 -0.460526 -0.319068 0.828318 0.000000
172.43099976 184.92599487 249.00000000 0.573527 0.742499 0.346066 0.000000
117.80999756 116.73899841 279.00000000 -0.067047 -0.592010 0.803137 0.000000
116.38200378 138.51600647 211.50000000 0.718949 -0.570882 -0.396492 0.000000
175.64399719 118.52400208 202.50000000 0.550836 0.276207 -0.787585 0.000000
173.14500427 157.08000183 219.00000000 -0.872050 0.398868 0.283606 0.000000
77.11199951 118.52400208 262.50000000 -0.594931 -0.671589 0.441616 0.000000
86.03700256 103.52999878 180.00000000 -0.739599 -0.671197 -0.049877 0.000000
89.96399689 207.05999756 280.50000000 -0.445974 0.525553 0.724501 0.000000
244.90199280 141.37199402 247.50000000 0.557118 0.179667 -0.810765 0.000000
162.43499756 163.50599670 207.00000000 -0.255115 0.793519 -0.552489 0.000000
243.47399902 115.66799927 241.50000000 0.515354 0.037105 -0.856174 0.000000
156.36599731 177.07200623 265.50000000 0.635499 0.428670 0.642171 0.000000
105.67199707 176.35800171 298.50000000 -0.001297 0.416342 0.909207 0.000000
142.08599854 214.91400146 256.50000000 0.327304 0.837835 0.436927 0.000000
114.95400238 144.58500671 195.00000000 0.472708 -0.835376 -0.280525 0.000000
156.36599731 187.78199768 262.50000000 0.854343 -0.009448 0.519624 0.000000
82.82399750 130.66200256 136.50000000 0.396478 0.164603 -0.903167 0.000000
152.79600525 147.79800415 223.50000000 -0.350704 0.531712 -0.770902 0.000000
159.57899475 189.92399597 231.00000000 0.204205 -0.041796 -0.978035 0.000000
84.96600342 130.66200256 136.50000000 0.399072 0.161631 -0.902561 0.000000
69.97200012 186.35400391 280.50000000 -0.664201 0.553221 0.502775 0.000000
120.30899811 194.20799255 285.00000000 0.112283 0.461922 0.879784 0.000000
71.75700378 214.91400146 264.00000000 -0.694468 0.591706 0.409388 0.000000
244.90199280 105.67199707 241.50000000 0.524724 -0.838080 -0.149288 0.000000
94.24800110 155.29499817 150.00000000 0.743479 0.142688 -0.653360 0.000000
99.24600220 210.63000488 190.50000000 0.764423 -0.076587 -0.640150 0.000000
144.94200134 222.05400085 214.50000000 0.718379 0.117499 -0.685658 0.000000
219.91200256 129.94799805 259.50000000 0.112506 -0.141540 0.983519 0.000000
106.38600159 233.83500671 258.00000000 0.138746 0.789209 0.598247 0.000000
79.96800232 182.78399658 289.50000000 -0.393395 0.396555 0.829448 0.000000
104.95800018 196.35000610 286.50000000 -0.217444 0.862276 0.457381 0.000000
114.23999786 125.66400146 286.50000000 -0.032309 -0.639159 0.768396 0.000000
161.00700378 178.50000000 228.00000000 -0.194463 0.583388 -0.788570 0.000000
204.91799927 96.38999939 256.50000000 0.062572 -0.374103 0.925274 0.000000
119.23799896 117.09600067 193.50000000 0.195126 0.830421 -0.521849 0.000000
151.36799622 97.10399628 256.50000000 -0.001384 -0.695951 0.718088 0.000000
186.35400391 122.80799866 211.50000000 0.481835 0.076814 -0.872889 0.000000
129.23399353 96.38999939 256.50000000 0.102951 -0.884251 0.455523 0.000000
232.76400757 95.31900024 234.00000000 0.532982 -0.841625 -0.087163 0.000000
108.52799988 239.19000244 190.50000000 0.541628 0.541628 -0.642867 0.000000
153.50999451 127.09200287 271.50000000 0.239047 -0.281482 0.929314 0.000000
264.17999268 133.51800537 259.50000000 0.511246 -0.429052 -0.744676 0.000000
262.03799438 135.66000366 256.50000000 0.453258 -0.070262 -0.888606 0.000000
82.11000061 113.88300323 165.00000000 -0.795311 -0.589395 -0.141753 0.000000
210.63000488 143.51400757 229.50000000 0.360028 0.225929 -0.905172 0.000000
264.89401245 136.37399292 259.50000000 0.413214 -0.003886 -0.910626 0.000000
247.75799561 127.09200287 259.50000000 -0.565387 -0.448641 0.692141 0.000000
56.40599823 208.48800659 196.50000000 -0.726997 0.579964 -0.367583 0.000000
82.11000061 182.07000732 289.50000000 -0.304332 0.503015 0.808924 0.000000
155.65199280 143.87100220 219.00000000 -0.157624 0.586961 -0.794123 0.000000
127.80599976 138.87300110 210.00000000 0.246789 0.811764 -0.529277 0.000000
123.52200317 182.78399658 292.50000000 0.300938 0.315763 0.899850 0.000000
141.37199402 199.91999817 271.50000000 0.383568 0.496858 0.778465 0.000000
213.48599243 142.80000305 229.50000000 0.491466 0.189715 -0.849982 0.000000
176.35800171 130.66200256 211.50000000 0.244188 0.631739 -0.735716 0.000000
91.39199829 222.05400085 175.50000000 0.797339 -0.122327 -0.591004 0.000000
68.54399872 138.51600647 274.50000000 -0.734147 -0.356493 0.577876 0.000000
112.81199646 129.94799805 289.50000000 0.138696 -0.333695 0.932422 0.000000
155.65199280 141.37199402 274.50000000 0.467856 -0.103183 0.877761 0.000000
83.53800201 213.12899780 270.00000000 -0.076250 0.608561 0.789835 0.000000
67.11599731 226.33799744 241.50000000 -0.830427 0.553146 0.066491 0.000000
124.23600006 117.80999756 196.50000000 -0.019777 0.905804 -0.423236 0.000000
91.39199829 229.90800476 175.50000000 0.351400 0.671745 -0.652132 0.000000
184.21200562 127.09200287 265.50000000 0.000978 0.000978 0.999999 0.000000
53.90700150 159.22200012 186.00000000 -0.913736 -0.404484 -0.038459 0.000000
111.38400269 175.64399719 298.50000000 0.000978 0.000978 0.999999 0.000000
94.24800110 168.14700317 165.00000000 0.701851 0.488462 -0.518469 0.000000
104.95800018 117.09600067 166.50000000 0.559289 0.826958 0.057760 0.000000
77.82599640 117.80999756 160.50000000 -0.642481 0.001376 -0.766300 0.000000
82.11000061 237.04800415 184.50000000 -0.120269 0.740918 -0.660739 0.000000
88.53600311 241.33200073 235.50000000 -0.184333 0.958799 0.216161 0.000000
96.03299713 206.34599304 186.00000000 0.856277 -0.157155 -0.492029 0.000000
107.81400299 207.05999756 280.50000000 0.135345 0.434530 0.890430 0.000000
56.76300049 142.80000305 201.00000000 -0.918015 -0.379630 -0.114579 0.000000
169.93200684 150.65400696 271.50000000 0.461729 -0.178496 0.868876 0.000000
86.39399719 178.50000000 169.50000000 0.493770 0.819815 -0.289992 0.000000
170.64599609 179.92799377 256.50000000 0.261185 0.444473 0.856870 0.000000
144.94200134 210.63000488 259.50000000 0.713521 0.390541 0.581692 0.000000
180.99899292 174.92999268 246.00000000 0.924539 0.345478 0.160850 0.000000
77.11199951 142.80000305 283.50000000 -0.379308 -0.456130 0.805029 0.000000
129.94799805 169.21800232 190.50000000 0.331077 -0.513409 -0.791706 0.000000
189.92399597 156.36599731 226.50000000 0.199180 0.628419 -0.751942 0.000000
237.76199341 168.50399780 274.50000000 -0.051313 -0.124292 0.990918 0.000000
146.36999512 230.97900391 231.00000000 0.732085 0.662362 0.159149 0.000000
205.98899841 125.66400146 225.00000000 0.411432 0.306648 -0.858307 0.000000
117.09600067 118.52400208 280.50000000 -0.258757 -0.658797 0.706421 0.000000
141.37199402 211.34399414 211.50000000 -0.000978 -0.000978 -0.999999 0.000000
79.25399780 148.51199341 286.50000000 -0.454818 -0.296486 0.839784 0.000000
226.33799744 139.94400024 238.50000000 0.521706 0.171909 -0.835626 0.000000
137.80200195 153.50999451 289.50000000 0.000978 0.000978 0.999999 0.000000
52.83599854 202.41900635 222.00000000 -0.974734 0.147534 0.167710 0.000000
114.59700012 163.50599670 180.00000000 0.593948 0.549952 -0.587179 0.000000
102.81600189 234.90600586 256.50000000 -0.052226 0.808791 0.585773 0.000000
189.21000671 161.36399841 229.50000000 0.147167 0.554478 -0.819082 0.000000
64.26000214 200.63400269 268.50000000 -0.552116 0.351347 0.756124 0.000000
116.02500153 146.36999512 192.00000000 0.618388 -0.703232 -0.350800 0.000000
92.81999969 212.05799866 181.50000000 0.803186 -0.284494 -0.523407 0.000000
154.22399902 92.10600281 247.50000000 0.081308 -0.837326 0.540624 0.000000
226.33799744 144.22799683 238.50000000 0.504209 0.259086 -0.823801 0.000000
207.05999756 170.28900146 261.00000000 0.243777 0.731332 0.636966 0.000000
230.62199402 93.53399658 235.50000000 0.522358 -0.852411 -0.023186 0.000000
223.48199463 91.39199829 226.50000000 0.395503 -0.617249 -0.680133 0.000000
147.79800415 115.66799927 268.50000000 0.280732 -0.431069 0.857536 0.000000
160.64999390 92.81999969 181.50000000 0.228011 -0.962858 -0.144624 0.000000
141.37199402 82.11000061 217.50000000 0.044817 -0.995803 -0.079795 0.000000
92.10600281 122.09400177 277.50000000 -0.414097 -0.636945 0.650249 0.000000
205.63200378 91.03500366 210.00000000 0.262571 -0.922584 -0.282658 0.000000
91.03500366 162.07800293 150.00000000 0.667845 0.473685 -0.574113 0.000000
204.20399475 116.38200378 220.50000000 0.638881 0.362963 -0.678298 0.000000
222.41099548 179.21400452 270.00000000 0.808234 0.559546 -0.183483 0.000000
164.57699585 156.36599731 210.00000000 -0.279258 -0.877020 -0.390961 0.000000
63.54600143 127.09200287 250.50000000 -0.841299 -0.514869 0.164699 0.000000
142.44299316 109.24199677 267.00000000 0.399376 -0.737941 0.544006 0.000000
249.18600464 114.23999786 247.50000000 0.996789 -0.077991 -0.018162 0.000000
75.68399811 116.38200378 181.50000000 -0.824688 -0.514470 -0.234967 0.000000
121.37999725 222.76800537 205.50000000 0.528267 -0.037241 -0.848261 0.000000
199.91999817 126.02100372 222.00000000 0.339041 0.072557 -0.937969 0.000000
141.37199402 187.06799316 277.50000000 0.511248 0.338161 0.790110 0.000000
273.46200562 162.79200745 280.50000000 0.602660 0.085268 0.793430 0.000000
181.35600281 144.22799683 268.50000000 0.366974 0.029825 0.929753 0.000000
186.35400391 161.36399841 229.50000000 0.244312 0.679345 -0.691955 0.000000
157.08000183 151.36799622 223.50000000 -0.563483 0.677183 -0.473192 0.000000
137.80200195 151.36799622 289.50000000 0.366409 -0.410441 0.835035 0.000000
119.23799896 235.61999512 199.50000000 0.767253 0.058580 -0.638663 0.000000
227.76600647 103.52999878 232.50000000 0.445280 0.264719 -0.855365 0.000000
115.66799927 193.49400330 286.50000000 0.118414 0.551135 0.825971 0.000000
204.20399475 130.66200256 262.50000000 -0.007385 -0.077017 0.997002 0.000000
229.55099487 154.22399902 246.00000000 0.515940 0.404562 -0.755073 0.000000
130.30499268 144.94200134 222.00000000 -0.008848 0.350140 -0.936656 0.000000
54.62099838 153.50999451 195.00000000 -0.956605 -0.207376 -0.204700 0.000000
125.66400146 82.82399750 214.50000000 -0.242814 -0.970072 -0.001184 0.000000
174.21600342 154.93800354 223.50000000 -0.659401 0.471480 0.585575 0.000000
90.67800140 204.20399475 181.50000000 0.605723 -0.292473 -0.739973 0.000000
91.39199829 244.54499817 219.00000000 -0.425264 0.899328 0.101784 0.000000
182.07000732 151.36799622 220.50000000 0.334703 0.387145 -0.859123 0.000000
239.90400696 176.35800171 271.50000000 -0.972845 0.228407 -0.037464 0.000000
201.34800720 102.45899963 258.00000000 0.249445 -0.367526 0.895936 0.000000
58.90499878 144.22799683 189.00000000 -0.945555 -0.264099 -0.190206 0.000000
117.09600067 149.58299255 297.00000000 0.234517 -0.419740 0.876824 0.000000
72.11399841 230.97900391 204.00000000 -0.708486 0.705724 0.001381 0.000000
105.67199707 147.44099426 297.00000000 -0.034842 -0.222265 0.974364 0.000000
118.16699982 233.47799683 198.00000000 0.727217 -0.485364 -0.485364 0.000000
88.53600311 240.61799622 190.50000000 -0.035492 0.918838 -0.393036 0.000000
80.68199921 140.65800476 136.50000000 0.665691 -0.265323 -0.697466 0.000000
179.21400452 104.95800018 259.50000000 -0.194260 -0.452284 0.870461 0.000000
84.25199890 234.19200134 250.50000000 -0.425644 0.744467 0.514389 0.000000
197.06399536 119.23799896 217.50000000 0.484388 0.412627 -0.771432 0.000000
245.61599731 165.29100037 276.00000000 -0.690827 -0.351130 0.632033 0.000000
129.23399353 110.66999817 193.50000000 0.505430 0.439576 -0.742505 0.000000
96.38999939 168.50399780 298.50000000 -0.218282 0.054875 0.974342 0.000000
107.09999847 147.08399963 295.50000000 0.117764 -0.446937 0.886780 0.000000
96.38999939 205.27499390 282.00000000 -0.031123 0.472255 0.880912 0.000000
141.37199402 223.48199463 211.50000000 0.411789 0.014380 -0.911166 0.000000
78.18299866 108.52799988 219.00000000 -0.648872 -0.752337 0.113811 0.000000
135.66000366 215.62800598 262.50000000 0.500913 0.461236 0.732357 0.000000
169.21800232 104.24400330 187.50000000 0.276708 0.842492 -0.462211 0.000000
60.68999863 189.21000671 154.50000000 -0.902275 0.235440 -0.361203 0.000000
147.79800415 114.59700012 198.00000000 0.073657 0.634031 -0.769792 0.000000
75.68399811 229.19400024 175.50000000 -0.177191 0.795087 -0.580035 0.000000
91.39199829 173.14500427 168.00000000 0.660840 0.637652 -0.395841 0.000000
77.46900177 109.24199677 237.00000000 -0.639215 -0.768462 0.029502 0.000000
244.18800354 134.94599915 262.50000000 -0.229212 -0.524571 0.819931 0.000000
50.33700180 189.92399597 240.00000000 -0.967743 0.241623 0.071360 0.000000
67.83000183 209.20199585 265.50000000 -0.418923 0.474345 0.774274 0.000000
175.64399719 133.51800537 214.50000000 -0.098152 0.291838 -0.951418 0.000000
84.25199890 227.05200195 169.50000000 0.223737 0.339215 -0.913715 0.000000
247.75799561 153.50999451 253.50000000 0.001371 0.604596 -0.796531 0.000000
180.64199829 174.21600342 226.50000000 0.581814 0.773139 -0.252485 0.000000
145.65600586 214.91400146 253.50000000 0.585938 0.656452 0.475130 0.000000
106.38600159 226.33799744 265.50000000 0.185458 0.761759 0.620749 0.000000
76.39800262 109.24199677 214.50000000 -0.697260 -0.697260 0.166305 0.000000
110.31300354 197.77799988 285.00000000 0.101259 0.417520 0.903008 0.000000
99.95999908 165.29100037 168.00000000 0.609391 0.575630 -0.545245 0.000000
131.37600708 242.40299988 228.00000000 0.200302 0.796622 0.570326 0.000000
154.22399902 132.80400085 274.50000000 0.687995 -0.140008 0.712082 0.000000
60.68999863 194.20799255 157.50000000 -0.904526 0.298567 -0.304450 0.000000
157.08000183 125.66400146 271.50000000 0.346793 -0.142309 0.927083 0.000000
217.05599976 95.67600250 250.50000000 0.213517 -0.870492 0.443458 0.000000
82.11000061 144.22799683 136.50000000 0.577477 0.100368 -0.810214 0.000000
78.54000092 175.64399719 289.50000000 -0.562212 0.134282 0.816019 0.000000
63.18899918 135.66000366 186.00000000 -0.867940 -0.329113 -0.371974 0.000000
259.89599609 168.50399780 286.50000000 -0.221036 -0.382055 0.897317 0.000000
170.64599609 101.38800049 256.50000000 0.332909 -0.839305 0.429812 0.000000
63.54600143 206.34599304 262.50000000 -0.731359 0.536550 0.420985 0.000000
189.92399597 112.09799957 262.50000000 0.000978 0.000978 0.999999 0.000000
63.90299988 192.77999878 270.00000000 -0.641401 0.286311 0.711780 0.000000
61.40399933 142.08599854 268.50000000 -0.753475 -0.295951 0.587102 0.000000
132.80400085 240.61799622 214.50000000 0.639663 0.609442 -0.468414 0.000000
136.37399292 168.50399780 289.50000000 0.718060 0.020996 0.695664 0.000000
173.50199890 156.72300720 216.00000000 -0.980361 -0.176149 -0.088682 0.000000
94.24800110 189.92399597 181.50000000 0.495662 0.479085 -0.724429 0.000000
62.11800003 127.44899750 237.00000000 -0.808255 -0.570095 0.147361 0.000000
60.33300018 135.66000366 258.00000000 -0.909196 -0.336039 0.245847 0.000000
74.97000122 218.48399353 166.50000000 -0.569972 0.647313 -0.506081 0.000000
207.77400208 128.52000427 262.50000000 0.000978 0.000978 0.999999 0.000000
115.66799927 206.34599304 199.50000000 0.441748 0.428803 -0.788027 0.000000
63.54600143 146.01300049 147.00000000 -0.940679 -0.338236 -0.026804 0.000000
205.63200378 124.94999695 262.50000000 0.000978 0.000978 0.999999 0.000000
84.25199890 167.07600403 145.50000000 0.882130 0.278014 -0.380203 0.000000
99.24600220 150.65400696 295.50000000 0.001376 -0.642481 0.766300 0.000000
194.20799255 89.60700226 234.00000000 0.140185 -0.990125 0.001104 0.000000
84.25199890 220.62600708 265.50000000 -0.441234 0.584426 0.680998 0.000000
147.08399963 130.66200256 280.50000000 0.592707 -0.249974 0.765645 0.000000
72.82800293 112.81199646 208.50000000 -0.885552 -0.195321 0.421482 0.000000
149.94000244 95.67600250 253.50000000 -0.260317 -0.812127 0.522193 0.000000
84.96600342 182.78399658 289.50000000 -0.327175 0.312236 0.891889 0.000000
210.63000488 131.37600708 262.50000000 0.173783 -0.005679 0.984768 0.000000
144.94200134 117.80999756 271.50000000 0.357853 -0.529493 0.769141 0.000000
84.96600342 104.24400330 187.50000000 -0.714248 -0.690490 -0.114339 0.000000
142.08599854 188.49600220 277.50000000 0.511248 0.338161 0.790110 0.000000
164.22000122 90.67800140 190.50000000 0.151768 -0.939322 -0.307638 0.000000
127.09200287 94.60500336 252.00000000 0.108085 -0.923508 0.368035 0.000000
169.21800232 180.28500366 228.00000000 0.602750 0.659519 -0.449141 0.000000
86.39399719 149.94000244 292.50000000 -0.329467 -0.212513 0.919940 0.000000
124.94999695 150.65400696 220.50000000 0.387651 -0.750767 -0.534860 0.000000
202.06199646 99.60299683 204.00000000 0.557618 0.681534 -0.473892 0.000000
122.09400177 174.21600342 295.50000000 0.342112 0.133273 0.930160 0.000000
269.17800903 146.36999512 274.50000000 0.054514 -0.535353 0.842867 0.000000
169.93200684 167.78999329 211.50000000 -0.250757 0.537337 -0.805227 0.000000
154.22399902 180.99899292 231.00000000 0.597312 0.549933 -0.583775 0.000000
68.54399872 204.20399475 268.50000000 -0.586496 0.430319 0.686184 0.000000
179.21400452 123.87899780 207.00000000 0.290360 0.560092 -0.775879 0.000000
122.80799866 91.74900055 246.00000000 -0.059361 -0.929989 0.362762 0.000000
189.92399597 103.52999878 199.50000000 0.232320 0.587816 -0.774919 0.000000
186.35400391 114.23999786 205.50000000 0.483491 0.503429 -0.716098 0.000000
240.61799622 144.22799683 247.50000000 0.403656 0.369102 -0.837154 0.000000
164.22000122 164.22000122 274.50000000 0.095642 0.509616 0.855070 0.000000
142.80000305 86.03700256 237.00000000 -0.242814 -0.970072 0.001184 0.000000
102.10199738 150.65400696 295.50000000 -0.480005 -0.292381 0.827109 0.000000
72.82800293 152.79600525 286.50000000 -0.707717 -0.497900 0.501230 0.000000
142.80000305 106.38600159 262.50000000 0.290170 -0.690958 0.662101 0.000000
56.04899979 164.22000122 165.00000000 -0.960921 -0.134660 -0.241864 0.000000
107.09999847 212.77200317 196.50000000 0.490473 -0.031249 -0.870896 0.000000
131.37600708 218.48399353 208.50000000 0.445142 0.148381 -0.883081 0.000000
56.40599823 217.05599976 217.50000000 -0.860796 0.469932 0.195432 0.000000
144.94200134 206.34599304 211.50000000 0.576050 0.324331 -0.750317 0.000000
261.32400513 147.79800415 259.50000000 0.193196 0.322933 -0.926493 0.000000
257.04000854 172.07400513 271.50000000 0.347967 0.811923 -0.468722 0.000000
166.36199951 98.53199768 256.50000000 0.314296 -0.853089 0.416481 0.000000
224.91000366 129.23399353 259.50000000 -0.134176 -0.203181 0.969904 0.000000
181.35600281 130.66200256 265.50000000 0.000978 0.000978 0.999999 0.000000
243.47399902 159.57899475 258.00000000 0.134106 0.205630 -0.969398 0.000000
136.37399292 97.10399628 256.50000000 0.049950 -0.663623 0.746398 0.000000
68.54399872 159.93600464 283.50000000 -0.839650 0.210291 0.500764 0.000000
136.01699829 187.78199768 201.00000000 0.651541 0.237067 -0.720620 0.000000
149.22599792 184.92599487 271.50000000 0.591528 0.393803 0.703572 0.000000
207.05999756 142.08599854 262.50000000 0.342992 -0.246662 0.906374 0.000000
252.04200745 149.22599792 274.50000000 -0.146645 -0.136786 0.979686 0.000000
167.07600403 189.56700134 240.00000000 0.049620 0.952964 -0.298994 0.000000
114.95400238 122.09400177 196.50000000 -0.261648 0.797477 -0.543663 0.000000
242.04600525 178.50000000 274.50000000 -0.158106 0.963009 -0.218212 0.000000
97.10399628 105.67199707 151.50000000 -0.387973 -0.921598 -0.011601 0.000000
166.36199951 127.09200287 268.50000000 0.122861 -0.085418 0.988741 0.000000
135.66000366 176.35800171 286.50000000 0.581932 0.335543 0.740788 0.000000
81.75299835 152.08200073 138.00000000 0.972780 0.001176 -0.231726 0.000000
147.08399963 126.37799835 277.50000000 0.548415 -0.501456 0.669166 0.000000
143.15699768 222.05400085 210.00000000 0.553354 0.115343 -0.824921 0.000000
122.09400177 88.17900085 180.00000000 0.265050 -0.853369 -0.448899 0.000000
210.63000488 172.78799438 265.50000000 0.050047 0.439606 0.896795 0.000000
209.20199585 162.07800293 265.50000000 -0.175865 -0.065800 0.982213 0.000000
174.92999268 92.46299744 186.00000000 0.001176 -0.972780 -0.231726 0.000000
91.39199829 138.51600647 289.50000000 -0.431551 -0.464121 0.773535 0.000000
179.92799377 108.52799988 262.50000000 -0.201895 -0.618013 0.759802 0.000000
52.47900009 194.92199707 252.00000000 -0.883541 -0.176708 0.433738 0.000000
137.08799744 134.94599915 286.50000000 0.364710 -0.084785 0.927253 0.000000
74.97000122 128.52000427 271.50000000 -0.506597 -0.587383 0.631142 0.000000
128.52000427 122.09400177 199.50000000 0.258594 0.331644 -0.907272 0.000000
258.11099243 142.80000305 270.00000000 -0.166303 -0.694202 0.700305 0.000000
112.81199646 187.06799316 292.50000000 0.017538 0.492426 0.870178 0.000000
217.77000427 157.08000183 241.50000000 0.340456 0.646704 -0.682542 0.000000
150.65400696 223.48199463 226.50000000 0.843107 0.342561 -0.414515 0.000000
60.33300018 128.52000427 219.00000000 -0.863958 -0.493894 -0.098209 0.000000
124.59300232 83.53800201 195.00000000 -0.159497 -0.975820 -0.149450 0.000000
90.67800140 168.50399780 160.50000000 0.623931 0.660535 -0.417618 0.000000
62.83200073 195.63600159 268.50000000 -0.730717 0.264706 0.629272 0.000000
114.23999786 86.75099945 180.00000000 -0.203070 -0.895553 -0.395913 0.000000
167.78999329 159.22200012 271.50000000 0.318359 -0.079917 0.944596 0.000000
93.17700195 221.33999634 177.00000000 0.824541 -0.127870 -0.551164 0.000000
121.37999725 94.24800110 253.50000000 0.135313 -0.947191 0.290722 0.000000
79.25399780 174.92999268 289.50000000 -0.540989 0.108778 0.833965 0.000000
247.75799561 144.94200134 268.50000000 -0.000978 -0.000978 0.999999 0.000000
124.94999695 159.22200012 193.50000000 0.646701 -0.376831 -0.663156 0.000000
122.80799866 141.37199402 214.50000000 -0.046831 0.776260 -0.628671 0.000000
129.59100342 184.92599487 195.00000000 0.265274 0.501073 -0.823745 0.000000
245.61599731 157.43699646 258.00000000 0.146687 0.361827 -0.920633 0.000000
140.65800476 234.90600586 232.50000000 0.697260 0.697260 0.166305 0.000000
215.62800598 178.50000000 265.50000000 -0.502630 0.721597 -0.476088 0.000000
229.90800476 180.64199829 271.50000000 0.523137 0.550051 -0.650978 0.000000
79.25399780 159.22200012 289.50000000 -0.557787 -0.157018 0.814997 0.000000
62.83200073 209.20199585 172.50000000 -0.778374 0.427375 -0.459875 0.000000
139.22999573 209.91600037 265.50000000 0.551482 0.645925 0.527871 0.000000
237.76199341 129.94799805 259.50000000 0.000978 0.000978 0.999999 0.000000
50.33700180 167.07600403 207.00000000 -0.980874 -0.046369 -0.189041 0.000000
116.38200378 84.60900116 195.00000000 -0.157977 -0.982836 -0.095269 0.000000
167.78999329 89.25000000 238.50000000 -0.026154 -0.988152 0.151236 0.000000
80.68199921 125.30699921 270.00000000 -0.615135 -0.594911 0.517387 0.000000
118.88099670 142.80000305 210.00000000 0.807824 -0.487233 -0.331700 0.000000
150.65400696 173.85899353 219.00000000 0.625895 0.733644 -0.264619 0.000000
84.96600342 235.26300049 180.00000000 -0.132501 0.772675 -0.620820 0.000000
85.68000031 199.20599365 283.50000000 -0.001376 0.642481 0.766300 0.000000
208.48800659 129.23399353 262.50000000 0.000978 0.000978 0.999999 0.000000
218.48399353 103.52999878 256.50000000 0.000978 0.000978 0.999999 0.000000
87.82199860 211.34399414 274.50000000 -0.269366 0.509149 0.817441 0.000000
150.65400696 171.36000061 277.50000000 0.474670 0.381345 0.793262 0.000000
169.21800232 126.37799835 205.50000000 0.123573 0.647641 -0.751859 0.000000
79.25399780 231.33599854 250.50000000 -0.535470 0.808637 0.243677 0.000000
252.75599670 164.22000122 280.50000000 -0.563099 0.026287 0.825971 0.000000
227.05200195 172.07400513 262.50000000 0.318105 0.718562 -0.618448 0.000000
162.07800293 182.78399658 232.50000000 -0.000978 -0.000978 -0.999999 0.000000
127.09200287 134.94599915 289.50000000 0.297741 -0.215898 0.929913 0.000000
104.24400330 117.80999756 277.50000000 -0.101367 -0.639052 0.762455 0.000000
88.53600311 129.23399353 283.50000000 -0.189742 -0.683379 0.704976 0.000000
155.65199280 202.06199646 226.50000000 0.902841 0.055497 -0.426379 0.000000
174.21600342 105.67199707 259.50000000 0.034374 -0.523864 0.851108 0.000000
107.09999847 122.09400177 199.50000000 -0.137192 0.821678 -0.553194 0.000000
117.45300293 242.75999451 237.00000000 0.202591 0.934712 0.292010 0.000000
218.84100342 155.65199280 240.00000000 0.410381 0.629694 -0.659600 0.000000
272.03399658 167.07600403 274.50000000 0.414344 0.466340 -0.781566 0.000000
127.80599976 208.48800659 205.50000000 0.419128 0.296307 -0.858215 0.000000
149.94000244 164.22000122 280.50000000 0.486236 0.085972 0.869588 0.000000
105.67199707 174.92999268 181.50000000 -0.000978 -0.000978 -0.999999 0.000000
244.18800354 164.22000122 259.50000000 0.321118 0.414195 -0.851660 0.000000
107.09999847 90.32099915 180.00000000 -0.423247 -0.825887 -0.372521 0.000000
224.91000366 93.53399658 241.50000000 0.020722 -0.964162 0.264505 0.000000
159.93600464 96.38999939 253.50000000 0.184891 -0.889515 0.417825 0.000000
184.21200562 172.07400513 241.50000000 0.801378 0.295577 0.520026 0.000000
176.35800171 133.51800537 265.50000000 0.068474 -0.178994 0.981464 0.000000
229.90800476 137.08799744 238.50000000 0.459765 0.108929 -0.881334 0.000000
253.47000122 142.80000305 256.50000000 0.330207 0.229271 -0.915641 0.000000
161.36399841 193.13699341 234.00000000 0.828419 0.090451 -0.552758 0.000000
74.25599670 114.59700012 249.00000000 -0.633269 -0.695131 0.340240 0.000000
262.75201416 174.92999268 274.50000000 0.081937 0.573558 -0.815057 0.000000
184.92599487 129.94799805 265.50000000 0.000978 0.000978 0.999999 0.000000
70.68599701 199.20599365 274.50000000 -0.763527 0.270317 0.586477 0.000000
53.54999924 172.07400513 172.50000000 -0.975922 0.064574 -0.208343 0.000000
142.44299316 180.64199829 210.00000000 0.827260 -0.075464 -0.556728 0.000000
240.61799622 172.07400513 268.50000000 -0.478536 0.579281 -0.659876 0.000000
189.21000671 130.66200256 265.50000000 0.000978 0.000978 0.999999 0.000000
94.24800110 227.05200195 265.50000000 0.085670 0.634540 0.768127 0.000000
206.34599304 112.81199646 220.50000000 0.566827 0.496184 -0.657654 0.000000
69.25800323 211.70100403 264.00000000 -0.741346 0.607425 0.285378 0.000000
162.07800293 116.38200378 265.50000000 -0.022635 -0.448696 0.893398 0.000000
91.39199829 156.36599731 151.50000000 0.762537 0.242697 -0.599696 0.000000
80.68199921 179.21400452 289.50000000 -0.501402 0.297069 0.812617 0.000000
205.63200378 94.24800110 253.50000000 -0.001362 -0.813364 0.581753 0.000000
237.04800415 107.09999847 235.50000000 0.481944 0.031225 -0.875645 0.000000
87.82199860 98.88899994 222.00000000 0.000978 0.000978 0.999999 0.000000
176.35800171 138.51600647 214.50000000 0.205456 0.266127 -0.941788 0.000000
124.94999695 239.90400696 238.50000000 0.358655 0.761128 0.540417 0.000000
51.40800095 195.63600159 220.50000000 -0.898133 -0.376542 -0.227097 0.000000
79.96800232 162.79200745 136.50000000 0.508218 0.704840 -0.494888 0.000000
69.25800323 119.95200348 253.50000000 -0.578289 -0.768411 0.274093 0.000000
232.76400757 105.31500244 234.00000000 0.357609 -0.029693 -0.933399 0.000000
102.81600189 212.05799866 277.50000000 -0.093294 0.543973 0.833900 0.000000
147.08399963 117.09600067 199.50000000 0.061775 0.682396 -0.728368 0.000000
162.79200745 154.22399902 274.50000000 0.731741 -0.189482 0.654715 0.000000
51.40800095 197.42100525 192.00000000 -0.889169 0.445287 -0.105352 0.000000
129.23399353 153.50999451 292.50000000 0.810129 0.527128 0.256567 0.000000
84.96600342 237.04800415 184.50000000 0.020971 0.761944 -0.647303 0.000000
93.53399658 127.80599976 142.50000000 0.461814 0.279560 -0.841768 0.000000
232.76400757 143.15699768 264.00000000 -0.247789 -0.320242 0.914355 0.000000
184.21200562 144.94200134 217.50000000 -0.000978 -0.000978 -0.999999 0.000000
95.67600250 122.09400177 280.50000000 -0.239930 -0.622564 0.744881 0.000000
87.10800171 135.66000366 286.50000000 -0.312134 -0.462710 0.829742 0.000000
216.34199524 181.35600281 271.50000000 -0.546304 0.835606 0.057580 0.000000
66.04499817 224.91000366 240.00000000 -0.830427 0.553146 0.066491 0.000000
141.37199402 195.63600159 274.50000000 0.473265 0.333977 0.815156 0.000000
107.81400299 225.62399292 193.50000000 0.689254 -0.379994 -0.616874 0.000000
60.33300018 129.23399353 234.00000000 -0.805157 -0.576807 0.137900 0.000000
78.18299866 108.52799988 225.00000000 -0.707106 -0.707106 -0.001384 0.000000
75.68399811 109.59899902 210.00000000 -0.697260 -0.697260 0.166305 0.000000
207.05999756 126.37799835 262.50000000 0.000978 0.000978 0.999999 0.000000
149.94000244 210.63000488 253.50000000 0.722052 0.543604 0.427944 0.000000
190.63800049 152.08200073 265.50000000 0.000978 0.000978 0.999999 0.000000
81.75299835 152.79600525 291.00000000 -0.384032 -0.214649 0.898023 0.000000
141.37199402 136.37399292 283.50000000 0.546673 -0.293143 0.784357 0.000000
108.17099762 139.22999573 198.00000000 0.640838 -0.752419 -0.152293 0.000000
247.04400635 156.72300720 258.00000000 0.330909 0.563353 -0.757056 0.000000
197.77799988 131.37600708 220.50000000 -0.377438 0.340465 -0.861176 0.000000
95.67600250 121.37999725 142.50000000 0.681738 0.126800 -0.720524 0.000000
59.61899948 195.63600159 264.00000000 -0.826280 0.302603 0.475072 0.000000
179.57099915 175.64399719 252.00000000 0.828338 0.241278 0.505609 0.000000
155.65199280 152.08200073 226.50000000 -0.263830 0.230328 -0.936666 0.000000
82.82399750 180.64199829 166.50000000 0.681996 0.639474 -0.354900 0.000000
187.06799316 100.67400360 259.50000000 -0.096702 -0.313951 0.944502 0.000000
71.04299927 229.90800476 210.00000000 -0.724826 0.001381 -0.688930 0.000000
240.61799622 146.36999512 247.50000000 0.813364 -0.001362 -0.581753 0.000000
172.07400513 112.09799957 262.50000000 -0.541628 -0.541628 0.642867 0.000000
61.40399933 195.63600159 157.50000000 -0.841093 0.429129 -0.329259 0.000000
208.48800659 137.08799744 262.50000000 0.101928 0.050404 0.993514 0.000000
134.23199463 84.25199890 208.50000000 -0.154842 -0.924864 -0.347347 0.000000
235.61999512 107.09999847 253.50000000 -0.294208 -0.366628 0.882624 0.000000
187.06799316 89.60700226 234.00000000 -0.001050 -0.996891 0.078785 0.000000
127.09200287 207.05999756 274.50000000 0.415550 0.328393 0.848219 0.000000
61.76100159 167.78999329 138.00000000 -0.950137 0.087564 -0.299287 0.000000
112.09799957 192.42300415 288.00000000 0.023783 0.636557 0.770863 0.000000
214.19999695 100.67400360 256.50000000 0.226287 -0.363518 0.903686 0.000000
113.52600098 214.19999695 202.50000000 0.098597 0.352519 -0.930596 0.000000
113.88300323 103.52999878 264.00000000 -0.183813 -0.794496 0.578782 0.000000
50.33700180 169.93200684 189.00000000 -0.970072 -0.242814 0.001184 0.000000
125.66400146 134.23199463 205.50000000 -0.182601 0.707386 -0.682834 0.000000
86.03700256 107.81400299 168.00000000 -0.668277 -0.668277 -0.326821 0.000000
54.97800064 185.63999939 172.50000000 -0.916970 0.228883 -0.326770 0.000000
101.74500275 91.39199829 228.00000000 -0.461371 -0.878461 0.124270 0.000000
62.83200073 146.01300049 162.00000000 -0.864328 -0.502263 -0.025862 0.000000
74.25599670 115.66799927 193.50000000 -0.883854 -0.426536 -0.192015 0.000000
59.97600174 150.65400696 166.50000000 -0.872908 -0.483092 -0.068218 0.000000
152.08200073 103.17299652 180.00000000 0.001340 0.516071 -0.856545 0.000000
104.95800018 91.39199829 181.50000000 -0.178852 -0.935852 -0.303632 0.000000
77.11199951 169.21800232 136.50000000 0.972780 -0.001176 -0.231726 0.000000
64.61699677 189.92399597 144.00000000 -0.887773 0.350002 -0.298929 0.000000
64.26000214 139.22999573 181.50000000 -0.884410 -0.323932 -0.335986 0.000000
153.50999451 171.36000061 214.50000000 0.073260 0.788621 -0.610499 0.000000
128.52000427 151.36799622 211.50000000 -0.055727 -0.942169 0.330472 0.000000
266.32199097 153.50999451 280.50000000 0.440706 -0.421335 0.792625 0.000000
171.71699524 168.50399780 210.00000000 -0.089167 0.662171 -0.744029 0.000000
167.78999329 179.21400452 256.50000000 0.084693 0.300985 0.949861 0.000000
250.61399841 185.63999939 283.50000000 -0.349783 0.898810 -0.264182 0.000000
109.24199677 127.80599976 205.50000000 -0.434853 0.684769 -0.584803 0.000000
209.20199585 134.23199463 262.50000000 0.066235 -0.011565 0.997737 0.000000
137.08799744 154.93800354 211.50000000 -0.163353 -0.158288 -0.973787 0.000000
164.22000122 147.08399963 217.50000000 -0.127706 0.352909 -0.926901 0.000000
217.05599976 124.23600006 259.50000000 -0.096215 -0.304461 0.947653 0.000000
78.89700317 234.90600586 240.00000000 -0.547575 0.797182 0.254287 0.000000
72.82800293 231.69299316 240.00000000 -0.647924 0.702588 0.294219 0.000000
129.23399353 207.05999756 274.50000000 0.415550 0.328393 0.848219 0.000000
59.97600174 135.66000366 199.50000000 -0.853839 -0.488544 -0.179677 0.000000
184.92599487 152.08200073 220.50000000 0.274921 0.383087 -0.881852 0.000000
106.38600159 229.90800476 190.50000000 0.507076 -0.523811 -0.684468 0.000000
204.91799927 114.95400238 259.50000000 0.427408 -0.218916 0.877154 0.000000
61.40399933 130.66200256 211.50000000 -0.806308 -0.491419 -0.329203 0.000000
59.26200104 220.26899719 210.00000000 -0.773429 0.609322 -0.174743 0.000000
242.40299988 107.09999847 249.00000000 0.504203 -0.678413 0.534355 0.000000
137.44500732 163.50599670 210.00000000 0.660758 -0.463367 -0.590500 0.000000
126.37799835 169.21800232 190.50000000 0.425725 -0.365586 -0.827711 0.000000
72.82800293 219.19799805 169.50000000 -0.454485 0.732133 -0.507370 0.000000
234.19200134 122.09400177 238.50000000 0.288189 0.239921 -0.927030 0.000000
87.10800171 242.04600525 232.50000000 -0.497225 0.841806 0.210074 0.000000
62.47499847 172.78799438 138.00000000 -0.944787 0.096461 -0.313167 0.000000
254.89799500 157.79400635 259.50000000 0.272014 0.257772 -0.927126 0.000000
224.19599915 179.21400452 274.50000000 -0.080179 0.324658 0.942427 0.000000
117.09600067 212.05799866 274.50000000 0.294310 0.696373 0.654558 0.000000
237.76199341 132.80400085 259.50000000 -0.055503 -0.431844 0.900239 0.000000
123.52200317 158.50799561 193.50000000 0.733145 -0.111083 -0.670939 0.000000
