163.06599426 199.45300293 117.50000000 -0.882899 0.442174 -0.158023 0.000000
148.24200439 228.65199280 172.50000000 0.212466 -0.631194 -0.745957 0.000000
116.34799957 168.00799561 132.50000000 0.795649 0.567881 0.210839 0.000000
145.54699707 154.53100586 151.25000000 0.383750 0.594565 -0.706561 0.000000
228.20300293 157.22700500 131.25000000 -0.773610 -0.076638 0.629010 0.000000
231.79699707 141.05499268 156.25000000 -0.211734 0.604292 -0.768115 0.000000
102.87100220 221.91400146 152.50000000 0.944596 -0.079917 -0.318359 0.000000
112.30500031 174.74600220 52.50000000 0.452490 0.854703 0.254430 0.000000
184.17999268 147.34399414 118.75000000 -0.735072 -0.384726 0.558262 0.000000
92.08989716 244.37500000 130.00000000 0.946128 -0.314506 0.076995 0.000000
129.37500000 175.19500732 51.25000000 -0.346535 0.346535 0.871681 0.000000
112.75399780 245.27400208 65.00000000 -0.710737 -0.419153 0.564945 0.000000
194.96099854 204.84399414 113.75000000 -0.224222 0.237978 0.945035 0.000000
121.28900146 255.15600586 83.75000000 -0.657224 -0.402281 0.637359 0.000000
187.77400208 215.17599487 142.50000000 -0.412177 -0.910501 0.033133 0.000000
142.85200500 146.44500732 83.75000000 0.275162 0.825487 0.492805 0.000000
126.23100281 222.81300354 65.00000000 -0.698089 -0.426150 0.575385 0.000000
201.25000000 162.61700439 108.75000000 -0.429052 -0.511246 0.744676 0.000000
126.68000031 279.86300659 140.00000000 0.075464 -0.832949 -0.548180 0.000000
192.26600647 145.54699707 101.25000000 -0.000978 -0.000978 0.999999 0.000000
134.76600647 203.94500732 63.75000000 -0.650431 -0.305041 0.695622 0.000000
155.42999268 165.76199341 95.00000000 -0.511274 -0.827557 -0.231839 0.000000
93.43750000 234.04299927 87.50000000 0.684002 -0.687161 0.244850 0.000000
138.35899353 157.67599487 150.00000000 0.334165 0.833059 -0.440847 0.000000
115.89800262 169.35600281 152.50000000 0.364920 0.852514 -0.374237 0.000000
120.39099884 226.40600586 171.25000000 0.235475 -0.210975 -0.948705 0.000000
141.05499268 258.75000000 103.75000000 -0.157422 -0.580214 0.799106 0.000000
119.49199677 236.28900146 163.75000000 0.059494 -0.097660 -0.993440 0.000000
164.86300659 279.41400146 135.00000000 -0.852207 -0.425330 0.304691 0.000000
108.71099854 255.60600281 147.50000000 0.414852 -0.570215 -0.709050 0.000000
158.12500000 154.53100586 158.75000000 -0.000978 -0.000978 -0.999999 0.000000
104.21900177 227.30499268 156.25000000 0.915891 -0.201467 -0.347210 0.000000
242.12899780 177.89100647 147.50000000 -0.346535 -0.346535 0.871681 0.000000
119.04299927 163.51600647 132.50000000 0.808863 0.566653 0.156988 0.000000
221.01600647 200.35200500 158.75000000 -0.337212 -0.932452 0.129697 0.000000
161.71899414 235.39100647 168.75000000 -0.000978 -0.000978 -0.999999 0.000000
121.28900146 256.05499268 156.25000000 0.307485 -0.418735 -0.854467 0.000000
135.66400146 154.08200073 72.50000000 0.594451 0.776646 0.208444 0.000000
212.92999268 122.63700104 132.50000000 0.360030 0.860672 -0.360030 0.000000
136.56300354 176.09399414 61.25000000 0.000978 0.000978 0.999999 0.000000
123.98400116 171.60200500 158.75000000 -0.240220 0.919164 -0.312142 0.000000
172.50000000 159.02400208 88.75000000 -0.000978 -0.000978 -0.999999 0.000000
106.46499634 179.68800354 52.50000000 0.942538 0.314179 0.113639 0.000000
252.46099854 166.21099854 158.75000000 0.000978 0.000978 0.999999 0.000000
145.54699707 143.75000000 91.25000000 0.593629 0.791006 0.148033 0.000000
180.58599854 203.04699707 123.75000000 -0.000978 -0.000978 0.999999 0.000000
189.57000732 213.37899780 120.00000000 -0.308805 -0.934725 0.175867 0.000000
158.12500000 247.07000732 161.25000000 -0.241401 -0.786498 -0.568459 0.000000
123.53500366 264.14099121 92.50000000 -0.747516 -0.126824 0.652025 0.000000
135.66400146 208.43800354 178.75000000 -0.000978 -0.000978 -0.999999 0.000000
123.53500366 160.82000732 145.00000000 0.568884 0.787087 -0.238464 0.000000
147.34399414 202.14900208 76.25000000 -0.669006 -0.336945 0.662495 0.000000
129.82400513 180.58599854 52.50000000 -0.669616 -0.073759 0.739036 0.000000
132.52000427 232.69500732 172.50000000 0.079516 -0.376017 -0.923195 0.000000
92.98829651 238.08599854 107.50000000 0.999999 -0.000978 -0.000978 0.000000
143.75000000 241.67999268 93.75000000 -0.615429 -0.588451 0.524379 0.000000
188.67199707 169.80499268 166.25000000 -0.000978 -0.000978 -0.999999 0.000000
175.19500732 159.02400208 163.75000000 0.316035 0.195240 -0.928441 0.000000
133.86700439 277.16799927 107.50000000 -0.543012 0.136857 0.828498 0.000000
157.22700500 260.54699707 156.25000000 -0.307916 -0.723844 -0.617444 0.000000
168.00799561 149.14100647 158.75000000 0.000978 0.999999 0.000978 0.000000
155.42999268 284.80499268 136.25000000 -0.198657 -0.768450 -0.608292 0.000000
97.48049927 256.95300293 100.00000000 0.898778 -0.398010 0.183808 0.000000
118.14499664 164.41400146 137.50000000 0.708486 0.705724 0.001381 0.000000
163.51600647 191.36700439 118.75000000 -0.641268 -0.726350 -0.247369 0.000000
153.63299561 193.16400146 81.25000000 -0.811146 0.001363 0.584843 0.000000
112.30500031 197.65600586 166.25000000 0.983836 0.005700 -0.178983 0.000000
103.31999969 183.28100586 51.25000000 0.683470 0.686627 -0.247817 0.000000
245.27400208 172.50000000 148.75000000 -0.408601 -0.292295 0.864643 0.000000
142.40199280 168.90600586 72.50000000 -0.940919 0.001250 0.338631 0.000000
150.93800354 211.13299561 178.75000000 -0.413213 -0.207342 -0.886716 0.000000
114.10199738 172.05099487 155.00000000 0.570197 0.673869 -0.469869 0.000000
102.42199707 219.21899414 151.25000000 0.947397 -0.093294 -0.306163 0.000000
164.41400146 233.59399414 168.75000000 -0.299477 -0.267649 -0.915793 0.000000
110.05899811 276.71899414 95.00000000 0.673670 -0.644166 0.362241 0.000000
126.68000031 184.17999268 51.25000000 -0.811146 -0.001363 0.584843 0.000000
177.44099426 215.62500000 102.50000000 -0.741701 -0.487309 0.460879 0.000000
137.01199341 211.13299561 70.00000000 -0.800883 -0.183884 0.569888 0.000000
119.49199677 233.14500427 165.00000000 0.331954 -0.162505 -0.929193 0.000000
157.67599487 194.96099854 90.00000000 -0.826012 0.420140 0.375748 0.000000
110.50800323 272.22698975 83.75000000 -0.308115 -0.624295 0.717859 0.000000
132.07000732 243.47700500 86.25000000 -0.534271 -0.406046 0.741404 0.000000
144.64900208 265.93798828 151.25000000 -0.149484 -0.690043 -0.708163 0.000000
114.10199738 168.00799561 111.25000000 0.648815 0.674964 -0.351373 0.000000
102.42199707 269.53100586 103.75000000 0.815874 -0.569518 0.099992 0.000000
101.52300262 185.52699280 52.50000000 0.683470 0.686627 -0.247817 0.000000
250.66400146 147.34399414 153.75000000 -0.827245 0.552940 0.099616 0.000000
220.11700439 192.26600647 163.75000000 -0.000978 -0.000978 -0.999999 0.000000
247.07000732 191.36700439 156.25000000 -0.774961 -0.591704 0.222083 0.000000
213.82800293 203.94500732 156.25000000 -0.572458 -0.001360 0.819933 0.000000
176.99200439 156.32800293 163.75000000 0.492992 0.077249 -0.866598 0.000000
123.08599854 161.27000427 85.00000000 0.686627 0.683470 0.247817 0.000000
188.67199707 240.78100586 148.75000000 -0.917753 -0.370174 0.143879 0.000000
180.58599854 156.32800293 93.75000000 -0.724475 -0.089279 0.683495 0.000000
142.40199280 147.34399414 82.50000000 0.275162 0.825487 0.492805 0.000000
148.24200439 279.41400146 143.75000000 -0.000978 -0.000978 -0.999999 0.000000
203.94500732 146.44500732 163.75000000 -0.009653 0.616391 -0.787381 0.000000
136.56300354 247.96899414 93.75000000 -0.665343 -0.662073 0.344932 0.000000
171.60200500 229.10200500 166.25000000 -0.487328 -0.160480 -0.858346 0.000000
194.06300354 133.41799927 147.50000000 0.001363 0.811146 -0.584843 0.000000
163.96499634 132.07000732 115.00000000 0.708486 0.705724 -0.001381 0.000000
186.42599487 136.56300354 150.00000000 0.323470 0.791945 -0.517871 0.000000
243.47700500 154.53100586 146.25000000 -0.827810 0.208092 0.520988 0.000000
125.78099823 174.29699707 166.25000000 -0.039196 0.887991 -0.458187 0.000000
102.87100220 195.85899353 150.00000000 0.895783 0.265033 -0.356833 0.000000
150.03900146 201.69900513 77.50000000 -0.643215 -0.262050 0.719447 0.000000
173.39900208 217.87100220 100.00000000 -0.701978 -0.343660 0.623799 0.000000
218.32000732 128.47700500 118.75000000 -0.685677 -0.685677 0.244322 0.000000
219.21899414 169.80499268 166.25000000 -0.000978 -0.000978 -0.999999 0.000000
243.47700500 167.10899353 146.25000000 -0.697264 0.009742 0.716748 0.000000
119.04299927 183.28100586 170.00000000 0.622127 0.391098 -0.678234 0.000000
235.39100647 172.50000000 163.75000000 -0.643787 0.206322 -0.736865 0.000000
256.05499268 165.31300354 153.75000000 -0.406807 -0.287964 0.866940 0.000000
156.32800293 207.53900146 176.25000000 -0.530057 -0.158869 -0.832947 0.000000
176.99200439 234.04299927 162.50000000 -0.761078 -0.547782 -0.347413 0.000000
147.79299927 141.95300293 100.00000000 0.575556 0.808134 -0.125121 0.000000
183.28100586 154.53100586 166.25000000 0.507311 0.842525 -0.181075 0.000000
178.33999634 220.11700439 165.00000000 -0.942538 0.314179 0.113639 0.000000
181.48399353 129.37500000 126.25000000 0.272450 0.673954 0.686700 0.000000
184.62899780 135.66400146 147.50000000 0.303377 0.792592 -0.528924 0.000000
223.71099854 171.60200500 166.25000000 -0.000978 -0.000978 -0.999999 0.000000
113.20300293 280.31298828 131.25000000 0.288157 -0.587458 -0.756213 0.000000
248.86700439 165.31300354 151.25000000 -0.557348 0.057851 0.828261 0.000000
247.96899414 176.09399414 151.25000000 0.000978 0.000978 0.999999 0.000000
185.07800293 238.98399353 141.25000000 -0.752366 -0.376999 0.540202 0.000000
150.93800354 160.82000732 158.75000000 0.223971 0.690708 -0.687575 0.000000
100.17600250 258.75000000 87.50000000 0.918949 -0.394205 0.011632 0.000000
203.04699707 193.16400146 121.25000000 -0.195970 0.720615 0.665064 0.000000
185.07800293 128.02699280 135.00000000 -0.001250 0.940919 -0.338631 0.000000
137.46099854 176.99200439 61.25000000 0.000978 0.000978 0.999999 0.000000
124.88300323 161.27000427 80.00000000 0.685677 0.685677 0.244322 0.000000
149.14100647 188.67199707 173.75000000 -0.405477 0.746931 0.526956 0.000000
119.49199677 290.64498901 125.00000000 0.383310 -0.855076 -0.349169 0.000000
233.59399414 173.39900208 138.75000000 -0.671622 -0.006924 0.740862 0.000000
110.05899811 177.89100647 130.00000000 0.868415 0.461484 0.181350 0.000000
125.78099823 194.06300354 51.25000000 -0.783901 0.012443 0.620761 0.000000
117.69499969 170.25399780 62.50000000 0.495063 0.796267 -0.347666 0.000000
127.12899780 194.06300354 52.50000000 -0.758047 0.018148 0.651948 0.000000
161.71899414 143.30099487 150.00000000 0.316494 0.823514 -0.470804 0.000000
216.52400208 176.09399414 166.25000000 -0.000978 -0.000978 -0.999999 0.000000
127.57800293 273.12500000 101.25000000 -0.562966 -0.492386 0.663796 0.000000
156.32800293 214.72700500 176.25000000 -0.522597 -0.379330 -0.763545 0.000000
162.61700439 248.86700439 161.25000000 0.363532 -0.181053 -0.913819 0.000000
230.89900208 184.62899780 140.00000000 -0.712287 -0.251117 0.655430 0.000000
146.44500732 166.21099854 86.25000000 -0.466775 -0.130697 0.874665 0.000000
153.63299561 155.42999268 156.25000000 0.430671 0.573673 -0.696722 0.000000
217.42199707 204.39500427 132.50000000 -0.826481 -0.530338 0.188867 0.000000
143.75000000 232.69500732 171.25000000 -0.093520 -0.553928 -0.827295 0.000000
220.11700439 174.29699707 166.25000000 -0.000978 -0.000978 -0.999999 0.000000
163.51600647 198.55499268 168.75000000 -0.000978 -0.000978 -0.999999 0.000000
155.42999268 190.46899414 93.75000000 -0.589471 0.589471 0.552312 0.000000
150.93800354 265.03900146 111.25000000 0.298470 -0.898379 0.322228 0.000000
210.23399353 205.74200439 161.25000000 -0.733494 0.209348 -0.646653 0.000000
124.88300323 290.64498901 115.00000000 -0.026353 -0.811384 0.583919 0.000000
230.89900208 195.85899353 151.25000000 -0.187139 -0.842872 0.504525 0.000000
222.81300354 189.57000732 131.25000000 -0.805126 -0.339588 0.486264 0.000000
116.79699707 241.67999268 161.25000000 0.522117 -0.488755 -0.698936 0.000000
154.53100586 176.99200439 166.25000000 0.000978 0.000978 -0.999999 0.000000
98.82820129 195.41000366 102.50000000 0.959707 0.280680 -0.013482 0.000000
198.55499268 165.76199341 110.00000000 -0.286664 -0.674220 0.680626 0.000000
149.58999634 283.90600586 120.00000000 -0.499322 -0.664081 0.556483 0.000000
171.60200500 204.84399414 168.75000000 0.107104 0.486966 -0.866829 0.000000
136.56300354 189.57000732 61.25000000 -0.615975 0.015226 0.787618 0.000000
126.68000031 198.10600281 52.50000000 -0.755480 -0.061643 0.652265 0.000000
142.85200500 207.53900146 178.75000000 0.000978 0.000978 -0.999999 0.000000
113.65200043 186.87500000 165.00000000 0.712021 0.414657 -0.566643 0.000000
106.01599884 182.38299561 111.25000000 0.856437 0.512744 -0.060076 0.000000
133.41799927 177.89100647 165.00000000 -0.319188 0.947552 -0.016272 0.000000
160.82000732 193.16400146 118.75000000 -0.650438 -0.392249 -0.650438 0.000000
196.75799561 145.54699707 161.25000000 -0.023359 0.542761 -0.839562 0.000000
187.77400208 130.27400208 116.25000000 0.679305 0.606226 0.413562 0.000000
212.92999268 137.46099854 156.25000000 -0.143163 0.727870 -0.670604 0.000000
165.31300354 251.56300354 118.75000000 -0.783358 -0.262166 0.563578 0.000000
123.98400116 156.77699280 112.50000000 0.684953 0.684953 -0.248355 0.000000
157.22700500 281.21099854 123.75000000 -0.680261 -0.473007 0.559920 0.000000
103.31999969 190.02000427 112.50000000 0.836569 0.501332 -0.220952 0.000000
121.28900146 195.85899353 173.75000000 0.000978 0.000978 -0.999999 0.000000
92.98829651 243.47700500 112.50000000 0.999999 0.000978 0.000978 0.000000
111.40599823 209.33599854 166.25000000 0.916105 0.228667 -0.329338 0.000000
209.33599854 203.94500732 161.25000000 -0.571072 0.052172 -0.819241 0.000000
141.05499268 184.17999268 176.25000000 -0.455342 0.682179 0.572097 0.000000
181.48399353 158.12500000 123.75000000 0.918525 -0.231428 0.320550 0.000000
127.12899780 249.76600647 162.50000000 0.329942 -0.468866 -0.819331 0.000000
129.37500000 164.41400146 153.75000000 0.366616 0.511971 -0.776839 0.000000
193.16400146 200.35200500 121.25000000 -0.001250 0.940919 0.338631 0.000000
182.38299561 163.51600647 121.25000000 0.325864 -0.880591 -0.344052 0.000000
143.75000000 144.19900513 95.00000000 0.588092 0.786669 0.187884 0.000000
165.31300354 130.27400208 91.25000000 0.511436 0.849480 -0.129680 0.000000
129.37500000 160.37100220 150.00000000 0.414709 0.840374 -0.348982 0.000000
168.90600586 268.18399048 130.00000000 -0.737493 -0.662696 0.130146 0.000000
172.94900513 127.57800293 110.00000000 0.442174 0.882899 -0.158023 0.000000
104.21900177 252.46099854 146.25000000 0.719745 -0.403518 -0.564925 0.000000
200.35200500 180.58599854 166.25000000 -0.000978 -0.000978 -0.999999 0.000000
114.55100250 169.80499268 152.50000000 0.649856 0.713412 -0.262167 0.000000
136.56300354 211.58200073 70.00000000 -0.800883 -0.183884 0.569888 0.000000
95.68360138 204.84399414 52.50000000 0.999999 0.000978 0.000978 0.000000
186.87500000 206.64100647 108.75000000 -0.546408 0.392167 0.740030 0.000000
245.27400208 194.06300354 158.75000000 -0.388518 -0.666267 0.636508 0.000000
170.70300293 154.53100586 161.25000000 0.339557 0.136098 -0.930687 0.000000
129.82400513 160.82000732 60.00000000 0.582083 0.812111 0.040676 0.000000
196.75799561 169.35600281 112.50000000 -0.322803 -0.435083 0.840536 0.000000
222.81300354 191.36700439 133.75000000 -0.787854 -0.419002 0.451358 0.000000
192.26600647 142.85200500 158.75000000 0.049915 0.725909 -0.685977 0.000000
130.27400208 152.28500366 97.50000000 0.435358 0.899021 0.047175 0.000000
197.65600586 130.27400208 143.75000000 0.093208 0.928023 -0.360673 0.000000
150.93800354 248.86700439 103.75000000 -0.542496 -0.711715 0.446273 0.000000
108.26200104 179.68800354 132.50000000 0.822532 0.539834 0.178942 0.000000
205.74200439 175.19500732 116.25000000 -0.009729 -0.668549 0.743604 0.000000
181.93400574 181.48399353 122.50000000 -0.462000 -0.498430 0.733569 0.000000
190.46899414 197.65600586 168.75000000 -0.000978 -0.000978 -0.999999 0.000000
137.46099854 211.13299561 71.25000000 -0.724237 -0.213377 0.655707 0.000000
111.85600281 228.20300293 162.50000000 0.504878 -0.403576 -0.763036 0.000000
117.24600220 164.41400146 92.50000000 0.685677 0.685677 0.244322 0.000000
139.25799561 222.81300354 176.25000000 0.047087 -0.306699 -0.950641 0.000000
122.18800354 224.16000366 172.50000000 0.314897 -0.186139 -0.930695 0.000000
153.18400574 274.02398682 117.50000000 -0.556773 -0.144019 0.818085 0.000000
194.96099854 173.39900208 166.25000000 0.000978 0.000978 -0.999999 0.000000
240.78100586 150.03900146 143.75000000 0.000000 0.000000 0.000000 0.000000
102.42199707 240.33200073 57.50000000 0.690187 -0.634711 0.347541 0.000000
119.49199677 169.35600281 67.50000000 0.708486 0.705724 0.001381 0.000000
119.49199677 209.33599854 51.25000000 -0.923484 -0.208529 0.322014 0.000000
103.31999969 231.79699707 151.25000000 0.863816 -0.182246 -0.469690 0.000000
150.93800354 265.03900146 153.75000000 -0.562344 -0.562344 -0.606250 0.000000
200.35200500 193.16400146 168.75000000 -0.043956 0.282573 -0.958238 0.000000
185.97700500 131.62100220 142.50000000 -0.001250 0.940919 -0.338631 0.000000
188.22300720 234.49200439 150.00000000 -0.818841 0.424525 0.386366 0.000000
154.53100586 175.19500732 98.75000000 -0.988079 -0.121013 0.095166 0.000000
163.51600647 201.25000000 168.75000000 -0.143472 0.413371 -0.899189 0.000000
141.05499268 208.43800354 73.75000000 -0.663964 -0.362311 0.654127 0.000000
190.46899414 152.73399353 163.75000000 -0.016013 0.289457 -0.957057 0.000000
150.93800354 266.38699341 152.50000000 -0.562344 -0.562344 -0.606250 0.000000
175.19500732 161.71899414 91.25000000 0.085689 0.476205 -0.875149 0.000000
170.70300293 136.56300354 141.25000000 0.261084 0.960739 -0.093888 0.000000
227.30499268 127.57800293 128.75000000 -0.791623 -0.241064 0.561446 0.000000
132.07000732 248.86700439 88.75000000 -0.533616 -0.526883 0.661550 0.000000
102.42199707 260.54699707 138.75000000 0.596200 -0.552287 -0.582688 0.000000
211.13299561 142.85200500 111.25000000 -0.824493 -0.275870 0.494072 0.000000
149.14100647 214.72700500 178.75000000 -0.085691 -0.264746 -0.960503 0.000000
180.13699341 172.50000000 97.50000000 -0.396713 -0.206408 0.894435 0.000000
247.07000732 166.21099854 148.75000000 -0.501756 -0.009416 0.864958 0.000000
170.70300293 217.42199707 96.25000000 -0.271054 -0.410367 0.870706 0.000000
238.98399353 191.36700439 163.75000000 -0.000978 -0.000978 -0.999999 0.000000
152.73399353 137.91000366 110.00000000 0.511431 0.850454 -0.123149 0.000000
125.78099823 213.82800293 58.75000000 -0.768632 -0.343226 0.539815 0.000000
117.69499969 214.72700500 51.25000000 -0.562034 -0.494925 0.662697 0.000000
213.82800293 150.93800354 163.75000000 -0.000978 -0.000978 -0.999999 0.000000
178.78900146 143.75000000 158.75000000 0.386548 -0.192550 -0.901945 0.000000
101.52300262 191.36700439 108.75000000 0.858156 0.448064 -0.250612 0.000000
224.16000366 183.28100586 130.00000000 -0.698427 -0.429674 0.572346 0.000000
248.86700439 180.58599854 161.25000000 -0.000978 -0.000978 -0.999999 0.000000
191.81700134 127.57800293 110.00000000 0.446377 0.891371 -0.078772 0.000000
112.30500031 242.57800293 61.25000000 -0.727249 -0.552445 0.407325 0.000000
150.48800659 208.43800354 80.00000000 -0.591274 0.073014 0.803159 0.000000
173.39900208 253.36000061 153.75000000 -0.647874 -0.405957 -0.644560 0.000000
212.92999268 194.06300354 163.75000000 -0.077996 -0.339747 -0.937277 0.000000
159.92199707 268.18399048 120.00000000 -0.395170 -0.229406 0.889502 0.000000
106.46499634 264.14099121 75.00000000 0.715529 -0.522951 0.463185 0.000000
210.68400574 203.04699707 122.50000000 -0.376188 -0.117128 0.919110 0.000000
236.28900146 139.70700073 137.50000000 -0.946003 0.158344 0.282853 0.000000
244.37500000 144.64900208 153.75000000 -0.196002 0.668258 -0.717645 0.000000
138.35899353 161.71899414 156.25000000 0.268889 0.692111 -0.669836 0.000000
162.61700439 149.58999634 80.00000000 -0.436406 0.436406 0.786829 0.000000
116.79699707 286.15200806 130.00000000 0.522017 -0.599728 -0.606486 0.000000
92.98829651 221.01600647 80.00000000 0.977469 -0.081965 0.194515 0.000000
169.80499268 130.27400208 116.25000000 0.405372 0.891232 -0.203418 0.000000
123.08599854 274.02398682 98.75000000 -0.555623 -0.369872 0.744633 0.000000
196.75799561 193.16400146 168.75000000 -0.000978 -0.000978 -0.999999 0.000000
164.41400146 233.59399414 101.25000000 -0.562344 -0.562344 0.606250 0.000000
212.48100281 212.03100586 157.50000000 -0.898379 -0.298470 -0.322228 0.000000
191.36700439 165.31300354 166.25000000 -0.000978 -0.000978 -0.999999 0.000000
170.70300293 166.21099854 163.75000000 0.000978 0.000978 -0.999999 0.000000
226.40600586 138.35899353 153.75000000 -0.187327 0.508030 -0.840722 0.000000
240.78100586 179.68800354 163.75000000 -0.361402 0.346023 -0.865827 0.000000
154.08200073 136.56300354 80.00000000 0.602262 0.742843 -0.292345 0.000000
136.56300354 157.22700500 148.75000000 0.200302 0.796622 -0.570326 0.000000
117.24600220 219.21899414 52.50000000 -0.680398 0.001380 0.732842 0.000000
97.03130341 250.66400146 138.75000000 0.775087 -0.155017 -0.612544 0.000000
99.72660065 194.51199341 70.00000000 0.889993 0.452516 -0.056052 0.000000
148.24200439 220.11700439 176.25000000 0.178016 -0.774445 -0.607080 0.000000
173.39900208 255.15600586 153.75000000 -0.691027 -0.304439 -0.655590 0.000000
104.21900177 229.10200500 153.75000000 0.849179 -0.295434 -0.437737 0.000000
153.63299561 256.95300293 158.75000000 -0.000978 -0.000978 -0.999999 0.000000
153.63299561 259.64898682 158.75000000 -0.181737 -0.274655 -0.944212 0.000000
125.33200073 218.32000732 175.00000000 0.574597 -0.150738 -0.804435 0.000000
132.07000732 239.88299561 83.75000000 -0.692141 -0.448641 0.565387 0.000000
115.89800262 221.01600647 51.25000000 -0.775087 -0.155017 0.612544 0.000000
156.32800293 232.69500732 171.25000000 -0.400259 -0.393931 -0.827412 0.000000
161.71899414 190.46899414 108.75000000 0.485748 -0.324359 0.811690 0.000000
122.18800354 175.19500732 166.25000000 0.376464 0.780395 -0.499259 0.000000
117.69499969 178.78900146 163.75000000 0.331666 0.219675 -0.917464 0.000000
118.59400177 184.62899780 170.00000000 0.559619 0.298145 -0.773263 0.000000
153.18400574 198.55499268 177.50000000 -0.179744 0.386809 -0.904472 0.000000
162.61700439 168.45700073 162.50000000 0.113731 0.508190 -0.853702 0.000000
97.03130341 222.36300659 52.50000000 0.934923 -0.253705 0.248098 0.000000
117.69499969 170.70300293 156.25000000 0.359074 0.861470 -0.359074 0.000000
247.52000427 141.05499268 150.00000000 -0.938434 0.255176 -0.232866 0.000000
172.50000000 264.14099121 133.75000000 -0.862964 -0.243323 0.442817 0.000000
179.68800354 166.21099854 93.75000000 -0.497213 -0.193778 0.845712 0.000000
95.68360138 209.33599854 105.00000000 0.966879 0.023108 0.254186 0.000000
171.60200500 158.12500000 88.75000000 -0.000978 -0.000978 -0.999999 0.000000
126.68000031 166.21099854 153.75000000 0.337544 0.503916 -0.795068 0.000000
137.46099854 181.48399353 63.75000000 -0.250301 0.486781 0.836895 0.000000
145.54699707 155.87899780 152.50000000 0.383750 0.594565 -0.706561 0.000000
171.60200500 162.61700439 91.25000000 0.345638 0.364072 -0.864862 0.000000
101.07399750 212.92999268 150.00000000 0.806394 0.160678 -0.569131 0.000000
113.20300293 204.84399414 168.75000000 0.839317 -0.233908 -0.490748 0.000000
103.31999969 275.82000732 118.75000000 0.833397 -0.538570 0.124061 0.000000
126.23100281 233.59399414 72.50000000 -0.639616 -0.531607 0.555234 0.000000
149.14100647 255.60600281 160.00000000 0.030166 -0.392157 -0.919404 0.000000
214.72700500 199.45300293 123.75000000 -0.731258 -0.292823 0.616049 0.000000
190.46899414 189.57000732 123.75000000 0.000978 0.000978 0.999999 0.000000
112.30500031 225.50799561 51.25000000 -0.602763 -0.439132 0.666212 0.000000
138.35899353 246.17199707 93.75000000 -0.471591 -0.656200 0.589070 0.000000
115.89800262 204.84399414 171.25000000 0.742811 -0.192239 -0.641309 0.000000
159.02400208 228.20300293 93.75000000 -0.591751 -0.332353 0.734420 0.000000
125.78099823 235.39100647 171.25000000 -0.041250 -0.281249 -0.958748 0.000000
161.71899414 258.30099487 117.50000000 -0.616967 -0.576399 0.535832 0.000000
146.44500732 181.48399353 73.75000000 -0.717604 0.328834 0.613932 0.000000
166.66000366 269.53100586 127.50000000 -0.706931 -0.186359 0.682289 0.000000
182.38299561 162.61700439 123.75000000 0.054976 0.221128 0.973694 0.000000
169.80499268 166.21099854 163.75000000 0.531052 0.507599 -0.678474 0.000000
101.97299957 191.36700439 80.00000000 0.867658 0.473931 0.150200 0.000000
232.69500732 123.08599854 138.75000000 -0.684271 0.722532 0.098594 0.000000
221.91400146 162.61700439 166.25000000 0.005315 0.088234 -0.996086 0.000000
95.68360138 221.91400146 140.00000000 0.905861 0.083597 -0.415243 0.000000
200.35200500 135.66400146 103.75000000 -0.634049 -0.590321 0.499503 0.000000
186.87500000 215.17599487 137.50000000 -0.679774 -0.733035 0.023827 0.000000
150.03900146 199.45300293 76.25000000 -0.615746 -0.286282 0.734097 0.000000
92.08989716 230.00000000 97.50000000 0.942486 -0.006258 0.334188 0.000000
211.13299561 133.41799927 150.00000000 0.153058 0.713765 -0.683457 0.000000
127.57800293 237.18800354 76.25000000 -0.526602 -0.463476 0.712657 0.000000
109.16000366 281.21099854 127.50000000 0.623358 -0.576057 -0.528756 0.000000
94.78520203 238.98399353 87.50000000 0.968128 -0.179666 0.174496 0.000000
157.67599487 190.46899414 100.00000000 -0.741316 0.661414 0.113935 0.000000
167.55900574 199.45300293 102.50000000 -0.469000 0.882903 -0.022845 0.000000
187.32400513 241.67999268 145.00000000 -0.853351 -0.317490 0.413511 0.000000
166.66000366 256.95300293 155.00000000 -0.937004 0.123397 -0.326799 0.000000
247.96899414 178.78900146 151.25000000 0.000978 0.000978 0.999999 0.000000
185.07800293 153.63299561 123.75000000 0.882899 -0.442174 -0.158023 0.000000
196.75799561 178.78900146 166.25000000 -0.000978 -0.000978 -0.999999 0.000000
159.92199707 154.53100586 158.75000000 -0.000978 -0.000978 -0.999999 0.000000
96.58209991 205.74200439 95.00000000 0.999999 -0.000978 -0.000978 0.000000
109.60900116 230.00000000 51.25000000 -0.786874 -0.473417 0.395861 0.000000
240.78100586 196.75799561 156.25000000 -0.416456 -0.494848 0.762686 0.000000
109.60900116 256.50399780 147.50000000 0.387764 -0.648473 -0.655074 0.000000
203.94500732 139.25799561 156.25000000 0.481704 0.639475 -0.599193 0.000000
101.52300262 271.32800293 128.75000000 0.811267 0.474695 -0.341336 0.000000
100.62500000 230.89900208 51.25000000 0.759395 -0.406644 0.507897 0.000000
168.00799561 176.99200439 96.25000000 0.786088 -0.049573 0.616123 0.000000
197.65600586 207.53900146 113.75000000 -0.199127 0.265045 0.943451 0.000000
217.42199707 169.80499268 121.25000000 0.064869 -0.673191 0.736618 0.000000
97.92970276 206.64100647 141.25000000 0.999999 -0.000978 -0.000978 0.000000
204.84399414 146.44500732 163.75000000 -0.032271 0.615949 -0.787124 0.000000
217.42199707 145.54699707 118.75000000 -0.827090 -0.054951 0.559377 0.000000
126.68000031 228.65199280 172.50000000 0.343582 -0.374396 -0.861266 0.000000
169.80499268 244.37500000 118.75000000 -0.651548 -0.434921 0.621554 0.000000
175.19500732 230.44900513 115.00000000 -0.786874 -0.473417 0.395861 0.000000
132.07000732 209.33599854 63.75000000 -0.824493 -0.275870 0.494072 0.000000
222.81300354 160.82000732 166.25000000 -0.047576 0.458089 -0.887632 0.000000
154.53100586 227.30499268 91.25000000 -0.502548 -0.512565 0.696220 0.000000
178.78900146 189.57000732 168.75000000 -0.000978 -0.000978 -0.999999 0.000000
194.06300354 198.55499268 168.75000000 -0.208092 0.827810 -0.520988 0.000000
101.07399750 232.69500732 52.50000000 0.810584 -0.417283 0.410888 0.000000
186.87500000 132.52000427 115.00000000 0.934136 0.356531 0.016613 0.000000
110.05899811 214.72700500 165.00000000 0.920929 -0.071254 -0.383160 0.000000
163.51600647 131.62100220 92.50000000 0.511436 0.849480 -0.129680 0.000000
183.28100586 174.29699707 98.75000000 -0.421675 -0.227973 0.877621 0.000000
97.48049927 197.65600586 60.00000000 0.970221 0.139333 -0.198135 0.000000
176.09399414 141.95300293 153.75000000 0.545718 0.663257 -0.512135 0.000000
141.95300293 166.21099854 158.75000000 -0.001360 0.572458 -0.819933 0.000000
158.57400513 203.04699707 175.00000000 -0.723904 0.515181 -0.458859 0.000000
240.78100586 187.77400208 151.25000000 0.630351 -0.630351 0.453117 0.000000
177.89100647 233.14500427 162.50000000 -0.761078 -0.547782 -0.347413 0.000000
112.30500031 203.04699707 163.75000000 0.753136 0.383920 -0.534220 0.000000
136.56300354 240.33200073 170.00000000 0.682995 -0.305168 -0.663619 0.000000
234.49200439 166.21099854 138.75000000 -0.680398 0.001380 0.732842 0.000000
173.39900208 244.37500000 123.75000000 -0.721807 -0.411282 0.556634 0.000000
214.72700500 133.86700439 151.25000000 -0.037751 0.809548 -0.585839 0.000000
230.00000000 182.38299561 138.75000000 -0.754774 -0.309281 0.578500 0.000000
105.11699677 187.77400208 128.75000000 0.908120 0.347265 0.233932 0.000000
104.66799927 229.10200500 155.00000000 0.851702 -0.310694 -0.421987 0.000000
129.82400513 232.69500732 75.00000000 -0.600120 -0.456359 0.656956 0.000000
113.20300293 257.85198975 76.25000000 -0.669536 -0.525225 0.525225 0.000000
137.91000366 186.87500000 62.50000000 -0.630464 0.043920 0.774975 0.000000
95.68360138 211.13299561 100.00000000 0.947087 0.315696 -0.057985 0.000000
146.89500427 168.00799561 87.50000000 -0.749746 -0.226015 0.621931 0.000000
102.42199707 235.39100647 51.25000000 0.653672 -0.443026 0.613549 0.000000
129.37500000 240.33200073 170.00000000 0.457362 -0.601440 -0.655050 0.000000
180.58599854 241.67999268 133.75000000 -0.733901 -0.535995 0.417251 0.000000
106.01599884 213.82800293 158.75000000 0.573558 0.081937 -0.815057 0.000000
137.46099854 181.93400574 167.50000000 -0.443092 0.718572 -0.536025 0.000000
189.57000732 197.65600586 123.75000000 0.000978 0.000978 0.999999 0.000000
209.33599854 132.07000732 148.75000000 0.164742 0.787434 -0.593976 0.000000
96.58209991 249.76600647 87.50000000 0.705724 -0.708486 -0.001381 0.000000
152.73399353 202.14900208 178.75000000 -0.364905 0.045777 -0.929919 0.000000
208.43800354 170.70300293 166.25000000 -0.000978 -0.000978 -0.999999 0.000000
171.60200500 240.33200073 162.50000000 -0.401605 -0.742560 -0.536020 0.000000
144.64900208 181.48399353 163.75000000 -0.494685 0.494685 -0.714545 0.000000
109.16000366 283.90600586 117.50000000 0.789209 -0.598247 0.138746 0.000000
217.42199707 163.51600647 166.25000000 -0.000978 -0.000978 -0.999999 0.000000
105.11699677 236.28900146 51.25000000 -0.076876 -0.694788 0.715095 0.000000
185.97700500 237.18800354 141.25000000 -0.752366 -0.376999 0.540202 0.000000
95.23439789 260.54699707 126.25000000 0.881765 -0.157820 -0.444502 0.000000
105.11699677 246.62100220 150.00000000 0.521016 -0.229001 -0.822253 0.000000
136.56300354 274.02398682 146.25000000 0.132183 -0.592594 -0.794581 0.000000
151.83599854 222.81300354 86.25000000 -0.493836 -0.434773 0.753059 0.000000
175.64500427 208.43800354 120.00000000 0.194960 0.979584 0.049039 0.000000
166.21099854 159.02400208 88.75000000 -0.000978 -0.000978 -0.999999 0.000000
150.93800354 249.76600647 161.25000000 -0.147274 -0.331710 -0.931815 0.000000
245.27400208 177.89100647 151.25000000 0.000978 0.000978 0.999999 0.000000
224.16000366 123.98400116 125.00000000 -0.940919 -0.001250 0.338631 0.000000
149.14100647 249.76600647 101.25000000 -0.542496 -0.711715 0.446273 0.000000
116.34799957 166.21099854 115.00000000 0.680398 -0.001380 -0.732842 0.000000
191.36700439 176.99200439 106.25000000 -0.661307 -0.377654 0.648113 0.000000
181.48399353 159.02400208 93.75000000 -0.729959 -0.055930 0.681199 0.000000
144.64900208 218.77000427 177.50000000 0.023799 -0.662175 -0.748971 0.000000
132.07000732 277.61700439 106.25000000 -0.234710 -0.455791 0.858584 0.000000
136.56300354 271.32800293 148.75000000 0.806012 -0.402205 -0.434253 0.000000
140.15600586 188.67199707 66.25000000 -0.572458 -0.001360 0.819933 0.000000
168.90600586 227.30499268 101.25000000 -0.671852 -0.391226 0.628933 0.000000
228.20300293 137.46099854 131.25000000 -0.704184 -0.018200 0.709784 0.000000
137.46099854 175.19500732 158.75000000 0.095503 0.853825 0.511725 0.000000
188.67199707 134.76600647 148.75000000 0.323470 0.791945 -0.517871 0.000000
136.11300659 204.84399414 65.00000000 -0.690958 -0.290170 0.662101 0.000000
154.53100586 218.32000732 176.25000000 -0.286725 -0.463409 -0.838476 0.000000
171.60200500 262.34399414 131.25000000 -0.872112 -0.245517 0.423253 0.000000
105.11699677 265.48800659 82.50000000 0.685677 -0.685677 0.244322 0.000000
193.16400146 170.70300293 111.25000000 -0.404240 -0.271007 0.873582 0.000000
143.75000000 264.14099121 156.25000000 -0.147945 -0.590284 -0.793522 0.000000
247.07000732 156.77699280 160.00000000 0.375299 -0.253660 0.891520 0.000000
252.46099854 162.61700439 158.75000000 0.244570 0.071490 0.966993 0.000000
144.64900208 237.18800354 171.25000000 -0.000978 -0.000978 -0.999999 0.000000
143.30099487 161.71899414 70.00000000 -0.966953 -0.233139 0.103193 0.000000
129.37500000 291.09399414 116.25000000 -0.247366 -0.619203 0.745250 0.000000
222.81300354 192.71499634 135.00000000 -0.742273 -0.556297 0.373584 0.000000
208.43800354 154.53100586 166.25000000 -0.389905 0.310395 -0.866965 0.000000
142.85200500 179.68800354 163.75000000 0.000978 0.000978 -0.999999 0.000000
203.04699707 159.02400208 166.25000000 -0.000978 -0.000978 -0.999999 0.000000
225.95700073 182.38299561 132.50000000 -0.798488 -0.356839 0.484853 0.000000
131.62100220 157.22700500 72.50000000 0.574005 0.812326 0.103176 0.000000
229.10200500 162.61700439 163.75000000 -0.307197 0.107719 -0.945530 0.000000
137.46099854 199.45300293 63.75000000 -0.348112 -0.697859 0.625948 0.000000
173.39900208 253.36000061 131.25000000 -0.917518 -0.207551 0.339238 0.000000
135.66400146 192.26600647 61.25000000 -0.655381 -0.110956 0.747104 0.000000
209.33599854 181.48399353 166.25000000 -0.000978 -0.000978 -0.999999 0.000000
123.98400116 247.07000732 81.25000000 -0.685677 0.685677 0.244322 0.000000
174.74600220 265.03900146 145.00000000 -0.716413 -0.626258 -0.307494 0.000000
191.36700439 140.60600281 157.50000000 -0.001384 0.720806 -0.693136 0.000000
204.84399414 148.24200439 106.25000000 -0.537698 -0.179233 0.823867 0.000000
141.05499268 212.03100586 73.75000000 -0.544097 -0.102469 0.832742 0.000000
218.32000732 130.27400208 146.25000000 0.076932 0.666260 -0.741741 0.000000
135.66400146 263.24200439 156.25000000 -0.142518 -0.515711 -0.844826 0.000000
248.86700439 165.31300354 161.25000000 0.357421 0.093064 0.929295 0.000000
212.92999268 135.66400146 153.75000000 -0.141973 0.778613 -0.611233 0.000000
177.89100647 206.64100647 123.75000000 0.249990 0.434831 0.865117 0.000000
107.81300354 177.89100647 148.75000000 0.915793 0.299477 -0.267649 0.000000
140.15600586 169.80499268 63.75000000 -0.898432 -0.033474 0.437835 0.000000
163.51600647 193.16400146 108.75000000 -0.438479 -0.841068 0.316766 0.000000
187.32400513 165.31300354 100.00000000 -0.442174 0.882899 0.158023 0.000000
103.31999969 213.82800293 153.75000000 0.940919 0.001250 -0.338631 0.000000
94.78520203 213.82800293 70.00000000 0.985611 0.123052 0.115884 0.000000
235.39100647 168.00799561 163.75000000 -0.139147 0.028282 -0.989868 0.000000
156.32800293 155.42999268 83.75000000 0.249393 0.578780 -0.776413 0.000000
115.44899750 264.14099121 82.50000000 -0.777258 -0.290875 0.557909 0.000000
221.91400146 193.61300659 135.00000000 -0.742273 -0.556297 0.373584 0.000000
164.41400146 224.60899353 171.25000000 -0.101770 -0.302666 -0.947648 0.000000
122.18800354 222.81300354 58.75000000 -0.669292 -0.166180 0.724177 0.000000
178.78900146 206.19200134 117.50000000 0.443343 0.867150 -0.226932 0.000000
124.43399811 219.21899414 60.00000000 -0.744983 -0.209091 0.633468 0.000000
109.16000366 173.39900208 102.50000000 0.810406 0.580095 0.082048 0.000000
173.39900208 188.22300720 115.00000000 -0.399773 -0.903401 -0.155072 0.000000
137.91000366 147.34399414 107.50000000 0.707106 0.707106 0.001384 0.000000
159.02400208 149.14100647 156.25000000 0.275927 0.556584 -0.783632 0.000000
162.61700439 168.00799561 96.25000000 0.434477 -0.520381 0.735142 0.000000
122.18800354 251.56300354 83.75000000 0.000978 0.000978 0.999999 0.000000
140.15600586 169.80499268 161.25000000 0.281117 0.233087 -0.930937 0.000000
164.41400146 199.45300293 123.75000000 -0.553762 -0.832674 -0.001354 0.000000
123.08599854 166.66000366 55.00000000 0.463007 0.844489 0.269190 0.000000
208.43800354 207.53900146 163.75000000 -0.677083 0.220482 -0.702102 0.000000
188.67199707 179.68800354 116.25000000 -0.589978 -0.702355 -0.398276 0.000000
146.44500732 263.24200439 108.75000000 -0.380245 -0.330983 0.863634 0.000000
116.79699707 287.50000000 128.75000000 0.522017 -0.599728 -0.606486 0.000000
170.70300293 187.77400208 118.75000000 -0.378042 -0.859467 -0.344095 0.000000
102.87100220 211.13299561 152.50000000 0.910076 0.095000 -0.403407 0.000000
218.32000732 126.23100281 142.50000000 -0.198933 0.744843 -0.636895 0.000000
121.28900146 167.55900574 55.00000000 0.576407 0.784598 0.228388 0.000000
188.22300720 214.72700500 132.50000000 -0.500631 -0.863970 -0.054085 0.000000
173.84800720 251.56300354 130.00000000 -0.950389 -0.245393 0.191162 0.000000
208.43800354 218.32000732 161.25000000 -0.672468 -0.511478 -0.534956 0.000000
151.83599854 248.86700439 161.25000000 -0.172880 -0.305652 -0.936317 0.000000
196.75799561 193.16400146 123.75000000 0.000978 0.000978 0.999999 0.000000
150.03900146 200.35200500 178.75000000 -0.052413 0.154911 -0.986537 0.000000
158.12500000 203.94500732 176.25000000 -0.307202 0.057841 -0.949885 0.000000
187.77400208 233.59399414 148.75000000 -0.851085 0.396758 0.343857 0.000000
163.51600647 131.17199707 88.75000000 0.538467 0.837137 -0.096206 0.000000
116.79699707 238.08599854 163.75000000 0.235811 -0.364702 -0.900770 0.000000
174.74600220 142.85200500 155.00000000 0.349463 0.733060 -0.583522 0.000000
115.89800262 185.97700500 168.75000000 0.632538 0.384808 -0.672175 0.000000
119.04299927 265.03900146 87.50000000 -0.805309 -0.366632 0.465895 0.000000
104.66799927 225.50799561 157.50000000 0.678178 -0.193103 -0.709074 0.000000
112.30500031 272.67599487 85.00000000 -0.568580 -0.619195 0.541585 0.000000
190.46899414 212.48100281 120.00000000 -0.308805 -0.934725 0.175867 0.000000
164.41400146 208.88699341 172.50000000 -0.145002 0.435006 -0.888676 0.000000
128.92599487 167.10899353 155.00000000 0.278744 0.258731 -0.924857 0.000000
117.24600220 167.10899353 130.00000000 0.798878 0.570627 0.190209 0.000000
188.67199707 214.27699280 132.50000000 -0.442477 -0.896771 -0.003939 0.000000
172.50000000 224.60899353 103.75000000 -0.673853 -0.405636 0.617561 0.000000
129.82400513 154.53100586 90.00000000 0.509129 0.834363 0.211250 0.000000
146.44500732 271.32800293 148.75000000 -0.095190 -0.666331 -0.739555 0.000000
109.60900116 173.84800720 142.50000000 0.850454 0.511431 0.123149 0.000000
116.34799957 170.70300293 55.00000000 0.685677 0.685677 -0.244322 0.000000
131.17199707 170.70300293 53.75000000 -0.557500 -0.203144 0.804939 0.000000
123.98400116 156.77699280 100.00000000 0.195612 0.978058 -0.071684 0.000000
181.48399353 176.09399414 168.75000000 0.685677 0.685677 -0.244322 0.000000
108.71099854 275.82000732 131.25000000 0.682179 -0.455342 -0.572097 0.000000
169.80499268 128.92599487 105.00000000 0.446377 0.891371 0.078772 0.000000
148.24200439 179.23800659 77.50000000 -0.838470 0.438753 0.323209 0.000000
174.29699707 201.25000000 123.75000000 -0.000978 -0.000978 0.999999 0.000000
140.15600586 215.62500000 178.75000000 0.285936 -0.495311 -0.820310 0.000000
132.07000732 171.60200500 53.75000000 -0.687161 0.684002 -0.244850 0.000000
160.37100220 238.08599854 102.50000000 -0.893891 -0.209209 0.396472 0.000000
225.50799561 145.54699707 161.25000000 -0.275879 0.362371 -0.890269 0.000000
144.64900208 229.10200500 83.75000000 -0.771648 -0.269840 0.575974 0.000000
181.03500366 223.71099854 162.50000000 0.122566 0.863730 0.488822 0.000000
114.10199738 260.54699707 148.75000000 0.358689 -0.660054 -0.660054 0.000000
97.48049927 252.46099854 92.50000000 0.939764 -0.333465 0.075128 0.000000
152.73399353 223.71099854 86.25000000 -0.213563 -0.277772 0.936607 0.000000
156.32800293 278.51599121 121.25000000 -0.684767 -0.477161 0.550828 0.000000
246.17199707 194.96099854 158.75000000 -0.820071 -0.017918 0.571982 0.000000
113.65200043 173.39900208 55.00000000 0.626297 0.757988 0.182223 0.000000
130.27400208 245.27400208 166.25000000 0.417562 -0.620521 -0.663774 0.000000
207.53900146 147.34399414 108.75000000 -0.558837 0.134180 0.818350 0.000000
127.57800293 267.73498535 148.75000000 0.420833 -0.603804 -0.676993 0.000000
231.79699707 162.61700439 163.75000000 -0.000978 -0.000978 -0.999999 0.000000
112.30500031 283.00799561 128.75000000 0.506900 -0.450761 -0.734757 0.000000
130.27400208 250.66400146 88.75000000 -0.528956 -0.613453 0.586414 0.000000
111.85600281 174.29699707 55.00000000 0.652173 0.753849 0.079888 0.000000
183.28100586 230.00000000 156.25000000 -0.634377 -0.035165 -0.772224 0.000000
114.10199738 238.98399353 161.25000000 0.526161 -0.459768 -0.715380 0.000000
180.58599854 164.41400146 93.75000000 -0.363108 -0.551989 0.750640 0.000000
144.64900208 185.97700500 166.25000000 -0.811146 -0.001363 -0.584843 0.000000
168.00799561 145.09800720 155.00000000 0.247462 0.742386 -0.622596 0.000000
164.41400146 257.40200806 120.00000000 -0.713023 -0.111178 0.692270 0.000000
174.29699707 188.22300720 112.50000000 -0.374855 -0.888599 -0.264340 0.000000
110.05899811 252.46099854 67.50000000 -0.563958 -0.437525 0.700373 0.000000
176.09399414 212.03100586 98.75000000 -0.499636 -0.068577 0.863517 0.000000
168.00799561 190.91799927 112.50000000 -0.272170 -0.961832 -0.028325 0.000000
181.48399353 146.44500732 123.75000000 -0.701483 0.233828 0.673235 0.000000
217.42199707 205.29299927 142.50000000 -0.859679 -0.463597 -0.214545 0.000000
189.57000732 207.53900146 108.75000000 -0.687909 0.038296 0.724786 0.000000
164.41400146 180.58599854 101.25000000 0.680398 -0.001380 0.732842 0.000000
144.64900208 219.21899414 176.25000000 0.023799 -0.662175 -0.748971 0.000000
106.46499634 185.97700500 120.00000000 0.992979 0.001085 -0.118289 0.000000
122.18800354 160.37100220 137.50000000 0.633734 0.766068 -0.107338 0.000000
218.32000732 203.04699707 143.75000000 -0.859679 -0.463597 -0.214545 0.000000
133.86700439 238.98399353 83.75000000 -0.467169 -0.402509 0.787236 0.000000
110.50800323 212.92999268 166.25000000 0.900653 0.110312 -0.420305 0.000000
115.89800262 247.96899414 71.25000000 -0.752366 -0.376999 0.540202 0.000000
154.53100586 176.09399414 96.25000000 -0.904962 -0.219341 0.364600 0.000000
104.21900177 235.39100647 151.25000000 0.693282 -0.077031 -0.716537 0.000000
145.54699707 263.24200439 108.75000000 -0.380245 -0.330983 0.863634 0.000000
179.68800354 218.77000427 110.00000000 -0.739501 -0.528685 0.416690 0.000000
144.64900208 247.96899414 166.25000000 0.000978 0.000978 -0.999999 0.000000
131.62100220 151.83599854 102.50000000 0.435808 0.899604 -0.027988 0.000000
126.68000031 156.77699280 130.00000000 0.705724 0.708486 -0.001381 0.000000
216.52400208 194.06300354 163.75000000 -0.103548 -0.340230 -0.934624 0.000000
150.03900146 186.42599487 77.50000000 -0.613000 0.398202 0.682397 0.000000
191.36700439 146.44500732 161.25000000 0.000978 0.000978 -0.999999 0.000000
208.43800354 168.90600586 118.75000000 0.001250 0.940919 0.338631 0.000000
184.17999268 185.07800293 123.75000000 0.399540 -0.648216 0.648216 0.000000
214.72700500 190.91799927 165.00000000 -0.027440 -0.388086 -0.921215 0.000000
142.85200500 260.54699707 103.75000000 -0.000978 -0.000978 0.999999 0.000000
99.72660065 269.98098755 122.50000000 0.844515 -0.535447 -0.009489 0.000000
133.86700439 221.91400146 71.25000000 0.072832 -0.933570 0.350916 0.000000
207.53900146 194.96099854 121.25000000 0.000978 0.000978 0.999999 0.000000
103.76999664 188.67199707 145.00000000 0.978686 0.140167 -0.150090 0.000000
106.01599884 180.58599854 53.75000000 0.705546 0.702613 -0.092410 0.000000
181.48399353 182.38299561 123.75000000 -0.366362 -0.040417 0.929594 0.000000
159.02400208 246.17199707 163.75000000 -0.161853 -0.763887 -0.624724 0.000000
142.85200500 144.64900208 128.75000000 0.523159 0.837351 -0.158578 0.000000
186.87500000 181.93400574 115.00000000 -0.572058 -0.688805 -0.445305 0.000000
131.17199707 261.89498901 97.50000000 -0.356963 -0.528176 0.770459 0.000000
253.36000061 164.41400146 153.75000000 -0.492311 0.116260 0.862620 0.000000
97.48049927 250.66400146 82.50000000 0.918844 -0.357093 0.167961 0.000000
214.72700500 179.68800354 166.25000000 -0.000978 -0.000978 -0.999999 0.000000
179.68800354 212.92999268 103.75000000 -0.724441 -0.382754 0.573310 0.000000
151.83599854 147.34399414 148.75000000 0.687161 0.684002 -0.244850 0.000000
132.07000732 169.80499268 156.25000000 0.349902 0.415803 -0.839450 0.000000
218.32000732 201.69900513 157.50000000 -0.210266 -0.975974 0.057124 0.000000
171.60200500 181.48399353 168.75000000 -0.000978 -0.000978 -0.999999 0.000000
243.47700500 168.90600586 146.25000000 -0.442269 -0.400455 0.802517 0.000000
178.78900146 204.84399414 106.25000000 -0.314179 0.942538 -0.113639 0.000000
101.97299957 190.46899414 85.00000000 0.917739 0.394455 -0.046485 0.000000
105.11699677 265.03900146 81.25000000 0.685677 -0.685677 0.244322 0.000000
115.00000000 270.42999268 86.25000000 -0.672468 -0.534956 0.511478 0.000000
97.48049927 252.46099854 95.00000000 0.919277 -0.393609 -0.001282 0.000000
130.27400208 183.28100586 53.75000000 -0.726569 -0.123830 0.675843 0.000000
126.68000031 161.27000427 72.50000000 0.684002 0.687161 0.244850 0.000000
124.43399811 226.40600586 65.00000000 -0.713064 -0.386998 0.584613 0.000000
150.93800354 203.94500732 78.75000000 -0.756072 -0.159093 0.634858 0.000000
146.44500732 210.23399353 178.75000000 -0.000978 -0.000978 -0.999999 0.000000
96.13289642 213.37899780 135.00000000 0.864935 0.396492 -0.307703 0.000000
159.47300720 198.55499268 90.00000000 -0.860672 0.360030 0.360030 0.000000
154.53100586 169.80499268 163.75000000 -0.043906 0.763402 -0.644430 0.000000
136.56300354 222.81300354 73.75000000 -0.605415 -0.524468 0.598670 0.000000
130.27400208 185.07800293 53.75000000 -0.940919 -0.001250 0.338631 0.000000
247.07000732 189.57000732 163.75000000 -0.745482 0.495343 0.445973 0.000000
101.52300262 185.97700500 53.75000000 0.683470 0.686627 -0.247817 0.000000
101.52300262 199.45300293 146.25000000 0.772244 0.232453 -0.591274 0.000000
92.98829651 249.76600647 117.50000000 0.999999 0.000978 0.000978 0.000000
107.36299896 271.32800293 90.00000000 0.823342 -0.499608 0.269259 0.000000
150.93800354 273.12500000 116.25000000 -0.580879 -0.232040 0.780216 0.000000
211.13299561 208.43800354 126.25000000 -0.001329 0.487672 0.873026 0.000000
226.40600586 132.96899414 128.75000000 -0.838440 -0.090294 0.537462 0.000000
201.25000000 169.80499268 113.75000000 -0.312750 -0.562949 0.765033 0.000000
251.56300354 182.38299561 161.25000000 -0.000978 -0.000978 -0.999999 0.000000
216.07400513 207.53900146 147.50000000 -0.978226 -0.195645 0.069266 0.000000
198.55499268 170.70300293 113.75000000 -0.185512 -0.743583 0.642394 0.000000
233.59399414 154.53100586 163.75000000 0.000978 0.000978 -0.999999 0.000000
141.95300293 183.73100281 67.50000000 -0.001380 0.680398 0.732842 0.000000
159.47300720 220.11700439 90.00000000 -0.648090 -0.577390 0.496589 0.000000
189.57000732 177.44099426 105.00000000 -0.678864 -0.409974 0.609152 0.000000
208.43800354 181.48399353 118.75000000 0.000978 0.000978 0.999999 0.000000
179.68800354 204.84399414 123.75000000 0.701570 0.478268 0.528261 0.000000
109.60900116 239.88299561 56.25000000 -0.692674 -0.405024 0.596790 0.000000
108.71099854 264.58999634 142.50000000 0.695929 -0.220508 -0.683418 0.000000
102.87100220 273.12500000 110.00000000 0.825267 -0.559237 0.078665 0.000000
172.50000000 132.96899414 136.25000000 0.424928 0.851401 -0.307493 0.000000
