125.48799896 211.91400146 360.00000000 -0.754071 -0.515254 -0.407296 0.000000
271.48400879 186.03500366 404.00000000 0.932572 0.035020 -0.359280 0.000000
121.09400177 240.23399353 320.00000000 -0.860007 -0.331960 -0.387544 0.000000
234.37500000 216.79699707 351.00000000 0.510920 -0.773679 -0.374675 0.000000
212.40199280 224.60899353 296.00000000 0.978493 -0.130218 -0.159982 0.000000
198.72999573 176.75799561 332.00000000 -0.265432 -0.915232 -0.303143 0.000000
272.46099854 221.19099426 406.00000000 0.065776 0.237043 0.969270 0.000000
155.27299500 188.96499634 332.00000000 -0.490619 -0.490619 -0.720129 0.000000
196.28900146 231.44500732 259.00000000 0.564935 0.517717 -0.642509 0.000000
166.01600647 182.12899780 336.00000000 -0.001308 -0.898831 -0.438294 0.000000
197.26600647 233.39799500 340.00000000 0.658682 -0.369585 -0.655397 0.000000
162.10899353 178.71099854 350.00000000 -0.437301 -0.876085 -0.203086 0.000000
110.35199738 272.46099854 330.00000000 -0.956761 0.062425 -0.284098 0.000000
144.04299927 208.00799561 322.00000000 -0.694380 -0.454594 -0.557835 0.000000
216.79699707 261.71899414 311.00000000 0.474595 0.669129 -0.571862 0.000000
252.92999268 211.91400146 360.00000000 0.477325 -0.172901 -0.861549 0.000000
227.53900146 207.52000427 370.00000000 0.252754 -0.362133 -0.897204 0.000000
212.40199280 280.27301025 356.00000000 0.979147 0.195829 0.054063 0.000000
146.48399353 290.03900146 291.00000000 0.001357 0.563126 -0.826370 0.000000
157.71499634 233.39799500 260.00000000 -0.830494 -0.318696 -0.456850 0.000000
213.37899780 234.37500000 300.00000000 0.831239 -0.499358 0.244301 0.000000
278.80899048 222.65600586 398.00000000 0.614783 0.139111 -0.776331 0.000000
123.04699707 233.39799500 331.00000000 -0.774540 -0.558242 -0.297411 0.000000
140.62500000 310.54699707 321.00000000 -0.231694 0.964312 0.128143 0.000000
229.49200439 206.05499268 409.00000000 -0.012723 0.188532 0.981985 0.000000
121.09400177 258.78900146 390.00000000 -0.679283 0.206738 0.704154 0.000000
170.41000366 182.61700439 382.00000000 -0.415165 -0.415165 0.809491 0.000000
204.10200500 237.30499268 340.00000000 -0.000978 -0.000978 -0.999999 0.000000
270.50799561 213.86700439 380.00000000 0.726945 0.152643 -0.669515 0.000000
193.35899353 217.77299500 400.00000000 0.000978 0.000978 0.999999 0.000000
109.37500000 293.45700073 360.00000000 -0.812487 0.331013 0.479890 0.000000
224.60899353 233.39799500 349.00000000 -0.000978 -0.000978 -0.999999 0.000000
226.56199646 250.00000000 351.00000000 0.810871 0.585094 -0.012390 0.000000
196.28900146 248.04699707 401.00000000 0.000978 0.000978 0.999999 0.000000
125.97699738 281.73800659 384.00000000 -0.601737 0.706672 0.372192 0.000000
172.36300659 289.06201172 312.00000000 0.502162 0.673468 -0.542470 0.000000
223.63299561 189.45300293 341.00000000 0.382246 -0.326981 -0.864275 0.000000
189.45300293 199.70700073 270.00000000 -0.424882 -0.880853 -0.208740 0.000000
227.53900146 203.12500000 409.00000000 0.000978 0.000978 0.999999 0.000000
190.42999268 236.32800293 259.00000000 0.580357 0.549901 -0.600661 0.000000
201.17199707 174.31599426 338.00000000 -0.001307 -0.897798 -0.440405 0.000000
196.28900146 243.65199280 336.00000000 0.778248 -0.126002 -0.615186 0.000000
208.00799561 245.60499573 340.00000000 0.272187 -0.542800 -0.794533 0.000000
205.07800293 289.06201172 389.00000000 0.469352 0.327124 0.820182 0.000000
187.50000000 279.29699707 311.00000000 0.489042 0.731076 -0.475780 0.000000
182.61700439 175.78100586 381.00000000 -0.488121 -0.571991 0.659215 0.000000
119.62899780 225.58599854 348.00000000 -0.843165 -0.386385 -0.373871 0.000000
148.43800354 223.14500427 294.00000000 -0.490619 -0.490619 -0.720129 0.000000
178.71099854 247.07000732 400.00000000 0.000978 0.000978 0.999999 0.000000
219.72700500 196.28900146 337.00000000 0.268094 -0.128104 -0.954838 0.000000
214.84399414 270.50799561 320.00000000 0.554593 0.671878 -0.490924 0.000000
138.67199707 271.48400879 280.00000000 -0.336865 0.112288 -0.934833 0.000000
148.43800354 246.09399414 400.00000000 0.000978 0.000978 0.999999 0.000000
154.78500366 305.66400146 384.00000000 -0.511288 0.779029 0.362902 0.000000
157.22700500 231.44500732 401.00000000 -0.064443 -0.348519 0.935084 0.000000
255.37100220 189.45300293 380.00000000 0.726919 -0.261311 -0.635064 0.000000
140.13699341 267.57800293 282.00000000 -0.778622 -0.082647 -0.622027 0.000000
187.50000000 190.91799927 396.00000000 -0.364385 -0.589880 0.720601 0.000000
220.70300293 191.40600586 407.00000000 0.000978 0.000978 0.999999 0.000000
221.19099426 245.11700439 332.00000000 0.291306 -0.830300 0.475125 0.000000
128.90600586 240.72300720 310.00000000 -0.774218 -0.263329 -0.575539 0.000000
179.68800354 297.85198975 389.00000000 -0.000978 -0.000978 0.999999 0.000000
236.32800293 201.17199707 350.00000000 0.887801 0.369792 -0.273976 0.000000
115.72299957 262.69500732 322.00000000 -0.945566 -0.096540 -0.310780 0.000000
155.27299500 196.28900146 320.00000000 -0.770144 -0.513969 -0.377776 0.000000
156.73800659 240.23399353 260.00000000 -0.898831 0.001308 -0.438294 0.000000
237.79299927 200.19500732 356.00000000 0.895990 0.174581 -0.408318 0.000000
176.75799561 301.75799561 389.00000000 0.024570 0.373730 0.927212 0.000000
224.60899353 198.24200439 409.00000000 -0.219771 0.080707 0.972207 0.000000
130.37100220 242.18800354 306.00000000 -0.744676 -0.511246 -0.429052 0.000000
235.35200500 234.37500000 397.00000000 0.337657 0.673684 0.657372 0.000000
254.39500427 159.17999268 372.00000000 0.927993 -0.035141 0.370937 0.000000
185.54699707 241.21099854 259.00000000 0.552716 0.623707 -0.552716 0.000000
184.57000732 297.85198975 331.00000000 0.380766 0.614830 -0.690653 0.000000
217.77299500 251.46499634 378.00000000 0.937401 0.313379 -0.151900 0.000000
181.64100647 275.39099121 401.00000000 -0.234083 0.550328 0.801464 0.000000
136.22999573 291.99200439 298.00000000 -0.582489 0.602749 -0.545344 0.000000
208.00799561 269.53100586 310.00000000 0.510445 0.684499 -0.520487 0.000000
208.98399353 243.65199280 398.00000000 0.461512 0.329202 0.823792 0.000000
219.72700500 166.01600647 400.00000000 -0.285206 -0.413320 0.864769 0.000000
106.44499969 277.34399414 365.00000000 -0.971803 0.196388 0.130503 0.000000
258.78900146 149.90199280 392.00000000 -0.119958 -0.978215 0.169425 0.000000
125.00000000 319.82400513 354.00000000 -0.501858 0.790467 -0.351141 0.000000
171.87500000 317.87100220 344.00000000 0.218916 0.877154 -0.427408 0.000000
196.28900146 226.56199646 337.00000000 0.551551 0.551551 -0.625766 0.000000
145.50799561 260.74200439 270.00000000 -0.517412 0.504017 -0.691558 0.000000
252.44099426 152.34399414 380.00000000 0.927325 -0.368535 -0.065192 0.000000
160.15600586 188.47700500 329.00000000 -0.500722 -0.601878 -0.622109 0.000000
133.78900146 248.04699707 297.00000000 -0.887356 -0.337826 -0.313803 0.000000
251.95300293 166.99200439 387.00000000 0.956389 0.250704 -0.149892 0.000000
166.50399780 261.71899414 266.00000000 0.786892 0.154971 0.597315 0.000000
134.76600647 286.13299561 387.00000000 -0.627078 0.311121 0.714127 0.000000
163.08599854 179.19900513 348.00000000 -0.399819 -0.907660 -0.127662 0.000000
182.61700439 244.14100647 259.00000000 0.552211 0.575853 -0.602873 0.000000
275.39099121 211.91400146 407.00000000 0.315163 0.495708 0.809287 0.000000
137.69500732 313.47698975 379.00000000 -0.295838 0.523648 0.798920 0.000000
223.14500427 258.78900146 356.00000000 0.986241 0.165311 -0.001125 0.000000
153.32000732 291.01599121 390.00000000 -0.668277 0.668277 0.326821 0.000000
196.28900146 182.61700439 319.00000000 0.001308 -0.898831 -0.438294 0.000000
118.16400146 229.97999573 346.00000000 -0.804468 -0.475004 -0.356653 0.000000
129.39500427 221.67999268 386.00000000 -0.344325 -0.544778 0.764629 0.000000
173.82800293 304.68798828 329.00000000 0.510327 0.597908 -0.618119 0.000000
195.80099487 309.57000732 378.00000000 0.285034 0.852021 0.439107 0.000000
166.01600647 176.75799561 357.00000000 -0.445466 -0.892310 -0.073095 0.000000
192.38299561 272.46099854 300.00000000 0.434670 0.664495 -0.607872 0.000000
267.57800293 166.99200439 407.00000000 0.590954 -0.288309 -0.753426 0.000000
187.01199341 283.20300293 316.00000000 0.463367 0.590500 -0.660758 0.000000
222.16799927 238.28100586 318.00000000 0.885746 -0.460039 0.061796 0.000000
210.44900513 213.86700439 300.00000000 0.935001 -0.350134 0.056389 0.000000
205.07800293 264.64801025 300.00000000 0.507486 0.710481 -0.487519 0.000000
191.40600586 299.80499268 337.00000000 0.430211 0.780874 -0.452939 0.000000
215.82000732 258.30099487 378.00000000 0.987979 0.059209 0.142798 0.000000
164.06199646 318.35900879 340.00000000 -0.001305 0.899331 -0.437266 0.000000
160.15600586 236.32800293 400.00000000 0.000978 0.000978 0.999999 0.000000
173.33999634 316.40600586 376.00000000 -0.217133 0.209041 0.953496 0.000000
131.83599854 274.41400146 290.00000000 -0.581502 0.097159 -0.807722 0.000000
198.24200439 167.96899414 360.00000000 -0.001305 -0.899331 -0.437266 0.000000
199.21899414 185.05900574 312.00000000 -0.055727 -0.942169 -0.330472 0.000000
209.96099854 254.88299561 397.00000000 0.803839 -0.116094 0.583408 0.000000
128.90600586 246.09399414 300.00000000 -0.858807 -0.473464 -0.195659 0.000000
178.22300720 248.04699707 260.00000000 0.338586 0.737112 -0.584830 0.000000
223.63299561 162.59800720 368.00000000 -0.392805 -0.819006 -0.418250 0.000000
170.89799500 269.53100586 280.00000000 0.348983 0.779986 -0.519454 0.000000
180.66400146 193.35899353 307.00000000 -0.716707 -0.001381 -0.697373 0.000000
183.59399414 319.82400513 360.00000000 0.320049 0.926309 -0.198797 0.000000
209.47300720 207.03100586 276.00000000 0.999999 -0.000978 -0.000978 0.000000
177.73399353 266.60198975 401.00000000 -0.148219 0.123720 0.981185 0.000000
109.86299896 271.48400879 334.00000000 -0.956761 0.062425 -0.284098 0.000000
250.00000000 187.50000000 410.00000000 0.000978 0.000978 0.999999 0.000000
232.42199707 205.07800293 381.00000000 0.711000 -0.290499 0.640382 0.000000
216.79699707 216.79699707 409.00000000 -0.417303 0.282788 0.863649 0.000000
209.96099854 283.69100952 338.00000000 0.668277 0.668277 -0.326821 0.000000
210.44900513 253.90600586 294.00000000 0.205910 0.735394 -0.645598 0.000000
132.81199646 270.99600220 292.00000000 -0.713977 0.001381 -0.700167 0.000000
250.00000000 189.45300293 371.00000000 0.964985 0.170598 -0.199248 0.000000
137.20700073 207.03100586 334.00000000 -0.579575 -0.582954 0.569436 0.000000
216.79699707 231.93400574 314.00000000 0.652019 -0.753671 0.082773 0.000000
118.65200043 293.94500732 374.00000000 -0.668277 0.668277 0.326821 0.000000
114.74600220 239.25799561 342.00000000 -0.894688 -0.446689 -0.001310 0.000000
175.78100586 300.78100586 389.00000000 0.024570 0.373730 0.927212 0.000000
203.12500000 238.28100586 331.00000000 -0.001305 -0.899331 0.437266 0.000000
170.89799500 309.08200073 332.00000000 0.407991 0.718527 -0.563259 0.000000
177.73399353 282.71499634 398.00000000 0.126038 0.375344 0.918276 0.000000
211.42599487 290.03900146 354.00000000 0.899331 0.001305 -0.437266 0.000000
225.58599854 215.82000732 407.00000000 0.000978 0.000978 0.999999 0.000000
137.69500732 273.92599487 394.00000000 0.388617 0.772356 0.502438 0.000000
176.75799561 185.54699707 320.00000000 -0.526963 -0.716470 -0.457144 0.000000
140.13699341 290.03900146 388.00000000 -0.001240 0.323658 0.946173 0.000000
132.81199646 202.14799500 361.00000000 -0.623434 -0.769948 0.136049 0.000000
129.88299561 221.67999268 387.00000000 -0.344325 -0.544778 0.764629 0.000000
178.71099854 282.22698975 309.00000000 0.545600 0.726917 -0.417029 0.000000
157.22700500 252.92999268 259.00000000 -0.584488 0.285077 -0.759675 0.000000
208.49600220 199.21899414 300.00000000 0.999999 0.000978 0.000978 0.000000
230.46899414 184.57000732 411.00000000 0.409292 0.820177 0.399737 0.000000
239.25799561 245.11700439 379.00000000 -0.584447 0.786933 -0.197884 0.000000
227.53900146 217.77299500 407.00000000 0.000978 0.000978 0.999999 0.000000
193.35899353 270.50799561 300.00000000 0.518496 0.606319 -0.602942 0.000000
180.66400146 186.03500366 320.00000000 -0.244082 -0.803762 -0.542578 0.000000
242.67599487 157.22700500 404.00000000 -0.508325 -0.823517 0.251845 0.000000
170.41000366 205.07800293 286.00000000 -0.587302 -0.772106 -0.242751 0.000000
183.59399414 182.12899780 326.00000000 -0.216848 -0.886571 -0.408619 0.000000
269.53100586 217.77299500 407.00000000 0.000978 0.000978 0.999999 0.000000
132.32400513 203.12500000 364.00000000 -0.630440 -0.760458 0.155720 0.000000
246.09399414 181.64100647 371.00000000 0.696003 -0.489038 -0.525758 0.000000
122.06999969 246.09399414 390.00000000 0.000978 0.000978 0.999999 0.000000
168.94500732 215.82000732 397.00000000 0.520597 -0.770354 -0.368148 0.000000
142.08999634 198.24200439 372.00000000 0.279231 -0.140284 0.949921 0.000000
208.98399353 277.34399414 327.00000000 0.459343 0.689850 -0.559563 0.000000
222.65600586 204.10200500 371.00000000 -0.483731 0.737979 -0.470523 0.000000
268.55499268 161.13299561 409.00000000 0.925805 -0.302913 -0.226118 0.000000
145.50799561 200.19500732 331.00000000 -0.667648 -0.533109 -0.519655 0.000000
121.09400177 220.21499634 352.00000000 -0.580062 -0.759035 -0.295624 0.000000
273.43798828 228.51600647 397.00000000 0.884818 0.130078 -0.447412 0.000000
131.83599854 319.33599854 371.00000000 -0.294090 0.780531 0.551618 0.000000
219.72700500 254.88299561 307.00000000 -0.001240 0.323658 -0.946173 0.000000
188.47700500 219.72700500 400.00000000 0.000978 0.000978 0.999999 0.000000
231.93400574 189.45300293 410.00000000 -0.360994 -0.014032 0.932462 0.000000
159.17999268 255.85899353 259.00000000 -0.670510 0.576872 -0.466514 0.000000
161.13299561 317.38299561 369.00000000 -0.001308 0.898831 0.438294 0.000000
206.05499268 286.13299561 330.00000000 0.590573 0.727235 -0.349789 0.000000
144.53100586 211.91400146 389.00000000 -0.499570 -0.593766 0.630771 0.000000
251.95300293 165.03900146 415.00000000 -0.000978 -0.000978 0.999999 0.000000
270.50799561 212.89100647 409.00000000 0.258187 0.298574 0.918800 0.000000
255.85899353 211.91400146 360.00000000 0.001314 0.456129 -0.889912 0.000000
147.46099854 306.15200806 310.00000000 0.563975 0.466911 -0.681121 0.000000
264.64801025 163.57400513 406.00000000 0.310908 -0.938202 -0.152030 0.000000
226.56199646 215.33200073 348.00000000 0.668277 0.668277 -0.326821 0.000000
125.00000000 236.32800293 321.00000000 -0.774851 -0.451860 -0.442073 0.000000
250.97700500 208.98399353 361.00000000 0.435935 0.022526 -0.899696 0.000000
234.37500000 167.96899414 411.00000000 -0.272187 -0.542800 0.794533 0.000000
157.22700500 188.47700500 331.00000000 -0.473685 -0.574113 -0.667845 0.000000
162.59800720 178.71099854 352.00000000 -0.271557 -0.945674 -0.178764 0.000000
122.55899811 312.50000000 342.00000000 -0.373783 0.749197 -0.546800 0.000000
177.73399353 313.47698975 379.00000000 -0.629323 0.212882 0.747418 0.000000
193.35899353 180.66400146 320.00000000 0.032030 -0.939124 -0.342082 0.000000
273.43798828 189.94099426 406.00000000 0.824259 -0.389101 -0.411336 0.000000
185.05900574 280.27301025 310.00000000 0.388221 0.682278 -0.619501 0.000000
242.18800354 249.51199341 386.00000000 -0.838865 0.449781 0.306598 0.000000
175.78100586 258.78900146 400.00000000 0.000978 0.000978 0.999999 0.000000
155.27299500 312.50000000 327.00000000 -0.001305 0.899331 -0.437266 0.000000
261.23001099 220.70300293 370.00000000 0.731423 -0.049902 -0.680095 0.000000
266.60198975 218.75000000 407.00000000 0.000978 0.000978 0.999999 0.000000
173.82800293 306.64099121 331.00000000 0.491288 0.665670 -0.561711 0.000000
171.38699341 209.96099854 396.00000000 -0.064890 -0.731095 0.679183 0.000000
197.26600647 170.41000366 354.00000000 -0.241163 -0.963363 0.117357 0.000000
145.02000427 314.45300293 336.00000000 -0.393609 0.919277 0.001282 0.000000
165.03900146 236.32800293 400.00000000 0.000978 0.000978 0.999999 0.000000
144.53100586 190.91799927 354.00000000 -0.457675 -0.879482 -0.130559 0.000000
211.91400146 275.39099121 389.00000000 0.712573 0.297576 0.635364 0.000000
183.59399414 262.20700073 402.00000000 0.270675 0.406768 0.872511 0.000000
247.55900574 236.32800293 358.00000000 0.843066 0.392597 -0.367570 0.000000
161.13299561 258.30099487 260.00000000 0.590284 -0.147945 -0.793522 0.000000
221.67999268 168.45700073 352.00000000 0.153247 -0.915262 -0.372572 0.000000
114.25800323 232.42199707 379.00000000 -0.730980 -0.469087 0.495607 0.000000
248.04699707 198.24200439 411.00000000 -0.003574 0.248976 0.968503 0.000000
106.44499969 265.62500000 381.00000000 -0.801649 0.240340 0.547354 0.000000
217.28500366 261.71899414 364.00000000 0.895757 0.289673 0.337209 0.000000
213.86700439 253.90600586 299.00000000 0.646437 0.585990 -0.488605 0.000000
270.01998901 181.64100647 414.00000000 0.572659 -0.066786 0.817069 0.000000
213.37899780 229.49200439 298.00000000 0.999999 0.000978 0.000978 0.000000
123.04699707 248.04699707 310.00000000 -0.000978 -0.000978 -0.999999 0.000000
158.20300293 285.15600586 290.00000000 0.481119 0.578349 -0.658815 0.000000
225.58599854 193.35899353 341.00000000 -0.000978 -0.000978 -0.999999 0.000000
198.24200439 197.75399780 266.00000000 -0.001305 -0.899331 -0.437266 0.000000
262.69500732 175.78100586 401.00000000 0.517245 -0.245498 -0.819871 0.000000
263.67199707 163.08599854 415.00000000 0.244846 -0.680829 0.690306 0.000000
250.00000000 200.19500732 360.00000000 -0.000978 -0.000978 -0.999999 0.000000
158.20300293 319.33599854 350.00000000 -0.393458 0.917174 -0.063114 0.000000
217.77299500 268.55499268 361.00000000 0.967407 -0.242165 -0.074030 0.000000
104.98000336 245.11700439 362.00000000 -0.905308 -0.241318 -0.349546 0.000000
223.63299561 247.07000732 310.00000000 0.987081 -0.001120 -0.160219 0.000000
205.56599426 199.21899414 262.00000000 0.688560 0.458484 0.561852 0.000000
269.04299927 178.71099854 404.00000000 0.986685 0.159661 -0.031013 0.000000
201.17199707 220.70300293 330.00000000 0.000978 0.000978 0.999999 0.000000
231.44500732 181.64100647 351.00000000 0.739885 -0.367493 -0.563489 0.000000
233.39799500 226.56199646 407.00000000 -0.000978 -0.000978 0.999999 0.000000
222.65600586 199.21899414 380.00000000 -0.273167 -0.122727 0.954106 0.000000
190.42999268 223.63299561 400.00000000 -0.000978 -0.000978 0.999999 0.000000
129.88299561 210.93800354 351.00000000 -0.821648 -0.561724 -0.096749 0.000000
267.08999634 196.28900146 392.00000000 0.640382 -0.290499 -0.711000 0.000000
134.76600647 253.90600586 401.00000000 -0.427382 0.025140 0.903721 0.000000
120.60500336 234.37500000 336.00000000 -0.612056 -0.612056 -0.500773 0.000000
201.17199707 237.79299927 330.00000000 -0.074247 -0.392832 0.916608 0.000000
274.41400146 188.47700500 409.00000000 0.082040 0.949319 0.303418 0.000000
193.35899353 200.68400574 262.00000000 -0.103696 -0.994393 -0.020739 0.000000
176.75799561 277.34399414 399.00000000 -0.118737 0.048626 0.991734 0.000000
167.96899414 176.27000427 352.00000000 -0.444008 -0.889425 -0.108535 0.000000
127.44100189 235.35200500 318.00000000 -0.722321 -0.516418 -0.459961 0.000000
246.09399414 182.61700439 371.00000000 0.703117 -0.450460 -0.550193 0.000000
138.67199707 271.48400879 397.00000000 -0.083133 0.686940 0.721943 0.000000
207.52000427 215.82000732 320.00000000 0.886836 -0.323718 0.329740 0.000000
124.02300262 300.78100586 370.00000000 -0.558798 0.498387 0.662838 0.000000
120.60500336 310.54699707 366.00000000 -0.815521 0.364043 0.449888 0.000000
251.95300293 166.99200439 415.00000000 0.000978 0.000978 0.999999 0.000000
138.67199707 311.52301025 381.00000000 -0.255944 0.470508 0.844462 0.000000
142.57800293 211.91400146 319.00000000 -0.598316 -0.611799 -0.517417 0.000000
267.57800293 224.60899353 387.00000000 0.664859 0.725995 -0.175767 0.000000
250.00000000 225.58599854 400.00000000 0.215819 0.178746 0.959933 0.000000
248.53500366 167.96899414 378.00000000 0.716707 0.001381 -0.697373 0.000000
184.57000732 291.99200439 320.00000000 0.471125 0.618665 -0.628725 0.000000
202.14799500 250.00000000 280.00000000 0.698378 0.592714 -0.401196 0.000000
265.62500000 168.45700073 406.00000000 -0.001357 -0.563126 -0.826370 0.000000
204.10200500 246.09399414 280.00000000 0.172732 0.214926 -0.961234 0.000000
215.33200073 251.95300293 300.00000000 0.734478 0.268092 -0.623433 0.000000
120.60500336 300.78100586 372.00000000 -0.378210 0.019362 0.925517 0.000000
207.03100586 204.10200500 261.00000000 0.939315 -0.157236 -0.304901 0.000000
233.39799500 195.80099487 410.00000000 -0.338975 0.075181 0.937787 0.000000
203.61300659 307.61700439 370.00000000 0.679104 0.672682 0.293797 0.000000
218.26199341 269.53100586 364.00000000 0.991078 -0.053603 0.122031 0.000000
214.84399414 239.25799561 299.00000000 0.884442 -0.329971 -0.329971 0.000000
164.06199646 265.62500000 269.00000000 0.391410 0.695289 -0.602804 0.000000
271.48400879 179.68800354 409.00000000 0.815127 -0.505347 -0.283182 0.000000
175.78100586 176.75799561 377.00000000 -0.223641 -0.945328 0.237361 0.000000
188.96499634 314.45300293 374.00000000 0.255106 0.887649 0.383405 0.000000
200.19500732 309.57000732 370.00000000 0.575851 0.790835 0.207306 0.000000
136.71899414 201.17199707 369.00000000 -0.668277 -0.668277 0.326821 0.000000
155.27299500 212.89100647 299.00000000 -0.659850 -0.599712 -0.452707 0.000000
186.52299500 301.75799561 387.00000000 0.015361 0.730365 0.682884 0.000000
137.69500732 270.50799561 397.00000000 0.000978 0.000978 0.999999 0.000000
114.74600220 242.18800354 336.00000000 -0.854278 -0.358146 -0.376751 0.000000
249.02299500 197.26600647 360.00000000 0.583864 -0.154596 -0.796996 0.000000
213.37899780 260.74200439 304.00000000 0.559237 0.782932 -0.272530 0.000000
256.83599854 156.73800659 388.00000000 0.833703 0.473519 -0.284111 0.000000
169.92199707 202.14799500 290.00000000 -0.454869 -0.826319 -0.332101 0.000000
273.43798828 226.56199646 397.00000000 0.899331 0.001305 -0.437266 0.000000
143.55499268 276.36700439 280.00000000 -0.528322 0.562081 -0.636350 0.000000
205.56599426 215.82000732 328.00000000 0.924742 -0.369626 0.090714 0.000000
168.45700073 196.28900146 312.00000000 -0.402599 -0.608040 -0.684252 0.000000
225.58599854 187.50000000 409.00000000 0.000978 0.000978 0.999999 0.000000
232.42199707 209.96099854 350.00000000 0.838420 0.385390 -0.385390 0.000000
121.09400177 221.19099426 378.00000000 0.000978 0.000978 0.999999 0.000000
184.57000732 267.57800293 401.00000000 0.000978 0.000978 0.999999 0.000000
196.28900146 248.04699707 277.00000000 0.640810 0.637481 -0.427762 0.000000
206.54299927 272.46099854 316.00000000 0.492126 0.745595 -0.449332 0.000000
177.73399353 177.73399353 339.00000000 -0.186332 -0.899880 -0.394330 0.000000
127.93000031 292.96899414 309.00000000 -0.764137 0.399176 -0.506709 0.000000
123.53500366 314.45300293 368.00000000 -0.658325 0.547201 0.516894 0.000000
145.50799561 205.07800293 380.00000000 -0.372641 -0.694392 0.615596 0.000000
125.97699738 214.84399414 350.00000000 -0.770372 -0.629504 -0.101249 0.000000
112.30500031 234.37500000 379.00000000 -0.717909 -0.528898 0.452631 0.000000
178.71099854 183.59399414 320.00000000 -0.418506 -0.554148 -0.719565 0.000000
162.10899353 280.27301025 290.00000000 0.452188 0.730458 -0.511817 0.000000
141.60200500 202.14799500 330.00000000 -0.476157 -0.728337 -0.492747 0.000000
225.58599854 217.77299500 407.00000000 0.000978 0.000978 0.999999 0.000000
127.44100189 242.18800354 312.00000000 -0.809282 -0.183034 -0.558177 0.000000
197.26600647 167.96899414 380.00000000 -0.274655 -0.851585 0.446507 0.000000
111.32800293 297.85198975 351.00000000 -0.970072 0.242814 0.001184 0.000000
168.94500732 200.19500732 390.00000000 -0.311883 -0.130964 0.941051 0.000000
172.85200500 278.32000732 399.00000000 -0.000978 -0.000978 0.999999 0.000000
179.68800354 275.87899780 400.00000000 -0.490619 -0.490619 0.720129 0.000000
139.64799500 296.38699341 386.00000000 -0.354347 0.847624 0.394933 0.000000
214.84399414 237.30499268 301.00000000 0.908156 -0.314418 -0.276395 0.000000
213.86700439 215.33200073 346.00000000 0.001305 0.899331 -0.437266 0.000000
203.12500000 204.10200500 321.00000000 0.854772 -0.196104 0.480529 0.000000
212.89100647 279.78500366 336.00000000 0.739350 0.647124 -0.185990 0.000000
208.49600220 216.79699707 272.00000000 0.912818 0.341766 -0.223518 0.000000
106.93399811 277.34399414 368.00000000 -0.928179 0.127505 0.349609 0.000000
152.34399414 273.43798828 401.00000000 -0.060898 0.322629 0.944564 0.000000
145.50799561 296.87500000 299.00000000 0.001357 0.563126 -0.826370 0.000000
206.54299927 214.84399414 262.00000000 0.873938 0.267162 -0.406026 0.000000
152.34399414 221.19099426 290.00000000 -0.697859 -0.348112 -0.625948 0.000000
254.39500427 162.10899353 388.00000000 0.860808 0.386517 -0.331080 0.000000
186.52299500 256.83599854 400.00000000 0.000978 0.000978 0.999999 0.000000
156.25000000 236.32800293 400.00000000 -0.218932 -0.324821 0.920087 0.000000
165.03900146 178.22300720 348.00000000 -0.444008 -0.889425 -0.108535 0.000000
224.12100220 251.95300293 316.00000000 0.957421 0.171300 -0.232384 0.000000
133.78900146 269.53100586 291.00000000 -0.825289 0.084682 -0.558326 0.000000
154.29699707 205.07800293 389.00000000 -0.001357 -0.563126 0.826370 0.000000
224.60899353 240.23399353 387.00000000 -0.001357 -0.563126 0.826370 0.000000
240.23399353 185.54699707 410.00000000 -0.563126 -0.001357 0.826370 0.000000
206.54299927 216.79699707 262.00000000 0.839765 0.356311 -0.409680 0.000000
162.10899353 286.13299561 299.00000000 0.511425 0.609322 -0.605946 0.000000
252.92999268 214.84399414 361.00000000 0.340797 -0.267032 -0.901416 0.000000
165.52699280 217.77299500 262.00000000 -0.670255 -0.462994 -0.579996 0.000000
162.10899353 196.28900146 389.00000000 -0.516931 -0.171317 0.838709 0.000000
115.23400116 307.61700439 349.00000000 -0.886486 0.456422 -0.076302 0.000000
252.44099426 163.08599854 374.00000000 0.891465 0.452996 0.009245 0.000000
149.41400146 268.55499268 401.00000000 -0.157630 0.111197 0.981218 0.000000
125.00000000 311.03500366 338.00000000 -0.484294 0.808214 -0.335036 0.000000
119.14099884 259.76599121 390.00000000 -0.321452 0.155897 0.934005 0.000000
157.22700500 216.30900574 290.00000000 -0.647929 -0.530123 -0.546953 0.000000
155.27299500 264.64801025 267.00000000 -0.795913 0.316141 -0.516311 0.000000
126.95300293 237.79299927 316.00000000 -0.692557 -0.542364 -0.475611 0.000000
150.39100647 302.73400879 307.00000000 0.464772 0.774620 -0.428895 0.000000
202.63699341 297.85198975 386.00000000 0.598305 0.718944 0.353766 0.000000
204.10200500 193.35899353 400.00000000 0.000978 0.000978 0.999999 0.000000
222.65600586 244.62899780 380.00000000 0.446496 0.763787 0.466123 0.000000
210.93800354 182.61700439 400.00000000 -0.435839 0.291073 0.851658 0.000000
142.57800293 266.60198975 279.00000000 -0.615682 0.366126 -0.697773 0.000000
225.58599854 206.05499268 409.00000000 -0.093992 0.266525 0.959234 0.000000
205.07800293 229.97999573 272.00000000 0.875511 0.374785 -0.304987 0.000000
114.74600220 284.17999268 326.00000000 -0.878393 0.237929 -0.414506 0.000000
114.25800323 280.27301025 379.00000000 -0.402493 0.604567 0.687385 0.000000
239.25799561 207.03100586 359.00000000 -0.430890 0.006548 -0.902381 0.000000
208.00799561 238.28100586 331.00000000 0.635499 -0.428670 0.642171 0.000000
156.25000000 202.14799500 387.00000000 -0.881777 -0.310059 -0.355433 0.000000
225.58599854 197.26600647 380.00000000 -0.000978 -0.000978 0.999999 0.000000
126.46499634 236.32800293 318.00000000 -0.722321 -0.516418 -0.459961 0.000000
113.28099823 279.29699707 327.00000000 -0.917790 0.105635 -0.382756 0.000000
204.10200500 222.65600586 261.00000000 0.622527 0.548296 -0.558419 0.000000
204.58999634 222.65600586 262.00000000 0.771085 0.514597 -0.374991 0.000000
210.93800354 223.63299561 407.00000000 -0.003915 0.432006 0.901862 0.000000
197.26600647 281.73800659 322.00000000 0.665264 0.351430 -0.658726 0.000000
113.76999664 275.39099121 326.00000000 -0.898831 -0.001308 -0.438294 0.000000
227.53900146 200.68400574 340.00000000 0.314042 -0.063325 -0.947295 0.000000
243.16400146 201.66000366 410.00000000 0.154797 0.390542 0.907477 0.000000
204.10200500 239.25799561 277.00000000 0.742939 0.149191 -0.652521 0.000000
136.71899414 293.94500732 299.00000000 -0.625588 0.568256 -0.534532 0.000000
179.68800354 203.61300659 274.00000000 -0.412386 -0.887877 -0.203992 0.000000
146.48399353 316.40600586 379.00000000 0.226932 0.734008 0.640105 0.000000
121.58200073 261.71899414 310.00000000 -0.832957 -0.136623 -0.536207 0.000000
171.87500000 285.15600586 397.00000000 0.000978 0.000978 0.999999 0.000000
198.24200439 178.71099854 327.00000000 -0.207568 -0.904299 -0.373041 0.000000
258.78900146 179.68800354 391.00000000 0.793984 -0.360902 -0.489223 0.000000
278.32000732 208.00799561 401.00000000 0.645461 -0.216190 -0.732559 0.000000
133.78900146 322.26599121 367.00000000 -0.454721 0.872653 0.178062 0.000000
161.13299561 226.07400513 262.00000000 -0.768170 -0.481126 -0.422412 0.000000
103.02700043 247.07000732 368.00000000 -0.948307 -0.316937 0.016285 0.000000
233.39799500 242.67599487 374.00000000 0.268332 0.922660 0.276941 0.000000
192.38299561 168.45700073 366.00000000 0.001144 -0.982468 -0.186429 0.000000
145.50799561 207.52000427 320.00000000 -0.734613 -0.510102 -0.447371 0.000000
180.66400146 310.54699707 380.00000000 0.349566 0.517100 0.781288 0.000000
129.39500427 291.99200439 304.00000000 -0.821002 0.306110 -0.481926 0.000000
153.32000732 256.83599854 400.00000000 0.000978 0.000978 0.999999 0.000000
161.13299561 196.28900146 317.00000000 -0.892310 -0.445466 0.073095 0.000000
201.17199707 227.05099487 262.00000000 0.250595 0.751784 0.609938 0.000000
160.15600586 228.51600647 261.00000000 -0.773488 -0.521579 -0.360100 0.000000
196.28900146 261.71899414 290.00000000 0.412787 0.735123 -0.537774 0.000000
254.88299561 231.93400574 398.00000000 0.813364 0.581753 0.001362 0.000000
105.46900177 243.65199280 362.00000000 -0.905308 -0.241318 -0.349546 0.000000
197.26600647 310.05899048 356.00000000 0.668277 0.668277 -0.326821 0.000000
230.95700073 200.19500732 380.00000000 0.954334 -0.298307 0.016091 0.000000
216.79699707 163.08599854 397.00000000 -0.492684 -0.703118 0.512725 0.000000
140.13699341 277.34399414 286.00000000 -0.628536 0.678027 -0.381081 0.000000
108.88700104 258.78900146 386.00000000 -0.899331 -0.001305 0.437266 0.000000
136.71899414 230.46899414 390.00000000 -0.139536 -0.969072 -0.203543 0.000000
209.96099854 245.11700439 341.00000000 0.272187 -0.542800 -0.794533 0.000000
225.58599854 192.38299561 341.00000000 -0.000978 -0.000978 -0.999999 0.000000
130.85899353 224.60899353 389.00000000 -0.379408 -0.579787 0.721039 0.000000
210.44900513 285.15600586 346.00000000 0.831107 0.533752 -0.156111 0.000000
224.12100220 243.16400146 318.00000000 0.938060 -0.315418 -0.143372 0.000000
161.13299561 221.19099426 272.00000000 -0.828847 -0.527995 -0.185024 0.000000
197.26600647 231.44500732 261.00000000 0.564935 0.517717 -0.642509 0.000000
193.84800720 168.94500732 382.00000000 -0.449323 -0.807502 0.382164 0.000000
242.18800354 212.89100647 409.00000000 0.008115 0.200567 0.979646 0.000000
219.72700500 211.91400146 409.00000000 0.409292 -0.820177 0.399737 0.000000
221.67999268 177.73399353 407.00000000 -0.665855 -0.061840 0.743514 0.000000
121.09400177 314.45300293 347.00000000 -0.668277 0.668277 0.326821 0.000000
138.18400574 224.60899353 310.00000000 -0.861010 -0.285984 -0.420565 0.000000
130.37100220 231.44500732 316.00000000 -0.870522 -0.420928 -0.254971 0.000000
182.61700439 294.43399048 324.00000000 0.365975 0.781930 -0.504627 0.000000
205.07800293 289.55099487 340.00000000 0.668277 0.668277 -0.326821 0.000000
171.87500000 194.82400513 312.00000000 -0.334026 -0.676198 -0.656645 0.000000
231.44500732 233.88699341 400.00000000 -0.046920 0.763515 0.644083 0.000000
230.46899414 185.05900574 410.00000000 0.513969 0.770144 0.377776 0.000000
199.21899414 273.43798828 397.00000000 0.773310 0.085601 0.628223 0.000000
275.39099121 208.98399353 397.00000000 0.574599 -0.798981 -0.177383 0.000000
220.70300293 163.08599854 401.00000000 -0.336945 -0.662495 0.669006 0.000000
210.93800354 294.43399048 378.00000000 0.723386 0.644585 0.247433 0.000000
152.83200073 222.65600586 398.00000000 -0.362153 -0.355989 0.861462 0.000000
209.96099854 271.48400879 319.00000000 0.553025 0.736819 -0.388922 0.000000
159.17999268 289.55099487 300.00000000 0.582954 0.579575 -0.569436 0.000000
249.02299500 214.84399414 409.00000000 0.314601 0.784106 0.534981 0.000000
136.22999573 257.81201172 288.00000000 -0.819551 -0.189360 -0.540813 0.000000
221.19099426 169.92199707 406.00000000 -0.795890 -0.094576 0.598009 0.000000
193.35899353 287.59799194 326.00000000 0.509863 0.690405 -0.513206 0.000000
210.93800354 276.85501099 328.00000000 0.467115 0.654631 -0.594358 0.000000
216.30900574 282.22698975 368.00000000 0.980491 0.196558 0.001149 0.000000
103.02700043 264.64801025 356.00000000 0.000000 0.000000 0.000000 0.000000
193.35899353 236.32800293 261.00000000 0.549731 0.570029 -0.610625 0.000000
271.48400879 195.31199646 399.00000000 0.942348 -0.188470 -0.276514 0.000000
232.91000366 206.05499268 348.00000000 0.928913 0.230461 -0.289843 0.000000
252.92999268 161.62100220 376.00000000 0.971447 0.001180 -0.237255 0.000000
208.00799561 196.28900146 330.00000000 0.190550 -0.092202 -0.977338 0.000000
142.57800293 198.24200439 339.00000000 -0.670071 -0.666826 -0.326112 0.000000
193.35899353 261.71899414 291.00000000 0.430585 0.679959 -0.593509 0.000000
145.02000427 263.67199707 274.00000000 -0.517412 0.504017 -0.691558 0.000000
193.35899353 236.81599426 262.00000000 0.540454 0.540454 -0.644841 0.000000
196.28900146 196.77699280 274.00000000 -0.404800 -0.906249 0.121860 0.000000
130.85899353 257.81201172 399.00000000 -0.414651 0.052335 0.908474 0.000000
191.40600586 238.28100586 261.00000000 0.621195 0.450408 -0.641287 0.000000
268.06600952 185.54699707 400.00000000 0.710761 -0.223382 -0.667022 0.000000
121.09400177 277.34399414 389.00000000 0.862319 -0.401186 0.308959 0.000000
154.29699707 317.87100220 344.00000000 -0.393458 0.917174 -0.063114 0.000000
220.21499634 214.84399414 342.00000000 0.219146 0.750693 -0.623246 0.000000
237.30499268 216.79699707 407.00000000 -0.917015 0.393390 -0.065789 0.000000
127.44100189 240.23399353 398.00000000 -0.773761 -0.332991 0.538898 0.000000
116.21099854 259.76599121 391.00000000 -0.356963 0.770459 0.528176 0.000000
223.63299561 253.90600586 359.00000000 0.891307 0.325065 0.316077 0.000000
134.76600647 225.58599854 390.00000000 -0.493619 -0.608180 0.621657 0.000000
249.02299500 192.38299561 410.00000000 -0.003735 0.327408 0.944876 0.000000
106.93399811 273.43798828 372.00000000 -0.563126 -0.001357 -0.826370 0.000000
149.41400146 258.78900146 271.00000000 -0.828213 0.143203 -0.541808 0.000000
248.04699707 161.13299561 411.00000000 -0.159286 -0.540383 0.826205 0.000000
131.83599854 244.14100647 401.00000000 0.000978 0.000978 0.999999 0.000000
228.51600647 214.84399414 407.00000000 0.000978 0.000978 0.999999 0.000000
155.76199341 233.39799500 268.00000000 -0.994457 -0.063618 -0.083709 0.000000
109.86299896 286.13299561 338.00000000 -0.852531 0.371138 -0.368032 0.000000
228.51600647 180.66400146 409.00000000 -0.424844 -0.252487 0.869343 0.000000
156.25000000 242.18800354 261.00000000 -0.898831 0.001308 -0.438294 0.000000
241.21099854 161.13299561 360.00000000 -0.297867 -0.831220 -0.469413 0.000000
172.85200500 296.87500000 319.00000000 0.580716 0.580716 -0.570558 0.000000
222.65600586 193.35899353 387.00000000 -0.793434 0.012419 0.608529 0.000000
165.03900146 312.50000000 379.00000000 0.012295 0.834710 0.550553 0.000000
188.47700500 241.69900513 262.00000000 0.502972 0.440307 -0.743740 0.000000
186.52299500 309.08200073 342.00000000 0.644561 0.431373 -0.631236 0.000000
227.53900146 168.94500732 409.00000000 -0.416980 -0.046927 0.907703 0.000000
210.93800354 208.00799561 407.00000000 0.000978 0.000978 0.999999 0.000000
207.03100586 266.11300659 394.00000000 0.369362 0.632019 0.681267 0.000000
147.94900513 196.28900146 332.00000000 -0.612056 -0.612056 -0.500773 0.000000
265.62500000 173.82800293 415.00000000 0.000978 0.000978 0.999999 0.000000
187.50000000 219.72700500 400.00000000 -0.216882 0.080556 0.972869 0.000000
218.75000000 223.63299561 407.00000000 0.001305 0.899331 0.437266 0.000000
184.57000732 244.14100647 261.00000000 0.582927 0.582927 -0.566031 0.000000
117.18800354 248.04699707 391.00000000 -0.505259 0.213938 0.836029 0.000000
230.46899414 206.05499268 380.00000000 0.711598 -0.159313 0.684287 0.000000
163.08599854 320.80099487 358.00000000 -0.213964 0.925287 0.313152 0.000000
133.78900146 311.52301025 379.00000000 -0.473080 0.443615 0.761184 0.000000
213.37899780 264.64801025 312.00000000 0.509613 0.737207 -0.443644 0.000000
139.64799500 200.19500732 370.00000000 -0.713208 -0.536984 0.450535 0.000000
205.56599426 212.89100647 322.00000000 0.892662 -0.330449 0.306525 0.000000
270.50799561 174.80499268 409.00000000 0.947916 -0.101515 -0.301909 0.000000
183.59399414 245.11700439 261.00000000 0.582927 0.582927 -0.566031 0.000000
172.85200500 276.36700439 297.00000000 0.645892 0.213222 -0.733048 0.000000
147.46099854 285.15600586 390.00000000 -0.317024 0.381348 0.868371 0.000000
200.19500732 206.05499268 400.00000000 0.329530 0.495091 0.803925 0.000000
123.04699707 240.23399353 321.00000000 -0.739875 -0.356115 -0.570760 0.000000
152.34399414 257.81201172 267.00000000 -0.643861 0.185936 -0.742207 0.000000
179.68800354 250.97700500 400.00000000 0.000978 0.000978 0.999999 0.000000
171.87500000 181.64100647 330.00000000 0.001305 -0.899331 -0.437266 0.000000
202.14799500 194.82400513 280.00000000 0.162951 -0.973917 -0.157898 0.000000
204.58999634 208.00799561 320.00000000 0.915232 -0.265432 0.303143 0.000000
121.09400177 262.69500732 390.00000000 -0.637622 0.101140 0.763681 0.000000
109.86299896 284.17999268 370.00000000 -0.914753 0.177829 0.362772 0.000000
257.32400513 240.23399353 378.00000000 0.932572 0.359280 0.035020 0.000000
170.89799500 259.76599121 267.00000000 0.620637 0.746336 -0.240399 0.000000
169.43400574 183.59399414 382.00000000 -0.449148 -0.397633 0.800096 0.000000
164.06199646 208.98399353 287.00000000 -0.696903 -0.696903 -0.169270 0.000000
195.31199646 223.14500427 346.00000000 0.322494 0.620679 -0.714672 0.000000
144.53100586 300.29299927 384.00000000 -0.510423 0.694509 0.507076 0.000000
147.46099854 249.51199341 274.00000000 -0.885315 -0.265145 -0.381989 0.000000
185.54699707 300.78100586 389.00000000 0.015361 0.730365 0.682884 0.000000
183.10499573 281.25000000 310.00000000 0.275633 0.715372 -0.642082 0.000000
176.75799561 176.27000427 376.00000000 -0.223641 -0.945328 0.237361 0.000000
179.68800354 248.04699707 261.00000000 0.338586 0.737112 -0.584830 0.000000
257.81201172 170.89799500 415.00000000 0.000978 0.000978 0.999999 0.000000
143.55499268 246.09399414 281.00000000 -0.553063 -0.223382 -0.802634 0.000000
205.07800293 291.50399780 388.00000000 0.457847 0.310961 0.832875 0.000000
160.15600586 280.27301025 291.00000000 0.567735 0.706773 -0.422077 0.000000
213.37899780 278.32000732 386.00000000 0.810770 0.361581 0.460339 0.000000
208.00799561 242.18800354 330.00000000 0.215359 -0.529997 0.820197 0.000000
219.23800659 269.53100586 332.00000000 0.668277 0.668277 -0.326821 0.000000
178.71099854 249.02299500 261.00000000 0.338586 0.737112 -0.584830 0.000000
175.78100586 235.35200500 400.00000000 0.000978 0.000978 0.999999 0.000000
162.10899353 305.66400146 387.00000000 -0.889977 -0.114244 -0.441462 0.000000
164.06199646 181.64100647 337.00000000 -0.326855 -0.836686 -0.439456 0.000000
117.18800354 240.23399353 389.00000000 -0.480374 -0.160125 0.862323 0.000000
261.71899414 221.67999268 371.00000000 0.731423 -0.049902 -0.680095 0.000000
107.42199707 281.25000000 365.00000000 -0.968653 0.213692 0.126680 0.000000
154.29699707 205.07800293 310.00000000 -0.317930 -0.848329 -0.423389 0.000000
177.24600220 250.00000000 262.00000000 0.400755 0.720699 -0.565675 0.000000
228.02699280 206.05499268 370.00000000 0.201252 0.106251 -0.973760 0.000000
148.43800354 312.98800659 328.00000000 -0.120175 0.508210 -0.852808 0.000000
206.05499268 227.53900146 331.00000000 0.701761 -0.433001 0.565722 0.000000
173.82800293 306.64099121 380.00000000 0.999999 -0.000978 -0.000978 0.000000
251.46499634 233.39799500 360.00000000 0.696042 0.052882 -0.716051 0.000000
153.80900574 239.25799561 272.00000000 -0.971538 -0.151524 -0.182084 0.000000
118.16400146 309.57000732 360.00000000 -0.773584 0.405521 0.486951 0.000000
194.82400513 225.58599854 346.00000000 0.560804 0.470406 -0.681335 0.000000
239.25799561 159.66799927 408.00000000 -0.230222 -0.715725 0.659344 0.000000
235.35200500 190.42999268 411.00000000 -0.132422 -0.080859 0.987890 0.000000
210.44900513 257.81201172 396.00000000 0.559289 0.057760 0.826958 0.000000
131.83599854 282.22698975 389.00000000 -0.321748 0.619243 0.716252 0.000000
220.21499634 250.00000000 374.00000000 0.436358 0.874206 0.212967 0.000000
129.88299561 226.07400513 390.00000000 -0.306580 -0.598714 0.739966 0.000000
132.32400513 204.10200500 368.00000000 -0.824298 -0.550024 0.134188 0.000000
174.31599426 251.95300293 262.00000000 0.000978 0.000978 -0.999999 0.000000
166.99200439 303.71099854 320.00000000 0.153247 0.915262 -0.372572 0.000000
132.81199646 289.55099487 300.00000000 -0.638825 0.318604 -0.700282 0.000000
168.94500732 223.14500427 400.00000000 0.237816 -0.700848 0.672499 0.000000
252.44099426 231.44500732 360.00000000 0.459695 0.255047 -0.850665 0.000000
140.62500000 238.28100586 290.00000000 -0.601974 -0.321160 -0.731084 0.000000
202.14799500 294.92199707 340.00000000 0.801090 0.260784 -0.538745 0.000000
195.31199646 223.63299561 400.00000000 0.000978 0.000978 0.999999 0.000000
253.90600586 185.54699707 415.00000000 0.001381 0.716707 0.697373 0.000000
150.39100647 242.18800354 400.00000000 0.000978 0.000978 0.999999 0.000000
124.51200104 289.06201172 310.00000000 -0.563126 -0.001357 -0.826370 0.000000
149.90199280 189.45300293 366.00000000 -0.587107 -0.758943 0.281621 0.000000
200.19500732 231.93400574 332.00000000 -0.239326 0.393922 0.887439 0.000000
172.85200500 253.41799927 262.00000000 0.490619 0.490619 -0.720129 0.000000
166.99200439 262.69500732 400.00000000 -0.000978 -0.000978 0.999999 0.000000
234.37500000 180.66400146 411.00000000 -0.443190 0.189939 0.876074 0.000000
134.27699280 207.03100586 346.00000000 -0.828927 -0.462256 -0.314961 0.000000
157.22700500 254.88299561 261.00000000 -0.621531 0.387427 -0.680882 0.000000
148.43800354 263.67199707 270.00000000 -0.413996 0.360475 -0.835862 0.000000
233.39799500 200.19500732 409.00000000 -0.189761 0.084474 0.978189 0.000000
208.98399353 224.12100220 324.00000000 0.855044 -0.034312 0.517419 0.000000
218.75000000 269.04299927 330.00000000 0.668277 0.668277 -0.326821 0.000000
202.14799500 258.78900146 399.00000000 0.000978 0.000978 0.999999 0.000000
205.56599426 218.75000000 348.00000000 -0.006944 0.690228 -0.723559 0.000000
233.39799500 239.25799561 351.00000000 0.001357 0.563126 -0.826370 0.000000
129.39500427 279.29699707 298.00000000 -0.824190 0.189034 -0.533833 0.000000
137.20700073 320.31201172 356.00000000 0.457249 0.889170 -0.017330 0.000000
206.05499268 187.01199341 330.00000000 0.586857 0.539502 -0.603769 0.000000
124.02300262 254.88299561 397.00000000 -0.480374 -0.160125 0.862323 0.000000
126.95300293 250.97700500 399.00000000 -0.153712 0.379343 0.912399 0.000000
127.93000031 320.80099487 352.00000000 -0.501858 0.790467 -0.351141 0.000000
213.37899780 190.42999268 404.00000000 -0.730582 -0.209403 0.649923 0.000000
216.79699707 234.37500000 349.00000000 -0.112396 -0.470926 -0.874983 0.000000
161.13299561 184.08200073 336.00000000 -0.425518 -0.876417 -0.225450 0.000000
202.14799500 252.92999268 401.00000000 0.713977 0.001381 0.700167 0.000000
168.45700073 278.32000732 294.00000000 0.082848 0.640981 -0.763073 0.000000
173.82800293 299.80499268 320.00000000 0.474670 0.793262 -0.381345 0.000000
205.56599426 189.45300293 332.00000000 0.586722 0.535997 -0.607012 0.000000
273.43798828 220.21499634 406.00000000 0.052865 0.237276 0.970003 0.000000
132.81199646 262.69500732 291.00000000 -0.899331 0.001305 -0.437266 0.000000
143.55499268 215.82000732 310.00000000 -0.756743 -0.511578 -0.406974 0.000000
257.81201172 197.75399780 378.00000000 0.925287 -0.213964 -0.313152 0.000000
154.29699707 317.87100220 356.00000000 -0.393458 0.917174 -0.063114 0.000000
155.27299500 219.72700500 397.00000000 -0.668277 -0.668277 0.326821 0.000000
233.88699341 213.86700439 372.00000000 0.000978 0.000978 -0.999999 0.000000
250.00000000 244.14100647 367.00000000 0.077894 0.845501 -0.528261 0.000000
223.63299561 172.85200500 409.00000000 0.001381 0.716707 0.697373 0.000000
166.99200439 257.81201172 261.00000000 0.133349 0.660752 -0.738664 0.000000
143.55499268 218.75000000 391.00000000 -0.670777 -0.667529 0.323207 0.000000
222.16799927 186.52299500 342.00000000 0.190671 -0.244762 -0.950650 0.000000
144.53100586 246.09399414 400.00000000 0.000978 0.000978 0.999999 0.000000
122.06999969 251.95300293 310.00000000 -0.516157 -0.165111 -0.840429 0.000000
208.00799561 196.28900146 281.00000000 0.823392 -0.447255 0.349270 0.000000
161.13299561 228.51600647 401.00000000 0.000978 0.000978 0.999999 0.000000
144.53100586 229.97999573 398.00000000 -0.388221 -0.682278 0.619501 0.000000
133.30099487 211.91400146 340.00000000 -0.699571 -0.386821 -0.600808 0.000000
149.41400146 244.62899780 274.00000000 -0.760387 -0.302554 -0.574693 0.000000
157.22700500 210.44900513 300.00000000 -0.582790 -0.656689 -0.478660 0.000000
198.72999573 196.28900146 402.00000000 -0.739942 -0.443306 0.505930 0.000000
143.55499268 245.11700439 400.00000000 0.000978 0.000978 0.999999 0.000000
244.14100647 157.71499634 370.00000000 -0.275565 -0.795203 -0.540108 0.000000
169.92199707 192.87100220 314.00000000 -0.301153 -0.779173 -0.549724 0.000000
120.11699677 292.96899414 379.00000000 -0.668277 0.668277 0.326821 0.000000
167.96899414 258.30099487 262.00000000 0.206571 0.660095 -0.722221 0.000000
155.27299500 236.32800293 400.00000000 0.000978 0.999999 0.000978 0.000000
104.00399780 264.64801025 374.00000000 -0.979125 0.197260 0.049016 0.000000
266.11300659 201.17199707 384.00000000 0.559410 -0.666924 -0.492213 0.000000
109.37500000 273.43798828 337.00000000 -0.962626 -0.008497 -0.270701 0.000000
144.04299927 278.32000732 396.00000000 -0.692371 0.379900 0.613431 0.000000
222.65600586 235.83999634 394.00000000 0.291723 -0.525101 0.799479 0.000000
188.47700500 263.67199707 401.00000000 0.000978 0.000978 0.999999 0.000000
194.33599854 276.36700439 310.00000000 -0.032115 0.800090 -0.599020 0.000000
164.06199646 259.27700806 262.00000000 0.178274 0.766424 -0.617101 0.000000
126.95300293 237.30499268 317.00000000 -0.670670 -0.516029 -0.532838 0.000000
174.80499268 281.25000000 399.00000000 0.099554 0.142734 0.984742 0.000000
186.52299500 296.38699341 330.00000000 0.220712 0.791785 -0.569529 0.000000
227.53900146 164.55099487 360.00000000 -0.261794 -0.788518 -0.556509 0.000000
110.83999634 295.89801025 352.00000000 -0.880473 0.472216 -0.042186 0.000000
156.25000000 318.84799194 346.00000000 -0.393458 0.917174 -0.063114 0.000000
212.40199280 241.21099854 290.00000000 0.924375 0.223616 -0.309074 0.000000
198.24200439 233.39799500 340.00000000 0.658682 -0.369585 -0.655397 0.000000
201.66000366 267.57800293 398.00000000 0.384735 0.341471 0.857541 0.000000
127.93000031 225.58599854 389.00000000 -0.264946 -0.617150 0.740898 0.000000
232.91000366 208.00799561 382.00000000 0.727278 -0.149689 0.669821 0.000000
160.15600586 265.62500000 400.00000000 0.000978 0.000978 0.999999 0.000000
115.23400116 245.11700439 330.00000000 -0.847614 -0.262101 -0.461360 0.000000
118.65200043 279.29699707 314.00000000 -0.789007 0.113135 -0.603877 0.000000
173.82800293 256.83599854 267.00000000 0.539354 0.576551 -0.613748 0.000000
217.77299500 164.55099487 374.00000000 -0.668277 -0.668277 -0.326821 0.000000
207.03100586 238.28100586 331.00000000 0.255791 -0.359290 0.897486 0.000000
188.96499634 295.89801025 390.00000000 0.198933 0.636895 0.744843 0.000000
