148.43800354 120.60600281 145.00000000 -0.676057 -0.376684 0.633290 0.000000
154.00399780 161.05499268 175.00000000 -0.971862 -0.143556 0.186750 0.000000
59.37500000 161.79699707 251.25000000 0.640091 -0.107418 -0.760752 0.000000
139.53100586 124.31600189 140.00000000 -0.429746 -0.472230 0.769621 0.000000
164.39500427 102.42199707 197.50000000 -0.885233 -0.020088 0.464714 0.000000
172.92999268 133.59399414 213.75000000 0.241411 0.386554 0.890111 0.000000
112.81300354 218.20300293 243.75000000 -0.257411 -0.620629 -0.740648 0.000000
124.68800354 236.01600647 186.25000000 -0.309827 -0.858576 0.408479 0.000000
51.95320129 211.52400208 213.75000000 0.899505 -0.429840 0.078278 0.000000
75.70320129 164.02400208 263.75000000 0.251639 0.210387 -0.944677 0.000000
153.63299561 124.68800354 271.25000000 -0.218872 0.221591 -0.950259 0.000000
192.96899414 112.81300354 271.25000000 -0.137740 -0.247933 -0.958935 0.000000
110.95700073 121.71900177 122.50000000 -0.423663 -0.672877 0.606420 0.000000
80.15630341 160.31300354 126.25000000 -0.366926 -0.515637 0.774263 0.000000
169.58999634 110.58599854 207.50000000 -0.775263 -0.411198 0.479461 0.000000
208.55499268 106.87500000 271.25000000 -0.373353 0.745076 -0.552693 0.000000
137.67599487 108.35900116 130.00000000 -0.700961 -0.254751 0.666150 0.000000
161.05499268 100.19499969 188.75000000 0.000978 0.000978 0.999999 0.000000
188.51600647 111.32800293 271.25000000 -0.000978 -0.000978 -0.999999 0.000000
115.03900146 137.30499268 138.75000000 -0.335697 -0.423134 0.841585 0.000000
138.78900146 123.94499969 271.25000000 -0.000978 -0.000978 -0.999999 0.000000
166.99200439 78.67189789 266.25000000 0.386407 0.590298 -0.708687 0.000000
103.90599823 115.78099823 261.25000000 0.107446 0.497119 -0.861004 0.000000
136.56300354 85.35160065 161.25000000 -0.001215 0.958392 0.285453 0.000000
119.49199677 144.72700500 143.75000000 -0.132382 -0.437003 0.889665 0.000000
110.58599854 94.25789642 253.75000000 0.532697 0.427147 -0.730602 0.000000
143.61300659 112.81300354 267.50000000 -0.291810 0.443119 -0.847639 0.000000
200.39100647 131.73800659 232.50000000 -0.266424 -0.770896 0.578566 0.000000
134.33599854 192.96899414 158.75000000 -0.645448 0.001376 0.763803 0.000000
135.82000732 138.04699707 146.25000000 -0.082031 -0.367123 0.926548 0.000000
214.86300659 94.25789642 235.00000000 -0.447408 0.696892 0.560507 0.000000
107.61699677 115.03900146 261.25000000 0.071862 0.402697 -0.912508 0.000000
69.02349854 202.61700439 166.25000000 0.842469 -0.498850 0.203458 0.000000
201.87500000 99.45320129 223.75000000 -0.364952 0.233042 0.901388 0.000000
111.32800293 164.02400208 146.25000000 -0.415299 -0.241383 0.877075 0.000000
185.54699707 100.19499969 223.75000000 -0.474707 0.866157 0.156288 0.000000
203.36000061 89.06259918 228.75000000 -0.377256 -0.543837 0.749613 0.000000
177.38299561 68.65239716 230.00000000 0.071655 0.995448 -0.062836 0.000000
100.93800354 92.77349854 178.75000000 0.332329 0.916423 0.222992 0.000000
104.64900208 123.20300293 263.75000000 0.348424 0.173507 -0.921138 0.000000
86.83599854 242.69500732 201.25000000 0.410506 -0.903674 0.121891 0.000000
151.03500366 190.00000000 185.00000000 -0.930293 -0.215333 0.296962 0.000000
155.85899353 118.37899780 197.50000000 -0.598970 -0.598970 0.531480 0.000000
187.03100586 67.91020203 220.00000000 -0.001215 0.958392 0.285453 0.000000
102.42199707 97.96880341 163.75000000 0.380978 0.885960 0.264443 0.000000
103.16400146 192.59800720 257.50000000 -0.061041 -0.427288 -0.902053 0.000000
170.70300293 121.71900177 221.25000000 -0.766925 0.350363 0.537654 0.000000
251.97300720 96.48439789 255.00000000 -0.656191 0.366743 0.659480 0.000000
58.26179886 165.50799561 250.00000000 0.678536 -0.095259 -0.728364 0.000000
81.64070129 112.81300354 248.75000000 0.250757 0.635565 -0.730190 0.000000
126.17199707 126.17199707 136.25000000 -0.029392 -0.625619 0.779575 0.000000
55.29299927 149.17999268 197.50000000 0.918999 0.152933 0.363390 0.000000
63.82820129 148.43800354 253.75000000 0.411844 0.699638 -0.583859 0.000000
96.48439789 146.95300293 268.75000000 0.000978 0.000978 -0.999999 0.000000
79.41410065 100.93800354 241.25000000 0.645392 0.625380 -0.438600 0.000000
177.38299561 143.24200439 253.75000000 0.201678 -0.470582 -0.858999 0.000000
137.30499268 122.46099854 136.25000000 -0.510737 -0.510737 0.691589 0.000000
65.31250000 118.37899780 202.50000000 0.845160 0.519315 0.126556 0.000000
63.08599854 207.07000732 181.25000000 0.829100 -0.415340 0.374280 0.000000
152.89100647 79.78520203 172.50000000 0.092631 0.933019 0.347700 0.000000
116.52400208 148.43800354 268.75000000 -0.000978 -0.000978 -0.999999 0.000000
83.12509918 100.19499969 188.75000000 0.706912 0.625657 0.329892 0.000000
222.65600586 116.52400208 231.25000000 -0.546452 0.127457 0.827735 0.000000
138.04699707 145.09800720 267.50000000 -0.109071 -0.457530 -0.882480 0.000000
118.75000000 214.49200439 156.25000000 -0.000978 -0.000978 0.999999 0.000000
85.35160065 221.17199707 241.25000000 0.398850 -0.536724 -0.743536 0.000000
165.50799561 109.84400177 201.25000000 -0.699100 -0.512228 0.498880 0.000000
227.11000061 100.93800354 241.25000000 -0.354468 0.619093 0.700768 0.000000
178.86700439 139.53100586 256.25000000 0.114795 -0.388643 -0.914209 0.000000
63.82820129 210.03900146 238.75000000 0.624522 -0.347319 -0.699530 0.000000
97.96880341 218.94500732 156.25000000 -0.307087 -0.612566 0.728327 0.000000
130.62500000 85.35160065 166.25000000 0.193664 0.965718 0.172867 0.000000
210.03900146 98.71099854 231.25000000 -0.596989 0.177730 0.782314 0.000000
103.16400146 126.91400146 121.25000000 -0.465848 -0.562691 0.682909 0.000000
81.64070129 216.71899414 163.75000000 0.599543 -0.552255 0.579277 0.000000
121.71900177 85.35160065 178.75000000 0.362173 0.917412 0.164881 0.000000
234.53100586 92.77349854 248.75000000 -0.558538 0.366388 0.744174 0.000000
132.10899353 192.22700500 251.25000000 -0.472411 -0.348343 -0.809620 0.000000
159.57000732 83.12509918 173.75000000 -0.553880 -0.265172 0.789240 0.000000
89.06259918 127.65599823 121.25000000 0.553842 0.828616 0.081574 0.000000
158.08599854 173.67199707 208.75000000 -0.884065 0.365976 0.290672 0.000000
65.68360138 140.27400208 170.00000000 0.943148 0.199644 0.265734 0.000000
211.52400208 70.13680267 245.00000000 -0.171559 0.978751 0.112316 0.000000
214.49200439 94.25789642 271.25000000 -0.000978 -0.000978 -0.999999 0.000000
192.22700500 71.62110138 267.50000000 -0.152933 0.918999 -0.363390 0.000000
97.22660065 95.74220276 246.25000000 0.438586 0.537889 -0.719943 0.000000
203.36000061 87.57820129 226.25000000 -0.437942 -0.594469 0.674398 0.000000
151.03500366 213.75000000 195.00000000 -0.934712 -0.179165 0.306941 0.000000
92.77349854 96.48439789 181.25000000 0.763787 0.466123 0.446496 0.000000
181.09399414 90.54689789 213.75000000 -0.799110 -0.363523 0.478826 0.000000
181.09399414 141.38699341 215.00000000 0.598970 -0.598970 0.531480 0.000000
107.61699677 95.37120056 165.00000000 0.432839 0.864160 0.256666 0.000000
124.31600189 89.06259918 160.00000000 0.315627 0.944239 0.093764 0.000000
127.65599823 86.46489716 255.00000000 0.168214 0.930040 -0.326696 0.000000
76.44539642 166.99200439 263.75000000 -0.140099 -0.403314 -0.904273 0.000000
70.87899780 138.04699707 155.00000000 0.922430 0.346789 0.169884 0.000000
57.51959991 175.15600586 180.00000000 0.892268 0.184858 0.411928 0.000000
86.83599854 129.14100647 121.25000000 0.538081 0.807898 -0.240353 0.000000
177.38299561 70.50789642 213.75000000 0.149035 0.971910 0.182153 0.000000
184.80499268 68.28130341 248.75000000 0.107132 0.978967 -0.173628 0.000000
130.62500000 92.77349854 261.25000000 0.197354 0.455546 -0.868061 0.000000
175.15600586 86.09380341 273.75000000 0.363757 0.119422 -0.923807 0.000000
153.63299561 115.03900146 191.25000000 -0.498376 -0.495042 0.711727 0.000000
63.82820129 131.36700439 188.75000000 0.926688 0.180851 0.329458 0.000000
123.20300293 217.46099854 241.25000000 -0.046121 -0.549263 -0.834376 0.000000
87.57820129 241.95300293 211.25000000 0.327500 -0.852120 -0.408210 0.000000
83.12509918 174.41400146 136.25000000 -0.451702 -0.311034 0.836196 0.000000
216.71899414 125.80100250 230.00000000 -0.443870 0.111320 0.889150 0.000000
219.68800354 83.12509918 231.25000000 -0.405948 -0.641232 0.651174 0.000000
82.38289642 200.39100647 146.25000000 0.293513 -0.425671 0.855952 0.000000
187.03100586 148.06599426 240.00000000 0.500256 -0.829656 -0.247819 0.000000
151.03500366 120.23400116 172.50000000 -0.968446 0.107887 -0.224659 0.000000
50.46879959 203.36000061 223.75000000 0.913331 -0.303476 -0.271531 0.000000
135.82000732 218.57400513 172.50000000 -0.575825 -0.491886 0.653050 0.000000
92.03130341 184.80499268 261.25000000 0.213844 -0.230189 -0.949360 0.000000
92.03130341 193.71099854 143.75000000 -0.695670 0.555535 0.455439 0.000000
181.09399414 109.10199738 271.25000000 -0.000978 -0.000978 -0.999999 0.000000
87.94930267 109.84400177 165.00000000 0.593482 0.782664 0.187656 0.000000
148.43800354 82.38289642 256.25000000 0.381014 0.625127 -0.681207 0.000000
68.28130341 154.37500000 258.75000000 0.498507 -0.141804 -0.855209 0.000000
100.93800354 130.25399780 122.50000000 -0.499570 -0.593766 0.630771 0.000000
100.19499969 132.10899353 266.25000000 -0.000978 -0.000978 -0.999999 0.000000
53.06639862 192.22700500 192.50000000 0.958392 0.001215 0.285453 0.000000
171.44500732 121.71900177 221.25000000 -0.388313 0.768502 0.508544 0.000000
89.80470276 160.31300354 133.75000000 -0.584915 -0.350297 0.731551 0.000000
59.00389862 137.30499268 242.50000000 0.794327 0.305998 -0.524795 0.000000
107.61699677 194.45300293 151.25000000 -0.618352 -0.297130 0.727567 0.000000
149.92199707 98.71099854 178.75000000 -0.749813 -0.390425 0.534180 0.000000
53.43750000 138.41799927 217.50000000 0.877374 0.368225 0.307611 0.000000
217.46099854 128.77000427 255.00000000 -0.116354 -0.357275 -0.926724 0.000000
141.01600647 126.91400146 271.25000000 0.003464 -0.197447 -0.980307 0.000000
146.21099854 188.88699341 170.00000000 -0.870851 -0.232327 0.433177 0.000000
150.66400146 202.61700439 188.75000000 -0.964429 -0.114598 0.238210 0.000000
146.95300293 77.55860138 192.50000000 0.179801 0.957606 0.225084 0.000000
136.56300354 80.89849854 181.25000000 0.191666 0.968623 0.158221 0.000000
139.53100586 113.55500031 268.75000000 -0.096881 0.453514 -0.885968 0.000000
144.72700500 97.22660065 133.75000000 -0.730168 -0.149662 0.666675 0.000000
152.52000427 210.03900146 197.50000000 -0.938255 -0.160726 0.306341 0.000000
123.20300293 190.74200439 253.75000000 -0.251544 -0.351573 -0.901733 0.000000
123.20300293 120.23400116 128.75000000 -0.304888 -0.563484 0.767807 0.000000
143.98399353 227.11000061 196.25000000 -0.579441 -0.692341 0.430015 0.000000
117.26599884 238.98500061 186.25000000 -0.338728 -0.886715 0.314641 0.000000
102.42199707 208.18400574 150.00000000 -0.187778 -0.195657 0.962527 0.000000
155.85899353 178.86700439 198.75000000 -0.958392 -0.001215 0.285453 0.000000
158.82800293 189.25799561 218.75000000 -0.914072 -0.382146 -0.135781 0.000000
81.26959991 207.07000732 250.00000000 0.217754 -0.419214 -0.881387 0.000000
165.50799561 74.21880341 258.75000000 0.357262 0.877193 -0.320776 0.000000
241.95300293 79.78520203 250.00000000 -0.627904 -0.735455 0.254641 0.000000
100.93800354 163.28100586 143.75000000 -0.470050 0.028284 0.882186 0.000000
74.21880341 173.67199707 133.75000000 0.811127 -0.280835 0.513034 0.000000
140.27400208 121.71900177 138.75000000 -0.502127 -0.462355 0.730819 0.000000
207.44200134 112.81300354 225.00000000 -0.445466 -0.073095 0.892310 0.000000
99.45320129 190.00000000 258.75000000 -0.061727 -0.345411 -0.936419 0.000000
130.62500000 79.41410065 223.75000000 0.056783 0.988491 0.140220 0.000000
97.96880341 137.30499268 266.25000000 0.862890 -0.454705 0.220600 0.000000
113.92600250 97.96880341 140.00000000 0.468968 0.869271 0.156323 0.000000
164.76600647 96.85549927 192.50000000 -0.719549 -0.588424 0.368790 0.000000
184.06300354 148.06599426 232.50000000 0.374600 -0.917700 -0.132294 0.000000
51.21099854 184.80499268 196.25000000 0.691826 -0.691826 0.206770 0.000000
128.39900208 80.52739716 217.50000000 0.315309 0.948461 0.031658 0.000000
83.86720276 233.78900146 186.25000000 0.389162 -0.805549 0.446815 0.000000
168.47700500 121.34799957 220.00000000 -0.782227 0.383825 0.490714 0.000000
238.98500061 89.80470276 266.25000000 -0.581932 -0.615667 -0.531329 0.000000
201.13299561 76.44539642 271.25000000 -0.369692 0.505300 -0.779744 0.000000
161.79699707 109.84400177 266.25000000 0.293980 0.118390 -0.948451 0.000000
95.74220276 129.14100647 263.75000000 0.288017 0.571260 -0.768575 0.000000
165.87899780 113.55500031 205.00000000 -0.543559 -0.814577 0.202502 0.000000
95.00009918 135.82000732 121.25000000 -0.623471 -0.489030 0.610027 0.000000
61.97269821 149.92199707 175.00000000 0.920273 0.203399 0.334257 0.000000
152.52000427 99.45320129 182.50000000 -0.638655 -0.471029 0.608483 0.000000
230.07800293 83.86720276 271.25000000 -0.552271 0.413791 -0.723722 0.000000
147.69500732 163.28100586 161.25000000 -0.794250 -0.397930 0.459150 0.000000
146.21099854 172.18800354 166.25000000 -0.827288 -0.384381 0.409690 0.000000
167.73399353 123.94499969 268.75000000 -0.000978 -0.000978 -0.999999 0.000000
56.77740097 132.10899353 212.50000000 0.999999 -0.000978 -0.000978 0.000000
95.00009918 136.56300354 121.25000000 -0.623471 -0.489030 0.610027 0.000000
138.78900146 205.95700073 167.50000000 -0.708218 -0.220439 0.670697 0.000000
50.83990097 138.04699707 227.50000000 0.954159 0.270543 -0.128013 0.000000
68.28130341 230.44900513 217.50000000 0.517957 -0.837389 -0.174643 0.000000
76.44539642 127.65599823 153.75000000 0.824523 0.469586 0.315675 0.000000
109.84400177 219.68800354 156.25000000 -0.063979 -0.584343 0.808981 0.000000
169.96099854 70.87899780 242.50000000 -0.000978 -0.000978 -0.999999 0.000000
197.42199707 133.59399414 256.25000000 -0.311283 -0.708047 -0.633855 0.000000
93.51570129 137.30499268 121.25000000 -0.558558 -0.432592 0.707727 0.000000
194.45300293 92.03130341 223.75000000 -0.262905 0.398114 0.878855 0.000000
62.34379959 120.97699738 236.25000000 0.859102 0.286367 -0.424191 0.000000
144.72700500 156.60200500 153.75000000 -0.321231 -0.336312 0.885271 0.000000
239.72700500 106.13300323 261.25000000 -0.000978 -0.000978 -0.999999 0.000000
143.24200439 124.68800354 271.25000000 -0.000978 -0.000978 -0.999999 0.000000
250.48800659 102.42199707 260.00000000 -0.335524 -0.132840 -0.932619 0.000000
115.03900146 101.68000031 258.75000000 0.287512 0.195842 -0.937541 0.000000
244.92199707 95.74220276 261.25000000 -0.334278 -0.069477 -0.939910 0.000000
146.58200073 220.42999268 225.00000000 -0.690827 -0.351130 -0.632033 0.000000
180.35200500 90.54689789 211.25000000 -0.773227 -0.290556 0.563646 0.000000
123.94499969 135.82000732 268.75000000 -0.000978 -0.000978 -0.999999 0.000000
65.68360138 113.55500031 212.50000000 0.824190 0.533833 0.189034 0.000000
184.06300354 69.39459991 257.50000000 0.001215 0.958392 -0.285453 0.000000
157.34399414 147.69500732 203.75000000 -0.930766 -0.264117 0.252818 0.000000
210.03900146 81.26959991 272.50000000 -0.316715 0.270010 -0.909278 0.000000
74.96099854 112.06999969 246.25000000 0.371263 0.513932 -0.773329 0.000000
136.56300354 155.11700439 263.75000000 -0.234322 -0.671514 -0.702967 0.000000
139.53100586 234.16000366 202.50000000 -0.589756 -0.732727 0.339557 0.000000
72.36329651 144.72700500 140.00000000 0.864160 0.432839 0.256666 0.000000
141.75799561 232.30499268 203.75000000 -0.738752 -0.657172 0.149563 0.000000
89.06259918 116.15200043 147.50000000 0.691826 0.691826 0.206770 0.000000
184.43400574 94.25789642 220.00000000 -0.797107 -0.197364 0.570673 0.000000
166.99200439 96.48439789 196.25000000 -0.717960 -0.607254 0.340258 0.000000
53.43750000 141.75799561 213.75000000 0.886261 0.378118 0.267522 0.000000
182.57800293 70.87899780 262.50000000 0.231932 0.905850 -0.354463 0.000000
129.14100647 120.23400116 268.75000000 0.000978 0.000978 -0.999999 0.000000
57.14849854 161.79699707 183.75000000 0.952603 0.225652 0.204033 0.000000
71.25000000 175.15600586 258.75000000 0.547508 -0.156644 -0.822008 0.000000
205.58599854 100.19499969 271.25000000 -0.000978 -0.000978 -0.999999 0.000000
58.26179886 143.24200439 245.00000000 0.764544 0.256950 -0.591142 0.000000
73.10549927 128.39900208 162.50000000 0.823818 0.520064 0.225515 0.000000
184.06300354 128.39900208 266.25000000 -0.157977 -0.095269 -0.982836 0.000000
80.15630341 140.64500427 122.50000000 0.826211 0.413898 0.382182 0.000000
196.67999268 72.36329651 267.50000000 -0.037328 0.847485 -0.529505 0.000000
123.20300293 84.98049927 177.50000000 0.432839 0.864160 0.256666 0.000000
181.83599854 84.23829651 275.00000000 0.564771 0.326634 -0.757855 0.000000
132.10899353 86.09380341 256.25000000 0.084682 0.558326 -0.825289 0.000000
77.18750000 218.94500732 241.25000000 0.472877 -0.462992 -0.749684 0.000000
115.78099823 174.04299927 262.50000000 -0.302310 -0.222829 -0.926799 0.000000
226.36700439 72.36329651 240.00000000 -0.001110 0.989041 0.147635 0.000000
146.95300293 204.47300720 232.50000000 -0.517519 -0.422230 -0.744242 0.000000
145.46899414 146.21099854 153.75000000 -0.822961 0.159813 0.545156 0.000000
115.03900146 190.00000000 151.25000000 0.000978 0.000978 0.999999 0.000000
48.24219894 158.82800293 231.25000000 0.962381 0.117869 -0.244805 0.000000
194.45300293 124.68800354 223.75000000 0.119353 -0.599711 0.791265 0.000000
77.92970276 190.74200439 143.75000000 0.456668 -0.430666 0.778448 0.000000
46.75780106 167.73399353 216.25000000 0.958392 0.001215 0.285453 0.000000
198.16400146 90.54689789 273.75000000 0.050470 -0.335170 -0.940805 0.000000
94.25789642 215.60600281 247.50000000 -0.398140 -0.398140 -0.826419 0.000000
60.85940170 222.65600586 206.25000000 0.691826 -0.691826 0.206770 0.000000
161.05499268 110.58599854 266.25000000 0.246194 0.240630 -0.938875 0.000000
80.15630341 139.53100586 261.25000000 0.352356 0.238316 -0.905014 0.000000
157.34399414 77.18750000 181.25000000 0.286367 0.859102 0.424191 0.000000
91.28910065 142.12899780 122.50000000 -0.668903 -0.471082 0.575022 0.000000
212.26600647 70.13680267 252.50000000 -0.242814 0.970072 0.001184 0.000000
155.85899353 149.17999268 241.25000000 -0.767053 -0.618199 -0.171638 0.000000
75.70320129 166.99200439 131.25000000 0.525683 -0.321162 0.787726 0.000000
198.16400146 67.91020203 225.00000000 -0.232659 0.932045 0.277780 0.000000
144.72700500 153.63299561 153.75000000 -0.638295 -0.079606 0.765665 0.000000
139.53100586 193.71099854 163.75000000 -0.630318 -0.251179 0.734581 0.000000
77.92970276 218.20300293 241.25000000 0.471258 -0.458122 -0.753684 0.000000
153.63299561 158.82800293 243.75000000 -0.958392 0.001215 -0.285453 0.000000
67.53910065 140.64500427 165.00000000 0.896964 0.283174 0.339512 0.000000
147.69500732 146.95300293 153.75000000 -0.692430 0.283049 0.663645 0.000000
143.98399353 86.83599854 146.25000000 0.129934 0.985830 0.106093 0.000000
156.97300720 178.86700439 240.00000000 0.651118 0.577089 0.492965 0.000000
74.96099854 225.25399780 182.50000000 0.580427 -0.686867 0.437399 0.000000
156.60200500 90.54689789 263.75000000 0.609786 0.267672 -0.745998 0.000000
207.81300354 99.45320129 271.25000000 -0.174088 -0.227245 -0.958151 0.000000
148.43800354 214.49200439 226.25000000 -0.715329 -0.166249 -0.678724 0.000000
128.39900208 198.16400146 156.25000000 -0.517417 -0.598316 0.611799 0.000000
66.79689789 183.32000732 153.75000000 0.884861 -0.217153 0.412147 0.000000
170.70300293 87.20709991 205.00000000 -0.685317 -0.104640 0.720688 0.000000
97.22660065 83.86720276 218.75000000 0.194297 0.973991 -0.116578 0.000000
123.20300293 135.82000732 141.25000000 -0.530824 -0.317219 0.785874 0.000000
73.84770203 231.56300354 195.00000000 0.642895 -0.672491 0.366664 0.000000
132.10899353 193.71099854 248.75000000 -0.526882 -0.389860 -0.755252 0.000000
141.75799561 86.83599854 148.75000000 0.190288 0.966972 0.169576 0.000000
154.00399780 209.29699707 202.50000000 -0.968749 -0.137293 0.206581 0.000000
165.50799561 88.32039642 178.75000000 -0.198943 0.209624 0.957329 0.000000
115.78099823 164.02400208 148.75000000 -0.210609 -0.498492 0.840922 0.000000
100.93800354 178.12500000 146.25000000 -0.479927 -0.116042 0.869600 0.000000
209.29699707 108.35900116 226.25000000 -0.368838 0.175163 0.912840 0.000000
196.30900574 137.30499268 235.00000000 -0.955035 -0.202827 0.216260 0.000000
58.26179886 123.20300293 220.00000000 0.898212 0.388692 0.205264 0.000000
241.95300293 106.87500000 261.25000000 -0.000978 -0.000978 -0.999999 0.000000
139.53100586 181.83599854 158.75000000 0.598970 -0.598970 0.531480 0.000000
83.86720276 216.71899414 161.25000000 0.537868 -0.649151 0.537868 0.000000
100.93800354 177.38299561 146.25000000 -0.630097 -0.439564 0.640126 0.000000
131.36700439 168.47700500 261.25000000 -0.387038 -0.106057 -0.915944 0.000000
59.74610138 171.44500732 172.50000000 0.981586 0.098280 0.163800 0.000000
190.74200439 135.82000732 258.75000000 -0.447794 -0.567650 -0.690835 0.000000
114.29699707 213.75000000 156.25000000 -0.073955 -0.478616 0.874904 0.000000
74.58989716 138.78900146 140.00000000 0.876398 0.396717 0.273026 0.000000
109.10199738 218.94500732 243.75000000 -0.133002 -0.515930 -0.846243 0.000000
187.77400208 128.77000427 225.00000000 -0.443828 0.886229 0.132720 0.000000
129.88299561 84.60939789 171.25000000 0.261911 0.948578 0.177773 0.000000
141.75799561 216.71899414 178.75000000 -0.803898 -0.457307 0.380287 0.000000
105.39099884 119.49199677 263.75000000 0.397931 0.226333 -0.889058 0.000000
100.19499969 121.34799957 262.50000000 0.197771 0.309982 -0.929945 0.000000
152.89100647 214.49200439 206.25000000 -0.955920 -0.270691 0.113769 0.000000
135.82000732 103.16400146 263.75000000 0.291457 0.221057 -0.930691 0.000000
235.64500427 118.00800323 257.50000000 0.001255 -0.347682 -0.937612 0.000000
54.92190170 213.75000000 206.25000000 0.999999 -0.000978 -0.000978 0.000000
115.03900146 81.64070129 216.25000000 -0.093369 0.948157 0.303778 0.000000
165.13699341 142.50000000 217.50000000 -0.497525 -0.688494 0.527678 0.000000
59.74610138 123.20300293 232.50000000 -0.001338 0.860313 0.509765 0.000000
190.74200439 98.71099854 221.25000000 0.000978 0.000978 0.999999 0.000000
72.36329651 107.61699677 197.50000000 0.859102 0.286367 0.424191 0.000000
65.68360138 215.97700500 187.50000000 0.787561 -0.547663 0.282512 0.000000
133.22300720 199.64900208 160.00000000 -0.183809 -0.363343 0.913344 0.000000
89.80470276 191.48399353 258.75000000 0.668762 -0.445285 -0.595381 0.000000
69.39459991 155.85899353 140.00000000 0.956920 0.225550 0.182842 0.000000
57.51959991 155.11700439 187.50000000 0.916105 0.228667 0.329338 0.000000
71.25000000 212.63699341 172.50000000 0.680931 -0.547087 0.486857 0.000000
176.64100647 77.92970276 271.25000000 0.187139 0.404743 -0.895077 0.000000
59.37500000 201.13299561 183.75000000 0.928180 -0.296167 0.225314 0.000000
85.72270203 90.54689789 217.50000000 0.527238 0.845571 0.083847 0.000000
236.01600647 113.55500031 246.25000000 0.000978 0.000978 0.999999 0.000000
57.14849854 213.75000000 228.75000000 0.694619 -0.568022 -0.441425 0.000000
184.06300354 72.73439789 268.75000000 0.268988 0.942146 -0.200016 0.000000
66.05470276 114.29699707 238.75000000 0.696986 0.415543 -0.584409 0.000000
186.28900146 67.91020203 237.50000000 0.055631 0.998208 0.022042 0.000000
63.08599854 213.75000000 188.75000000 0.773061 -0.507271 0.380858 0.000000
89.06259918 210.78100586 248.75000000 0.161508 -0.596220 -0.786407 0.000000
103.16400146 201.87500000 148.75000000 -0.122175 -0.192709 0.973620 0.000000
98.71099854 166.25000000 141.25000000 -0.550845 0.057761 0.832607 0.000000
108.35900116 102.42199707 133.75000000 0.599149 0.787410 0.144931 0.000000
142.50000000 101.68000031 131.25000000 -0.786895 -0.272811 0.553507 0.000000
187.03100586 128.77000427 217.50000000 -0.413227 0.884217 0.217722 0.000000
145.46899414 119.49199677 141.25000000 -0.654903 -0.470659 0.591255 0.000000
99.45320129 158.08599854 268.75000000 -0.000978 -0.000978 -0.999999 0.000000
62.71490097 158.82800293 167.50000000 0.939536 0.223435 0.259517 0.000000
174.41400146 102.42199707 271.25000000 0.398308 -0.213117 -0.892150 0.000000
156.60200500 103.90599823 188.75000000 0.000978 0.000978 0.999999 0.000000
149.92199707 210.03900146 226.25000000 -0.809173 -0.298117 -0.506325 0.000000
112.81300354 172.92999268 263.75000000 -0.133704 -0.116840 -0.984110 0.000000
78.67189789 149.92199707 121.25000000 0.632783 -0.366521 0.682091 0.000000
122.46099854 219.68800354 161.25000000 -0.286429 -0.648065 0.705670 0.000000
208.18400574 82.38289642 222.50000000 -0.046369 -0.980874 0.189041 0.000000
83.12509918 178.86700439 261.25000000 -0.000978 -0.000978 -0.999999 0.000000
69.02349854 130.99600220 252.50000000 0.559357 0.429892 -0.708740 0.000000
147.32400513 123.94499969 192.50000000 -0.972715 -0.228945 0.037552 0.000000
143.98399353 210.03900146 176.25000000 -0.810765 -0.179667 0.557118 0.000000
195.93800354 134.33599854 256.25000000 -0.326766 -0.655158 -0.681169 0.000000
84.60939789 149.92199707 121.25000000 -0.541437 -0.538064 0.646014 0.000000
84.98049927 149.92199707 122.50000000 -0.345202 -0.877452 -0.333036 0.000000
129.88299561 221.17199707 168.75000000 -0.576090 -0.562575 0.592984 0.000000
156.60200500 172.18800354 246.25000000 -0.389618 0.235549 -0.890345 0.000000
128.39900208 119.49199677 131.25000000 -0.398140 -0.398140 0.826419 0.000000
48.61330032 150.66400146 222.50000000 0.961546 0.273850 0.020876 0.000000
139.53100586 223.77000427 230.00000000 -0.476941 -0.547228 -0.687800 0.000000
164.76600647 77.18750000 263.75000000 0.521999 0.609843 -0.596329 0.000000
115.78099823 207.81300354 248.75000000 -0.268677 -0.650230 -0.710643 0.000000
151.40600586 203.36000061 193.75000000 -0.937073 -0.083738 0.338941 0.000000
126.91400146 218.94500732 238.75000000 -0.243039 -0.524778 -0.815806 0.000000
109.84400177 211.52400208 151.25000000 -0.280380 -0.232476 0.931312 0.000000
65.31250000 207.07000732 176.25000000 0.806004 -0.456682 0.376562 0.000000
143.24200439 76.81649780 212.50000000 0.296636 0.953563 -0.052198 0.000000
71.25000000 133.59399414 256.25000000 0.559988 0.463035 -0.687031 0.000000
156.23100281 195.93800354 205.00000000 -0.958392 0.001215 0.285453 0.000000
100.19499969 112.81300354 131.25000000 0.596657 0.633633 0.492452 0.000000
164.39500427 106.13300323 197.50000000 -0.820069 -0.150321 0.552170 0.000000
168.47700500 136.19099426 212.50000000 -0.101517 0.137346 0.985307 0.000000
151.40600586 163.28100586 251.25000000 -0.601122 -0.055423 -0.797233 0.000000
148.06599426 209.29699707 185.00000000 -0.847235 -0.288585 0.445995 0.000000
92.77349854 110.58599854 253.75000000 0.431647 0.402764 -0.807132 0.000000
80.89849854 151.40600586 121.25000000 -0.218600 -0.590685 0.776727 0.000000
111.32800293 172.92999268 148.75000000 -0.912640 0.227075 -0.339890 0.000000
120.97699738 181.09399414 258.75000000 -0.589200 -0.401052 -0.701428 0.000000
219.68800354 134.70700073 247.50000000 0.051279 -0.961801 -0.268904 0.000000
238.24200439 96.48439789 248.75000000 -0.549669 0.244470 0.798811 0.000000
103.90599823 245.29299927 195.00000000 0.249553 -0.846644 0.470018 0.000000
97.22660065 109.10199738 148.75000000 0.691826 0.691826 0.206770 0.000000
134.33599854 195.93800354 246.25000000 -0.465623 -0.308848 -0.829342 0.000000
193.71099854 144.35600281 222.50000000 -0.615679 -0.780252 0.110205 0.000000
239.35600281 80.89849854 247.50000000 -0.592689 -0.749248 0.295546 0.000000
73.47660065 110.58599854 188.75000000 0.792882 0.552046 0.258038 0.000000
190.00000000 130.99600220 262.50000000 -0.413221 -0.648873 -0.638915 0.000000
48.24219894 151.77699280 225.00000000 0.961546 0.273850 0.020876 0.000000
54.92190170 207.81300354 198.75000000 0.789119 -0.442360 0.426156 0.000000
67.91020203 227.85200500 202.50000000 0.747443 -0.625730 0.223141 0.000000
78.67189789 225.62500000 178.75000000 0.528898 -0.717909 0.452631 0.000000
241.21099854 80.15630341 248.75000000 -0.592689 -0.749248 0.295546 0.000000
230.07800293 107.61699677 236.25000000 -0.510166 0.421584 0.749665 0.000000
133.22300720 79.41410065 215.00000000 0.208762 0.977761 0.020051 0.000000
236.01600647 111.32800293 258.75000000 -0.033863 -0.475443 -0.879095 0.000000
70.13680267 129.88299561 170.00000000 -0.000978 -0.000978 0.999999 0.000000
143.24200439 152.52000427 152.50000000 -0.532001 -0.102363 0.840533 0.000000
77.18750000 207.07000732 248.75000000 0.380774 -0.211541 -0.900145 0.000000
80.89849854 152.89100647 121.25000000 -0.073222 -0.607311 0.791083 0.000000
244.17999268 97.22660065 261.25000000 -0.345411 0.061727 -0.936419 0.000000
82.75399780 115.03900146 165.00000000 0.694712 0.662771 0.279482 0.000000
225.62500000 129.14100647 236.25000000 -0.445815 -0.452347 0.772419 0.000000
230.82000732 121.71900177 236.25000000 -0.497905 -0.023064 0.866925 0.000000
168.47700500 97.59770203 202.50000000 -0.770556 -0.480579 0.418674 0.000000
121.71900177 84.98049927 180.00000000 0.348093 0.924054 0.157970 0.000000
188.51600647 113.55500031 271.25000000 -0.211741 -0.214439 -0.953510 0.000000
80.15630341 109.84400177 178.75000000 0.622016 0.727551 0.289421 0.000000
63.82820129 185.91799927 162.50000000 0.848860 -0.212592 0.483986 0.000000
179.60899353 79.78520203 272.50000000 0.212155 0.326063 -0.921235 0.000000
105.39099884 183.32000732 261.25000000 -0.098935 -0.253118 -0.962363 0.000000
149.17999268 89.80470276 141.25000000 -0.364924 0.584205 0.724938 0.000000
129.14100647 147.69500732 268.75000000 -0.000978 -0.000978 -0.999999 0.000000
86.83599854 233.04699707 231.25000000 0.408390 -0.795796 -0.447131 0.000000
222.28500366 95.74220276 240.00000000 -0.360546 0.485535 0.796406 0.000000
146.58200073 202.61700439 235.00000000 -0.600414 -0.590266 -0.539527 0.000000
99.08209991 158.82800293 140.00000000 -0.280071 -0.398155 0.873518 0.000000
61.60160065 140.27400208 248.75000000 0.731721 0.275790 -0.623318 0.000000
68.65239716 108.35900116 217.50000000 0.817922 0.551761 0.162986 0.000000
169.21899414 131.73800659 215.00000000 -0.103908 0.482531 0.869694 0.000000
75.33209991 146.21099854 130.00000000 0.882229 0.334430 0.331403 0.000000
171.44500732 84.98049927 190.00000000 -0.847553 -0.508532 0.151822 0.000000
166.99200439 102.42199707 268.75000000 0.050090 0.154929 -0.986655 0.000000
129.14100647 130.62500000 268.75000000 -0.000978 -0.000978 -0.999999 0.000000
133.59399414 95.37120056 125.00000000 -0.450761 0.506900 0.734757 0.000000
97.22660065 244.17999268 211.25000000 0.107932 -0.976349 -0.187330 0.000000
125.80100250 233.78900146 182.50000000 -0.515255 -0.768819 0.378721 0.000000
80.15630341 120.97699738 253.75000000 0.393099 0.560865 -0.728631 0.000000
148.06599426 97.96880341 165.00000000 -0.944239 -0.315627 -0.093764 0.000000
127.65599823 149.17999268 268.75000000 -0.000978 -0.000978 -0.999999 0.000000
162.53900146 75.33209991 257.50000000 0.541840 0.753370 -0.372617 0.000000
156.23100281 197.42199707 212.50000000 -0.999999 -0.000978 -0.000978 0.000000
66.05470276 160.31300354 148.75000000 0.939149 0.128743 0.318471 0.000000
113.55500031 238.24200439 181.25000000 -0.348982 -0.840374 0.414709 0.000000
187.77400208 135.82000732 211.25000000 -0.181497 0.166050 0.969271 0.000000
97.22660065 187.77400208 146.25000000 -0.321999 -0.161691 0.932830 0.000000
120.97699738 212.26600647 243.75000000 -0.189244 -0.669276 -0.718510 0.000000
169.96099854 96.48439789 268.75000000 0.685029 -0.336820 -0.645978 0.000000
66.79689789 218.20300293 186.25000000 0.830917 -0.494850 0.254362 0.000000
73.47660065 154.37500000 128.75000000 0.958392 -0.001215 0.285453 0.000000
144.72700500 225.62500000 221.25000000 -0.749367 -0.526360 -0.401739 0.000000
156.97300720 138.78900146 205.00000000 -0.310830 0.616829 0.723123 0.000000
230.82000732 106.87500000 261.25000000 -0.000978 -0.000978 -0.999999 0.000000
182.57800293 86.83599854 276.25000000 0.376553 0.169094 -0.910832 0.000000
239.72700500 92.03130341 251.25000000 -0.321324 0.088596 0.942816 0.000000
99.08209991 193.71099854 147.50000000 -0.324457 -0.023987 0.945596 0.000000
158.08599854 129.88299561 216.25000000 -0.313583 0.179787 0.932385 0.000000
195.56700134 143.24200439 232.50000000 -0.691826 -0.691826 0.206770 0.000000
197.05099487 130.62500000 230.00000000 -0.387452 -0.595192 0.704008 0.000000
156.60200500 158.82800293 213.75000000 -0.994012 -0.050203 0.097058 0.000000
121.71900177 144.72700500 268.75000000 -0.000978 -0.000978 -0.999999 0.000000
146.95300293 79.41410065 178.75000000 0.001215 0.958392 0.285453 0.000000
92.77349854 86.83599854 233.75000000 0.459213 0.804823 -0.376011 0.000000
107.61699677 97.22660065 158.75000000 0.488544 0.853839 0.179677 0.000000
47.12889862 184.80499268 210.00000000 0.993247 -0.029964 0.112087 0.000000
73.47660065 139.53100586 258.75000000 0.517304 0.071887 -0.852777 0.000000
178.86700439 134.70700073 257.50000000 0.268808 -0.545477 -0.793850 0.000000
179.98100281 127.65599823 267.50000000 -0.263092 -0.466181 -0.844664 0.000000
140.27400208 157.34399414 153.75000000 0.000978 0.000978 0.999999 0.000000
121.34799957 84.60939789 250.00000000 0.115820 0.804875 -0.582032 0.000000
157.34399414 90.91799927 177.50000000 -0.420471 -0.649818 0.633199 0.000000
123.20300293 97.96880341 123.75000000 0.272713 0.919144 0.284256 0.000000
185.54699707 117.26599884 221.25000000 0.092659 -0.088083 0.991794 0.000000
156.60200500 137.30499268 208.75000000 -0.233827 0.883181 0.406591 0.000000
157.34399414 150.66400146 211.25000000 -0.944239 -0.315627 0.093764 0.000000
64.57039642 175.89900208 156.25000000 0.946452 -0.055371 0.318060 0.000000
223.39900208 112.81300354 263.75000000 -0.392940 -0.014265 -0.919454 0.000000
53.43750000 175.15600586 241.25000000 0.823990 0.034738 -0.565538 0.000000
183.69200134 85.35160065 215.00000000 -0.826751 -0.275584 0.490445 0.000000
154.00399780 156.60200500 172.50000000 -0.982981 -0.090237 0.160020 0.000000
135.82000732 128.39900208 141.25000000 -0.327688 -0.482825 0.812096 0.000000
100.93800354 236.01600647 228.75000000 0.001379 -0.745961 -0.665988 0.000000
120.23400116 234.90199280 227.50000000 0.001379 -0.745961 -0.665988 0.000000
123.20300293 101.68000031 258.75000000 0.541628 0.541628 -0.642867 0.000000
106.87500000 142.50000000 268.75000000 -0.000978 -0.000978 -0.999999 0.000000
94.25789642 123.94499969 261.25000000 0.196154 0.214835 -0.956750 0.000000
164.76600647 115.78099823 268.75000000 0.178584 0.003412 -0.983919 0.000000
219.31700134 79.41410065 222.50000000 -0.213020 -0.716804 0.663938 0.000000
46.38669968 185.54699707 222.50000000 0.970072 -0.242814 0.001184 0.000000
68.28130341 112.06999969 206.25000000 0.910832 0.376553 0.169094 0.000000
109.10199738 82.01180267 212.50000000 0.046456 0.980338 0.191779 0.000000
227.85200500 133.59399414 246.25000000 -0.439664 -0.896914 -0.047348 0.000000
80.89849854 215.97700500 163.75000000 0.572731 -0.565973 0.593004 0.000000
231.56300354 106.13300323 238.75000000 -0.636641 0.449492 0.626615 0.000000
89.06259918 227.85200500 236.25000000 0.070957 -0.716814 -0.693644 0.000000
63.82820129 208.92599487 240.00000000 0.306438 -0.742832 -0.595228 0.000000
152.52000427 143.98399353 167.50000000 -0.955511 0.188958 0.226482 0.000000
121.71900177 199.64900208 251.25000000 -0.332363 -0.494569 -0.803079 0.000000
116.52400208 154.37500000 146.25000000 0.000978 0.000978 0.999999 0.000000
68.65239716 151.40600586 147.50000000 0.941628 0.188326 0.279052 0.000000
84.23829651 105.39099884 180.00000000 0.632829 0.713341 0.301117 0.000000
128.02699280 223.39900208 170.00000000 -0.545969 -0.689557 0.475845 0.000000
145.46899414 123.20300293 271.25000000 -0.000978 -0.000978 -0.999999 0.000000
201.13299561 87.57820129 223.75000000 -0.616968 -0.443080 0.650408 0.000000
210.78100586 84.60939789 273.75000000 -0.360030 0.360030 -0.860672 0.000000
234.53100586 91.28910065 268.75000000 -0.599099 -0.595724 -0.534970 0.000000
92.77349854 165.50799561 266.25000000 -0.000978 -0.000978 -0.999999 0.000000
66.42579651 158.08599854 150.00000000 0.789298 0.395456 0.469705 0.000000
210.78100586 118.75000000 266.25000000 -0.242098 -0.356545 -0.902366 0.000000
169.96099854 72.36329651 257.50000000 0.259649 0.929345 -0.262487 0.000000
92.03130341 243.06700134 212.50000000 0.223618 -0.972305 0.067950 0.000000
106.13300323 198.16400146 256.25000000 0.370739 -0.321918 -0.871161 0.000000
66.42579651 173.67199707 150.00000000 0.890007 -0.147618 0.431388 0.000000
129.88299561 154.37500000 266.25000000 0.000000 0.000000 0.000000 0.000000
103.90599823 244.17999268 213.75000000 0.146492 -0.965808 -0.213904 0.000000
66.42579651 112.81300354 237.50000000 0.665132 0.571310 -0.480838 0.000000
242.69500732 123.20300293 251.25000000 -0.884328 -0.437081 0.164087 0.000000
95.00009918 221.17199707 243.75000000 0.079330 -0.613004 -0.786087 0.000000
135.07800293 82.38289642 176.25000000 0.137293 0.968749 0.206581 0.000000
121.71900177 176.64100647 261.25000000 -0.315673 -0.345881 -0.883582 0.000000
237.50000000 88.32039642 251.25000000 -0.220129 0.130018 0.966767 0.000000
138.04699707 160.31300354 153.75000000 -0.023881 -0.151245 0.988208 0.000000
200.76199341 112.06999969 222.50000000 -0.490766 0.183478 0.851754 0.000000
114.29699707 244.17999268 196.25000000 -0.216862 -0.974040 0.064936 0.000000
238.24200439 125.43000031 246.25000000 -0.503471 -0.444045 0.741175 0.000000
212.26600647 83.86720276 226.25000000 -0.101642 -0.851786 0.513935 0.000000
96.48439789 209.29699707 148.75000000 -0.223778 -0.446055 0.866578 0.000000
142.50000000 176.27000427 252.50000000 -0.344042 -0.270213 -0.899233 0.000000
230.07800293 83.12509918 271.25000000 -0.552271 0.413791 -0.723722 0.000000
247.89100647 89.80470276 261.25000000 -0.660713 -0.212983 -0.719789 0.000000
141.01600647 82.38289642 171.25000000 0.443828 0.886229 0.132720 0.000000
100.93800354 109.47299957 135.00000000 0.675382 0.629146 0.384753 0.000000
112.44100189 102.42199707 125.00000000 0.608080 0.765902 0.208882 0.000000
202.61700439 133.59399414 236.25000000 -0.227663 -0.835783 0.499636 0.000000
113.55500031 102.05100250 125.00000000 0.608080 0.765902 0.208882 0.000000
229.33599854 103.16400146 238.75000000 -0.549958 0.590570 0.590570 0.000000
167.36300659 100.19499969 202.50000000 -0.897516 -0.324886 0.298183 0.000000
52.69530106 179.60899353 241.25000000 0.788492 0.085360 -0.609092 0.000000
142.50000000 149.55099487 262.50000000 -0.748539 -0.465575 -0.472155 0.000000
243.43800354 109.84400177 261.25000000 -0.000978 -0.000978 -0.999999 0.000000
166.99200439 140.27400208 251.25000000 0.001215 -0.958392 -0.285453 0.000000
119.49199677 79.78520203 232.50000000 0.140973 0.989105 -0.042407 0.000000
238.24200439 95.00009918 263.75000000 -0.650715 -0.241064 -0.720041 0.000000
98.33989716 88.32039642 197.50000000 0.367921 0.884513 0.286829 0.000000
230.82000732 130.99600220 252.50000000 -0.436397 -0.141650 -0.888534 0.000000
130.62500000 196.67999268 156.25000000 -0.529277 -0.246789 0.811764 0.000000
105.39099884 245.29299927 210.00000000 0.117869 -0.962381 -0.244805 0.000000
89.06259918 221.17199707 161.25000000 0.301474 -0.652924 0.694841 0.000000
157.71499634 149.92199707 212.50000000 -0.862110 -0.470377 0.188447 0.000000
92.77349854 104.64900208 166.25000000 0.631366 0.683843 0.365700 0.000000
75.70320129 130.62500000 151.25000000 0.824523 0.469586 0.315675 0.000000
47.87110138 187.03100586 205.00000000 0.958392 0.001215 0.285453 0.000000
109.84400177 170.70300293 263.75000000 -0.000978 -0.000978 -0.999999 0.000000
139.16000366 77.92970276 222.50000000 0.267559 0.962966 -0.033291 0.000000
89.80470276 223.39900208 163.75000000 0.261269 -0.745803 0.612794 0.000000
92.03130341 155.11700439 131.25000000 -0.769480 -0.540410 0.340378 0.000000
204.84399414 113.55500031 223.75000000 -0.231082 -0.242152 0.942318 0.000000
71.99220276 129.88299561 253.75000000 0.501214 0.454897 -0.736107 0.000000
69.76570129 201.13299561 248.75000000 0.469705 -0.395456 -0.789298 0.000000
180.35200500 86.09380341 276.25000000 0.352136 0.224613 -0.908597 0.000000
110.58599854 104.64900208 123.75000000 0.507911 0.770792 0.384585 0.000000
146.95300293 132.10899353 191.25000000 -0.741118 -0.236594 -0.628305 0.000000
48.24219894 158.08599854 211.25000000 0.948432 0.236084 0.211521 0.000000
79.41410065 163.28100586 263.75000000 0.170639 -0.226196 -0.959019 0.000000
55.29299927 140.27400208 205.00000000 0.921290 0.227109 0.315667 0.000000
152.89100647 175.89900208 183.75000000 -0.958392 0.001215 0.285453 0.000000
54.55080032 207.07000732 200.00000000 0.798367 -0.424183 0.427409 0.000000
223.77000427 90.54689789 245.00000000 -0.948197 -0.287535 -0.135075 0.000000
51.21099854 156.60200500 203.75000000 0.887023 0.157212 0.434136 0.000000
103.16400146 100.93800354 253.75000000 0.520044 0.493290 -0.697294 0.000000
60.85940170 219.31700134 227.50000000 0.598970 -0.598970 -0.531480 0.000000
170.70300293 111.32800293 268.75000000 -0.000978 -0.000978 -0.999999 0.000000
200.39100647 127.28500366 262.50000000 -0.617193 -0.549555 -0.563083 0.000000
134.33599854 105.39099884 123.75000000 0.590543 -0.787896 0.174582 0.000000
90.91799927 218.94500732 245.00000000 0.026518 -0.607133 -0.794158 0.000000
66.05470276 123.20300293 243.75000000 0.916445 0.365731 -0.162390 0.000000
198.16400146 86.09380341 276.25000000 -0.222553 0.020232 -0.974711 0.000000
172.18800354 70.13680267 222.50000000 0.155921 0.982662 0.100321 0.000000
110.58599854 188.51600647 258.75000000 -0.305695 -0.245417 -0.919957 0.000000
88.32039642 174.41400146 263.75000000 -0.000978 -0.000978 -0.999999 0.000000
146.21099854 195.93800354 173.75000000 -0.906316 -0.206704 0.368598 0.000000
182.57800293 120.23400116 268.75000000 -0.086631 -0.413904 -0.906189 0.000000
198.90600586 120.23400116 221.25000000 -0.283453 -0.289268 0.914319 0.000000
157.34399414 168.47700500 233.75000000 -0.961686 0.262971 -0.077494 0.000000
156.23100281 181.83599854 237.50000000 0.786598 0.500270 0.361931 0.000000
61.97269821 122.46099854 210.00000000 0.921050 0.318441 0.224194 0.000000
100.56600189 87.57820129 197.50000000 0.367921 0.884513 0.286829 0.000000
76.44539642 173.67199707 261.25000000 -0.000978 -0.000978 -0.999999 0.000000
169.21899414 93.51570129 196.25000000 -0.854311 -0.500904 0.138734 0.000000
119.49199677 222.28500366 162.50000000 -0.369561 -0.648784 0.665209 0.000000
85.35160065 161.05499268 266.25000000 0.055631 -0.022042 -0.998208 0.000000
151.77699280 123.20300293 167.50000000 -0.885182 -0.464687 -0.022766 0.000000
102.42199707 233.41799927 172.50000000 -0.001215 -0.958392 0.285453 0.000000
155.11700439 80.15630341 171.25000000 -0.291925 0.751347 0.591825 0.000000
59.37500000 141.01600647 246.25000000 0.788413 0.316958 -0.527202 0.000000
155.48800659 186.28900146 200.00000000 -0.929203 -0.207273 0.305974 0.000000
120.97699738 129.14100647 268.75000000 -0.000978 -0.000978 -0.999999 0.000000
115.03900146 83.49610138 202.50000000 0.130672 0.987694 0.085938 0.000000
151.40600586 90.91799927 172.50000000 -0.387428 0.001279 0.921899 0.000000
230.07800293 73.10549927 252.50000000 -0.071899 0.991749 -0.106137 0.000000
200.39100647 106.87500000 223.75000000 0.000978 0.000978 0.999999 0.000000
86.09380341 169.21899414 263.75000000 0.067750 -0.733723 -0.676063 0.000000
52.32429886 205.58599854 202.50000000 0.860808 -0.386517 0.331080 0.000000
196.67999268 91.28910065 223.75000000 -0.100317 -0.061993 0.993022 0.000000
175.15600586 103.90599823 271.25000000 0.427238 -0.156798 -0.890439 0.000000
155.48800659 165.50799561 247.50000000 -0.696014 0.673918 -0.247787 0.000000
158.08599854 183.32000732 228.75000000 -0.955291 -0.183555 -0.231789 0.000000
198.16400146 103.16400146 273.75000000 0.286367 -0.859102 -0.424191 0.000000
183.32000732 67.91020203 225.00000000 0.085758 0.994566 0.059028 0.000000
70.50789642 225.25399780 190.00000000 0.663658 -0.590104 0.459713 0.000000
67.91020203 112.81300354 205.00000000 0.910832 0.376553 0.169094 0.000000
191.85600281 145.46899414 220.00000000 -0.438721 -0.866889 0.236699 0.000000
68.28130341 186.28900146 253.75000000 0.572058 -0.445305 -0.688805 0.000000
156.97300720 159.57000732 220.00000000 -0.994199 -0.077165 0.074928 0.000000
178.86700439 140.27400208 216.25000000 0.598970 -0.598970 0.531480 0.000000
128.39900208 109.84400177 123.75000000 -0.575385 -0.426150 0.698089 0.000000
156.23100281 200.39100647 215.00000000 -0.999999 -0.000978 -0.000978 0.000000
96.48439789 190.74200439 146.25000000 -0.312069 -0.204751 0.927734 0.000000
62.34379959 223.77000427 222.50000000 0.605741 -0.722666 -0.332914 0.000000
69.39459991 110.58599854 202.50000000 0.867797 0.485909 0.104022 0.000000
180.35200500 69.02349854 248.75000000 0.163287 0.973394 -0.160756 0.000000
97.22660065 163.28100586 141.25000000 -0.597127 -0.253661 0.760983 0.000000
132.10899353 232.30499268 186.25000000 -0.395494 -0.824342 0.405024 0.000000
187.03100586 148.43800354 238.75000000 0.500256 -0.829656 -0.247819 0.000000
157.34399414 171.44500732 208.75000000 -0.884065 0.365976 0.290672 0.000000
102.05100250 192.96899414 257.50000000 -0.061041 -0.427288 -0.902053 0.000000
209.29699707 77.18750000 271.25000000 -0.067273 0.443453 -0.893770 0.000000
116.52400208 222.65600586 238.75000000 -0.430427 -0.516182 -0.740466 0.000000
238.98500061 100.19499969 248.75000000 -0.637335 0.142463 0.757304 0.000000
171.44500732 101.68000031 268.75000000 0.367014 -0.226642 -0.902183 0.000000
156.97300720 152.14900208 212.50000000 -0.976615 -0.212928 -0.029739 0.000000
151.40600586 175.15600586 248.75000000 -0.431561 -0.434793 -0.790386 0.000000
135.82000732 190.74200439 248.75000000 -0.530568 -0.383641 -0.755855 0.000000
173.67199707 126.91400146 216.25000000 0.486534 -0.486534 0.725650 0.000000
147.69500732 124.68800354 146.25000000 -0.750214 -0.412043 0.517106 0.000000
89.06259918 200.76199341 145.00000000 -0.159356 -0.472221 0.866956 0.000000
164.02400208 141.75799561 243.75000000 -0.375935 -0.922994 -0.082194 0.000000
151.03500366 206.32800293 192.50000000 -0.893026 0.036368 0.448533 0.000000
150.66400146 98.71099854 263.75000000 0.508178 0.161491 -0.845976 0.000000
63.82820129 198.90600586 171.25000000 0.888905 -0.185371 0.418909 0.000000
123.20300293 80.15630341 243.75000000 0.599522 0.785839 -0.151759 0.000000
164.76600647 142.87100220 230.00000000 -0.629092 -0.749655 -0.205575 0.000000
53.80860138 152.89100647 242.50000000 0.650926 0.670601 -0.355796 0.000000
196.67999268 92.77349854 273.75000000 -0.000978 -0.000978 -0.999999 0.000000
208.55499268 71.99220276 263.75000000 -0.130753 0.906834 -0.400694 0.000000
121.71900177 84.23829651 185.00000000 0.443828 0.886229 0.132720 0.000000
145.46899414 96.48439789 133.75000000 -0.730168 -0.149662 0.666675 0.000000
89.80470276 151.03500366 127.50000000 -0.561194 -0.474083 0.678459 0.000000
218.20300293 109.84400177 266.25000000 -0.375270 -0.445533 -0.812818 0.000000
132.85200500 189.25799561 251.25000000 -0.472411 -0.348343 -0.809620 0.000000
129.14100647 111.69899750 125.00000000 -0.597853 -0.427989 0.677788 0.000000
46.38669968 158.82800293 220.00000000 0.975933 0.214873 -0.037213 0.000000
79.41410065 211.52400208 246.25000000 0.266018 -0.459766 -0.847260 0.000000
232.30499268 133.59399414 251.25000000 -0.645448 0.001376 -0.763803 0.000000
228.59399414 92.03130341 246.25000000 0.000978 0.000978 0.999999 0.000000
115.03900146 185.54699707 258.75000000 0.034273 -0.197364 -0.979731 0.000000
47.87110138 192.22700500 210.00000000 0.963799 -0.197468 0.179159 0.000000
242.69500732 77.55860138 265.00000000 -0.252327 0.515490 -0.818902 0.000000
199.64900208 124.68800354 223.75000000 -0.119564 -0.597819 0.792664 0.000000
227.11000061 116.52400208 233.75000000 -0.509755 0.217597 0.832347 0.000000
107.61699677 161.05499268 268.75000000 -0.134188 -0.550024 -0.824298 0.000000
250.86000061 98.71099854 253.75000000 -0.601083 0.296534 0.742137 0.000000
113.55500031 187.03100586 151.25000000 -0.209556 -0.137561 0.968072 0.000000
59.37500000 199.64900208 183.75000000 0.938417 -0.265537 0.221049 0.000000
162.53900146 77.92970276 261.25000000 0.571302 0.703778 -0.422267 0.000000
109.10199738 154.37500000 268.75000000 -0.000978 -0.000978 -0.999999 0.000000
