162.16799927 182.57800293 162.50000000 -0.510149 -0.849275 0.135942 0.000000
234.53100586 127.65599823 133.75000000 -0.953986 0.041697 0.296936 0.000000
119.12100220 164.02400208 100.00000000 0.598970 0.598970 0.531480 0.000000
87.57820129 189.25799561 58.75000000 -0.612827 0.152078 0.775445 0.000000
129.88299561 201.13299561 196.25000000 -0.000978 -0.999999 -0.000978 0.000000
93.51570129 166.99200439 76.25000000 -0.534897 0.585518 0.609142 0.000000
131.36700439 201.13299561 196.25000000 -0.000978 -0.999999 -0.000978 0.000000
89.43370056 189.25799561 60.00000000 -0.498342 0.101382 0.861032 0.000000
93.51570129 135.07800293 118.75000000 -0.776720 0.132684 0.615711 0.000000
199.64900208 151.40600586 136.25000000 -0.276051 -0.722839 0.633482 0.000000
187.77400208 172.92999268 181.25000000 -0.287599 -0.892600 -0.347205 0.000000
107.61699677 198.16400146 81.25000000 -0.673062 -0.067739 0.736477 0.000000
81.26959991 137.30499268 162.50000000 0.507811 0.825772 -0.245416 0.000000
205.58599854 118.00800323 111.25000000 -0.452611 -0.663050 0.596244 0.000000
92.77349854 248.63299561 171.25000000 0.369399 -0.804362 -0.465346 0.000000
192.96899414 127.65599823 178.75000000 -0.579237 0.064043 -0.812640 0.000000
185.54699707 172.18800354 131.25000000 -0.148033 -0.593629 0.791006 0.000000
88.69149780 128.39900208 150.00000000 0.544453 0.743922 -0.387493 0.000000
89.06259918 190.74200439 58.75000000 -0.612827 0.152078 0.775445 0.000000
193.71099854 150.66400146 133.75000000 -0.210754 -0.576880 0.789172 0.000000
149.17999268 229.70700073 175.00000000 -0.420303 -0.619657 -0.662850 0.000000
124.68800354 263.10598755 152.50000000 -0.243110 -0.909843 -0.336278 0.000000
89.80470276 153.26199341 85.00000000 -0.513143 0.566981 0.644373 0.000000
123.94499969 193.71099854 201.25000000 -0.163837 -0.348680 -0.922811 0.000000
156.60200500 133.59399414 188.75000000 -0.000978 -0.000978 -0.999999 0.000000
177.38299561 177.38299561 181.25000000 0.136489 -0.745441 -0.652448 0.000000
143.24200439 232.30499268 111.25000000 -0.708003 -0.304812 0.637041 0.000000
147.32400513 227.85200500 112.50000000 -0.757056 -0.330909 0.563353 0.000000
159.94200134 209.29699707 137.50000000 -0.968721 0.171558 0.179297 0.000000
236.75799561 149.55099487 152.50000000 -0.243008 -0.481431 0.842123 0.000000
67.53910065 206.32800293 81.25000000 0.897548 -0.342700 0.277424 0.000000
102.42199707 209.29699707 73.75000000 -0.735573 0.046951 0.675817 0.000000
143.24200439 248.63299561 161.25000000 -0.475611 -0.692557 -0.542364 0.000000
149.92199707 189.25799561 113.75000000 -0.877668 -0.130717 0.461099 0.000000
111.32800293 263.84799194 127.50000000 -0.001215 -0.958392 0.285453 0.000000
152.14900208 158.82800293 196.25000000 -0.340379 0.200809 -0.918596 0.000000
140.27400208 143.24200439 193.75000000 -0.218149 0.511049 -0.831408 0.000000
94.62899780 138.78900146 120.00000000 -0.776446 0.184578 0.602547 0.000000
167.73399353 166.99200439 131.25000000 0.537454 0.120891 0.834583 0.000000
154.74600220 235.27400208 157.50000000 -0.000978 -0.000978 -0.999999 0.000000
166.25000000 156.60200500 146.25000000 -0.257905 -0.640808 0.723084 0.000000
169.96099854 181.09399414 153.75000000 0.111142 -0.993804 -0.001079 0.000000
78.67189789 251.97300720 135.00000000 0.727869 -0.681379 0.077000 0.000000
182.20700073 187.77400208 162.50000000 0.670495 -0.741074 -0.035289 0.000000
69.76570129 243.06700134 132.50000000 0.693442 -0.690339 0.206326 0.000000
170.70300293 177.75399780 135.00000000 0.223813 -0.715262 0.662048 0.000000
88.32039642 193.71099854 58.75000000 -0.738223 0.095397 0.667777 0.000000
118.00800323 191.48399353 201.25000000 -0.000978 -0.000978 -0.999999 0.000000
184.80499268 173.30099487 180.00000000 0.051692 -0.921175 -0.385701 0.000000
178.86700439 148.43800354 128.75000000 -0.107812 -0.312787 0.943685 0.000000
101.68000031 158.82800293 196.25000000 0.383829 0.261362 -0.885644 0.000000
121.71900177 230.07800293 186.25000000 -0.237535 -0.501122 -0.832138 0.000000
138.04699707 125.43000031 176.25000000 0.390562 0.814600 -0.428821 0.000000
184.06300354 139.16000366 125.00000000 -0.058819 -0.658481 0.750295 0.000000
239.72700500 155.11700439 156.25000000 0.000978 0.000978 0.999999 0.000000
60.11719894 220.42999268 166.25000000 0.843735 -0.402300 -0.355339 0.000000
186.28900146 107.98799896 130.00000000 -0.076455 0.986863 0.142325 0.000000
109.84400177 154.37500000 121.25000000 0.000978 0.000978 0.999999 0.000000
72.73439789 194.82400513 60.00000000 0.785497 -0.248298 0.566870 0.000000
214.49200439 132.48100281 170.00000000 -0.777910 0.555196 -0.294301 0.000000
67.53910065 212.26600647 181.25000000 0.882559 0.033789 -0.468986 0.000000
172.92999268 173.30099487 130.00000000 -0.086386 -0.508401 0.856776 0.000000
189.25799561 160.31300354 183.75000000 -0.356615 -0.090163 -0.929890 0.000000
99.08209991 261.25000000 157.50000000 0.249255 -0.815884 -0.521732 0.000000
188.51600647 155.85899353 183.75000000 -0.000978 -0.000978 -0.999999 0.000000
112.06999969 191.48399353 203.75000000 -0.180582 -0.362587 -0.914287 0.000000
99.45320129 248.63299561 173.75000000 0.006903 -0.768995 -0.639218 0.000000
93.51570129 245.66400146 176.25000000 -0.486534 -0.486534 -0.725650 0.000000
69.39459991 143.98399353 77.50000000 -0.051726 0.842992 0.535433 0.000000
200.76199341 170.70300293 167.50000000 -0.084876 -0.989447 0.117431 0.000000
230.82000732 166.25000000 173.75000000 -0.440847 0.334165 -0.833059 0.000000
107.61699677 192.22700500 201.25000000 0.270088 -0.206375 -0.940459 0.000000
204.10200500 158.82800293 178.75000000 -0.774661 -0.082534 -0.626968 0.000000
93.51570129 148.43800354 188.75000000 0.276559 0.692196 -0.666618 0.000000
105.39099884 192.22700500 201.25000000 -0.000978 -0.000978 -0.999999 0.000000
73.10549927 196.67999268 60.00000000 0.756194 -0.400146 0.517740 0.000000
160.31300354 221.91400146 168.75000000 -0.779602 -0.454090 -0.431304 0.000000
82.38289642 139.90199280 170.00000000 0.318885 0.861143 -0.395910 0.000000
74.96099854 245.29299927 120.00000000 0.691826 -0.691826 0.206770 0.000000
171.44500732 112.06999969 171.25000000 0.150305 0.814029 -0.561040 0.000000
55.66410065 178.12500000 123.75000000 0.961162 0.270131 0.056539 0.000000
148.06599426 235.27400208 170.00000000 -0.623635 -0.637011 -0.453097 0.000000
106.13300323 252.34399414 171.25000000 0.023844 -0.705502 -0.708307 0.000000
67.53910065 230.82000732 171.25000000 0.768502 -0.388313 -0.508544 0.000000
120.97699738 163.65199280 107.50000000 -0.259432 0.963064 -0.072135 0.000000
101.30899811 251.60200500 100.00000000 0.118120 -0.832674 0.541019 0.000000
111.32800293 176.64100647 201.25000000 0.000978 0.000978 -0.999999 0.000000
72.73439789 144.72700500 163.75000000 0.755098 0.568336 -0.326834 0.000000
119.49199677 192.96899414 201.25000000 -0.000978 -0.000978 -0.999999 0.000000
172.18800354 112.06999969 171.25000000 0.150305 0.814029 -0.561040 0.000000
177.38299561 164.02400208 186.25000000 -0.398140 0.398140 -0.826419 0.000000
102.42199707 152.89100647 118.75000000 -0.461530 0.809674 0.362517 0.000000
139.53100586 201.87500000 193.75000000 -0.579049 -0.263491 -0.771540 0.000000
114.29699707 125.43000031 166.25000000 0.071978 0.943573 -0.323249 0.000000
112.81300354 201.13299561 83.75000000 -0.445234 0.193773 0.874196 0.000000
177.38299561 178.12500000 178.75000000 -0.146230 -0.694969 -0.704014 0.000000
194.45300293 129.88299561 116.25000000 0.001304 -0.434129 0.900850 0.000000
130.62500000 225.62500000 186.25000000 -0.229185 -0.251410 -0.940355 0.000000
162.53900146 224.14100647 153.75000000 -0.771670 -0.635901 0.012469 0.000000
109.84400177 239.72700500 181.25000000 0.158080 -0.603716 -0.781369 0.000000
63.82820129 226.36700439 171.25000000 0.697116 -0.405685 -0.591141 0.000000
150.66400146 188.51600647 113.75000000 -0.598970 -0.598970 0.531480 0.000000
148.06599426 191.48399353 110.00000000 -0.919835 -0.203932 0.335134 0.000000
108.35900116 139.53100586 183.75000000 -0.001356 0.560008 -0.828486 0.000000
54.17969894 199.64900208 161.25000000 0.958392 0.001215 -0.285453 0.000000
129.88299561 178.86700439 136.25000000 -0.066832 0.575896 0.814786 0.000000
90.17579651 198.90600586 60.00000000 -0.764796 0.043986 0.642769 0.000000
60.48830032 178.12500000 95.00000000 0.992363 -0.023337 0.121128 0.000000
86.83599854 172.92999268 198.75000000 0.607080 0.278842 -0.744111 0.000000
160.68400574 146.21099854 137.50000000 -0.790030 0.177416 0.586836 0.000000
156.60200500 212.26600647 178.75000000 -0.674467 -0.136696 -0.725540 0.000000
113.55500031 223.02699280 192.50000000 0.019973 -0.448721 -0.893448 0.000000
135.82000732 122.46099854 168.75000000 0.350297 0.584915 -0.731551 0.000000
134.33599854 168.47700500 133.75000000 -0.807304 -0.012378 0.590006 0.000000
107.61699677 144.72700500 123.75000000 0.000978 0.000978 0.999999 0.000000
139.53100586 203.36000061 98.75000000 0.000978 0.000978 0.999999 0.000000
180.72300720 109.10199738 162.50000000 -0.091444 0.970813 -0.221721 0.000000
107.61699677 168.47700500 86.25000000 -0.532555 0.596799 0.600180 0.000000
107.98799896 223.39900208 82.50000000 -0.772502 -0.055689 0.632566 0.000000
55.29299927 187.77400208 117.50000000 0.969253 0.115599 0.217224 0.000000
141.75799561 160.31300354 198.75000000 -0.000978 -0.000978 -0.999999 0.000000
147.69500732 245.29299927 160.00000000 -0.590138 -0.536028 -0.603665 0.000000
90.17579651 200.39100647 60.00000000 -0.774485 -0.023723 0.632147 0.000000
109.84400177 241.21099854 88.75000000 -0.617039 -0.361713 0.698875 0.000000
105.39099884 164.76600647 88.75000000 -0.348324 0.688472 0.636142 0.000000
76.44539642 201.13299561 58.75000000 0.771244 -0.409265 0.487530 0.000000
118.75000000 218.94500732 193.75000000 -0.288833 -0.351688 -0.890444 0.000000
53.06639862 185.54699707 132.50000000 0.999999 0.000978 0.000978 0.000000
103.90599823 259.76599121 161.25000000 0.040966 -0.781177 -0.622964 0.000000
244.55099487 135.82000732 150.00000000 0.000978 -0.999999 0.000978 0.000000
191.48399353 153.63299561 136.25000000 -0.140686 -0.480074 0.865873 0.000000
61.23049927 227.11000061 165.00000000 0.903871 -0.290477 -0.314069 0.000000
54.92190170 201.87500000 166.25000000 0.975347 -0.176993 -0.131804 0.000000
176.64100647 106.50399780 142.50000000 -0.121213 0.975949 -0.181194 0.000000
142.12899780 207.81300354 190.00000000 -0.183069 0.137617 -0.973421 0.000000
60.48830032 185.54699707 175.00000000 0.830715 0.162564 -0.532433 0.000000
77.18750000 224.88299561 81.25000000 0.741372 -0.339052 0.579146 0.000000
195.19500732 107.98799896 147.50000000 -0.040122 0.996550 -0.072654 0.000000
158.82800293 177.38299561 133.75000000 -0.443710 -0.058706 0.894246 0.000000
86.46489716 121.71900177 117.50000000 0.625556 0.772745 -0.107448 0.000000
81.26959991 243.43800354 105.00000000 0.332552 -0.806717 0.488485 0.000000
66.79689789 152.52000427 162.50000000 0.778122 0.570623 -0.262518 0.000000
183.32000732 107.24600220 132.50000000 -0.005274 0.996852 0.079115 0.000000
77.18750000 202.61700439 58.75000000 0.813501 -0.367747 0.450530 0.000000
77.92970276 202.61700439 58.75000000 0.813501 -0.367747 0.450530 0.000000
185.54699707 172.92999268 173.75000000 0.001147 -0.981019 -0.193909 0.000000
77.18750000 212.26600647 68.75000000 0.681618 -0.578292 0.448302 0.000000
112.06999969 183.32000732 83.75000000 -0.527732 0.314088 0.789207 0.000000
103.90599823 251.60200500 171.25000000 0.120441 -0.715214 -0.688449 0.000000
170.70300293 163.28100586 158.75000000 -0.864160 0.432839 0.256666 0.000000
78.67189789 236.01600647 176.25000000 0.619642 -0.172038 -0.765798 0.000000
238.98500061 144.35600281 162.50000000 -0.397768 0.273749 -0.875695 0.000000
124.68800354 234.53100586 183.75000000 -0.101495 -0.725173 -0.681045 0.000000
158.82800293 105.01999664 140.00000000 -0.001127 0.985809 -0.167869 0.000000
246.40600586 164.02400208 163.75000000 0.498492 0.840922 -0.210609 0.000000
156.60200500 186.28900146 176.25000000 -0.791586 -0.585743 -0.174058 0.000000
123.20300293 181.09399414 91.25000000 -0.559768 0.330699 0.759801 0.000000
99.45320129 121.71900177 143.75000000 0.242791 0.927150 -0.285386 0.000000
168.47700500 153.63299561 133.75000000 0.287493 -0.573398 0.767178 0.000000
167.36300659 147.69500732 145.00000000 -0.533080 -0.096270 0.840570 0.000000
201.13299561 138.78900146 176.25000000 -0.264356 0.406352 -0.874639 0.000000
91.28910065 256.05499268 163.75000000 0.420726 -0.680147 -0.600325 0.000000
56.40629959 192.96899414 168.75000000 0.920210 -0.185743 -0.344547 0.000000
70.13680267 241.95300293 162.50000000 0.691826 -0.691826 -0.206770 0.000000
172.18800354 113.92600250 172.50000000 0.223349 0.663801 -0.713781 0.000000
86.83599854 204.10200500 58.75000000 -0.169759 -0.557349 0.812738 0.000000
98.71099854 241.21099854 86.25000000 -0.009743 -0.702885 0.711236 0.000000
134.33599854 111.32800293 146.25000000 -0.001215 0.958392 -0.285453 0.000000
158.82800293 123.94499969 181.25000000 0.079971 0.664489 -0.743007 0.000000
185.54699707 156.60200500 183.75000000 -0.189244 0.669276 -0.718510 0.000000
72.73439789 244.92199707 161.25000000 0.675657 -0.723811 -0.139947 0.000000
118.00800323 156.60200500 123.75000000 -0.693883 0.690778 -0.203353 0.000000
192.22700500 110.21499634 162.50000000 -0.052608 0.902431 -0.427610 0.000000
211.52400208 170.33200073 170.00000000 -0.089958 -0.966729 0.239465 0.000000
183.69200134 109.84400177 165.00000000 -0.157639 0.983140 -0.092658 0.000000
125.43000031 186.28900146 201.25000000 -0.000978 -0.000978 -0.999999 0.000000
225.62500000 163.65199280 160.00000000 -0.451860 -0.774851 0.442073 0.000000
241.95300293 145.46899414 161.25000000 -0.437956 0.284288 -0.852863 0.000000
141.01600647 233.78900146 108.75000000 -0.609449 -0.351291 0.710751 0.000000
133.59399414 175.89900208 136.25000000 -0.267885 -0.193701 0.943778 0.000000
110.58599854 266.44500732 141.25000000 0.001215 -0.958392 0.285453 0.000000
141.01600647 247.89100647 163.75000000 -0.566432 -0.546142 -0.617158 0.000000
90.17579651 204.84399414 60.00000000 -0.591088 -0.085267 0.802088 0.000000
116.52400208 120.97699738 151.25000000 0.158423 0.879321 -0.449107 0.000000
112.81300354 117.63700104 142.50000000 0.352634 0.841619 -0.409055 0.000000
77.92970276 129.88299561 113.75000000 0.767229 0.640064 -0.040975 0.000000
86.83599854 174.41400146 198.75000000 0.574005 -0.103176 -0.812326 0.000000
64.19930267 227.11000061 170.00000000 0.740015 -0.423572 -0.522460 0.000000
218.94500732 143.98399353 171.25000000 -0.031123 0.472255 -0.880912 0.000000
107.61699677 215.97700500 196.25000000 0.414936 -0.480024 -0.772920 0.000000
98.71099854 209.29699707 196.25000000 -0.000978 -0.000978 -0.999999 0.000000
168.47700500 134.33599854 186.25000000 -0.610546 0.446619 -0.654037 0.000000
204.84399414 154.00399780 142.50000000 -0.351373 -0.674964 0.648815 0.000000
66.42579651 146.95300293 97.50000000 0.993810 0.110181 -0.014182 0.000000
70.50789642 242.32400513 162.50000000 0.691826 -0.691826 -0.206770 0.000000
152.52000427 242.69500732 140.00000000 -0.906057 -0.363872 0.216004 0.000000
128.39900208 221.54299927 190.00000000 -0.214970 -0.387532 -0.896441 0.000000
119.49199677 165.87899780 97.50000000 -0.400501 0.760134 0.511660 0.000000
67.91020203 240.46899414 130.00000000 0.691826 -0.691826 0.206770 0.000000
134.70700073 230.07800293 102.50000000 -0.505609 -0.241278 0.828338 0.000000
141.01600647 178.86700439 198.75000000 -0.424104 -0.166457 -0.890184 0.000000
162.53900146 176.64100647 191.25000000 -0.494375 -0.534595 -0.685421 0.000000
88.32039642 192.22700500 198.75000000 0.245949 -0.524382 -0.815189 0.000000
213.00799561 146.21099854 173.75000000 -0.232123 0.819350 -0.524199 0.000000
164.02400208 150.66400146 151.25000000 -0.995992 -0.077454 0.044727 0.000000
107.61699677 120.23400116 126.25000000 0.000978 0.000978 0.999999 0.000000
155.11700439 180.35200500 128.75000000 -0.667564 0.667564 0.329721 0.000000
110.58599854 233.78900146 86.25000000 -0.449334 -0.271441 0.851128 0.000000
152.14900208 169.58999634 197.50000000 -0.246531 -0.221740 -0.943427 0.000000
57.51959991 207.81300354 112.50000000 0.952900 -0.206215 0.222388 0.000000
213.75000000 151.03500366 145.00000000 -0.552835 -0.355047 0.753866 0.000000
181.09399414 180.35200500 176.25000000 -0.694504 0.006931 -0.719456 0.000000
120.23400116 172.92999268 201.25000000 -0.000978 -0.000978 -0.999999 0.000000
109.84400177 236.75799561 183.75000000 0.092043 -0.658910 -0.746570 0.000000
120.23400116 213.00799561 91.25000000 -0.585308 0.274413 0.762963 0.000000
177.38299561 183.32000732 171.25000000 -0.580095 0.082048 -0.810406 0.000000
60.85940170 195.93800354 93.75000000 0.931836 -0.098443 0.349270 0.000000
156.60200500 117.26599884 131.25000000 -0.206063 -0.479811 0.852830 0.000000
135.07800293 147.69500732 196.25000000 0.005347 0.093041 -0.995648 0.000000
164.02400208 175.52699280 132.50000000 -0.437752 -0.728486 0.526955 0.000000
222.65600586 149.92199707 173.75000000 -0.461241 0.615547 -0.639029 0.000000
126.17199707 246.77699280 172.50000000 0.504850 -0.682637 -0.528331 0.000000
76.44539642 240.83999634 107.50000000 0.708687 -0.590298 0.386407 0.000000
159.19900513 228.59399414 157.50000000 -0.800158 -0.599071 -0.029325 0.000000
194.45300293 153.63299561 181.25000000 -0.000978 -0.000978 -0.999999 0.000000
75.70320129 237.50000000 103.75000000 0.602958 -0.676043 0.423565 0.000000
129.14100647 179.60899353 201.25000000 -0.345555 -0.124291 -0.930131 0.000000
80.52739716 124.68800354 102.50000000 0.109887 0.993423 0.032189 0.000000
105.39099884 250.11700439 173.75000000 0.001384 -0.715359 -0.698755 0.000000
110.58599854 184.80499268 203.75000000 -0.000978 -0.000978 -0.999999 0.000000
203.36000061 133.96499634 125.00000000 -0.237496 -0.646429 0.725070 0.000000
183.32000732 143.24200439 183.75000000 -0.225577 -0.081008 -0.970852 0.000000
164.02400208 155.85899353 191.25000000 -0.161716 0.520754 -0.838250 0.000000
92.03130341 123.94499969 116.25000000 -0.845865 -0.223235 0.484436 0.000000
77.92970276 190.00000000 193.75000000 0.496237 0.190399 -0.847052 0.000000
96.48439789 264.58999634 145.00000000 0.525181 -0.846837 0.083972 0.000000
146.95300293 162.53900146 136.25000000 -0.812315 -0.212640 0.543073 0.000000
112.06999969 119.86299896 147.50000000 0.690339 0.693442 -0.206326 0.000000
117.26599884 209.29699707 198.75000000 -0.302610 -0.842653 -0.445380 0.000000
120.23400116 118.37899780 147.50000000 0.345318 0.842201 -0.414069 0.000000
69.02349854 151.77699280 167.50000000 0.793176 0.545014 -0.271722 0.000000
147.32400513 243.43800354 125.00000000 -0.582688 -0.672846 0.455799 0.000000
92.03130341 231.56300354 76.25000000 0.265173 -0.652612 0.709775 0.000000
143.24200439 116.15200043 165.00000000 0.421559 0.809458 -0.408736 0.000000
60.11719894 226.73800659 150.00000000 0.691826 -0.691826 0.206770 0.000000
205.58599854 134.33599854 126.25000000 -0.262421 -0.688657 0.675934 0.000000
187.77400208 169.21899414 158.75000000 0.006352 -0.931149 0.364584 0.000000
106.13300323 216.34800720 195.00000000 0.234929 -0.388593 -0.890957 0.000000
96.48439789 146.95300293 188.75000000 0.244407 0.726913 -0.641765 0.000000
133.22300720 175.15600586 102.50000000 -0.801098 0.346982 0.487694 0.000000
101.30899811 237.50000000 82.50000000 -0.116425 -0.611600 0.782554 0.000000
227.48100281 129.88299561 135.00000000 -0.958392 0.001215 0.285453 0.000000
83.12509918 142.12899780 175.00000000 0.338054 0.745659 -0.574206 0.000000
113.55500031 252.34399414 171.25000000 -0.104411 -0.751462 -0.651463 0.000000
126.54299927 231.56300354 97.50000000 -0.529997 -0.215359 0.820197 0.000000
133.59399414 110.58599854 143.75000000 -0.001215 0.958392 -0.285453 0.000000
107.61699677 165.50799561 198.75000000 -0.182242 0.195353 -0.963652 0.000000
173.67199707 181.83599854 173.75000000 -0.170354 -0.854730 -0.490322 0.000000
187.03100586 181.83599854 166.25000000 0.919835 0.203932 0.335134 0.000000
83.49610138 167.73399353 195.00000000 0.369898 0.240213 -0.897482 0.000000
135.82000732 169.96099854 136.25000000 -0.422405 -0.185624 0.887197 0.000000
157.34399414 216.71899414 176.25000000 -0.723844 -0.307916 -0.617444 0.000000
143.98399353 198.90600586 103.75000000 -0.761473 0.088814 0.642083 0.000000
106.13300323 153.63299561 121.25000000 -0.329819 0.100148 0.938717 0.000000
204.84399414 159.19900513 177.50000000 -0.774661 -0.082534 -0.626968 0.000000
54.55080032 178.12500000 130.00000000 0.999999 -0.000978 -0.000978 0.000000
130.62500000 183.32000732 98.75000000 -0.728683 -0.089077 0.679033 0.000000
112.06999969 247.52000427 175.00000000 -0.175562 -0.648817 -0.740415 0.000000
135.07800293 189.62899780 100.00000000 -0.493662 0.310707 0.812255 0.000000
138.04699707 132.10899353 126.25000000 0.000978 0.000978 0.999999 0.000000
63.08599854 178.12500000 81.25000000 0.958392 0.001215 0.285453 0.000000
76.44539642 220.42999268 183.75000000 0.541628 -0.541628 -0.642867 0.000000
106.87500000 166.62100220 200.00000000 0.184375 0.790832 -0.583601 0.000000
217.46099854 137.30499268 171.25000000 -0.599892 0.525540 -0.603272 0.000000
233.04699707 133.22300720 160.00000000 -0.455419 0.448889 -0.768825 0.000000
108.35900116 118.75000000 141.25000000 0.303476 0.913331 -0.271531 0.000000
84.98049927 230.82000732 80.00000000 -0.633454 -0.636797 0.439574 0.000000
69.02349854 154.00399780 62.50000000 0.507945 0.805433 0.305400 0.000000
69.02349854 201.13299561 186.25000000 0.629254 -0.185255 -0.754798 0.000000
81.64070129 132.10899353 96.25000000 -0.578940 0.541807 0.609322 0.000000
72.36329651 189.25799561 190.00000000 0.436105 -0.176484 -0.882420 0.000000
88.32039642 247.89100647 106.25000000 0.526406 -0.790405 0.313299 0.000000
94.25789642 171.44500732 73.75000000 -0.586321 0.345946 0.732495 0.000000
61.60160065 161.79699707 161.25000000 0.926693 0.347683 -0.142675 0.000000
76.07430267 223.39900208 82.50000000 0.738260 -0.345603 0.579250 0.000000
86.09380341 141.75799561 93.75000000 -0.759966 0.461232 0.457949 0.000000
96.48439789 249.37500000 173.75000000 0.253959 -0.739793 -0.623066 0.000000
63.82820129 220.80099487 107.50000000 0.888171 -0.371689 0.270183 0.000000
152.14900208 211.52400208 113.75000000 -0.800232 -0.109721 0.589568 0.000000
137.30499268 151.40600586 196.25000000 -0.080896 0.338173 -0.937601 0.000000
100.19499969 211.52400208 71.25000000 -0.622844 0.004125 0.782336 0.000000
66.79689789 175.15600586 183.75000000 0.835971 0.075223 -0.543594 0.000000
100.19499969 168.84800720 200.00000000 0.253884 0.347807 -0.902537 0.000000
91.28910065 169.96099854 198.75000000 -0.001330 0.490829 -0.871255 0.000000
131.36700439 116.89499664 157.50000000 0.421538 0.806211 -0.415126 0.000000
190.74200439 135.82000732 181.25000000 -0.000978 -0.000978 -0.999999 0.000000
146.95300293 209.29699707 106.25000000 -0.762220 -0.049865 0.645394 0.000000
170.70300293 161.79699707 146.25000000 0.499233 -0.865793 0.034194 0.000000
120.23400116 232.30499268 186.25000000 -0.134963 -0.368712 -0.919694 0.000000
190.00000000 137.30499268 123.75000000 -0.141750 -0.601316 0.786337 0.000000
89.80470276 143.61300659 102.50000000 -0.815522 0.554195 0.166709 0.000000
146.21099854 161.79699707 198.75000000 -0.000978 -0.000978 -0.999999 0.000000
72.73439789 161.79699707 183.75000000 0.682976 0.169598 -0.710479 0.000000
195.93800354 125.43000031 113.75000000 -0.001356 -0.560008 0.828486 0.000000
129.14100647 155.85899353 196.25000000 0.159356 -0.472221 -0.866956 0.000000
231.56300354 120.23400116 131.25000000 -0.693077 0.713678 0.101534 0.000000
90.54689789 132.48100281 162.50000000 0.428804 0.827545 -0.362348 0.000000
155.85899353 163.28100586 196.25000000 -0.297510 0.184041 -0.936812 0.000000
131.36700439 186.28900146 198.75000000 -0.399914 -0.139899 -0.905813 0.000000
213.00799561 125.43000031 168.75000000 -0.623551 0.424015 -0.656807 0.000000
121.71900177 130.62500000 178.75000000 0.123619 0.842065 -0.525018 0.000000
67.53910065 157.34399414 61.25000000 0.913043 0.144905 0.381255 0.000000
198.16400146 109.47299957 157.50000000 -0.300437 0.907173 -0.294575 0.000000
155.11700439 116.15200043 172.50000000 0.397047 0.830477 -0.390720 0.000000
207.81300354 135.07800293 128.75000000 -0.365690 -0.547723 0.752509 0.000000
53.43750000 199.64900208 128.75000000 0.990321 -0.116712 0.075112 0.000000
135.07800293 117.26599884 161.25000000 0.343615 0.821825 -0.454458 0.000000
241.95300293 144.72700500 161.25000000 -0.477487 0.270422 -0.835989 0.000000
84.23829651 160.31300354 72.50000000 -0.615555 0.585198 0.527859 0.000000
135.07800293 175.15600586 108.75000000 -0.745961 -0.001379 -0.665988 0.000000
146.58200073 239.72700500 120.00000000 -0.825887 -0.372521 0.423247 0.000000
169.96099854 163.28100586 156.25000000 -0.936680 0.048068 0.346871 0.000000
107.61699677 207.07000732 81.25000000 -0.709311 -0.101751 0.697513 0.000000
122.46099854 215.23500061 91.25000000 -0.477986 0.445135 0.757222 0.000000
123.94499969 120.97699738 126.25000000 -0.324821 0.218932 0.920087 0.000000
97.22660065 118.37899780 125.00000000 -0.162158 0.750170 -0.641054 0.000000
147.32400513 177.38299561 120.00000000 -0.443828 0.886229 0.132720 0.000000
149.17999268 160.31300354 138.75000000 -0.646302 -0.322341 0.691657 0.000000
133.59399414 210.78100586 98.75000000 -0.363791 -0.070626 0.928799 0.000000
92.77349854 146.95300293 186.25000000 0.313723 0.738455 -0.596877 0.000000
88.32039642 250.11700439 168.75000000 0.296729 -0.627142 -0.720170 0.000000
195.93800354 158.82800293 141.25000000 -0.296319 -0.787542 0.540346 0.000000
224.51199341 115.78099823 132.50000000 -0.626484 0.779285 0.015280 0.000000
119.49199677 216.71899414 88.75000000 -0.424844 0.252487 0.869343 0.000000
199.64900208 171.07400513 167.50000000 -0.084876 -0.989447 0.117431 0.000000
215.97700500 158.82800293 151.25000000 0.152078 -0.612827 0.775445 0.000000
166.25000000 142.50000000 188.75000000 -0.256592 0.183280 -0.948983 0.000000
143.24200439 138.04699707 191.25000000 -0.199254 0.631743 -0.749132 0.000000
64.94139862 195.93800354 182.50000000 0.774681 -0.026617 -0.631792 0.000000
81.64070129 154.74600220 75.00000000 -0.797455 0.459141 0.391478 0.000000
82.75399780 128.39900208 132.50000000 0.691826 0.691826 -0.206770 0.000000
120.97699738 141.01600647 126.25000000 0.000978 0.000978 0.999999 0.000000
74.96099854 133.96499634 117.50000000 0.879960 0.475046 -0.001323 0.000000
244.17999268 135.82000732 146.25000000 -0.098944 -0.994879 0.020659 0.000000
122.83200073 189.25799561 90.00000000 -0.697536 -0.220028 0.681932 0.000000
171.07400513 144.72700500 152.50000000 -0.535713 0.449468 -0.714836 0.000000
56.03519821 213.00799561 127.50000000 0.960476 -0.275311 -0.041110 0.000000
65.68360138 178.12500000 72.50000000 0.953629 -0.159161 0.255460 0.000000
167.73399353 166.25000000 131.25000000 0.529705 0.124036 0.839064 0.000000
218.94500732 127.65599823 166.25000000 -0.000978 -0.000978 -0.999999 0.000000
94.25789642 156.60200500 88.75000000 -0.488561 0.669883 0.559075 0.000000
181.83599854 107.24600220 140.00000000 -0.249883 0.965627 0.071574 0.000000
69.02349854 175.89900208 186.25000000 0.747104 0.110956 -0.655381 0.000000
80.52739716 254.57000732 155.00000000 0.894688 -0.446689 0.001310 0.000000
75.70320129 161.05499268 61.25000000 -0.677706 0.120647 0.725368 0.000000
63.08599854 212.26600647 98.75000000 0.945712 -0.245693 0.212751 0.000000
158.08599854 214.49200439 176.25000000 -0.748884 -0.175400 -0.639068 0.000000
146.21099854 213.00799561 106.25000000 -0.653735 -0.126577 0.746062 0.000000
70.87899780 154.37500000 175.00000000 0.811198 0.436799 -0.388799 0.000000
65.68360138 195.19500732 80.00000000 0.945225 -0.124689 0.301667 0.000000
167.73399353 115.41000366 172.50000000 0.001285 0.394539 -0.918878 0.000000
94.25789642 181.09399414 201.25000000 -0.000978 -0.000978 -0.999999 0.000000
95.74220276 190.74200439 201.25000000 -0.167819 -0.902207 -0.397315 0.000000
138.04699707 161.42599487 132.50000000 -0.543844 -0.681060 0.490296 0.000000
54.55080032 178.86700439 132.50000000 0.820252 0.548329 -0.162855 0.000000
112.06999969 239.72700500 91.25000000 -0.702918 -0.658289 0.269372 0.000000
144.72700500 201.13299561 103.75000000 -0.684993 0.108001 0.720500 0.000000
94.62899780 232.30499268 185.00000000 0.044144 -0.693485 -0.719117 0.000000
182.57800293 109.47299957 162.50000000 -0.157639 0.983140 -0.092658 0.000000
182.57800293 156.60200500 186.25000000 -0.392358 0.006432 -0.919790 0.000000
156.60200500 187.40199280 155.00000000 -0.860556 -0.508696 -0.025912 0.000000
148.06599426 203.36000061 107.50000000 -0.741074 0.035289 0.670495 0.000000
186.66000366 163.28100586 132.50000000 -0.576449 0.485696 0.657119 0.000000
124.68800354 233.04699707 183.75000000 0.015335 -0.723555 -0.690096 0.000000
116.52400208 195.93800354 86.25000000 -0.597578 -0.085368 0.797253 0.000000
177.38299561 164.02400208 126.25000000 -0.052019 -0.085223 0.995003 0.000000
67.16799927 147.69500732 85.00000000 0.946708 0.312087 0.079654 0.000000
112.81300354 215.97700500 86.25000000 -0.745368 -0.182133 0.641292 0.000000
143.24200439 230.07800293 178.75000000 -0.363273 -0.363273 -0.857943 0.000000
170.70300293 151.40600586 131.25000000 0.095146 -0.660168 0.745068 0.000000
70.50789642 142.87100220 140.00000000 0.801999 0.572425 -0.170670 0.000000
152.52000427 103.90599823 137.50000000 0.032911 0.917554 -0.396246 0.000000
107.24600220 194.45300293 80.00000000 -0.741080 -0.092087 0.665072 0.000000
128.77000427 182.57800293 95.00000000 -0.774935 0.073597 0.627741 0.000000
135.82000732 221.17199707 186.25000000 -0.353873 -0.305686 -0.883929 0.000000
145.09800720 248.63299561 160.00000000 -0.538401 -0.605912 -0.585658 0.000000
61.60160065 179.60899353 86.25000000 0.984656 -0.161942 0.065013 0.000000
213.00799561 120.23400116 118.75000000 -0.822094 0.001359 0.569351 0.000000
123.94499969 235.27400208 96.25000000 -0.739648 -0.346253 0.577088 0.000000
110.58599854 243.43800354 178.75000000 0.098613 -0.690289 -0.716782 0.000000
84.60939789 141.01600647 173.75000000 0.313853 0.835380 -0.451261 0.000000
67.53910065 164.76600647 61.25000000 -0.164582 -0.945325 0.281557 0.000000
63.08599854 227.11000061 116.25000000 0.834614 -0.419665 0.356793 0.000000
71.62110138 140.27400208 132.50000000 0.770748 0.625770 -0.119828 0.000000
236.75799561 132.10899353 141.25000000 -0.513425 -0.411724 0.752913 0.000000
74.58989716 247.89100647 130.00000000 0.691826 -0.691826 0.206770 0.000000
124.68800354 122.08999634 160.00000000 0.082879 0.872340 -0.481824 0.000000
140.27400208 245.66400146 116.25000000 -0.609489 -0.552085 0.568969 0.000000
140.27400208 235.27400208 176.25000000 -0.406287 -0.608602 -0.681568 0.000000
193.71099854 135.82000732 123.75000000 -0.233163 -0.755822 0.611856 0.000000
209.29699707 161.79699707 173.75000000 -0.000978 -0.000978 -0.999999 0.000000
121.34799957 244.92199707 100.00000000 -0.496701 -0.580888 0.644870 0.000000
134.33599854 175.89900208 198.75000000 -0.373381 -0.073606 -0.924753 0.000000
79.41410065 165.50799561 61.25000000 -0.000978 0.999999 -0.000978 0.000000
150.29299927 242.69500732 130.00000000 -0.900129 -0.288218 0.326648 0.000000
202.98800659 111.32800293 157.50000000 -0.321551 0.849704 -0.417862 0.000000
129.14100647 214.49200439 193.75000000 -0.400146 -0.756194 -0.517740 0.000000
109.84400177 153.63299561 196.25000000 0.223221 0.540349 -0.811293 0.000000
112.81300354 133.59399414 126.25000000 0.000978 0.000978 0.999999 0.000000
69.02349854 234.53100586 111.25000000 0.691826 -0.691826 -0.206770 0.000000
80.89849854 209.29699707 191.25000000 0.475920 -0.294914 -0.828569 0.000000
160.31300354 218.57400513 140.00000000 -0.598970 -0.598970 0.531480 0.000000
151.40600586 170.70300293 138.75000000 0.369269 0.350729 0.860598 0.000000
200.76199341 120.97699738 172.50000000 -0.543619 0.476712 -0.690814 0.000000
58.26179886 166.99200439 140.00000000 0.916445 0.365731 0.162390 0.000000
67.91020203 198.90600586 75.00000000 0.904444 -0.259460 0.338617 0.000000
120.97699738 250.11700439 171.25000000 -0.184943 -0.615967 -0.765755 0.000000
211.52400208 146.21099854 138.75000000 -0.350429 -0.528066 0.773528 0.000000
115.78099823 169.21899414 201.25000000 -0.000978 -0.000978 -0.999999 0.000000
89.06259918 151.40600586 188.75000000 0.328248 0.523596 -0.786194 0.000000
168.47700500 122.46099854 181.25000000 0.006708 0.505777 -0.862638 0.000000
244.17999268 161.42599487 160.00000000 0.154325 0.795600 -0.585837 0.000000
166.99200439 180.72300720 157.50000000 0.118519 -0.985266 -0.123308 0.000000
64.94139862 173.67199707 72.50000000 0.957810 -0.185168 0.219803 0.000000
54.92190170 187.03100586 118.75000000 0.969785 0.115662 0.214802 0.000000
57.51959991 179.60899353 110.00000000 0.944239 -0.315627 0.093764 0.000000
60.11719894 211.15199280 107.50000000 0.915471 -0.308050 0.258877 0.000000
190.00000000 107.98799896 135.00000000 -0.064807 0.997599 0.024435 0.000000
59.37500000 216.71899414 168.75000000 0.799341 -0.322597 -0.506938 0.000000
95.74220276 169.96099854 198.75000000 0.186631 0.488226 -0.852529 0.000000
97.22660065 155.11700439 93.75000000 -0.582909 0.708408 0.397963 0.000000
179.60899353 138.04699707 186.25000000 -0.494540 -0.432106 -0.754132 0.000000
170.33200073 110.58599854 167.50000000 0.154339 0.910459 -0.383724 0.000000
201.13299561 129.14100647 118.75000000 -0.442761 -0.766255 0.465635 0.000000
123.94499969 129.51199341 177.50000000 0.063852 0.815890 -0.574670 0.000000
179.60899353 166.25000000 186.25000000 -0.263552 -0.187081 -0.946330 0.000000
64.57039642 190.74200439 181.25000000 0.774768 0.076467 -0.627605 0.000000
198.90600586 108.35900116 151.25000000 0.188814 0.941315 -0.279776 0.000000
156.23100281 227.85200500 130.00000000 -0.932028 -0.173627 0.318084 0.000000
83.86720276 169.21899414 61.25000000 -0.859102 0.286367 0.424191 0.000000
138.78900146 194.45300293 101.25000000 -0.574136 0.262687 0.775477 0.000000
112.06999969 214.49200439 83.75000000 -0.670845 -0.095416 0.735434 0.000000
241.95300293 143.24200439 148.75000000 -0.023550 -0.577665 0.815934 0.000000
112.06999969 244.55099487 177.50000000 0.073868 -0.661919 -0.745926 0.000000
97.96880341 155.11700439 93.75000000 -0.582909 0.708408 0.397963 0.000000
77.55860138 223.39900208 80.00000000 0.741372 -0.339052 0.579146 0.000000
130.62500000 261.62100220 152.50000000 -0.155556 -0.963404 -0.218302 0.000000
224.88299561 137.30499268 166.25000000 -0.445690 0.335449 -0.829960 0.000000
63.82820129 176.64100647 178.75000000 0.827902 0.185486 -0.529314 0.000000
130.62500000 156.60200500 196.25000000 0.180254 -0.290332 -0.939796 0.000000
230.82000732 154.37500000 171.25000000 -0.000978 -0.000978 -0.999999 0.000000
135.44900513 252.34399414 162.50000000 -0.196335 -0.660119 -0.725049 0.000000
101.68000031 234.53100586 81.25000000 -0.453758 -0.457034 0.764999 0.000000
112.81300354 118.00800323 143.75000000 0.339720 0.854730 -0.392462 0.000000
155.11700439 218.94500732 176.25000000 -0.482669 -0.453017 -0.749537 0.000000
106.13300323 152.14900208 193.75000000 0.236547 0.371717 -0.897704 0.000000
160.31300354 178.12500000 133.75000000 -0.192236 -0.478355 0.856867 0.000000
156.23100281 208.55499268 125.00000000 -0.958392 -0.001215 0.285453 0.000000
168.47700500 141.75799561 151.25000000 0.262833 0.102285 -0.959404 0.000000
85.35160065 190.00000000 198.75000000 0.348101 -0.558581 -0.752870 0.000000
197.42199707 139.53100586 178.75000000 -0.460432 0.142893 -0.876119 0.000000
66.42579651 158.82800293 172.50000000 0.786940 0.365307 -0.497269 0.000000
67.91020203 172.92999268 62.50000000 0.927209 -0.054076 0.370620 0.000000
121.71900177 238.24200439 181.25000000 -0.157018 -0.557787 -0.814997 0.000000
55.66410065 183.32000732 118.75000000 0.968431 0.124092 0.216202 0.000000
132.85200500 123.20300293 128.75000000 0.000978 0.000978 0.999999 0.000000
198.16400146 111.69899750 162.50000000 -0.208808 0.824562 -0.525830 0.000000
208.92599487 146.21099854 137.50000000 -0.475368 -0.538750 0.695538 0.000000
63.82820129 198.16400146 181.25000000 0.745961 -0.001379 -0.665988 0.000000
127.28500366 264.21899414 147.50000000 -0.170383 -0.883954 -0.435424 0.000000
91.66020203 169.21899414 72.50000000 -0.619299 0.464894 0.632726 0.000000
172.55900574 122.46099854 117.50000000 0.357475 -0.455979 0.815043 0.000000
144.72700500 112.81300354 128.75000000 -0.000978 -0.000978 0.999999 0.000000
171.44500732 151.40600586 188.75000000 -0.155502 0.003356 -0.987830 0.000000
86.09380341 174.04299927 62.50000000 -0.792295 0.408250 0.453432 0.000000
84.60939789 236.75799561 178.75000000 0.463070 -0.443434 -0.767419 0.000000
96.48439789 127.65599823 121.25000000 -0.755377 -0.107490 0.646414 0.000000
68.28130341 149.92199707 161.25000000 0.800132 0.560553 -0.213471 0.000000
215.97700500 118.00800323 158.75000000 -0.350894 0.700155 -0.621816 0.000000
55.66410065 187.03100586 116.25000000 0.974070 0.111573 0.196820 0.000000
66.42579651 236.75799561 125.00000000 0.832656 -0.543036 0.108607 0.000000
155.11700439 120.97699738 178.75000000 0.366735 0.652887 -0.662755 0.000000
138.04699707 116.52400208 128.75000000 0.000978 0.000978 0.999999 0.000000
142.50000000 168.47700500 136.25000000 0.000978 0.000978 0.999999 0.000000
88.32039642 229.33599854 183.75000000 0.916671 -0.398496 -0.030249 0.000000
53.80860138 201.87500000 132.50000000 0.980160 -0.197434 0.017524 0.000000
182.57800293 123.20300293 111.25000000 0.302203 -0.403449 0.863656 0.000000
146.95300293 164.76600647 136.25000000 -0.714151 -0.296894 0.633910 0.000000
56.40629959 175.52699280 157.50000000 0.933630 0.316742 -0.167362 0.000000
64.94139862 178.12500000 75.00000000 0.952728 -0.159458 0.258617 0.000000
148.06599426 204.84399414 107.50000000 -0.738304 -0.049982 0.672614 0.000000
73.84770203 138.04699707 135.00000000 0.770748 0.625770 -0.119828 0.000000
131.36700439 229.33599854 101.25000000 -0.271375 -0.348487 0.897169 0.000000
67.91020203 177.38299561 62.50000000 0.955024 -0.122506 0.270041 0.000000
79.41410065 169.96099854 193.75000000 0.312274 -0.031607 -0.949466 0.000000
115.03900146 226.73800659 190.00000000 -0.092175 -0.500579 -0.860770 0.000000
78.30079651 138.78900146 160.00000000 0.593664 0.763732 -0.253528 0.000000
130.62500000 178.12500000 201.25000000 -0.420767 -0.060883 -0.905123 0.000000
134.33599854 203.36000061 96.25000000 -0.527930 0.004051 0.849278 0.000000
115.78099823 261.99200439 156.25000000 -0.140027 -0.697122 -0.703145 0.000000
139.53100586 250.86000061 121.25000000 -0.547362 -0.537257 0.641677 0.000000
120.97699738 115.78099823 128.75000000 -0.000978 -0.000978 0.999999 0.000000
181.09399414 178.86700439 173.75000000 -0.848438 0.154932 -0.506112 0.000000
66.42579651 203.36000061 82.50000000 0.926838 -0.371528 -0.054209 0.000000
112.81300354 142.50000000 188.75000000 0.149360 0.668350 -0.728697 0.000000
68.65239716 178.86700439 62.50000000 0.966842 -0.164376 0.195439 0.000000
108.35900116 251.97300720 100.00000000 -0.100083 -0.819523 0.564238 0.000000
175.89900208 133.22300720 120.00000000 -0.089998 -0.532847 0.841412 0.000000
131.36700439 244.17999268 108.75000000 -0.571482 -0.400202 0.716412 0.000000
60.85940170 219.68800354 113.75000000 0.896937 -0.298979 0.325753 0.000000
142.50000000 149.92199707 128.75000000 -0.321188 -0.482574 0.814838 0.000000
83.86720276 224.88299561 73.75000000 0.560284 -0.590753 0.580597 0.000000
68.65239716 180.35200500 62.50000000 0.965142 -0.178441 0.191465 0.000000
62.71490097 232.30499268 132.50000000 0.887154 -0.461426 0.006611 0.000000
77.18750000 247.89100647 161.25000000 0.609970 -0.754231 -0.243047 0.000000
237.50000000 148.43800354 166.25000000 -0.561897 0.422666 -0.711073 0.000000
90.91799927 140.27400208 112.50000000 -0.937774 0.334824 0.092043 0.000000
188.51600647 110.21499634 162.50000000 -0.052608 0.902431 -0.427610 0.000000
74.96099854 248.26199341 130.00000000 0.691826 -0.691826 0.206770 0.000000
139.16000366 237.50000000 110.00000000 -0.486534 -0.486534 0.725650 0.000000
94.25789642 137.30499268 118.75000000 -0.776446 0.184578 0.602547 0.000000
126.17199707 227.11000061 96.25000000 -0.412952 -0.296282 0.861213 0.000000
101.68000031 136.56300354 123.75000000 -0.501771 0.406974 0.763281 0.000000
110.58599854 145.46899414 191.25000000 0.085996 0.677763 -0.730235 0.000000
207.81300354 129.88299561 171.25000000 -0.377862 0.096853 -0.920782 0.000000
97.96880341 264.96099854 141.25000000 0.276165 -0.951236 0.137416 0.000000
217.46099854 149.17999268 173.75000000 -0.000978 -0.000978 -0.999999 0.000000
126.91400146 259.76599121 158.75000000 -0.598970 0.598970 0.531480 0.000000
140.27400208 128.39900208 181.25000000 -0.279550 0.682103 -0.675713 0.000000
166.25000000 135.82000732 188.75000000 -0.254437 0.271495 -0.928199 0.000000
201.13299561 130.62500000 121.25000000 -0.311891 -0.775728 0.548608 0.000000
184.80499268 181.46499634 142.50000000 -0.281671 0.281671 0.917237 0.000000
81.64070129 246.03500366 110.00000000 0.568582 -0.746769 0.345037 0.000000
147.69500732 145.46899414 128.75000000 0.000978 0.000978 0.999999 0.000000
156.60200500 119.49199677 133.75000000 -0.505528 -0.351462 0.787982 0.000000
130.62500000 145.46899414 126.25000000 0.000978 0.000978 0.999999 0.000000
123.20300293 164.39500427 107.50000000 -0.437419 0.897861 0.050107 0.000000
175.89900208 160.31300354 153.75000000 0.581068 -0.716047 -0.386830 0.000000
148.80900574 105.39099884 140.00000000 0.224785 0.920615 -0.319280 0.000000
224.88299561 119.49199677 151.25000000 -0.193664 0.965718 -0.172867 0.000000
150.66400146 129.88299561 186.25000000 0.082930 0.650345 -0.755099 0.000000
93.51570129 249.37500000 171.25000000 0.444301 -0.762362 -0.470533 0.000000
233.04699707 158.08599854 171.25000000 -0.000978 -0.000978 -0.999999 0.000000
91.28910065 222.65600586 68.75000000 -0.076424 -0.609947 0.788749 0.000000
153.63299561 159.57000732 196.25000000 -0.191317 0.076771 -0.978521 0.000000
210.78100586 159.57000732 151.25000000 -0.394717 -0.592901 0.701902 0.000000
69.76570129 185.54699707 61.25000000 0.892518 -0.099169 0.439974 0.000000
156.60200500 203.36000061 126.25000000 -0.958392 0.001215 0.285453 0.000000
157.34399414 122.46099854 133.75000000 -0.375795 -0.369558 0.849827 0.000000
165.50799561 180.35200500 158.75000000 -0.589843 -0.729586 -0.346106 0.000000
157.34399414 154.74600220 142.50000000 -0.123623 -0.686630 -0.716419 0.000000
193.71099854 153.63299561 181.25000000 -0.000978 -0.000978 -0.999999 0.000000
209.66799927 135.82000732 172.50000000 -0.568790 0.491609 -0.659393 0.000000
59.37500000 224.51199341 160.00000000 0.944239 -0.315627 -0.093764 0.000000
128.39900208 241.21099854 176.25000000 0.263912 -0.804229 -0.532509 0.000000
100.93800354 245.29299927 177.50000000 -0.100968 -0.610195 -0.785791 0.000000
98.71099854 133.59399414 171.25000000 0.278944 0.795858 -0.537401 0.000000
153.26199341 158.08599854 140.00000000 -0.526406 -0.790405 0.313299 0.000000
120.23400116 198.90600586 201.25000000 -0.492047 -0.314847 -0.811641 0.000000
57.14849854 208.92599487 167.50000000 0.896709 -0.196200 -0.396761 0.000000
230.82000732 145.83999634 167.50000000 -0.426411 0.354031 -0.832367 0.000000
154.00399780 224.88299561 175.00000000 -0.655074 -0.387764 -0.648473 0.000000
143.24200439 114.29699707 161.25000000 0.001308 0.896251 -0.443546 0.000000
161.79699707 203.73100281 167.50000000 -0.601441 0.784424 0.151485 0.000000
132.10899353 214.49200439 98.75000000 -0.392909 -0.071561 0.916789 0.000000
62.34379959 213.75000000 103.75000000 0.894142 -0.306009 0.326907 0.000000
211.52400208 131.73800659 127.50000000 -0.521541 -0.632938 0.572176 0.000000
162.53900146 223.02699280 160.00000000 -0.886229 -0.443828 -0.132720 0.000000
158.45700073 184.80499268 147.50000000 -0.870129 -0.377719 0.316550 0.000000
59.00389862 218.94500732 165.00000000 0.884314 -0.341975 -0.317871 0.000000
70.13680267 188.51600647 62.50000000 0.868447 -0.229486 0.439473 0.000000
106.13300323 231.56300354 186.25000000 0.025325 -0.897054 -0.441196 0.000000
94.25789642 191.48399353 201.25000000 0.293191 -0.537252 -0.790822 0.000000
53.43750000 195.93800354 156.25000000 0.958392 0.001215 -0.285453 0.000000
169.21899414 162.53900146 138.75000000 0.898750 0.438124 0.017207 0.000000
119.49199677 133.59399414 126.25000000 0.000978 0.000978 0.999999 0.000000
168.84800720 163.28100586 130.00000000 0.639484 0.182491 0.746831 0.000000
130.25399780 182.57800293 200.00000000 -0.541916 -0.185670 -0.819667 0.000000
199.64900208 157.71499634 142.50000000 -0.520965 -0.714038 0.467703 0.000000
175.15600586 166.99200439 188.75000000 -0.413413 0.030379 -0.910037 0.000000
233.41799927 142.50000000 165.00000000 -0.514470 0.234967 -0.824688 0.000000
204.84399414 134.33599854 126.25000000 -0.262421 -0.688657 0.675934 0.000000
120.97699738 207.07000732 198.75000000 -0.165764 -0.294538 -0.941153 0.000000
138.78900146 195.19500732 101.25000000 -0.574136 0.262687 0.775477 0.000000
227.85200500 164.02400208 173.75000000 -0.000978 -0.000978 -0.999999 0.000000
143.24200439 123.94499969 128.75000000 0.353213 -0.104205 0.929721 0.000000
172.18800354 152.14900208 156.25000000 0.347919 -0.008856 0.937483 0.000000
60.48830032 228.59399414 157.50000000 0.951875 -0.302001 -0.052245 0.000000
69.39459991 215.23500061 85.00000000 0.890231 -0.381952 0.248195 0.000000
112.81300354 118.37899780 145.00000000 0.319239 0.882068 -0.346473 0.000000
71.99220276 230.82000732 101.25000000 0.745353 -0.498547 0.442605 0.000000
62.71490097 213.00799561 102.50000000 0.897096 -0.310934 0.313909 0.000000
156.60200500 188.51600647 153.75000000 -0.919430 -0.263311 -0.292088 0.000000
99.45320129 221.54299927 72.50000000 -0.279258 -0.390961 0.877020 0.000000
116.52400208 184.06300354 86.25000000 -0.538328 0.268379 0.798859 0.000000
69.39459991 137.30499268 95.00000000 0.887010 0.441362 0.135694 0.000000
202.61700439 166.99200439 176.25000000 0.483945 -0.720097 -0.497250 0.000000
164.39500427 214.49200439 150.00000000 -0.932921 -0.040335 0.357815 0.000000
188.51600647 131.36700439 181.25000000 -0.526222 0.175407 -0.832060 0.000000
93.88680267 262.73498535 145.00000000 0.527322 -0.844573 0.092889 0.000000
53.06639862 181.83599854 135.00000000 0.972198 0.201014 0.120102 0.000000
88.32039642 144.35600281 95.00000000 -0.775190 0.495666 0.391658 0.000000
155.11700439 152.14900208 133.75000000 -0.711656 -0.411143 0.569655 0.000000
152.89100647 143.98399353 128.75000000 0.000978 0.000978 0.999999 0.000000
66.79689789 156.23100281 170.00000000 0.598970 0.598970 -0.531480 0.000000
63.45709991 155.85899353 147.50000000 0.914896 0.386166 -0.117649 0.000000
206.69900513 122.46099854 170.00000000 -0.693883 -0.690778 0.203353 0.000000
108.35900116 161.79699707 198.75000000 -0.156872 0.206138 -0.965867 0.000000
140.27400208 193.71099854 193.75000000 -0.409861 -0.236974 -0.880828 0.000000
82.75399780 209.29699707 192.50000000 0.409690 -0.217417 -0.885937 0.000000
118.00800323 126.91400146 171.25000000 0.262055 0.884997 -0.384847 0.000000
159.57000732 183.32000732 186.25000000 -0.745004 -0.626303 -0.229593 0.000000
114.29699707 216.71899414 86.25000000 -0.640219 -0.132819 0.756623 0.000000
164.39500427 143.98399353 150.00000000 -0.008715 -0.319948 -0.947395 0.000000
74.96099854 168.47700500 188.75000000 0.657030 0.392232 -0.643790 0.000000
195.93800354 171.07400513 167.50000000 -0.053903 -0.961486 0.269517 0.000000
92.03130341 224.14100647 71.25000000 -0.133133 -0.393793 0.909507 0.000000
61.23049927 188.51600647 177.50000000 0.828859 0.156248 -0.537196 0.000000
157.34399414 117.26599884 131.25000000 -0.206063 -0.479811 0.852830 0.000000
215.97700500 124.68800354 123.75000000 -0.976016 -0.173708 0.131219 0.000000
194.45300293 169.58999634 160.00000000 0.001215 -0.958392 0.285453 0.000000
159.57000732 120.23400116 178.75000000 0.091975 0.632142 -0.769374 0.000000
108.35900116 154.37500000 196.25000000 0.261185 0.444473 -0.856870 0.000000
175.89900208 164.76600647 156.25000000 -0.629744 -0.672718 -0.388424 0.000000
178.86700439 126.91400146 116.25000000 0.117528 -0.697729 0.706655 0.000000
86.83599854 253.45700073 120.00000000 0.403459 -0.818080 0.409837 0.000000
144.72700500 156.60200500 198.75000000 0.153487 0.292033 -0.944012 0.000000
64.57039642 154.00399780 95.00000000 0.887801 0.369792 0.273976 0.000000
144.72700500 167.73399353 136.25000000 0.000978 0.000978 0.999999 0.000000
101.30899811 153.63299561 115.00000000 0.315627 0.944239 0.093764 0.000000
