73.19529724 93.52729797 121.25000000 -0.582983 -0.270163 0.766252 0.000000
104.37100220 228.39599609 118.75000000 0.000978 0.000978 0.999999 0.000000
63.02930069 145.03500366 206.25000000 0.685473 0.058919 -0.725710 0.000000
99.62689972 138.59700012 110.00000000 -0.390577 0.879174 0.272951 0.000000
107.76000214 219.58599854 176.25000000 -0.299039 -0.406387 -0.863380 0.000000
60.31829834 113.85900116 156.25000000 0.694314 0.694314 0.189358 0.000000
54.21870041 219.92500305 172.50000000 0.612056 -0.612056 -0.500773 0.000000
47.44139862 119.28099823 88.75000000 -0.000978 0.999999 -0.000978 0.000000
45.40819931 117.58699799 115.00000000 0.907540 0.243273 -0.342330 0.000000
50.83010101 233.14100647 138.75000000 0.785365 -0.608547 -0.113458 0.000000
162.65600586 107.76000214 136.25000000 -0.700982 -0.070821 0.709654 0.000000
210.77499390 87.42769623 171.25000000 -0.497231 -0.092080 0.862718 0.000000
214.84199524 115.21499634 183.75000000 -0.091130 -0.173755 -0.980563 0.000000
89.46089935 134.52999878 107.50000000 -0.611820 0.615191 0.497209 0.000000
125.72000122 151.13499451 195.00000000 -0.985683 -0.160188 -0.052617 0.000000
144.01800537 191.12100220 140.00000000 -0.897475 0.058561 0.437161 0.000000
90.81639862 197.22099304 98.75000000 -0.384286 -0.299227 0.873377 0.000000
40.66400146 143.00199890 68.75000000 0.000978 0.000978 0.999999 0.000000
156.55700684 92.17179871 196.25000000 0.052003 0.211640 -0.975963 0.000000
87.42769623 149.10099792 213.75000000 -0.000978 -0.000978 -0.999999 0.000000
42.01950073 167.39999390 183.75000000 0.873730 -0.251141 -0.416563 0.000000
63.02930069 211.45300293 88.75000000 0.382560 -0.727357 0.569736 0.000000
193.83200073 115.21499634 161.25000000 -0.509557 0.068783 0.857683 0.000000
122.66999817 116.56999969 133.75000000 0.109345 -0.991008 0.077117 0.000000
137.91900635 149.10099792 190.00000000 -0.653605 -0.206483 -0.728125 0.000000
36.25880051 152.49000549 100.00000000 0.999999 -0.000978 -0.000978 0.000000
117.24800110 223.65199280 168.75000000 -0.268498 -0.640264 -0.719702 0.000000
71.83979797 200.60899353 188.75000000 0.470839 -0.648450 -0.598183 0.000000
130.80299377 127.41400146 138.75000000 -0.488005 -0.843747 0.223479 0.000000
193.15400696 137.58000183 173.75000000 -0.012514 -0.674348 0.738307 0.000000
90.13860321 220.26400757 106.25000000 -0.522788 -0.526150 0.670715 0.000000
98.94920349 217.55299377 111.25000000 -0.624944 -0.236508 0.743982 0.000000
113.51999664 167.39999390 202.50000000 -0.579575 -0.569436 -0.582954 0.000000
94.88279724 103.69300079 133.75000000 0.218622 -0.423858 0.878948 0.000000
41.34180069 143.67999268 68.75000000 -0.410095 -0.001294 0.912042 0.000000
190.44299316 104.37100220 158.75000000 -0.435219 0.267240 0.859748 0.000000
187.73199463 88.78320313 188.75000000 -0.052059 0.561394 -0.825910 0.000000
41.00289917 142.32400513 155.00000000 0.797066 0.550615 0.248011 0.000000
116.90899658 241.95100403 150.00000000 -0.573920 -0.767876 -0.284575 0.000000
146.39100647 61.33489990 147.50000000 0.138166 0.972234 -0.188869 0.000000
67.09570313 212.80799866 88.75000000 0.076884 -0.703562 0.706463 0.000000
94.20500183 80.31150055 160.00000000 0.538064 0.622400 -0.568425 0.000000
86.75000000 159.26699829 213.75000000 0.000978 0.000978 -0.999999 0.000000
65.06250000 178.24400330 78.75000000 -0.490805 0.160654 0.856330 0.000000
170.78900146 130.80299377 193.75000000 -0.000978 -0.000978 -0.999999 0.000000
54.21870041 229.75199890 156.25000000 0.405534 -0.840818 -0.358561 0.000000
185.69900513 73.19529724 148.75000000 -0.672640 -0.092323 0.734188 0.000000
75.22850037 165.36700439 88.75000000 -0.485300 0.176608 0.856325 0.000000
101.66000366 130.80299377 133.75000000 0.000978 0.000978 0.999999 0.000000
134.86900330 154.52299500 158.75000000 -0.930834 -0.087056 -0.354922 0.000000
88.78320313 174.85499573 96.25000000 -0.278277 -0.041180 0.959618 0.000000
46.42480087 153.16799927 192.50000000 0.876104 0.088595 -0.473912 0.000000
42.01950073 144.35699463 68.75000000 -0.391203 0.049066 0.918995 0.000000
113.51999664 84.71679688 182.50000000 0.594083 -0.001366 -0.804402 0.000000
125.38099670 96.23819733 138.75000000 -0.076898 0.485154 0.871041 0.000000
65.74019623 149.10099792 86.25000000 -0.619677 0.253863 0.742667 0.000000
132.83599854 159.26699829 121.25000000 -0.723020 0.360694 0.589188 0.000000
106.40399933 109.79299927 131.25000000 0.000978 0.000978 0.999999 0.000000
43.71379852 214.84199524 162.50000000 0.702767 -0.430300 -0.566534 0.000000
133.51400757 154.18400574 190.00000000 -0.456748 -0.099782 -0.883982 0.000000
179.60000610 77.26170349 181.25000000 0.001347 0.844879 -0.534955 0.000000
52.52439880 233.14100647 130.00000000 0.713678 -0.646920 0.268623 0.000000
109.11499786 111.82599640 131.25000000 0.000978 0.000978 0.999999 0.000000
134.52999878 145.71299744 152.50000000 -0.831745 -0.361422 0.421396 0.000000
84.71679688 145.71299744 96.25000000 -0.554189 0.355916 0.752462 0.000000
89.46089935 197.22099304 98.75000000 0.000978 0.000978 0.999999 0.000000
152.49000549 100.30500031 136.25000000 -0.315693 0.639481 0.701001 0.000000
43.37500000 131.14199829 167.50000000 0.799405 0.599201 0.043706 0.000000
92.51069641 88.10540009 167.50000000 0.610843 0.664105 -0.431086 0.000000
76.58390045 210.09800720 181.25000000 0.149599 -0.660351 -0.735906 0.000000
128.76899719 171.46699524 116.25000000 -0.811146 -0.001363 0.584843 0.000000
135.54699707 166.04499817 186.25000000 -0.520597 -0.368148 -0.770354 0.000000
120.63700104 177.56599426 108.75000000 -0.804747 0.032078 0.592751 0.000000
76.58390045 85.39450073 141.25000000 0.804617 0.496736 -0.325338 0.000000
75.22850037 171.46699524 208.75000000 0.076383 -0.465244 -0.881881 0.000000
63.02930069 209.41999817 86.25000000 0.195031 -0.600449 0.775516 0.000000
177.56599426 140.29100037 188.75000000 -0.224940 -0.247020 -0.942541 0.000000
38.63079834 196.54299927 118.75000000 0.941032 -0.145296 0.305530 0.000000
79.29489899 120.63700104 206.25000000 0.116592 0.621334 -0.774823 0.000000
31.17580032 178.24400330 166.25000000 0.590466 -0.267530 -0.761432 0.000000
158.58999634 95.56050110 136.25000000 0.000978 0.000978 0.999999 0.000000
92.84960175 201.96499634 191.25000000 -0.193994 -0.581982 -0.789724 0.000000
90.81639862 160.96200562 97.50000000 0.406583 0.541562 0.735800 0.000000
189.76600647 96.91600037 156.25000000 -0.673945 -0.023819 0.738397 0.000000
58.96289825 149.10099792 81.25000000 0.000978 0.000978 0.999999 0.000000
89.46089935 138.25799561 213.75000000 -0.000978 -0.000978 -0.999999 0.000000
39.30860138 145.71299744 68.75000000 0.000978 0.000978 0.999999 0.000000
131.81900024 157.91200256 145.00000000 -0.525012 0.682683 0.508238 0.000000
117.92600250 91.49410248 138.75000000 -0.455586 0.508600 0.730594 0.000000
99.96579742 152.49000549 102.50000000 -0.489413 0.324691 0.809352 0.000000
76.92279816 87.42769623 145.00000000 0.864389 0.394579 -0.311671 0.000000
84.71679688 185.02099609 96.25000000 -0.491081 -0.213053 0.844659 0.000000
149.77900696 151.13499451 171.25000000 0.102962 -0.388509 0.915674 0.000000
66.41790009 214.16400146 91.25000000 0.035390 -0.726204 0.686567 0.000000
110.47100067 175.53300476 201.25000000 -0.355852 -0.412287 -0.838683 0.000000
81.32810211 117.92600250 123.75000000 -0.639296 0.568450 0.517846 0.000000
54.89649963 208.74200439 91.25000000 0.420780 -0.839995 0.342568 0.000000
95.56050110 214.16400146 181.25000000 -0.170670 -0.572425 -0.801999 0.000000
189.76600647 137.91900635 187.50000000 -0.048037 -0.341453 -0.938671 0.000000
123.00900269 210.77499390 175.00000000 -0.621657 -0.608180 -0.493619 0.000000
113.85900116 182.30999756 103.75000000 0.000978 0.000978 0.999999 0.000000
35.58100128 145.71299744 165.00000000 0.776155 0.001374 -0.630540 0.000000
47.78020096 129.44700623 135.00000000 0.932048 0.325455 -0.159265 0.000000
64.38469696 134.86900330 203.75000000 0.517733 -0.040038 -0.854605 0.000000
132.15800476 157.23399353 191.25000000 -0.714275 -0.210081 -0.667590 0.000000
147.74600220 82.68350220 186.25000000 -0.172160 0.745009 -0.644455 0.000000
46.08589935 146.39100647 191.25000000 0.835590 0.123953 -0.535186 0.000000
39.98630142 212.80799866 158.75000000 0.711934 -0.449730 -0.539344 0.000000
202.64199829 84.71679688 166.25000000 -0.464696 0.365688 0.806430 0.000000
99.62689972 202.64199829 106.25000000 -0.493478 -0.358455 0.792458 0.000000
70.48429871 193.83200073 83.75000000 -0.622844 0.004125 0.782336 0.000000
112.50399780 220.94099426 121.25000000 -0.445911 -0.136211 0.884653 0.000000
40.32519913 147.74600220 140.00000000 0.941408 0.335208 0.037245 0.000000
121.99199677 111.82599640 196.25000000 0.000978 0.000978 -0.999999 0.000000
128.76899719 225.00799561 161.25000000 -0.625737 -0.544779 -0.558272 0.000000
33.88669968 147.06799316 68.75000000 0.063724 0.251146 0.965849 0.000000
43.71379852 168.75599670 187.50000000 0.851679 -0.369009 -0.372123 0.000000
57.60739899 223.65199280 168.75000000 0.264286 -0.836133 -0.480661 0.000000
88.78320313 243.98399353 156.25000000 0.055166 -0.807688 -0.587024 0.000000
147.06799316 64.38469696 156.25000000 -0.005194 0.998232 -0.059208 0.000000
62.69039917 159.94500732 80.00000000 -0.854781 0.086470 0.511735 0.000000
189.76600647 141.64599609 178.75000000 -0.291694 -0.938674 -0.183864 0.000000
131.47999573 102.33799744 196.25000000 -0.000978 -0.000978 -0.999999 0.000000
117.92600250 85.73339844 185.00000000 0.324857 0.812936 -0.483325 0.000000
98.27140045 173.50000000 98.75000000 -0.256477 -0.061304 0.964604 0.000000
152.49000549 84.71679688 188.75000000 0.058935 0.717284 -0.694284 0.000000
66.07910156 86.07219696 122.50000000 0.534743 0.767381 -0.353803 0.000000
61.67380142 147.06799316 206.25000000 0.568263 0.248909 -0.784297 0.000000
39.64739990 176.88900757 85.00000000 0.912869 -0.366002 0.180865 0.000000
90.81639862 84.71679688 161.25000000 0.614159 0.610794 -0.499740 0.000000
84.03900146 244.66200256 153.75000000 0.286619 -0.664509 -0.690128 0.000000
218.22999573 108.43699646 181.25000000 -0.636108 0.354847 -0.685165 0.000000
39.98630142 142.66299438 157.50000000 0.797066 0.550615 0.248011 0.000000
103.69300079 172.82200623 101.25000000 0.000978 0.000978 0.999999 0.000000
136.90199280 156.55700684 126.25000000 -0.474292 0.524218 -0.707278 0.000000
34.56439972 134.19099426 93.75000000 0.964929 0.001199 -0.262509 0.000000
165.36700439 105.72699738 138.75000000 -0.578892 -0.125206 0.805735 0.000000
63.70700073 101.66000366 108.75000000 -0.920776 0.114237 0.372990 0.000000
43.03609848 212.13099670 122.50000000 0.865495 -0.399813 0.301774 0.000000
108.43699646 222.97399902 118.75000000 -0.272653 -0.206220 0.939752 0.000000
181.63299561 66.41790009 163.75000000 0.167775 0.584945 -0.793530 0.000000
115.21499634 151.47399902 135.00000000 -0.446689 0.894688 0.001310 0.000000
111.48699951 89.46089935 187.50000000 0.248454 0.828693 -0.501537 0.000000
138.25799561 197.22099304 171.25000000 -0.793715 -0.015237 -0.608099 0.000000
98.27140045 107.76000214 133.75000000 0.126190 -0.207767 0.970005 0.000000
34.56439972 189.76600647 166.25000000 0.573183 -0.072899 -0.816178 0.000000
129.44700623 107.08200073 133.75000000 -0.211640 0.052003 0.975963 0.000000
42.01950073 147.74600220 68.75000000 0.000978 0.000978 0.999999 0.000000
114.53700256 210.77499390 178.75000000 -0.340088 -0.626479 -0.701330 0.000000
50.83010101 140.96899414 196.25000000 0.781030 0.276122 -0.560133 0.000000
32.53120041 175.53300476 161.25000000 0.867007 -0.001336 0.498295 0.000000
148.42399597 90.13860321 193.75000000 0.086554 0.515067 -0.852769 0.000000
162.65600586 97.59369659 196.25000000 -0.000978 -0.000978 -0.999999 0.000000
92.84960175 225.00799561 108.75000000 -0.453556 -0.142546 0.879754 0.000000
43.71379852 118.60299683 85.00000000 -0.392993 0.520185 0.758264 0.000000
56.25189972 220.26400757 106.25000000 0.571310 -0.665132 0.480838 0.000000
170.78900146 76.58390045 178.75000000 -0.096676 0.823911 -0.558412 0.000000
36.93650055 156.55700684 120.00000000 0.989903 0.140452 0.019101 0.000000
43.37500000 133.17500305 175.00000000 0.968711 0.230526 -0.091958 0.000000
122.66999817 194.50999451 116.25000000 -0.810453 -0.230014 0.538758 0.000000
46.08589935 117.92600250 116.25000000 0.911458 0.245672 -0.329985 0.000000
111.82599640 191.12100220 193.75000000 0.230379 -0.444195 -0.865804 0.000000
93.52729797 111.82599640 133.75000000 -0.480927 -0.062368 0.874539 0.000000
35.58100128 168.75599670 115.00000000 0.999999 0.000978 0.000978 0.000000
147.40699768 191.79899597 155.00000000 -0.776155 -0.001374 0.630540 0.000000
150.45700073 77.26170349 138.75000000 0.000978 0.000978 0.999999 0.000000
172.82200623 134.86900330 153.75000000 -0.598183 -0.470839 0.648450 0.000000
42.69720078 148.42399597 68.75000000 0.000978 0.000978 0.999999 0.000000
123.34799957 121.99199677 196.25000000 -0.000978 -0.000978 -0.999999 0.000000
120.97599792 152.49000549 112.50000000 -0.378186 0.001273 0.925729 0.000000
45.40819931 140.63000488 187.50000000 0.858563 0.122652 -0.497822 0.000000
65.06250000 225.68499756 103.75000000 0.405362 -0.910357 0.083256 0.000000
192.47599792 93.52729797 188.75000000 -0.091069 0.463753 -0.881271 0.000000
140.63000488 179.60000610 177.50000000 -0.815263 0.508561 -0.276970 0.000000
42.69720078 167.39999390 186.25000000 0.872437 -0.331557 -0.359059 0.000000
110.13200378 124.70300293 200.00000000 -0.608134 0.641640 -0.467409 0.000000
127.07499695 159.94500732 115.00000000 -0.514742 0.171581 0.840000 0.000000
31.51460075 174.17799377 150.00000000 0.989447 0.117431 0.084876 0.000000
155.87899780 82.68350220 186.25000000 0.125965 0.789878 -0.600188 0.000000
165.36700439 62.35150146 153.75000000 -0.839995 0.420780 -0.342568 0.000000
214.16400146 127.07499695 172.50000000 -0.774477 -0.145308 0.615687 0.000000
97.59369659 124.70300293 133.75000000 -0.271467 -0.738200 0.617548 0.000000
35.24219894 188.41000366 126.25000000 0.964929 -0.001199 0.262509 0.000000
32.53120041 184.34399414 136.25000000 0.964929 0.001199 0.262509 0.000000
66.41790009 147.06799316 208.75000000 0.713253 -0.206673 -0.669743 0.000000
66.41790009 190.44299316 78.75000000 -0.544455 -0.251167 0.800302 0.000000
61.67380142 102.33799744 133.75000000 0.756178 0.451082 -0.474046 0.000000
109.79299927 189.08799744 193.75000000 -0.278848 -0.412939 -0.867021 0.000000
51.50780106 229.75199890 151.25000000 0.481107 -0.833815 -0.270719 0.000000
110.47100067 165.36700439 206.25000000 -0.473983 -0.337654 -0.813222 0.000000
115.89299774 104.03199768 132.50000000 -0.947926 0.288266 0.135418 0.000000
94.20500183 123.34799957 131.25000000 -0.149810 -0.703652 0.694573 0.000000
35.91989899 193.83200073 126.25000000 0.987164 -0.124134 0.100490 0.000000
176.88900757 67.77339935 163.75000000 0.231894 0.577401 -0.782837 0.000000
39.30860138 199.93200684 166.25000000 0.000978 0.000978 -0.999999 0.000000
84.71679688 231.10699463 166.25000000 -0.000978 -0.000978 -0.999999 0.000000
71.83979797 152.49000549 88.75000000 -0.663939 0.337679 0.667202 0.000000
103.69300079 72.85639954 157.50000000 0.471680 0.698354 -0.538349 0.000000
191.79899597 105.72699738 193.75000000 -0.354975 -0.148950 -0.922934 0.000000
37.61420059 149.10099792 115.00000000 0.945474 0.314281 0.085474 0.000000
45.74700165 197.89799500 95.00000000 -0.196335 -0.725049 0.660119 0.000000
98.27140045 233.14100647 166.25000000 -0.072575 -0.553566 -0.829637 0.000000
127.07499695 180.95500183 115.00000000 -0.703778 -0.422267 0.571302 0.000000
117.92600250 201.96499634 116.25000000 -0.314847 -0.492047 0.811641 0.000000
73.19529724 224.33000183 96.25000000 0.403246 -0.804885 0.435377 0.000000
133.51400757 219.92500305 160.00000000 -0.650624 -0.509403 -0.563202 0.000000
191.46000671 138.25799561 172.50000000 0.369898 -0.897482 -0.240213 0.000000
207.38699341 120.63700104 191.25000000 -0.000978 -0.000978 -0.999999 0.000000
127.41400146 224.66900635 162.50000000 -0.366962 -0.140925 -0.919499 0.000000
137.58000183 172.14399719 138.75000000 -0.876686 0.206192 -0.434634 0.000000
50.83010101 102.33799744 103.75000000 0.765245 0.381810 0.518287 0.000000
152.49000549 140.96899414 191.25000000 -0.622107 -0.250418 -0.741804 0.000000
153.84599304 137.58000183 191.25000000 0.000978 0.000978 -0.999999 0.000000
120.63700104 193.49299622 112.50000000 -0.764119 -0.212341 0.609125 0.000000
37.95309830 190.44299316 113.75000000 0.952271 -0.241098 0.187222 0.000000
161.97799683 107.08200073 196.25000000 -0.000978 -0.000978 -0.999999 0.000000
54.21870041 222.97399902 111.25000000 0.869512 -0.434005 0.235774 0.000000
128.09199524 157.23399353 136.25000000 -0.489838 0.840812 -0.230422 0.000000
181.97200012 65.74019623 142.50000000 -0.848007 0.135740 0.512307 0.000000
60.99610138 104.37100220 136.25000000 0.768883 0.413009 -0.488102 0.000000
92.17179871 211.11399841 182.50000000 0.213222 -0.645892 -0.733048 0.000000
119.62000275 239.91799927 150.00000000 -0.573920 -0.767876 -0.284575 0.000000
106.40399933 175.53300476 101.25000000 0.000978 0.000978 0.999999 0.000000
122.66999817 97.59369659 136.25000000 -0.371553 0.444907 0.814866 0.000000
73.87300110 114.53700256 196.25000000 0.285254 0.744209 -0.603973 0.000000
42.01950073 150.45700073 68.75000000 0.000978 0.000978 0.999999 0.000000
86.75000000 147.06799316 213.75000000 -0.000978 -0.000978 -0.999999 0.000000
74.55069733 92.84960175 146.25000000 0.783547 0.537791 -0.311184 0.000000
47.44139862 228.05700684 145.00000000 0.760410 -0.644538 -0.079662 0.000000
75.90619659 123.34799957 206.25000000 0.356095 0.517223 -0.778252 0.000000
112.50399780 197.22099304 188.75000000 -0.426628 -0.585992 -0.688914 0.000000
47.44139862 130.80299377 183.75000000 0.824870 0.292696 -0.483652 0.000000
130.12500000 214.16400146 131.25000000 -0.601921 -0.015221 0.798410 0.000000
184.34399414 143.34100342 180.00000000 -0.303475 -0.932800 -0.194392 0.000000
58.96289825 93.52729797 121.25000000 0.599987 0.676439 -0.427137 0.000000
69.12889862 98.27140045 141.25000000 0.763787 0.466123 -0.446496 0.000000
187.73199463 109.11499786 193.75000000 -0.478641 0.146939 -0.865628 0.000000
141.30799866 182.30999756 135.00000000 -0.946657 0.178435 -0.268333 0.000000
48.79679871 222.29699707 161.25000000 0.561194 -0.678459 -0.474083 0.000000
40.66400146 187.05499268 176.25000000 -0.001380 -0.677534 -0.735490 0.000000
120.29799652 161.30099487 110.00000000 -0.409194 0.261220 0.874256 0.000000
135.54699707 206.03100586 133.75000000 -0.779798 -0.296990 0.551100 0.000000
135.88600159 158.58999634 165.00000000 -0.233995 0.094863 0.967599 0.000000
60.31829834 140.96899414 86.25000000 -0.662669 0.355059 0.659396 0.000000
132.83599854 152.49000549 146.25000000 -0.741480 0.178873 0.646693 0.000000
32.19240189 203.32000732 150.00000000 0.592039 -0.608906 0.527943 0.000000
46.08589935 216.87500000 163.75000000 0.695184 -0.358224 -0.623212 0.000000
140.29100037 197.89799500 138.75000000 -0.691633 -0.254812 0.675806 0.000000
113.18199921 140.29100037 143.75000000 -0.645548 -0.721309 0.250959 0.000000
176.21099854 92.51069641 195.00000000 -0.302316 0.302316 -0.903997 0.000000
118.60299683 98.27140045 196.25000000 -0.000978 -0.000978 -0.999999 0.000000
175.53300476 140.96899414 188.75000000 -0.126038 -0.375344 -0.918276 0.000000
98.27140045 126.05899811 206.25000000 -0.167051 0.489327 -0.855952 0.000000
54.55759811 184.34399414 192.50000000 0.631103 -0.308288 -0.711806 0.000000
138.25799561 103.01599884 196.25000000 -0.000978 -0.000978 -0.999999 0.000000
97.59369659 87.76660156 172.50000000 0.462253 0.724031 -0.511958 0.000000
65.74019623 87.76660156 125.00000000 0.630513 0.637203 -0.443199 0.000000
119.95899963 107.76000214 133.75000000 -0.631142 0.604214 0.486400 0.000000
52.86330032 166.72300720 198.75000000 0.676950 0.095448 -0.729814 0.000000
130.12500000 189.76600647 181.25000000 -0.573998 -0.408580 -0.709640 0.000000
71.83979797 140.96899414 93.75000000 -0.418275 0.476866 0.773075 0.000000
63.02930069 155.87899780 81.25000000 -0.611348 0.260652 0.747204 0.000000
126.39700317 183.66600037 187.50000000 -0.669869 -0.370321 -0.643535 0.000000
63.70700073 172.82200623 203.75000000 0.289462 -0.307094 -0.906590 0.000000
92.17179871 131.14199829 122.50000000 -0.916134 0.354770 0.186646 0.000000
197.89799500 138.25799561 173.75000000 0.085670 -0.634540 0.768127 0.000000
47.44139862 114.19799805 92.50000000 -0.450272 0.823128 0.345998 0.000000
190.44299316 70.48429871 151.25000000 -0.504045 -0.017567 0.863499 0.000000
176.21099854 130.80299377 153.75000000 -0.718553 -0.383119 0.580433 0.000000
162.65600586 147.06799316 166.25000000 0.046438 -0.589627 0.806340 0.000000
178.24400330 83.70010376 187.50000000 -0.075402 0.544886 -0.835113 0.000000
33.88669968 179.60000610 166.25000000 0.456172 -0.006611 -0.889867 0.000000
128.76899719 203.32000732 126.25000000 -0.707106 -0.707106 -0.001384 0.000000
51.50780106 126.73600006 86.25000000 -0.801335 0.268157 0.534746 0.000000
114.87599945 134.86900330 202.50000000 -0.742672 0.278303 -0.609086 0.000000
182.98800659 90.13860321 148.75000000 -0.879960 0.001323 0.475046 0.000000
216.53599548 121.99199677 172.50000000 -0.806235 -0.295041 0.512772 0.000000
124.02500153 107.76000214 196.25000000 -0.000978 -0.000978 -0.999999 0.000000
111.14800262 241.27299500 158.75000000 -0.189727 -0.708007 -0.680242 0.000000
194.50999451 124.70300293 191.25000000 -0.000978 -0.000978 -0.999999 0.000000
86.75000000 99.62689972 193.75000000 0.393873 0.750157 -0.531157 0.000000
116.23100281 138.25799561 202.50000000 -0.845795 0.338007 -0.412773 0.000000
76.92279816 171.46699524 90.00000000 -0.736255 0.240185 0.632645 0.000000
198.57600403 98.27140045 188.75000000 -0.715147 0.032443 -0.698221 0.000000
145.03500366 132.15800476 141.25000000 0.539757 -0.743191 0.395384 0.000000
82.68350220 205.69200134 187.50000000 0.049444 -0.600396 -0.798173 0.000000
61.67380142 228.73500061 110.00000000 0.449871 -0.808487 0.379428 0.000000
62.69039917 92.84960175 127.50000000 0.798789 0.454843 -0.393769 0.000000
34.22560120 199.93200684 137.50000000 0.932410 -0.158855 0.324617 0.000000
45.40819931 152.49000549 68.75000000 -0.562254 0.558877 0.609530 0.000000
194.50999451 72.51750183 168.75000000 -0.266540 0.863588 -0.427986 0.000000
46.76359940 152.49000549 68.75000000 -0.000978 0.999999 -0.000978 0.000000
136.90199280 163.33399963 156.25000000 -0.941824 0.300351 0.150855 0.000000
43.37500000 202.98100281 107.50000000 0.903693 -0.395455 0.164178 0.000000
93.86620331 201.96499634 102.50000000 -0.409861 -0.009108 0.912103 0.000000
84.03900146 86.07219696 126.25000000 -0.376905 -0.144317 0.914940 0.000000
100.30500031 79.97260284 163.75000000 0.405770 0.667450 -0.624389 0.000000
116.90899658 149.10099792 205.00000000 -0.674853 0.035370 -0.737104 0.000000
34.90330124 153.84599304 162.50000000 0.913064 0.292705 0.283967 0.000000
77.93939972 121.99199677 113.75000000 -0.573670 0.777991 0.256187 0.000000
137.91900635 206.03100586 165.00000000 -0.799003 -0.467827 -0.377798 0.000000
103.01599884 243.30700684 156.25000000 0.110317 -0.863912 -0.491413 0.000000
103.01599884 145.71299744 106.25000000 -0.495211 0.354180 0.793299 0.000000
76.58390045 84.03900146 123.75000000 -0.162852 0.725985 0.668150 0.000000
126.05899811 131.47999573 143.75000000 -0.413658 -0.676140 0.609689 0.000000
116.56999969 151.81199646 141.25000000 0.000978 0.000978 0.999999 0.000000
98.27140045 182.30999756 203.75000000 -0.073842 -0.696435 -0.713810 0.000000
185.69900513 92.84960175 191.25000000 -0.119074 0.226625 -0.966676 0.000000
100.98200226 155.87899780 211.25000000 -0.230385 -0.697425 -0.678618 0.000000
145.03500366 109.79299927 196.25000000 -0.000978 -0.000978 -0.999999 0.000000
132.83599854 151.13499451 148.75000000 -0.764544 0.256950 0.591142 0.000000
80.65029907 197.89799500 193.75000000 0.138734 -0.500904 -0.854311 0.000000
60.99610138 223.99099731 105.00000000 0.504329 -0.608906 0.612279 0.000000
82.68350220 191.79899597 198.75000000 0.162228 -0.626170 -0.762623 0.000000
32.53120041 170.11099243 143.75000000 0.977418 0.192540 0.087072 0.000000
55.57419968 135.54699707 86.25000000 -0.355275 0.751106 0.556435 0.000000
71.16210175 180.27699280 83.75000000 -0.713566 0.041140 0.699379 0.000000
164.01199341 86.07219696 138.75000000 0.014032 0.360994 0.932462 0.000000
86.75000000 236.19000244 110.00000000 -0.274698 -0.479558 0.833406 0.000000
129.44700623 127.41400146 138.75000000 0.001363 -0.811146 0.584843 0.000000
213.82499695 136.90199280 180.00000000 -0.265966 -0.683229 -0.680044 0.000000
84.71679688 145.71299744 213.75000000 -0.000978 -0.000978 -0.999999 0.000000
56.92969894 197.89799500 78.75000000 0.620454 -0.549448 0.559592 0.000000
133.17500305 226.36300659 142.50000000 -0.840374 -0.414709 0.348982 0.000000
192.13800049 114.53700256 192.50000000 -0.457965 -0.124121 -0.880263 0.000000
52.86330032 140.96899414 81.25000000 -0.739701 0.047033 0.671290 0.000000
193.83200073 111.82599640 191.25000000 -0.327042 0.114398 -0.938060 0.000000
69.12889862 128.76899719 98.75000000 -0.953464 0.181548 0.240719 0.000000
122.66999817 196.54299927 183.75000000 -0.451893 -0.422738 -0.785548 0.000000
66.41790009 152.49000549 86.25000000 -0.847690 0.167756 0.503269 0.000000
211.45300293 112.50399780 183.75000000 -0.461405 -0.146088 -0.875079 0.000000
174.17799377 129.44700623 151.25000000 -0.600839 -0.408836 0.686910 0.000000
112.84300232 178.92199707 197.50000000 -0.319843 -0.304967 -0.897048 0.000000
125.38099670 235.17399597 141.25000000 -0.648536 -0.726673 0.226597 0.000000
88.44429779 99.62689972 195.00000000 0.393873 0.750157 -0.531157 0.000000
66.41790009 116.56999969 193.75000000 0.314469 0.736987 -0.598298 0.000000
85.39450073 130.12500000 111.25000000 0.000978 0.000978 0.999999 0.000000
56.92969894 232.46299744 153.75000000 0.191732 -0.762325 -0.618142 0.000000
109.79299927 132.15800476 203.75000000 0.694314 0.694314 -0.189358 0.000000
112.50399780 206.03100586 113.75000000 -0.409265 -0.487530 0.771244 0.000000
193.83200073 117.92600250 161.25000000 -0.914678 0.273969 -0.297162 0.000000
63.70700073 229.07400513 108.75000000 0.449871 -0.808487 0.379428 0.000000
198.57600403 140.29100037 181.25000000 0.165905 -0.713849 -0.680364 0.000000
139.61300659 159.26699829 126.25000000 -0.718769 0.689491 -0.089297 0.000000
103.69300079 238.90100098 160.00000000 0.010481 -0.201478 -0.979437 0.000000
65.74019623 108.09899902 110.00000000 -0.835233 0.372788 0.404246 0.000000
157.91200256 65.06250000 158.75000000 0.434005 0.869512 -0.235774 0.000000
121.99199677 108.43699646 133.75000000 0.000978 0.000978 0.999999 0.000000
201.96499634 115.21499634 166.25000000 -0.744843 -0.198933 0.636895 0.000000
101.66000366 247.37300110 126.25000000 -0.266051 -0.816823 0.511876 0.000000
48.45800018 190.44299316 182.50000000 0.489786 -0.180134 -0.853031 0.000000
109.79299927 121.31400299 131.25000000 0.000978 0.000978 0.999999 0.000000
199.25399780 88.44429779 185.00000000 -0.415345 0.352651 -0.838526 0.000000
163.33399963 151.13499451 181.25000000 -0.227428 -0.555420 -0.799866 0.000000
111.82599640 129.44700623 133.75000000 -0.048863 -0.537498 0.841848 0.000000
163.33399963 82.68350220 138.75000000 0.000978 0.000978 0.999999 0.000000
88.10540009 190.44299316 198.75000000 -0.058140 -0.579987 -0.812549 0.000000
138.59700012 164.01199341 147.50000000 -0.953201 0.297317 -0.054870 0.000000
84.71679688 189.08799744 96.25000000 -0.411721 0.149587 0.898949 0.000000
52.18550110 231.78500366 146.25000000 0.541542 -0.811545 -0.219378 0.000000
87.42769623 201.96499634 98.75000000 -0.594083 -0.001366 0.804402 0.000000
50.15230179 186.37699890 186.25000000 0.771134 -0.184767 -0.609272 0.000000
61.67380142 208.06399536 86.25000000 0.358593 -0.676251 0.643503 0.000000
109.79299927 140.96899414 141.25000000 -0.456578 -0.272102 0.847052 0.000000
140.29100037 174.17799377 133.75000000 -0.788423 -0.403116 -0.464636 0.000000
115.21499634 88.10540009 138.75000000 -0.415826 0.571553 0.707401 0.000000
95.56050110 181.29400635 205.00000000 -0.111721 -0.535391 -0.837183 0.000000
134.19099426 66.75679779 155.00000000 0.300302 0.939302 -0.165921 0.000000
139.61300659 120.63700104 196.25000000 -0.000978 -0.000978 -0.999999 0.000000
201.96499634 104.03199768 165.00000000 -0.694314 -0.694314 0.189358 0.000000
135.54699707 83.36129761 186.25000000 0.295546 0.592689 -0.749248 0.000000
168.07800293 137.91900635 152.50000000 -0.273035 -0.688176 0.672209 0.000000
128.09199524 96.57710266 137.50000000 0.325561 0.258405 0.909526 0.000000
92.84960175 159.26699829 213.75000000 -0.000978 -0.000978 -0.999999 0.000000
110.47100067 199.25399780 188.75000000 -0.499409 -0.506090 -0.703181 0.000000
103.69300079 201.28700256 188.75000000 -0.064308 -0.787410 -0.613065 0.000000
116.56999969 158.58999634 203.75000000 -0.544026 -0.254087 -0.799672 0.000000
211.45300293 90.81639862 171.25000000 -0.319954 0.006225 0.947413 0.000000
128.09199524 217.55299377 168.75000000 -0.592578 -0.595955 -0.541931 0.000000
48.79679871 216.87500000 113.75000000 0.786940 -0.497269 0.365307 0.000000
94.20500183 107.08200073 133.75000000 0.000978 0.000978 0.999999 0.000000
69.80660248 136.22500610 208.75000000 0.684287 -0.159313 -0.711598 0.000000
185.69900513 69.12889862 148.75000000 -0.747743 -0.159256 0.644606 0.000000
192.47599792 69.80660248 163.75000000 -0.418923 0.774274 -0.474345 0.000000
33.20899963 181.63299561 133.75000000 0.990067 0.014543 0.139840 0.000000
76.58390045 85.39450073 123.75000000 -0.220075 0.555575 0.801813 0.000000
41.34180069 156.55700684 68.75000000 0.101969 -0.025218 0.994468 0.000000
65.74019623 96.91600037 133.75000000 0.554251 0.487272 -0.674813 0.000000
107.08200073 198.57600403 191.25000000 -0.474792 -0.176013 -0.862318 0.000000
93.52729797 112.50399780 133.75000000 -0.418483 0.001296 0.908224 0.000000
37.27539825 150.79600525 112.50000000 0.972708 0.195551 -0.124900 0.000000
159.26699829 81.32810211 138.75000000 0.000978 0.000978 0.999999 0.000000
121.99199677 148.42399597 198.75000000 -0.777160 0.276992 -0.565064 0.000000
77.60050201 105.04900360 182.50000000 0.306287 0.918860 -0.248768 0.000000
41.34180069 145.03500366 133.75000000 0.956645 0.291046 -0.011052 0.000000
98.94920349 246.69500732 151.25000000 -0.043861 -0.913096 -0.405378 0.000000
63.70700073 130.80299377 203.75000000 0.000978 0.000978 -0.999999 0.000000
136.90199280 167.39999390 158.75000000 -0.943667 0.179420 -0.278032 0.000000
79.97260284 210.77499390 181.25000000 0.146541 -0.702488 -0.696445 0.000000
157.91200256 88.78320313 136.25000000 -0.000978 -0.000978 0.999999 0.000000
95.89939880 122.66999817 205.00000000 -0.144443 0.430470 -0.890972 0.000000
90.13860321 121.99199677 206.25000000 -0.365889 0.671070 -0.644818 0.000000
124.02500153 119.95899963 196.25000000 -0.000978 -0.000978 -0.999999 0.000000
40.32519913 145.71299744 177.50000000 0.892127 0.075838 -0.445374 0.000000
131.47999573 116.56999969 133.75000000 0.000978 0.000978 0.999999 0.000000
140.96899414 170.11099243 133.75000000 -0.310801 0.169905 -0.935166 0.000000
162.65600586 143.00199890 158.75000000 0.230022 -0.921516 0.312887 0.000000
138.25799561 75.90619659 176.25000000 0.031939 0.826246 -0.562403 0.000000
123.34799957 186.37699890 113.75000000 -0.503831 0.056907 0.861926 0.000000
96.23819733 129.44700623 208.75000000 -0.219480 0.617967 -0.754947 0.000000
81.32810211 196.54299927 193.75000000 0.092080 -0.497231 -0.862718 0.000000
92.17179871 249.06700134 147.50000000 0.001347 -0.844879 -0.534955 0.000000
122.66999817 123.34799957 133.75000000 0.000978 0.000978 0.999999 0.000000
92.17179871 206.70899963 186.25000000 -0.026720 -0.741138 -0.670821 0.000000
105.04900360 248.05099487 131.25000000 -0.335775 -0.922319 0.191264 0.000000
130.12500000 151.81199646 146.25000000 -0.237843 0.248970 0.938853 0.000000
195.18699646 107.76000214 191.25000000 -0.205700 -0.131597 -0.969727 0.000000
94.88279724 102.33799744 196.25000000 -0.000978 -0.000978 -0.999999 0.000000
70.82319641 144.35699463 210.00000000 0.307405 0.049746 -0.950278 0.000000
173.50000000 145.03500366 183.75000000 -0.073260 -0.610499 -0.788621 0.000000
130.12500000 189.08799744 121.25000000 -0.721469 -0.420994 0.549769 0.000000
129.44700623 165.36700439 116.25000000 -0.594083 0.001366 0.804402 0.000000
66.41790009 193.15400696 78.75000000 -0.466414 -0.249264 0.848720 0.000000
140.96899414 172.82200623 166.25000000 -0.644983 0.628317 0.434989 0.000000
81.32810211 160.96200562 212.50000000 0.168650 -0.327542 -0.929663 0.000000
121.99199677 121.31400299 196.25000000 -0.000978 -0.000978 -0.999999 0.000000
143.00199890 132.15800476 143.75000000 0.491415 -0.679260 0.545085 0.000000
136.22500610 103.35399628 135.00000000 0.001294 0.410095 0.912042 0.000000
58.28509903 191.46000671 190.00000000 0.495087 -0.565574 -0.659557 0.000000
153.84599304 116.56999969 196.25000000 -0.000978 -0.000978 -0.999999 0.000000
83.36129761 175.53300476 208.75000000 0.207816 -0.835813 -0.508162 0.000000
196.54299927 71.83979797 156.25000000 -0.397475 -0.239676 0.885759 0.000000
121.31400299 215.51899719 171.25000000 -0.418677 -0.272521 -0.866281 0.000000
191.12100220 115.89299774 193.75000000 -0.416818 -0.268279 -0.868498 0.000000
48.11909866 161.30099487 193.75000000 0.572524 0.459020 -0.679350 0.000000
109.79299927 132.49699402 205.00000000 -0.494619 0.538213 -0.682407 0.000000
65.06250000 231.10699463 111.25000000 0.449871 -0.808487 0.379428 0.000000
196.54299927 82.00579834 181.25000000 -0.199821 0.667619 -0.717187 0.000000
73.19529724 235.51300049 162.50000000 0.220783 -0.798217 -0.560450 0.000000
35.24219894 156.55700684 86.25000000 0.999999 0.000978 0.000978 0.000000
160.28399658 119.95899963 137.50000000 -0.265664 -0.309216 0.913131 0.000000
92.17179871 91.15519714 130.00000000 -0.495091 -0.329530 0.803925 0.000000
69.12889862 156.55700684 208.75000000 0.575531 -0.306202 -0.758290 0.000000
109.79299927 74.55069733 163.75000000 0.206608 0.809597 -0.549424 0.000000
97.93260193 180.27699280 205.00000000 -0.064127 -0.585689 -0.807995 0.000000
46.08589935 158.58999634 68.75000000 0.000978 0.000978 0.999999 0.000000
134.86900330 195.18699646 176.25000000 -0.668438 -0.251257 -0.700043 0.000000
115.21499634 217.55299377 121.25000000 -0.394328 -0.423064 0.815796 0.000000
113.85900116 178.92199707 103.75000000 0.000978 0.000978 0.999999 0.000000
135.54699707 124.70300293 138.75000000 0.359303 0.638214 0.680871 0.000000
84.71679688 138.25799561 213.75000000 -0.000978 -0.000978 -0.999999 0.000000
32.87009811 185.02099609 135.00000000 0.979240 -0.059019 0.193921 0.000000
111.82599640 98.94920349 133.75000000 0.000978 0.000978 0.999999 0.000000
71.83979797 198.57600403 191.25000000 0.156278 -0.723736 -0.672149 0.000000
129.44700623 170.44999695 190.00000000 -0.562562 -0.382149 -0.733135 0.000000
117.24800110 187.05499268 108.75000000 -0.539611 -0.136741 0.830736 0.000000
40.66400146 159.26699829 68.75000000 0.416151 0.104386 0.903284 0.000000
67.09570313 106.74299622 160.00000000 0.000978 0.000978 -0.999999 0.000000
133.51400757 103.01599884 196.25000000 -0.000978 -0.000978 -0.999999 0.000000
138.93499756 187.05499268 176.25000000 -0.519945 -0.270122 -0.810365 0.000000
176.88900757 66.07910156 162.50000000 0.231894 0.577401 -0.782837 0.000000
189.08799744 71.83979797 151.25000000 -0.576989 -0.031978 0.816126 0.000000
145.71299744 76.58390045 178.75000000 0.107556 0.749943 -0.652701 0.000000
112.50399780 208.74200439 116.25000000 -0.466804 -0.483299 0.740619 0.000000
138.25799561 136.22500610 146.25000000 0.000978 0.000978 0.999999 0.000000
55.91310120 117.92600250 147.50000000 0.772204 0.630753 -0.076499 0.000000
217.55299377 115.21499634 171.25000000 -0.430857 -0.052675 0.900882 0.000000
96.91600037 238.56199646 161.25000000 0.017880 -0.562521 -0.826590 0.000000
119.95899963 175.53300476 193.75000000 -0.422581 -0.422581 -0.801779 0.000000
126.05899811 118.60299683 196.25000000 -0.000978 -0.000978 -0.999999 0.000000
119.28099823 130.80299377 196.25000000 -0.000978 -0.000978 -0.999999 0.000000
131.47999573 73.87300110 171.25000000 -0.001325 0.878249 -0.478202 0.000000
164.01199341 107.76000214 196.25000000 -0.000978 -0.000978 -0.999999 0.000000
154.52299500 150.45700073 183.75000000 -0.278732 -0.622767 -0.731074 0.000000
145.03500366 62.01269913 150.00000000 0.196656 0.956523 -0.215385 0.000000
182.30999756 138.25799561 188.75000000 0.116624 -0.502490 -0.856681 0.000000
119.95899963 93.86620331 137.50000000 -0.406974 0.511578 0.756743 0.000000
128.76899719 100.98200226 136.25000000 -0.174890 0.365422 0.914265 0.000000
69.12889862 186.37699890 81.25000000 -0.622453 0.046790 0.781257 0.000000
185.02099609 92.17179871 191.25000000 -0.096419 0.368021 -0.924805 0.000000
50.15230179 187.05499268 186.25000000 0.759300 -0.168902 -0.628439 0.000000
47.78020096 130.12500000 147.50000000 -0.000978 -0.000978 0.999999 0.000000
33.54779816 168.07800293 157.50000000 0.978597 0.188895 -0.081651 0.000000
131.47999573 223.65199280 136.25000000 -0.647506 -0.446729 0.617389 0.000000
162.65600586 121.99199677 138.75000000 -0.251453 -0.297433 0.921035 0.000000
112.50399780 145.71299744 143.75000000 -0.765858 0.032321 0.642197 0.000000
94.88279724 182.30999756 203.75000000 -0.188714 -0.633648 -0.750252 0.000000
107.76000214 198.57600403 108.75000000 -0.814583 -0.490011 0.310393 0.000000
149.44000244 129.44700623 137.50000000 0.141784 -0.380431 0.913876 0.000000
77.26170349 121.99199677 113.75000000 -0.683659 0.683659 0.255381 0.000000
37.61420059 160.62300110 70.00000000 0.730827 -0.123541 0.671289 0.000000
52.86330032 120.29799652 160.00000000 0.717825 0.634692 0.286171 0.000000
86.07219696 222.97399902 176.25000000 -0.126421 -0.641026 -0.757036 0.000000
134.19099426 148.42399597 191.25000000 -0.157026 -0.177453 -0.971521 0.000000
182.98800659 86.75000000 148.75000000 -0.882515 0.047740 0.467856 0.000000
168.07800293 136.22500610 193.75000000 -0.088477 -0.476088 -0.874935 0.000000
117.24800110 94.20500183 196.25000000 -0.092338 0.341250 -0.935426 0.000000
85.73339844 100.98200226 182.50000000 0.435798 0.897552 -0.066941 0.000000
67.77339935 172.48300171 205.00000000 0.342543 -0.367120 -0.864805 0.000000
130.80299377 143.00199890 191.25000000 -0.000978 -0.000978 -0.999999 0.000000
133.51400757 168.07800293 121.25000000 -0.813176 -0.122050 0.569076 0.000000
45.40819931 160.62300110 68.75000000 0.000978 0.000978 0.999999 0.000000
78.95600128 100.98200226 170.00000000 0.420780 0.839995 -0.342568 0.000000
113.85900116 77.93939972 171.25000000 -0.000978 -0.000978 -0.999999 0.000000
41.34180069 138.93499756 176.25000000 0.804885 0.403246 -0.435377 0.000000
135.54699707 77.26170349 178.75000000 -0.020867 0.791571 -0.610720 0.000000
88.78320313 243.30700684 118.75000000 -0.119116 -0.807343 0.577934 0.000000
107.08200073 134.86900330 136.25000000 0.052951 -0.734157 0.676912 0.000000
143.67999268 185.02099609 146.25000000 -0.873043 -0.457726 -0.168174 0.000000
215.18099976 124.70300293 182.50000000 -0.746627 -0.264728 -0.610301 0.000000
138.93499756 153.16799927 186.25000000 -0.000978 -0.000978 -0.999999 0.000000
85.39450073 213.48599243 181.25000000 0.346732 -0.304704 -0.887092 0.000000
97.59369659 216.19700623 108.75000000 -0.641647 -0.236892 0.729501 0.000000
90.47750092 122.66999817 130.00000000 -0.478171 0.156466 0.864217 0.000000
36.25880051 156.55700684 150.00000000 0.956575 0.286846 0.051809 0.000000
117.24800110 73.87300110 166.25000000 0.614159 0.610794 -0.499740 0.000000
35.24219894 184.34399414 168.75000000 0.768381 0.116960 -0.629214 0.000000
125.38099670 210.09800720 171.25000000 -0.801489 -0.339398 -0.492366 0.000000
67.77339935 138.93499756 93.75000000 -0.412026 0.258082 0.873858 0.000000
187.05499268 141.98500061 182.50000000 -0.315529 -0.911689 -0.263183 0.000000
61.67380142 110.47100067 143.75000000 0.758252 0.506047 -0.411061 0.000000
118.94200134 164.01199341 200.00000000 -0.683095 -0.311672 -0.660486 0.000000
90.81639862 159.26699829 98.75000000 0.437251 0.509852 0.740852 0.000000
162.65600586 68.79000092 165.00000000 -0.034763 0.821795 -0.568721 0.000000
111.82599640 220.26400757 173.75000000 -0.507514 -0.356065 -0.784632 0.000000
77.26170349 122.66999817 111.25000000 -0.744967 0.615270 0.257812 0.000000
142.32400513 181.63299561 176.25000000 -0.955552 -0.292567 0.036414 0.000000
128.76899719 152.49000549 121.25000000 -0.804885 0.403246 0.435377 0.000000
117.24800110 141.64599609 146.25000000 -0.185147 -0.198278 0.962500 0.000000
182.98800659 75.56729889 177.50000000 -0.092920 0.930551 -0.354175 0.000000
82.68350220 109.11499786 131.25000000 -0.056046 -0.255319 0.965231 0.000000
42.35839844 192.47599792 97.50000000 0.937461 -0.281933 0.204158 0.000000
96.23819733 212.80799866 181.25000000 -0.239074 -0.516708 -0.822105 0.000000
113.18199921 143.00199890 206.25000000 -0.680038 0.156000 -0.716388 0.000000
159.94500732 134.19099426 143.75000000 -0.072779 -0.575098 0.814841 0.000000
44.73040009 135.88600159 150.00000000 0.875310 0.462890 0.139877 0.000000
151.13499451 93.52729797 196.25000000 -0.000978 -0.000978 -0.999999 0.000000
103.01599884 237.54600525 120.00000000 -0.879960 0.001323 0.475046 0.000000
82.00579834 97.59369659 166.25000000 0.328484 0.536791 -0.777145 0.000000
136.22500610 164.68899536 151.25000000 -0.816304 0.478414 -0.323679 0.000000
56.92969894 96.91600037 123.75000000 0.716995 0.619885 -0.318844 0.000000
81.32810211 122.66999817 206.25000000 -0.202279 0.616103 -0.761249 0.000000
172.48300171 79.97260284 140.00000000 -0.493884 0.036939 0.868743 0.000000
79.97260284 163.33399963 211.25000000 0.203399 -0.334257 -0.920273 0.000000
60.31829834 235.17399597 121.25000000 0.363311 -0.805045 0.468943 0.000000
45.74700165 226.36300659 142.50000000 0.760410 -0.644538 -0.079662 0.000000
199.25399780 136.22500610 188.75000000 0.001323 -0.879960 -0.475046 0.000000
84.71679688 117.24800110 201.25000000 -0.153097 0.827914 -0.539556 0.000000
33.20899963 197.89799500 138.75000000 0.897894 -0.218248 0.382301 0.000000
74.55069733 230.42999268 166.25000000 0.027413 -0.390303 -0.920278 0.000000
142.32400513 192.47599792 138.75000000 -0.771859 -0.283702 0.568988 0.000000
131.47999573 68.45110321 158.75000000 0.070732 0.927525 -0.367006 0.000000
79.29489899 232.12399292 105.00000000 -0.261452 -0.641746 0.720974 0.000000
53.54100037 159.26699829 198.75000000 0.606486 0.310482 -0.731966 0.000000
185.02099609 115.21499634 156.25000000 0.000978 0.000978 0.999999 0.000000
172.14399719 120.29799652 145.00000000 -0.613013 -0.116694 0.781407 0.000000
113.18199921 91.49410248 191.25000000 0.179683 0.816879 -0.548109 0.000000
125.04199982 135.54699707 192.50000000 -0.262235 0.020735 -0.964781 0.000000
171.46699524 138.25799561 191.25000000 0.443393 -0.888203 -0.120410 0.000000
31.17580032 178.24400330 161.25000000 0.181772 -0.146180 0.972415 0.000000
58.96289825 171.46699524 201.25000000 0.676063 -0.067750 -0.733723 0.000000
88.78320313 246.69500732 151.25000000 0.001347 -0.844879 -0.534955 0.000000
77.26170349 117.92600250 201.25000000 0.290634 0.871902 -0.394106 0.000000
212.80799866 89.46089935 171.25000000 -0.111370 0.023156 0.993509 0.000000
48.11909866 124.36399841 177.50000000 0.888203 0.443393 -0.120410 0.000000
54.89649963 116.56999969 138.75000000 0.922099 0.379846 -0.073822 0.000000
69.12889862 89.46089935 116.25000000 -0.658254 -0.244675 0.711924 0.000000
113.85900116 180.95500183 103.75000000 0.000978 0.000978 0.999999 0.000000
35.91989899 155.53999329 157.50000000 0.987191 0.140019 -0.076481 0.000000
139.61300659 175.53300476 136.25000000 -0.889493 0.242049 -0.387575 0.000000
162.65600586 113.85900116 138.75000000 -0.540989 -0.108778 0.833965 0.000000
39.98630142 113.51999664 92.50000000 0.658324 0.751763 0.038225 0.000000
186.37699890 143.00199890 181.25000000 -0.315529 -0.911689 -0.263183 0.000000
84.71679688 88.10540009 156.25000000 -0.000978 -0.000978 -0.999999 0.000000
100.30500031 225.00799561 116.25000000 -0.649495 -0.355014 0.672399 0.000000
75.22850037 86.07219696 121.25000000 -0.426475 0.452420 0.783221 0.000000
113.18199921 242.96800232 155.00000000 0.347144 -0.903745 -0.250471 0.000000
41.34180069 132.15800476 113.75000000 0.965769 0.119596 -0.230190 0.000000
45.06930161 128.76899719 170.00000000 0.802864 0.594766 0.040776 0.000000
111.82599640 178.92199707 103.75000000 0.000978 0.000978 0.999999 0.000000
43.71379852 171.46699524 185.00000000 0.831522 -0.308493 -0.461957 0.000000
82.68350220 234.15699768 107.50000000 -0.293513 -0.425671 0.855952 0.000000
95.22160339 250.76199341 137.50000000 0.195370 -0.979245 0.053936 0.000000
87.76660156 221.61900330 177.50000000 -0.178546 -0.413705 -0.892731 0.000000
84.71679688 207.04800415 97.50000000 -0.714259 -0.474508 0.514467 0.000000
82.00579834 157.23399353 213.75000000 0.277411 0.059536 -0.958905 0.000000
205.35299683 116.56999969 171.25000000 -0.305673 0.018715 0.951953 0.000000
50.49119949 163.33399963 70.00000000 -0.637467 0.052766 0.768669 0.000000
197.89799500 89.46089935 161.25000000 -0.269285 -0.651701 0.709064 0.000000
94.88279724 151.13499451 101.25000000 -0.294614 0.348452 0.889823 0.000000
180.27699280 128.43099976 192.50000000 -0.145620 -0.350874 -0.925031 0.000000
135.20799255 65.74019623 150.00000000 0.316852 0.948031 -0.029034 0.000000
127.41400146 190.44299316 118.75000000 -0.750069 -0.428376 0.503875 0.000000
125.38099670 189.42700195 185.00000000 -0.408183 -0.424190 -0.808362 0.000000
79.97260284 100.98200226 171.25000000 0.420780 0.839995 -0.342568 0.000000
118.60299683 155.20100403 203.75000000 -0.327654 -0.199996 -0.923388 0.000000
109.79299927 126.05899811 131.25000000 -0.735582 0.006926 0.677400 0.000000
86.07219696 132.15800476 211.25000000 -0.043419 0.377610 -0.924946 0.000000
33.88669968 192.47599792 133.75000000 0.963989 -0.130688 0.231616 0.000000
133.51400757 132.83599854 146.25000000 -0.101751 -0.709311 0.697513 0.000000
145.03500366 70.14550018 167.50000000 -0.055433 0.901797 -0.428590 0.000000
178.92199707 83.36129761 186.25000000 -0.153808 0.568941 -0.807867 0.000000
64.38469696 107.42099762 145.00000000 0.771946 0.565032 -0.291270 0.000000
67.09570313 147.74600220 208.75000000 0.732785 -0.192838 -0.652564 0.000000
100.98200226 248.72799683 146.25000000 -0.122059 -0.925729 -0.357949 0.000000
77.26170349 157.91200256 211.25000000 -0.000978 -0.000978 -0.999999 0.000000
103.01599884 190.44299316 196.25000000 -0.207816 -0.835813 -0.508162 0.000000
137.58000183 206.70899963 163.75000000 -0.799003 -0.467827 -0.377798 0.000000
142.66299438 195.18699646 140.00000000 -0.685894 -0.251864 0.682726 0.000000
73.19529724 192.47599792 86.25000000 -0.770491 -0.225699 0.596157 0.000000
75.90619659 84.37789917 137.50000000 0.823342 0.499608 -0.269259 0.000000
143.00199890 130.12500000 143.75000000 0.491415 -0.679260 0.545085 0.000000
113.18199921 219.58599854 121.25000000 -0.467548 -0.480765 0.741798 0.000000
81.32810211 121.99199677 206.25000000 -0.202279 0.616103 -0.761249 0.000000
121.31400299 186.37699890 191.25000000 -0.533170 -0.328228 -0.779741 0.000000
65.74019623 147.74600220 208.75000000 0.595704 -0.122688 -0.793779 0.000000
130.80299377 229.41299438 150.00000000 -0.756533 -0.605541 -0.246935 0.000000
184.34399414 133.51400757 161.25000000 -0.517106 -0.412043 0.750214 0.000000
103.69300079 229.75199890 118.75000000 0.000978 0.000978 0.999999 0.000000
57.60739899 180.95500183 196.25000000 0.498208 -0.555242 -0.665955 0.000000
82.68350220 172.14399719 93.75000000 -0.751579 -0.126503 0.647400 0.000000
78.61710358 121.99199677 206.25000000 0.129019 0.494332 -0.859645 0.000000
184.34399414 88.10540009 188.75000000 -0.134504 0.560188 -0.817372 0.000000
140.96899414 191.79899597 136.25000000 -0.709495 -0.318384 0.628687 0.000000
55.57419968 210.09800720 93.75000000 0.472426 -0.752261 0.459258 0.000000
121.65299988 149.77900696 200.00000000 -0.777160 0.276992 -0.565064 0.000000
186.71600342 87.42769623 152.50000000 -0.633627 -0.243703 0.734252 0.000000
98.61029816 88.78320313 175.00000000 0.723076 0.575510 -0.382033 0.000000
203.99800110 91.49410248 166.25000000 -0.626848 -0.097899 0.772967 0.000000
77.26170349 202.64199829 188.75000000 0.225511 -0.604993 -0.763628 0.000000
36.25880051 162.65600586 87.50000000 0.887602 -0.444511 0.120714 0.000000
98.94920349 210.09800720 108.75000000 -0.124968 -0.560152 0.818910 0.000000
