114.22299957 235.49600220 201.25000000 0.397190 0.242479 0.885124 0.000000
73.32810211 117.39600372 149.80000305 -0.526201 -0.820750 0.222446 0.000000
184.72999573 181.55799866 144.89999390 0.302045 0.903188 -0.304992 0.000000
40.54199982 152.29699707 99.40000153 -0.876849 -0.468880 0.106242 0.000000
139.60499573 95.53810120 170.10000610 -0.028985 -0.837807 0.545196 0.000000
202.00500488 169.21899414 161.69999695 -0.847534 0.518339 -0.114063 0.000000
53.23339844 210.81799316 203.69999695 -0.513609 0.337606 0.788814 0.000000
295.42800903 132.55499268 131.25000000 0.456025 0.745773 -0.485658 0.000000
126.56199646 218.57400513 126.69999695 0.424212 0.303890 -0.853051 0.000000
261.58401489 120.92099762 71.40000153 0.045906 0.964032 -0.261790 0.000000
146.65600586 202.35699463 185.14999390 0.941021 0.328631 -0.080508 0.000000
174.85899353 100.12100220 80.84999847 0.549174 0.472390 -0.689388 0.000000
180.14700317 191.78100586 160.30000305 0.315416 0.830126 -0.459786 0.000000
239.72700500 103.29399872 158.89999390 0.020898 -0.784355 0.619961 0.000000
201.65199280 124.79900360 91.34999847 0.057990 0.171602 -0.983458 0.000000
163.57800293 136.08000183 205.44999695 0.001268 -0.368984 0.929435 0.000000
215.04899597 138.89999390 93.44999695 0.095441 0.350846 -0.931557 0.000000
93.07029724 188.25599670 57.75000000 0.728578 0.598765 -0.332647 0.000000
245.72000122 71.91799927 66.50000000 -0.731941 0.289893 -0.616624 0.000000
129.38200378 202.35699463 207.19999695 0.486026 0.017502 0.873769 0.000000
80.37889862 266.16699219 187.60000610 -0.191778 0.530033 0.826006 0.000000
270.04501343 135.37500000 179.55000305 0.353902 -0.601796 0.715958 0.000000
185.08299255 133.96499634 111.30000305 -0.026583 0.782092 -0.622596 0.000000
121.97899628 221.04200745 125.30000305 0.475920 0.810178 -0.342217 0.000000
86.37210083 112.81199646 56.70000076 -0.749069 -0.660607 -0.049938 0.000000
131.14500427 207.99800110 115.15000153 0.365759 0.634748 -0.680673 0.000000
175.56399536 74.38569641 147.69999695 -0.161030 -0.790101 0.591447 0.000000
114.22299957 73.68070221 100.80000305 -0.482194 -0.763338 -0.429888 0.000000
81.78910065 95.53810120 109.90000153 -0.670352 -0.710791 0.213082 0.000000
44.41989899 171.33399963 194.94999695 -0.757511 -0.199020 0.621746 0.000000
254.53300476 179.79499817 179.55000305 0.547671 0.755688 -0.359155 0.000000
231.26600647 59.22660065 78.05000305 0.333751 -0.835162 -0.437167 0.000000
127.26699829 243.25199890 182.69999695 0.875957 0.481844 0.022945 0.000000
97.30079651 107.52400208 164.50000000 -0.505930 -0.739942 0.443306 0.000000
81.08399963 123.03600311 46.20000076 -0.558157 -0.668783 -0.491111 0.000000
201.30000305 91.66020203 163.80000305 0.269463 -0.668076 0.693588 0.000000
194.60200500 189.66600037 178.14999390 0.494012 0.756609 0.428362 0.000000
145.24600220 209.76100159 142.10000610 0.453728 0.870507 -0.190654 0.000000
56.40620041 227.03500366 200.55000305 -0.499201 0.369958 0.783536 0.000000
122.68399811 87.78220367 151.19999695 -0.234279 -0.831459 0.503775 0.000000
227.74000549 90.95510101 152.94999695 0.300640 -0.641473 0.705781 0.000000
231.26600647 87.78220367 67.19999695 -0.315485 0.948930 -0.001237 0.000000
270.75000000 87.07710266 112.00000000 0.364964 -0.789415 0.493585 0.000000
236.55400085 88.13480377 145.60000610 0.347489 -0.716186 0.605251 0.000000
93.42289734 268.63500977 162.39999390 0.419540 0.704761 -0.572100 0.000000
213.63900757 155.82200623 104.65000153 -0.206148 0.661842 -0.720741 0.000000
148.77099609 117.04299927 194.94999695 -0.097567 -0.604336 0.790733 0.000000
69.09770203 160.05299377 208.94999695 -0.444897 -0.223197 0.867324 0.000000
101.88400269 131.85000610 51.79999924 0.854712 0.166809 -0.491570 0.000000
124.09400177 170.62899780 99.05000305 0.825267 -0.559237 0.078665 0.000000
131.14500427 68.04000092 107.80000305 0.041819 -0.991217 0.125456 0.000000
95.18550110 155.82200623 46.54999924 0.681074 -0.133221 -0.719993 0.000000
37.01660156 158.64300537 163.80000305 -0.919110 -0.376188 0.117128 0.000000
34.90140152 229.14999390 139.30000305 -0.962965 0.198373 0.182609 0.000000
70.86039734 212.22900391 65.80000305 0.590227 0.787475 -0.177523 0.000000
110.34500122 125.50399780 191.10000610 -0.363101 -0.655553 0.662125 0.000000
124.79900360 150.88699341 92.75000000 0.304575 0.717120 -0.626876 0.000000
211.52299500 177.32699585 172.19999695 -0.885968 0.453514 0.096881 0.000000
265.10900879 151.94400024 138.60000610 0.537327 0.741084 -0.402584 0.000000
260.17401123 186.84599304 211.75000000 -0.134836 -0.284356 0.949190 0.000000
118.10099792 75.44339752 91.69999695 -0.433370 -0.846548 -0.309106 0.000000
259.46899414 134.31700134 184.80000305 0.333135 -0.641895 0.690646 0.000000
154.76499939 116.33799744 81.90000153 0.353726 0.245113 -0.902661 0.000000
174.15400696 90.60250092 165.89999390 -0.004151 -0.712614 0.701544 0.000000
215.75399780 77.91110229 143.50000000 -0.049556 -0.797144 0.601752 0.000000
267.57699585 142.42599487 186.89999390 0.313266 -0.586369 0.747018 0.000000
147.36099243 94.83300018 169.39999390 -0.079783 -0.764463 0.639712 0.000000
248.18800354 157.93800354 201.25000000 0.028052 -0.252472 0.967198 0.000000
144.54100037 130.79200745 83.30000305 0.415494 0.295905 -0.860119 0.000000
204.82499695 163.57800293 123.19999695 -0.503836 0.787144 -0.355744 0.000000
295.42800903 128.67700195 125.30000305 0.670495 0.430914 -0.603945 0.000000
203.06199646 84.60939789 71.75000000 -0.363292 0.382002 -0.849761 0.000000
212.93400574 173.44900513 134.75000000 0.565445 0.808421 0.163484 0.000000
29.96579933 200.24200439 143.50000000 -0.923371 -0.024675 -0.383115 0.000000
286.26199341 177.32699585 207.19999695 0.388765 0.875855 0.285901 0.000000
137.49000549 71.56539917 128.10000610 -0.333079 -0.919184 0.210140 0.000000
236.20100403 166.75100708 128.80000305 0.399149 0.831430 -0.386528 0.000000
126.91400146 162.87300110 215.25000000 -0.300975 -0.298039 0.905862 0.000000
29.96579933 204.47300720 143.50000000 -0.968185 0.018086 -0.249582 0.000000
271.10299683 129.73399353 102.19999695 0.252173 0.778447 -0.574829 0.000000
251.71299744 120.21600342 173.60000610 0.192965 -0.662255 0.724004 0.000000
76.14839935 273.92300415 176.39999390 -0.159365 0.894455 0.417795 0.000000
138.19500732 126.20899963 199.14999390 -0.118583 -0.566563 0.815441 0.000000
134.66999817 139.60499573 83.65000153 0.136438 0.679189 -0.721170 0.000000
164.98800659 180.14700317 203.69999695 0.363812 0.771280 0.522272 0.000000
197.77400208 162.16799927 159.60000610 -0.671239 0.597952 0.438054 0.000000
150.88699341 203.06199646 158.55000305 0.994452 0.090001 -0.054445 0.000000
123.03600311 165.69299316 109.90000153 0.810216 0.581583 0.072877 0.000000
267.92999268 123.74099731 86.09999847 0.234167 0.909034 -0.344706 0.000000
39.48440170 236.20100403 148.05000305 -0.956564 0.199340 0.212718 0.000000
115.27999878 172.74400330 217.00000000 0.273633 -0.043731 0.960840 0.000000
119.15799713 156.17500305 97.30000305 0.954589 0.013584 -0.297615 0.000000
77.55860138 212.58099365 77.69999695 0.736855 0.515963 -0.436838 0.000000
138.54800415 215.04899597 142.80000305 0.448166 0.880377 -0.155190 0.000000
111.40200043 74.38569641 113.40000153 -0.436061 -0.890586 0.129256 0.000000
200.59500122 184.72999573 158.89999390 0.437081 0.884328 -0.164087 0.000000
268.28201294 91.66020203 127.40000153 0.476088 -0.721597 0.502630 0.000000
62.75199890 206.23500061 46.20000076 -0.182598 0.822446 -0.538740 0.000000
268.63500977 114.22299957 63.34999847 0.211902 0.595491 -0.774912 0.000000
182.61500549 118.80599976 95.90000153 0.470081 0.330798 -0.818289 0.000000
207.29299927 170.62899780 200.55000305 -0.118308 0.118308 0.985904 0.000000
132.55499268 214.34399414 199.14999390 0.565509 0.407232 0.717190 0.000000
272.16000366 150.18200684 191.44999695 0.339056 -0.595375 0.728402 0.000000
254.88600159 154.41200256 129.50000000 0.650926 0.670601 -0.355796 0.000000
274.62799072 133.96499634 109.90000153 0.300930 0.781781 -0.546132 0.000000
122.68399811 75.09079742 86.80000305 -0.316322 -0.898474 -0.304442 0.000000
259.46899414 178.38499451 184.44999695 0.436478 0.836973 -0.330096 0.000000
50.76559830 253.12300110 124.94999695 -0.590770 0.769412 -0.242890 0.000000
211.17100525 168.51400757 126.69999695 -0.345010 0.858657 -0.379047 0.000000
143.13099670 207.99800110 129.14999390 0.809423 0.500170 -0.307675 0.000000
78.26370239 248.18800354 199.14999390 -0.218472 0.587240 0.779371 0.000000
157.93800354 126.20899963 200.55000305 -0.004040 -0.518447 0.855100 0.000000
101.17900085 144.54100037 56.00000000 0.720201 0.230653 -0.654301 0.000000
67.33499908 158.64300537 207.19999695 -0.582095 -0.353823 0.732103 0.000000
200.24200439 178.73699951 196.69999695 -0.813373 0.501868 0.294199 0.000000
296.13299561 120.21600342 116.19999695 0.996817 0.059528 -0.053034 0.000000
140.66299438 217.16400146 156.80000305 0.748935 0.662466 -0.015341 0.000000
84.96189880 95.18550110 93.09999847 -0.451366 -0.777262 -0.438330 0.000000
165.34100342 107.87699890 184.10000610 0.038303 -0.719240 0.693705 0.000000
219.98399353 115.63300323 178.85000610 0.258668 -0.652224 0.712527 0.000000
101.88400269 116.33799744 177.80000305 -0.502413 -0.499075 0.706049 0.000000
128.67700195 230.56100464 163.10000610 0.832150 0.449769 -0.324398 0.000000
150.18200684 60.63669968 94.84999847 -0.326770 -0.916970 -0.228883 0.000000
239.02099609 105.76200104 162.05000305 0.379567 -0.603036 0.701624 0.000000
132.55499268 215.40100098 198.80000305 0.565509 0.407232 0.717190 0.000000
181.55799866 137.49000549 132.30000305 -0.820079 -0.521588 -0.235407 0.000000
38.42679977 233.38099670 112.69999695 -0.805018 0.429022 -0.409740 0.000000
106.81900024 141.72099304 60.20000076 0.703651 0.265259 -0.659176 0.000000
236.90600586 87.07710266 144.89999390 0.347489 -0.716186 0.605251 0.000000
53.23339844 133.25999451 157.50000000 -0.741682 -0.662058 0.107640 0.000000
56.40620041 167.45599365 203.00000000 -0.471304 -0.356274 0.806809 0.000000
93.77539825 179.79499817 218.05000305 -0.207435 0.165687 0.964115 0.000000
119.86299896 238.31599426 197.05000305 0.611233 0.409145 0.677491 0.000000
64.51460266 199.53700256 210.00000000 -0.194226 0.097731 0.976076 0.000000
63.10449982 119.15799713 114.80000305 -0.828470 -0.536944 0.159150 0.000000
231.97099304 69.45020294 119.00000000 0.233058 -0.842359 0.485918 0.000000
252.41799927 126.20899963 86.44999695 0.091810 0.911247 -0.401497 0.000000
291.90200806 161.46299744 194.94999695 0.749602 -0.456351 0.479416 0.000000
38.42679977 158.64300537 128.10000610 -0.906706 -0.421018 0.025076 0.000000
115.27999878 245.36700439 157.50000000 0.726253 0.521116 -0.448325 0.000000
236.20100403 79.67379761 135.44999695 0.331359 -0.810166 0.483563 0.000000
181.91000366 83.19920349 77.34999847 0.705724 -0.001381 -0.708486 0.000000
54.99610138 195.30700684 44.45000076 -0.767710 0.236098 -0.595718 0.000000
47.94530106 242.89900208 180.60000610 -0.876120 0.385856 0.289014 0.000000
41.24710083 157.93800354 177.10000610 -0.862964 -0.373797 0.339955 0.000000
45.12500000 181.55799866 50.40000153 -0.842530 0.213279 -0.494627 0.000000
230.56100464 180.14700317 157.50000000 0.147354 0.969975 -0.193482 0.000000
105.76200104 170.62899780 218.75000000 -0.064918 -0.064918 0.995777 0.000000
291.19699097 163.57800293 198.44999695 0.606755 -0.417248 0.676574 0.000000
146.65600586 95.89060211 69.65000153 0.042949 0.530630 -0.846515 0.000000
111.40200043 78.26370239 89.25000000 -0.361698 -0.814220 -0.454115 0.000000
236.90600586 116.69000244 173.60000610 0.244821 -0.674443 0.696556 0.000000
105.05699921 83.90429688 135.44999695 -0.338718 -0.806243 0.485018 0.000000
68.39260101 139.60499573 197.05000305 -0.435356 -0.672217 0.598823 0.000000
237.61099243 110.34500122 68.59999847 -0.552742 0.348503 -0.756982 0.000000
249.24499512 71.91799927 82.59999847 0.593249 -0.647028 -0.478969 0.000000
41.95209885 160.75799561 58.09999847 -0.807321 -0.260779 -0.529365 0.000000
197.77400208 158.64300537 149.10000610 -0.812231 0.556054 -0.176310 0.000000
187.19799805 179.08999634 195.30000305 -0.218867 -0.613139 0.759051 0.000000
40.89450073 207.29299927 192.14999390 -0.897951 0.131511 0.419987 0.000000
47.94530106 257.70599365 143.50000000 -0.805527 0.587273 -0.078973 0.000000
55.34859848 135.37500000 62.29999924 -0.821825 -0.343615 -0.454458 0.000000
87.07710266 238.31599426 119.00000000 0.475691 0.702687 -0.529102 0.000000
252.41799927 174.15400696 166.94999695 0.441420 0.773707 -0.454451 0.000000
247.48199463 163.57800293 202.64999390 0.017684 -0.211026 0.977320 0.000000
155.82200623 66.27729797 127.75000000 -0.228195 -0.908420 0.350287 0.000000
77.55860138 178.38499451 215.25000000 -0.277895 0.182069 0.943200 0.000000
49.70800018 137.49000549 155.39999390 -0.730415 -0.677930 0.083101 0.000000
246.07200623 189.31300354 190.39999390 0.397023 0.753201 -0.524463 0.000000
268.63500977 88.13480377 118.65000153 0.518354 -0.797346 0.309110 0.000000
255.23800659 173.44900513 167.64999390 0.441420 0.773707 -0.454451 0.000000
60.98929977 122.68399811 123.19999695 -0.716370 -0.673418 0.182544 0.000000
222.10000610 114.92800140 177.44999695 0.244339 -0.638434 0.729864 0.000000
95.89060211 98.35839844 147.00000000 -0.591312 -0.635113 0.496972 0.000000
134.66999817 185.43600464 99.75000000 0.630732 0.265320 -0.729234 0.000000
40.54199982 162.16799927 58.79999924 -0.654134 -0.374026 -0.657429 0.000000
222.10000610 62.39939880 106.40000153 0.149144 -0.976326 0.156663 0.000000
165.69299316 57.46390152 106.40000153 0.069869 -0.937304 0.341437 0.000000
65.21970367 145.24600220 39.20000076 -0.224613 0.908597 -0.352136 0.000000
37.01660156 157.93800354 139.30000305 -0.918555 -0.369374 -0.140780 0.000000
268.98699951 150.18200684 140.69999695 0.466584 0.789479 -0.398776 0.000000
287.67199707 114.22299957 136.14999390 0.682995 -0.663619 0.305168 0.000000
163.57800293 112.45999908 189.00000000 -0.012506 -0.746200 0.665605 0.000000
33.13869858 224.21499634 135.44999695 -0.980227 0.108914 0.165207 0.000000
120.56800079 186.84599304 214.55000305 0.193129 0.187874 0.963018 0.000000
69.09770203 135.72799683 193.19999695 -0.758649 -0.565363 0.323755 0.000000
59.22660065 237.96400452 196.69999695 -0.397265 0.478340 0.783180 0.000000
70.50779724 223.86199951 82.59999847 0.528804 0.751459 -0.394557 0.000000
142.07299805 201.65199280 119.69999695 0.820140 0.366446 -0.439417 0.000000
103.29399872 186.84599304 72.09999847 0.540148 0.712996 -0.447076 0.000000
111.05000305 173.44900513 68.59999847 0.746388 0.289285 -0.599348 0.000000
271.45498657 176.27000427 208.94999695 -0.129857 -0.389572 0.911795 0.000000
203.06199646 178.73699951 197.39999390 -0.023623 0.593365 0.804587 0.000000
61.34180069 124.44599915 134.39999390 -0.707106 -0.707106 -0.001384 0.000000
227.74000549 120.56800079 85.05000305 -0.092377 0.684763 -0.722887 0.000000
34.19630051 193.89599609 99.40000153 -0.992140 0.046277 -0.116258 0.000000
211.87600708 148.06599426 98.00000000 -0.295790 0.583586 -0.756264 0.000000
59.93159866 268.98699951 161.69999695 -0.528454 0.843522 0.095952 0.000000
46.18259811 255.23800659 153.30000305 -0.880780 0.444030 0.164509 0.000000
131.85000610 230.91299438 172.19999695 0.687755 0.594949 -0.415967 0.000000
44.06740189 148.06599426 91.69999695 -0.858054 -0.502800 -0.104571 0.000000
287.67199707 104.70400238 112.00000000 0.658250 -0.751679 0.041052 0.000000
123.03600311 168.51400757 101.50000000 0.825267 -0.559237 0.078665 0.000000
84.60939789 169.21899414 216.64999390 -0.390347 -0.043666 0.919632 0.000000
195.30700684 185.43600464 180.94999695 0.658593 0.581506 0.477605 0.000000
73.68070221 255.94299316 192.50000000 -0.322294 0.503287 0.801766 0.000000
120.56800079 167.10400391 113.75000000 0.793005 0.559310 0.241485 0.000000
93.42289734 90.25000000 88.90000153 -0.664542 -0.677477 -0.315293 0.000000
286.26199341 149.12399292 154.00000000 0.276529 0.813964 -0.510876 0.000000
109.63999939 135.37500000 63.70000076 0.951833 0.134455 -0.275566 0.000000
213.63900757 105.40899658 79.80000305 -0.229331 0.481443 -0.845943 0.000000
111.40200043 186.14100647 215.25000000 0.001182 0.240031 0.970765 0.000000
101.53099823 149.47700500 56.34999847 0.782165 0.035106 -0.622081 0.000000
138.19500732 161.46299744 120.05000305 0.319776 0.867525 -0.380977 0.000000
233.02799988 161.46299744 115.50000000 0.245267 0.822183 -0.513672 0.000000
236.20100403 91.30760193 149.80000305 0.326404 -0.703149 0.631697 0.000000
274.27499390 115.98500061 71.40000153 0.398411 0.775681 -0.489476 0.000000
280.26901245 100.12100220 121.80000305 0.718571 -0.645603 0.258559 0.000000
145.95100403 63.80960083 93.80000305 -0.428175 -0.845451 -0.319185 0.000000
215.04899597 112.81199646 83.65000153 -0.234667 0.461764 -0.855398 0.000000
40.54199982 229.85499573 103.59999847 -0.881838 0.366302 -0.296961 0.000000
217.16400146 77.55860138 143.14999390 -0.049556 -0.797144 0.601752 0.000000
88.83979797 100.12100220 75.94999695 -0.644442 -0.711605 -0.279845 0.000000
81.43650055 104.35199738 78.40000153 -0.742771 -0.518787 -0.423264 0.000000
34.90140152 207.29299927 98.00000000 -0.963397 0.093150 -0.251376 0.000000
66.27729797 208.35099792 51.09999847 0.339530 0.825926 -0.450074 0.000000
177.67999268 101.88400269 176.39999390 0.111161 -0.718839 0.686232 0.000000
59.93159866 200.94700623 208.94999695 -0.345770 0.112545 0.931545 0.000000
126.20899963 100.47399902 72.09999847 0.080889 0.420899 -0.903494 0.000000
159.34800720 72.97560120 142.10000610 -0.165424 -0.836064 0.523099 0.000000
237.25900269 167.80900574 133.69999695 0.432294 0.834721 -0.341119 0.000000
250.30299377 170.98100281 204.39999390 0.014793 -0.162720 0.986561 0.000000
63.10449982 125.50399780 158.19999695 -0.415362 -0.909655 -0.001294 0.000000
288.72900391 141.01600647 140.00000000 0.383153 0.806385 -0.450485 0.000000
107.87699890 121.97899628 56.34999847 0.919979 0.071181 -0.385451 0.000000
281.32598877 117.39600372 82.59999847 0.261018 0.835566 -0.483424 0.000000
93.77539825 87.07710266 117.59999847 -0.616769 -0.746117 0.250809 0.000000
135.37500000 225.62500000 170.44999695 0.854666 0.505882 -0.116742 0.000000
123.38899994 145.95100403 86.44999695 0.229001 0.822253 -0.521016 0.000000
114.57499695 83.90429688 72.80000305 -0.278113 -0.867774 -0.411851 0.000000
243.25199890 99.41600037 153.64999390 0.352119 -0.646916 0.676396 0.000000
68.04000092 134.66999817 187.60000610 -0.623318 -0.731721 0.275790 0.000000
53.23339844 246.77699280 106.40000153 -0.491558 0.729889 -0.475007 0.000000
41.95209885 246.77699280 147.00000000 -0.934793 0.213787 0.283652 0.000000
139.60499573 214.34399414 138.25000000 0.586932 0.799824 -0.125666 0.000000
177.67999268 200.24200439 185.85000610 0.338267 0.938461 -0.069759 0.000000
195.30700684 158.64300537 162.05000305 -0.873337 0.463552 -0.149673 0.000000
59.93159866 133.61199951 175.69999695 -0.596307 -0.686002 0.416916 0.000000
219.27900696 103.29399872 77.00000000 -0.233801 0.496636 -0.835877 0.000000
244.66200256 191.07600403 191.44999695 0.397023 0.753201 -0.524463 0.000000
40.54199982 154.41200256 128.80000305 -0.894133 -0.432282 0.116871 0.000000
126.20899963 174.15400696 103.25000000 0.798847 -0.601533 0.001370 0.000000
93.07029724 266.51998901 187.25000000 0.194115 0.585403 0.787161 0.000000
126.20899963 147.36099243 89.94999695 0.282985 0.698669 -0.657101 0.000000
222.10000610 83.90429688 62.65000153 -0.321134 0.831815 -0.452721 0.000000
154.41200256 59.57910156 101.50000000 -0.113760 -0.993503 -0.003250 0.000000
178.38499451 140.66299438 136.50000000 -0.531672 -0.815230 0.229621 0.000000
80.02639771 102.23600006 86.80000305 -0.641578 -0.677677 -0.359349 0.000000
89.54489899 105.76200104 148.75000000 -0.583924 -0.634408 0.506517 0.000000
126.56199646 138.89999390 204.39999390 -0.083996 -0.533872 0.841383 0.000000
288.02398682 133.25999451 164.50000000 0.820984 -0.385878 0.420814 0.000000
120.56800079 111.75499725 182.69999695 -0.384355 -0.611999 0.691179 0.000000
108.93499756 128.32400513 193.19999695 -0.333831 -0.692088 0.639978 0.000000
167.10400391 202.35699463 186.55000305 0.362111 0.811957 0.457823 0.000000
67.33499908 119.86299896 79.09999847 -0.642677 -0.718846 -0.265005 0.000000
81.78910065 127.97200012 185.50000000 -0.103258 -0.912802 0.395134 0.000000
104.35199738 141.72099304 204.75000000 0.162925 -0.677583 0.717172 0.000000
109.99199677 151.23899841 211.39999390 -0.070757 -0.735007 0.674358 0.000000
271.45498657 156.17500305 153.30000305 0.423630 0.813690 -0.398053 0.000000
61.69430161 174.85899353 32.90000153 -0.586380 -0.015177 -0.809894 0.000000
89.54489899 266.16699219 156.10000610 0.301755 0.807313 -0.507138 0.000000
93.77539825 200.94700623 80.84999847 0.606916 0.670102 -0.427336 0.000000
169.57099915 69.80269623 140.00000000 -0.026033 -0.850852 0.524760 0.000000
297.19000244 145.24600220 166.60000610 0.905248 -0.414733 -0.092316 0.000000
48.29790115 197.42199707 201.60000610 -0.639545 -0.026589 0.768294 0.000000
136.78500366 69.09770203 119.34999847 -0.188397 -0.970179 0.152512 0.000000
208.70300293 60.28419876 104.30000305 0.054649 -0.987175 0.149995 0.000000
275.68600464 101.53099823 131.94999695 0.521731 -0.626415 0.579138 0.000000
183.32000732 135.72799683 121.09999847 -0.346907 0.934389 0.081078 0.000000
47.24020004 192.48599243 53.54999924 -0.903188 0.302045 -0.304992 0.000000
219.98399353 58.16889954 82.59999847 -0.051984 -0.954733 -0.292886 0.000000
225.27200317 171.33399963 203.00000000 -0.114894 -0.141501 0.983248 0.000000
180.50000000 119.15799713 192.14999390 0.126859 -0.655190 0.744737 0.000000
146.65600586 208.35099792 189.00000000 0.789304 0.532026 0.306510 0.000000
62.04690170 188.25599670 209.64999390 -0.322835 0.120219 0.938789 0.000000
109.28700256 220.68899536 208.25000000 0.139315 0.171947 0.975205 0.000000
253.12300110 186.84599304 191.44999695 0.355855 0.827164 -0.434933 0.000000
196.71699524 105.05699921 84.34999847 -0.623911 0.029443 -0.780940 0.000000
52.17580032 135.02200317 144.89999390 -0.852777 -0.517304 -0.071887 0.000000
231.97099304 142.42599487 196.35000610 -0.077041 0.702092 0.707906 0.000000
121.97899628 102.58899689 173.60000610 0.001234 -0.314746 0.949175 0.000000
76.85350037 111.05000305 136.50000000 -0.722221 -0.660095 0.206571 0.000000
171.33399963 118.80599976 89.59999847 0.393794 0.425680 -0.814692 0.000000
144.54100037 64.16210175 92.75000000 -0.346127 -0.910937 -0.224476 0.000000
127.26699829 240.43200684 181.30000305 0.937483 0.319751 0.137425 0.000000
135.72799683 148.06599426 92.40000153 0.457726 0.873043 -0.168174 0.000000
57.11130142 264.05200195 141.39999390 -0.361236 0.923158 -0.131484 0.000000
126.91400146 172.74400330 124.25000000 0.719485 -0.520089 -0.460271 0.000000
184.37800598 188.25599670 156.80000305 0.355438 0.855224 -0.377168 0.000000
169.21899414 190.72399902 149.80000305 0.255786 0.823167 -0.506922 0.000000
131.14500427 222.45199585 195.30000305 0.626684 0.398498 0.669676 0.000000
158.64300537 193.19099426 155.75000000 -0.306106 0.942591 -0.133500 0.000000
240.43200684 118.10099792 73.50000000 -0.420372 0.141074 -0.896318 0.000000
101.53099823 128.67700195 49.70000076 0.826658 0.172533 -0.535602 0.000000
59.93159866 223.15699768 72.80000305 0.168095 0.843448 -0.510234 0.000000
174.85899353 131.85000610 201.94999695 0.143615 -0.318688 0.936916 0.000000
93.77539825 107.52400208 158.89999390 -0.573606 -0.739351 0.352613 0.000000
199.53700256 174.50700378 184.10000610 -0.592294 0.704483 -0.391013 0.000000
56.40620041 249.94999695 187.60000610 -0.705719 0.478821 0.522199 0.000000
280.62100220 96.94819641 114.80000305 0.726123 -0.620330 0.296540 0.000000
40.54199982 153.00199890 126.00000000 -0.903379 -0.428745 0.009178 0.000000
91.66020203 217.86900330 211.05000305 -0.059791 0.155924 0.985958 0.000000
253.82800293 92.71779633 139.30000305 0.378844 -0.729807 0.569086 0.000000
77.91110229 201.65199280 58.79999924 0.608035 0.712362 -0.350476 0.000000
68.39260101 268.98699951 146.30000305 0.006721 0.858893 -0.512110 0.000000
139.60499573 65.92479706 100.80000305 -0.570698 -0.814661 -0.103103 0.000000
40.18949890 153.00199890 167.64999390 -0.878379 -0.406907 0.250751 0.000000
33.49119949 207.99800110 104.30000305 -0.972760 0.052483 -0.225797 0.000000
45.47750092 232.67599487 93.80000305 -0.552426 0.630137 -0.545668 0.000000
66.62989807 269.33999634 177.10000610 -0.418744 0.703424 0.574325 0.000000
53.93849945 136.08000183 170.10000610 -0.551353 -0.672014 0.494375 0.000000
136.08000183 215.40100098 137.19999695 0.439058 0.888127 -0.135865 0.000000
237.25900269 105.05699921 67.19999695 -0.607922 0.260538 -0.750034 0.000000
218.57400513 122.68399811 185.85000610 0.265852 -0.660651 0.702042 0.000000
290.84500122 114.22299957 128.10000610 0.764176 -0.586976 0.267383 0.000000
208.35099792 85.31449890 70.00000000 -0.302627 0.356829 -0.883793 0.000000
119.86299896 77.91110229 83.30000305 -0.313624 -0.880268 -0.356046 0.000000
107.87699890 203.06199646 95.55000305 0.468520 0.623014 -0.626373 0.000000
139.25300598 67.68750000 113.40000153 -0.211336 -0.962168 0.171956 0.000000
111.40200043 241.84199524 146.64999390 0.672217 0.598823 -0.435356 0.000000
68.74510193 119.86299896 77.69999695 -0.571699 -0.755286 -0.320473 0.000000
46.88769913 191.07600403 53.20000076 -0.903188 0.302045 -0.304992 0.000000
125.85600281 173.44900513 90.30000305 0.904456 -0.134046 -0.404959 0.000000
227.74000549 179.79499817 155.05000305 0.071684 0.978058 -0.195612 0.000000
265.81399536 166.04600525 168.00000000 0.264685 0.852193 -0.451341 0.000000
45.12500000 223.86199951 85.40000153 -0.752189 0.386700 -0.533549 0.000000
90.95510101 273.92300415 174.30000305 0.350081 0.934860 0.059002 0.000000
135.72799683 117.04299927 192.50000000 -0.149294 -0.637892 0.755517 0.000000
63.80960083 264.40399170 138.60000610 -0.114532 0.889388 -0.442573 0.000000
288.02398682 142.42599487 172.89999390 0.555297 -0.616059 0.558673 0.000000
280.26901245 93.77539825 91.69999695 0.665757 -0.665757 0.336948 0.000000
184.72999573 149.47700500 151.55000305 -0.245565 -0.394393 0.885524 0.000000
156.17500305 64.16210175 121.80000305 -0.284479 -0.911793 0.296150 0.000000
114.92800140 127.26699829 195.30000305 -0.342582 -0.592618 0.729001 0.000000
45.12500000 232.67599487 94.15000153 -0.552426 0.630137 -0.545668 0.000000
141.01600647 119.86299896 195.64999390 -0.070821 -0.700982 0.709654 0.000000
65.57230377 241.84199524 103.25000000 0.524479 0.797017 -0.299476 0.000000
124.79900360 74.38569641 128.10000610 -0.159935 -0.950204 0.267455 0.000000
48.29790115 142.42599487 172.19999695 -0.666485 -0.666485 0.334057 0.000000
129.73399353 224.56700134 154.00000000 0.399507 0.761509 -0.510390 0.000000
117.74800110 176.97500610 78.75000000 0.678906 0.366577 -0.636167 0.000000
118.45300293 82.49410248 141.05000305 -0.168095 -0.843448 0.510234 0.000000
64.16210175 127.97200012 63.70000076 -0.502039 -0.838754 -0.210826 0.000000
153.70700073 193.19099426 152.94999695 0.430810 0.898782 0.081207 0.000000
127.61900330 152.29699707 97.65000153 0.163041 0.926688 -0.338624 0.000000
106.81900024 215.75399780 110.59999847 0.383579 0.689784 -0.614056 0.000000
175.56399536 130.43899536 201.25000000 0.115436 -0.340876 0.932994 0.000000
166.04600525 179.08999634 128.10000610 -0.274853 0.595779 0.754654 0.000000
118.10099792 178.38499451 79.80000305 0.673041 0.358628 -0.646840 0.000000
245.01499939 76.85350037 74.19999695 0.038464 -0.961604 -0.271731 0.000000
94.48049927 167.80900574 45.84999847 0.702092 0.077041 -0.707906 0.000000
136.08000183 228.44500732 178.85000610 0.152512 0.970179 0.188397 0.000000
54.29100037 130.79200745 123.90000153 -0.943908 -0.327478 0.042380 0.000000
202.35699463 174.50700378 179.89999390 -0.568562 0.741248 -0.356776 0.000000
65.92479706 113.51799774 114.09999847 -0.859645 -0.494332 0.129019 0.000000
131.85000610 109.99199677 185.85000610 -0.237292 -0.497548 0.834349 0.000000
267.92999268 117.74800110 69.65000153 0.362715 0.859712 -0.359628 0.000000
174.15400696 200.59500122 177.10000610 0.526405 0.843690 0.105281 0.000000
87.42970276 193.89599609 215.25000000 -0.056637 0.273116 0.960312 0.000000
206.23500061 179.08999634 159.60000610 0.210716 0.507840 -0.835283 0.000000
34.54880142 165.34100342 129.50000000 -0.999999 0.000978 0.000978 0.000000
153.70700073 121.97899628 197.75000000 0.023481 -0.573212 0.819071 0.000000
98.00589752 92.36519623 75.94999695 -0.694023 -0.648726 -0.312229 0.000000
140.31100464 66.27729797 94.15000153 -0.453274 -0.882240 -0.127260 0.000000
219.27900696 178.73699951 144.19999695 0.112225 0.972194 -0.205535 0.000000
143.83599854 211.17100525 186.89999390 0.729345 0.572003 0.375326 0.000000
185.08299255 133.25999451 136.50000000 -0.942207 -0.300473 0.148197 0.000000
149.47700500 205.52999878 172.89999390 0.996627 -0.081726 -0.007430 0.000000
75.44339752 203.06199646 211.75000000 -0.175304 0.099298 0.979494 0.000000
147.00900269 201.65199280 129.50000000 0.916833 0.320964 -0.237484 0.000000
63.45700073 119.15799713 90.65000153 -0.829637 -0.553566 -0.072575 0.000000
74.73829651 115.27999878 143.50000000 -0.570233 -0.804946 0.163998 0.000000
30.67090034 203.76800537 121.09999847 -0.999999 -0.000978 -0.000978 0.000000
294.36999512 122.68399811 111.30000305 0.801534 0.554433 -0.223935 0.000000
43.36230087 160.75799561 186.19999695 -0.786763 -0.306758 0.535634 0.000000
236.20100403 73.68070221 124.59999847 0.355744 -0.787144 0.503836 0.000000
266.51998901 161.11000061 157.50000000 0.468943 0.805045 -0.363311 0.000000
141.01600647 211.87600708 133.69999695 0.560411 0.762737 -0.322758 0.000000
285.55700684 144.89399719 144.89999390 0.417545 0.842909 -0.339353 0.000000
173.44900513 115.27999878 191.10000610 0.162527 -0.642514 0.748840 0.000000
280.62100220 162.16799927 199.85000610 0.091421 -0.790866 0.605122 0.000000
185.78799438 117.74800110 117.59999847 -0.761234 0.383062 -0.523246 0.000000
142.42599487 129.38200378 201.60000610 -0.099373 -0.542949 0.833866 0.000000
261.93701172 94.48049927 136.50000000 0.449166 -0.682932 0.576068 0.000000
225.62500000 173.09700012 133.69999695 0.197167 0.844356 -0.498185 0.000000
43.71480179 239.37399292 173.60000610 -0.867550 0.357768 0.345484 0.000000
275.68600464 184.02499390 209.64999390 0.475748 0.777758 -0.410799 0.000000
112.10700226 73.68070221 111.30000305 -0.436061 -0.890586 0.129256 0.000000
69.80269623 271.80801392 176.39999390 -0.319803 0.793939 0.517095 0.000000
187.90299988 136.08000183 112.69999695 -0.026583 0.782092 -0.622596 0.000000
86.72460175 258.41101074 142.80000305 0.466593 0.715663 -0.519728 0.000000
200.24200439 100.82599640 172.55000305 0.152688 -0.645523 0.748323 0.000000
155.82200623 62.39939880 115.50000000 -0.271710 -0.921515 0.277461 0.000000
121.27300262 232.67599487 199.14999390 0.404123 0.366383 0.838122 0.000000
133.25999451 196.01199341 106.05000305 0.524421 0.612105 -0.591870 0.000000
270.04501343 122.68399811 84.34999847 0.246086 0.910082 -0.333454 0.000000
57.46390152 128.32400513 103.59999847 -0.810370 -0.585190 0.029190 0.000000
252.77099609 170.62899780 159.60000610 0.486426 0.758300 -0.434016 0.000000
49.35549927 252.41799927 170.44999695 -0.880664 0.334986 0.334986 0.000000
262.28900146 78.61620331 64.40000153 0.060955 -0.990237 0.125361 0.000000
135.02200317 160.05299377 114.09999847 0.193886 0.933161 -0.302685 0.000000
103.64600372 176.97500610 61.95000076 0.756476 0.403563 -0.514665 0.000000
172.03900146 191.07600403 194.25000000 0.129161 0.124333 0.983798 0.000000
199.53700256 184.02499390 163.44999695 0.461487 0.887066 0.011969 0.000000
119.86299896 171.33399963 110.25000000 0.772610 0.343561 0.533891 0.000000
87.42970276 255.94299316 195.64999390 0.070833 0.476384 0.876380 0.000000
111.05000305 149.47700500 67.19999695 0.873026 0.001329 -0.487672 0.000000
121.97899628 233.02799988 198.10000610 0.497852 0.362513 0.787863 0.000000
85.31449890 145.24600220 35.34999847 0.668120 0.021010 -0.743757 0.000000
157.58500671 203.06199646 170.80000305 -0.821454 0.559752 -0.109043 0.000000
130.43899536 192.13400269 210.00000000 0.270620 0.400639 0.875359 0.000000
52.88090134 169.21899414 40.95000076 -0.700138 -0.283580 -0.655278 0.000000
51.82320023 248.89300537 112.00000000 -0.525391 0.736207 -0.426572 0.000000
209.05599976 180.50000000 182.69999695 -0.561632 0.707424 -0.429093 0.000000
280.62100220 119.51100159 84.69999695 0.224631 0.782335 -0.580942 0.000000
67.68750000 168.16099548 209.30000305 -0.445289 -0.253800 0.858664 0.000000
133.96499634 157.93800354 214.55000305 -0.000978 -0.000978 0.999999 0.000000
53.58589935 150.88699341 58.45000076 -0.756872 -0.393966 -0.521474 0.000000
207.99800110 114.57499695 182.00000000 0.230653 -0.654301 0.720201 0.000000
285.20401001 102.23600006 106.40000153 0.877857 -0.438191 -0.193276 0.000000
129.73399353 200.59500122 207.89999390 0.437782 0.222626 0.871082 0.000000
274.27499390 153.35400391 149.80000305 0.408390 0.795796 -0.447131 0.000000
262.28900146 84.60939789 120.05000305 0.358672 -0.808208 0.467071 0.000000
117.39600372 241.13699341 197.39999390 0.500170 0.307675 0.809423 0.000000
229.14999390 165.69299316 202.64999390 -0.079951 -0.156321 0.984465 0.000000
95.89060211 142.42599487 47.25000000 0.823510 0.124774 -0.553410 0.000000
52.88090134 263.34698486 158.19999695 -0.767988 0.592805 0.242440 0.000000
213.99099731 88.13480377 156.10000610 0.241352 -0.683041 0.689351 0.000000
168.51400757 200.94700623 161.35000610 0.560169 0.570323 -0.600785 0.000000
204.47300720 77.91110229 149.10000610 0.195139 -0.760582 0.619222 0.000000
290.49200439 127.61900330 113.75000000 0.523821 0.775255 -0.352975 0.000000
212.22900391 178.03199768 157.50000000 -0.102223 0.991222 0.083846 0.000000
185.78799438 126.20899963 125.30000305 -0.993092 -0.091514 -0.073437 0.000000
44.77249908 178.38499451 197.39999390 -0.672678 -0.176214 0.718647 0.000000
216.45899963 146.30400085 95.90000153 -0.090298 0.440378 -0.893260 0.000000
269.33999634 80.02639771 72.80000305 0.363770 -0.922564 -0.128633 0.000000
30.67090034 203.76800537 129.50000000 -0.997285 -0.063337 0.037573 0.000000
180.50000000 197.42199707 166.94999695 0.461153 0.819299 -0.340714 0.000000
169.92399597 172.74400330 132.64999390 -0.354682 0.536071 0.766047 0.000000
74.38569641 115.63300323 77.00000000 -0.770025 -0.531107 -0.353534 0.000000
115.27999878 105.05699921 72.09999847 0.598247 0.138746 -0.789209 0.000000
114.92800140 212.22900391 208.94999695 0.277461 0.271710 0.921515 0.000000
90.60250092 141.72099304 38.50000000 0.568299 0.060940 -0.820562 0.000000
215.75399780 150.88699341 200.55000305 0.162049 -0.085226 0.983096 0.000000
181.55799866 137.49000549 113.40000153 -0.026583 0.782092 -0.622596 0.000000
131.14500427 203.06199646 110.94999695 0.379440 0.599549 -0.704675 0.000000
56.05369949 130.43899536 155.39999390 -0.696798 -0.708633 0.110955 0.000000
143.83599854 69.80269623 78.05000305 -0.476604 -0.878098 -0.042334 0.000000
64.51460266 145.95100403 39.90000153 -0.791478 -0.224588 -0.568439 0.000000
143.48300171 209.40800476 190.39999390 0.724644 0.543071 0.424222 0.000000
29.96579933 193.89599609 137.89999390 -0.989771 0.142660 0.001106 0.000000
40.18949890 154.76499939 74.19999695 -0.948930 -0.315485 0.001237 0.000000
291.54998779 130.43899536 155.39999390 0.741823 -0.470867 0.477476 0.000000
277.80099487 107.87699890 141.05000305 0.571894 -0.752323 0.327027 0.000000
131.85000610 190.37100220 100.44999695 0.643238 0.471932 -0.602931 0.000000
53.93849945 219.27900696 202.30000305 -0.546788 0.380303 0.745917 0.000000
126.91400146 171.33399963 215.25000000 0.078761 0.099308 0.991935 0.000000
30.67090034 198.83200073 134.39999390 -0.815962 0.407183 0.410376 0.000000
154.41200256 194.60200500 148.75000000 0.879321 0.449107 0.158423 0.000000
142.42599487 66.62989807 86.80000305 -0.338893 -0.898288 -0.279698 0.000000
75.44339752 261.58401489 189.35000610 -0.205228 0.530553 0.822433 0.000000
47.94530106 165.34100342 46.90000153 -0.621620 -0.243927 -0.744371 0.000000
169.92399597 166.39799500 208.25000000 0.313583 0.179787 0.932385 0.000000
131.14500427 179.08999634 123.55000305 0.867636 0.236081 -0.437577 0.000000
91.66020203 129.73399353 193.55000305 0.321134 -0.831815 0.452721 0.000000
167.80900574 60.98929977 121.09999847 -0.177620 -0.876355 0.447719 0.000000
274.27499390 174.85899353 189.35000610 0.365704 0.870651 -0.328980 0.000000
95.53810120 136.08000183 200.19999695 0.049707 -0.782529 0.620627 0.000000
253.12300110 140.66299438 108.50000000 0.312753 0.755418 -0.575786 0.000000
267.22500610 191.78100586 214.55000305 0.471295 0.491139 0.732574 0.000000
234.08599854 182.96800232 168.69999695 -0.216650 0.871082 -0.440771 0.000000
295.77999878 118.45300293 111.30000305 0.968810 -0.126367 -0.213164 0.000000
150.88699341 62.39939880 90.30000305 -0.456113 -0.832289 -0.315047 0.000000
143.83599854 212.58099365 148.39999390 0.664243 0.693054 -0.280103 0.000000
246.07200623 86.01950073 137.55000305 0.366816 -0.565712 0.738523 0.000000
130.43899536 187.19799805 96.59999847 0.588324 0.434993 -0.681656 0.000000
83.90429688 121.27300262 45.15000153 -0.588841 -0.672247 -0.448721 0.000000
262.99398804 90.25000000 129.85000610 0.397181 -0.802401 0.445421 0.000000
206.94000244 147.36099243 201.60000610 0.072793 -0.119011 0.990221 0.000000
139.25300598 219.27900696 187.60000610 0.849306 0.347514 0.397382 0.000000
113.51799774 250.65499878 161.00000000 0.001353 0.550634 -0.834745 0.000000
282.03100586 99.06349945 98.00000000 0.512977 -0.854015 0.086680 0.000000
239.72700500 61.34180069 93.44999695 0.654548 -0.754371 -0.049911 0.000000
64.86720276 123.74099731 74.90000153 -0.555784 -0.795534 -0.241307 0.000000
120.56800079 181.91000366 84.34999847 0.640705 0.402303 -0.653949 0.000000
196.71699524 85.66699982 158.19999695 0.073808 -0.727953 0.681642 0.000000
93.07029724 151.59199524 215.25000000 -0.058848 -0.664548 0.744925 0.000000
164.28300476 204.47300720 173.25000000 0.060691 0.997679 -0.030878 0.000000
245.01499939 64.16210175 89.59999847 0.741823 0.370096 0.559220 0.000000
125.85600281 243.25199890 186.89999390 0.886168 0.242765 0.394680 0.000000
91.66020203 101.17900085 145.60000610 -0.585638 -0.626144 0.514754 0.000000
265.46200562 133.96499634 105.00000000 0.310817 0.739197 -0.597478 0.000000
253.12300110 126.91400146 179.55000305 0.258903 -0.681407 0.684583 0.000000
200.59500122 125.50399780 135.10000610 0.305975 -0.751322 0.584717 0.000000
198.47900391 162.87300110 159.60000610 -0.719439 0.544127 0.431663 0.000000
261.58401489 148.06599426 193.55000305 0.384273 -0.467880 0.795879 0.000000
150.18200684 84.25679779 155.39999390 -0.175130 -0.830746 0.528385 0.000000
153.00199890 149.12399292 102.90000153 0.334766 0.789664 -0.514162 0.000000
112.81199646 255.59100342 168.00000000 0.656807 0.623551 -0.424015 0.000000
287.31900024 131.14500427 118.30000305 0.483563 0.810166 -0.331359 0.000000
172.03900146 200.94700623 187.25000000 0.285780 0.826108 0.485670 0.000000
138.19500732 200.94700623 116.55000305 0.703054 0.415215 -0.577331 0.000000
136.08000183 162.87300110 214.55000305 0.000978 0.000978 0.999999 0.000000
154.41200256 152.29699707 211.05000305 0.077467 -0.207808 0.975097 0.000000
203.76800537 159.69999695 115.50000000 -0.486399 0.828276 -0.278164 0.000000
155.82200623 65.21970367 123.90000153 -0.295904 -0.911033 0.287158 0.000000
39.48440170 188.60800171 71.40000153 -0.977346 0.140688 -0.158118 0.000000
113.87000275 224.21499634 126.69999695 0.361844 0.764253 -0.533841 0.000000
136.08000183 104.35199738 73.84999847 -0.006186 0.308045 -0.951352 0.000000
241.48899841 176.27000427 158.19999695 0.436417 0.855991 -0.277163 0.000000
147.00900269 153.00199890 105.69999695 0.249553 0.846644 -0.470018 0.000000
278.50601196 96.94819641 120.40000153 0.672939 -0.656645 0.340543 0.000000
102.94100189 84.96189880 135.80000305 -0.421758 -0.722778 0.547459 0.000000
76.14839935 276.39099121 164.85000610 -0.091738 0.985293 -0.144160 0.000000
270.75000000 177.67999268 193.55000305 0.230958 0.861941 -0.451349 0.000000
46.18259811 181.91000366 199.50000000 -0.689995 -0.162979 0.705227 0.000000
68.39260101 121.27300262 73.84999847 -0.612853 -0.753919 -0.236677 0.000000
72.62300110 267.92999268 183.05000305 -0.353682 0.801787 0.481712 0.000000
77.55860138 161.46299744 213.14999390 -0.430646 -0.141641 0.891337 0.000000
182.96800232 188.25599670 190.39999390 0.166838 0.813150 0.557631 0.000000
153.70700073 193.89599609 143.85000610 0.423257 0.900636 -0.098529 0.000000
236.20100403 88.83979797 146.64999390 0.330052 -0.700752 0.632465 0.000000
284.14599609 111.05000305 137.19999695 0.674771 -0.611770 0.412821 0.000000
286.61401367 125.50399780 105.69999695 0.369206 0.876674 -0.308431 0.000000
257.00100708 155.11700439 198.80000305 0.267484 -0.533405 0.802453 0.000000
120.56800079 77.20610046 133.00000000 -0.138810 -0.848934 0.509945 0.000000
124.09400177 194.60200500 211.05000305 0.294587 0.472275 0.830768 0.000000
116.33799744 247.83500671 195.30000305 0.612906 0.357937 0.704434 0.000000
50.76559830 155.47000122 56.70000076 -0.666912 -0.596711 -0.446279 0.000000
129.38200378 236.90600586 179.89999390 0.686533 0.583470 -0.433862 0.000000
74.73829651 209.76100159 67.90000153 0.651465 0.664593 -0.365936 0.000000
178.73699951 97.30079651 81.90000153 0.521116 0.448325 -0.726253 0.000000
286.96701050 116.33799744 82.94999695 0.245416 0.825772 -0.507811 0.000000
211.52299500 182.96800232 196.00000000 0.900145 0.211541 0.380774 0.000000
126.91400146 202.35699463 208.25000000 0.486026 0.017502 0.873769 0.000000
142.42599487 165.34100342 130.19999695 0.445367 0.518215 -0.730137 0.000000
75.79589844 165.69299316 212.80000305 -0.421520 -0.169477 0.890841 0.000000
143.13099670 63.80960083 98.00000000 -0.453274 -0.882240 -0.127260 0.000000
205.17799377 70.15529633 137.19999695 0.100385 -0.878013 0.467991 0.000000
293.66500854 162.87300110 193.19999695 0.910265 -0.351661 0.218522 0.000000
44.77249908 253.82800293 147.00000000 -0.762049 0.646970 0.026665 0.000000
86.72460175 233.38099670 206.85000610 -0.001268 0.368984 0.929435 0.000000
208.70300293 153.70700073 201.94999695 0.078618 -0.094569 0.992409 0.000000
221.39500427 182.96800232 178.50000000 -0.273120 0.890998 -0.362668 0.000000
147.00900269 78.96880341 146.30000305 -0.209861 -0.804214 0.556056 0.000000
95.53810120 179.79499817 50.40000153 0.747503 0.324510 -0.579597 0.000000
136.08000183 150.53399658 94.50000000 0.371735 0.914496 -0.159719 0.000000
88.83979797 161.46299744 40.25000000 0.705724 0.001381 -0.708486 0.000000
164.28300476 190.37100220 150.14999390 0.367840 0.816893 -0.444275 0.000000
108.22899628 119.15799713 73.50000000 0.997891 0.041446 -0.049948 0.000000
288.02398682 117.74800110 144.89999390 0.723313 -0.592692 0.354309 0.000000
166.75100708 180.50000000 129.50000000 -0.365704 0.328980 0.870651 0.000000
160.75799561 184.72999573 122.84999847 0.235563 0.823702 -0.515776 0.000000
268.63500977 164.98800659 167.64999390 0.370664 0.819280 -0.437480 0.000000
81.08399963 202.00500488 65.09999847 0.619126 0.694669 -0.366220 0.000000
52.17580032 135.72799683 103.59999847 -0.780257 -0.615061 -0.113572 0.000000
128.32400513 234.08599854 190.05000305 0.776580 0.377752 0.504209 0.000000
184.37800598 81.08399963 79.80000305 0.802767 0.410231 -0.432754 0.000000
229.14999390 87.07710266 65.80000305 -0.315485 0.948930 -0.001237 0.000000
89.54489899 109.28700256 55.65000153 -0.754702 -0.644981 -0.120100 0.000000
163.57800293 188.96099854 143.85000610 0.609538 0.783691 -0.119546 0.000000
176.62199402 169.92399597 205.10000610 0.281378 0.275606 0.919167 0.000000
288.37701416 164.63600159 185.50000000 0.099494 0.978968 -0.178106 0.000000
169.21899414 144.18800354 117.59999847 0.545606 0.838040 -0.001354 0.000000
296.48498535 147.36099243 174.30000305 0.989318 -0.120023 0.082734 0.000000
65.21970367 118.45300293 128.80000305 -0.800122 -0.529747 0.281379 0.000000
112.81199646 105.76200104 70.34999847 0.424050 -0.870736 -0.248997 0.000000
292.95999146 112.81199646 116.90000153 0.776106 -0.629618 -0.035214 0.000000
97.30079651 177.67999268 51.45000076 0.734693 0.427608 -0.526667 0.000000
83.90429688 250.65499878 198.80000305 -0.143232 0.467312 0.872413 0.000000
86.01950073 268.63500977 158.55000305 0.295843 0.792607 -0.533151 0.000000
109.28700256 145.95100403 64.05000305 0.896644 -0.101796 -0.430891 0.000000
89.89749908 239.72700500 123.90000153 0.464544 0.700979 -0.541136 0.000000
86.72460175 254.88600159 137.89999390 0.393517 0.722819 -0.568047 0.000000
260.17401123 184.37800598 210.69999695 -0.054679 -0.390753 0.918870 0.000000
161.46299744 127.61900330 201.25000000 0.034280 -0.514193 0.856989 0.000000
71.21289825 113.51799774 86.44999695 -0.687294 -0.674536 -0.269496 0.000000
266.51998901 157.93800354 151.55000305 0.454206 0.804088 -0.383587 0.000000
204.82499695 172.03900146 169.39999390 -0.744653 0.663681 -0.070850 0.000000
215.75399780 172.03900146 131.94999695 -0.160125 0.862323 -0.480374 0.000000
60.63669968 124.44599915 126.69999695 -0.499506 -0.799529 0.333536 0.000000
202.71000671 142.42599487 143.50000000 -0.874182 0.022969 -0.485056 0.000000
279.21099854 150.18200684 149.44999695 0.474598 0.782358 -0.403327 0.000000
114.92800140 181.55799866 78.40000153 0.665456 0.431963 -0.608750 0.000000
64.51460266 155.82200623 33.59999847 -0.595029 -0.178052 -0.783734 0.000000
144.54100037 64.51460266 109.90000153 -0.383020 -0.871331 0.306721 0.000000
298.60101318 134.66999817 141.39999390 0.852148 0.505462 -0.135470 0.000000
271.45498657 181.20500183 201.25000000 0.342876 0.854862 -0.389420 0.000000
81.08399963 205.52999878 70.69999695 0.543882 0.734487 -0.405858 0.000000
142.42599487 217.51699829 179.19999695 0.850455 0.521519 -0.068880 0.000000
283.79400635 179.08999634 207.19999695 0.237033 0.946761 0.217851 0.000000
58.87400055 210.81799316 207.19999695 -0.502240 0.312117 0.806435 0.000000
209.40800476 173.44900513 200.55000305 -0.161422 0.119526 0.979621 0.000000
171.33399963 202.35699463 173.25000000 0.191914 0.954203 0.229492 0.000000
184.72999573 137.13800049 142.10000610 -0.613310 -0.666497 0.423832 0.000000
137.84300232 220.68899536 168.69999695 0.848690 0.486904 -0.206520 0.000000
112.45999908 179.79499817 74.19999695 0.754146 0.291773 -0.588330 0.000000
103.29399872 228.44500732 207.19999695 0.190503 0.190503 0.963025 0.000000
37.72169876 161.46299744 75.59999847 -0.942318 -0.266277 -0.202812 0.000000
55.70119858 247.13000488 105.69999695 -0.001352 0.836802 -0.547504 0.000000
37.72169876 234.79100037 126.00000000 -0.929164 0.362892 -0.070452 0.000000
127.61900330 126.20899963 77.34999847 -0.042229 0.138099 -0.989518 0.000000
200.24200439 93.77539825 166.25000000 0.149662 -0.666675 0.730168 0.000000
83.90429688 239.37399292 117.59999847 0.538546 0.498281 -0.679474 0.000000
283.08898926 133.96499634 117.59999847 0.529309 0.660375 -0.532669 0.000000
100.12100220 218.57400513 210.35000610 0.215823 0.199736 0.955786 0.000000
109.99199677 81.43650055 134.39999390 -0.383112 -0.886971 0.257892 0.000000
94.48049927 81.78910065 106.75000000 -0.595403 -0.710219 -0.375612 0.000000
212.22900391 58.16889954 76.30000305 0.031001 -0.997390 -0.065210 0.000000
132.20199585 203.06199646 205.80000305 0.509265 0.014859 0.860482 0.000000
38.42679977 180.50000000 67.90000153 -0.893111 -0.001311 0.449834 0.000000
83.19920349 105.76200104 140.35000610 -0.631706 -0.729866 0.261232 0.000000
192.48599243 146.30400085 133.69999695 -0.856340 -0.405797 0.319392 0.000000
153.00199890 160.75799561 212.44999695 0.281974 -0.120468 0.951829 0.000000
154.76499939 193.19099426 137.89999390 0.596784 0.726874 -0.339858 0.000000
261.58401489 154.76499939 139.30000305 0.530022 0.746625 -0.402029 0.000000
197.42199707 158.99499512 126.00000000 -0.511236 0.675503 -0.531351 0.000000
36.31150055 226.33000183 109.90000153 -0.854839 0.434326 -0.283923 0.000000
40.54199982 229.85499573 177.80000305 -0.886041 0.296350 0.356522 0.000000
99.41600037 250.65499878 145.60000610 0.593893 0.641001 -0.486219 0.000000
165.69299316 80.73139954 153.30000305 -0.172498 -0.746473 0.642669 0.000000
162.16799927 61.69430161 84.00000000 0.224785 0.920615 0.319280 0.000000
222.10000610 121.97899628 87.15000153 -0.190399 0.496237 -0.847052 0.000000
34.90140152 226.33000183 116.90000153 -0.946202 0.319680 -0.050070 0.000000
