105.46900177 169.68800354 65.00000000 -0.925274 -0.374103 0.062572 0.000000
139.68800354 162.18800354 182.50000000 -0.289423 -0.156261 0.944361 0.000000
200.62500000 142.96899414 185.00000000 0.701101 -0.701101 0.130055 0.000000
125.15599823 218.43800354 175.00000000 -0.733819 0.196200 0.650396 0.000000
103.59400177 262.50000000 135.00000000 -0.833129 0.491254 0.254097 0.000000
233.43800354 175.31199646 182.50000000 0.158703 0.407481 0.899318 0.000000
98.43750000 245.62500000 107.50000000 -0.739413 0.515448 -0.433108 0.000000
185.62500000 164.06199646 112.50000000 0.179265 0.703271 -0.687949 0.000000
120.00000000 280.31201172 137.50000000 -0.410703 0.871417 -0.268245 0.000000
154.68800354 188.43800354 92.50000000 -0.983039 0.001139 0.183394 0.000000
264.37500000 147.18800354 177.50000000 0.558326 0.084682 0.825289 0.000000
153.75000000 169.68800354 187.50000000 0.000978 0.000978 0.999999 0.000000
199.21899414 203.43800354 160.00000000 0.781667 0.521646 -0.341879 0.000000
215.62500000 137.81199646 182.50000000 0.000978 0.000978 0.999999 0.000000
254.06199646 140.62500000 182.50000000 0.000978 0.000978 0.999999 0.000000
180.00000000 242.81199646 147.50000000 -0.433374 -0.572850 0.695723 0.000000
209.06199646 135.00000000 182.50000000 0.000978 0.000978 0.999999 0.000000
122.81199646 171.56199646 62.50000000 0.676155 -0.340521 -0.653345 0.000000
156.56199646 151.87500000 187.50000000 -0.278212 -0.255384 0.925947 0.000000
224.06199646 138.75000000 187.50000000 -0.128799 -0.277515 0.952049 0.000000
193.12500000 112.50000000 172.50000000 0.000978 0.000978 0.999999 0.000000
128.43800354 276.09399414 150.00000000 0.221740 0.943427 0.246531 0.000000
163.12500000 117.18800354 167.50000000 -0.446689 -0.894688 -0.001310 0.000000
178.12500000 187.03100586 120.00000000 -0.403459 0.818080 0.409837 0.000000
165.93800354 241.87500000 177.50000000 0.000978 0.000978 0.999999 0.000000
172.50000000 145.31199646 187.50000000 0.000978 0.000978 0.999999 0.000000
179.06199646 157.50000000 107.50000000 0.000978 0.000978 0.999999 0.000000
130.31199646 217.50000000 87.50000000 0.509056 0.492365 -0.706002 0.000000
195.93800354 184.68800354 132.50000000 0.000978 0.000978 0.999999 0.000000
145.31199646 136.87500000 172.50000000 -0.781260 -0.201071 0.590934 0.000000
162.18800354 106.40599823 125.00000000 -0.217753 -0.963591 -0.155165 0.000000
156.56199646 222.18800354 112.50000000 0.000978 0.000978 -0.999999 0.000000
121.87500000 173.43800354 62.50000000 0.676155 -0.340521 -0.653345 0.000000
246.56199646 142.50000000 147.50000000 -0.299287 0.087564 0.950137 0.000000
136.87500000 142.50000000 172.50000000 -0.656816 -0.656816 0.370385 0.000000
124.68800354 173.43800354 62.50000000 0.568022 -0.441425 -0.694619 0.000000
255.00000000 139.68800354 182.50000000 0.000978 0.000978 0.999999 0.000000
154.68800354 187.50000000 92.50000000 -0.730182 -0.001380 0.683251 0.000000
127.03099823 173.43800354 65.00000000 -0.000978 -0.999999 -0.000978 0.000000
192.18800354 105.46900177 130.00000000 -0.424506 -0.847456 -0.318768 0.000000
122.81199646 174.37500000 62.50000000 0.676155 -0.340521 -0.653345 0.000000
262.50000000 128.43800354 162.50000000 -0.288064 0.152823 0.945338 0.000000
145.31199646 172.50000000 87.50000000 0.000978 0.000978 0.999999 0.000000
175.31199646 180.00000000 187.50000000 0.000978 0.000978 0.999999 0.000000
189.37500000 138.75000000 107.50000000 0.842844 -0.132927 -0.521483 0.000000
112.50000000 266.25000000 122.50000000 0.000978 0.000978 0.999999 0.000000
139.68800354 249.37500000 172.50000000 0.000978 0.000978 0.999999 0.000000
129.37500000 280.31201172 137.50000000 0.000978 0.000978 0.999999 0.000000
98.43750000 239.06199646 102.50000000 -0.879983 0.294334 -0.372823 0.000000
140.62500000 190.31199646 82.50000000 0.769858 0.038140 -0.637075 0.000000
177.18800354 236.25000000 137.50000000 -0.595819 -0.448950 0.665915 0.000000
171.56199646 126.56199646 177.50000000 -0.209442 -0.247771 0.945909 0.000000
210.00000000 167.34399414 135.00000000 0.388917 -0.844996 0.367050 0.000000
141.56199646 133.12500000 87.50000000 0.000978 0.000978 0.999999 0.000000
261.56201172 132.18800354 182.50000000 0.231674 0.186143 0.954818 0.000000
117.18800354 152.34399414 105.00000000 -0.902028 -0.409240 0.137358 0.000000
249.37500000 116.25000000 182.50000000 0.101428 -0.668838 0.736457 0.000000
98.43750000 251.71899414 120.00000000 -0.933568 0.312114 -0.176171 0.000000
160.31199646 224.06199646 117.50000000 0.000978 0.000978 -0.999999 0.000000
239.53100586 107.81199646 130.00000000 -0.739501 -0.528685 0.416690 0.000000
245.62500000 121.87500000 147.50000000 -0.705183 -0.337120 0.623753 0.000000
247.50000000 140.62500000 147.50000000 -0.426213 0.084139 0.900702 0.000000
164.06199646 223.12500000 182.50000000 0.000978 0.000978 0.999999 0.000000
138.75000000 165.00000000 182.50000000 0.000978 0.000978 0.999999 0.000000
98.43750000 225.93800354 147.50000000 -0.983039 0.001139 0.183394 0.000000
118.12500000 151.87500000 157.50000000 -0.983039 -0.001139 0.183394 0.000000
229.68800354 167.81199646 182.50000000 0.000978 0.000978 0.999999 0.000000
159.37500000 123.75000000 172.50000000 0.000978 0.000978 0.999999 0.000000
145.78100586 116.25000000 125.00000000 0.000978 0.000978 0.999999 0.000000
225.00000000 200.62500000 152.50000000 -0.000978 -0.000978 -0.999999 0.000000
150.00000000 255.93800354 172.50000000 0.260851 0.405601 0.876039 0.000000
180.00000000 144.37500000 187.50000000 0.000978 0.000978 0.999999 0.000000
153.75000000 173.43800354 187.50000000 0.000978 0.000978 0.999999 0.000000
101.71900177 189.37500000 85.00000000 -0.999999 -0.000978 -0.000978 0.000000
146.25000000 159.37500000 182.50000000 0.000978 0.000978 0.999999 0.000000
204.37500000 131.25000000 182.50000000 0.000978 0.000978 0.999999 0.000000
158.43800354 241.87500000 132.50000000 0.000978 0.000978 0.999999 0.000000
127.96900177 179.06199646 65.00000000 0.669003 0.156252 -0.726650 0.000000
214.68800354 162.65600586 125.00000000 0.049233 -0.814454 0.578136 0.000000
201.56199646 138.75000000 122.50000000 0.000978 0.000978 0.999999 0.000000
170.62500000 112.96900177 170.00000000 -0.518469 -0.701851 0.488462 0.000000
164.06199646 202.50000000 187.50000000 0.503287 0.322294 0.801766 0.000000
145.31199646 179.06199646 182.50000000 -0.398172 -0.357574 0.844749 0.000000
156.56199646 159.37500000 107.50000000 0.000978 0.000978 0.999999 0.000000
225.00000000 177.18800354 127.50000000 -0.175287 0.531855 0.828495 0.000000
146.25000000 166.40600586 95.00000000 0.933568 -0.312114 -0.176171 0.000000
145.31199646 226.87500000 112.50000000 0.318804 0.652173 -0.687775 0.000000
176.25000000 178.12500000 187.50000000 0.000978 0.000978 0.999999 0.000000
130.31199646 220.31199646 177.50000000 0.000978 0.000978 0.999999 0.000000
225.93800354 150.93800354 182.50000000 0.000978 0.000978 0.999999 0.000000
117.18800354 250.78100586 160.00000000 -0.640126 0.439564 0.630097 0.000000
167.34399414 195.93800354 100.00000000 -0.854025 0.014935 0.520018 0.000000
195.93800354 164.06199646 137.50000000 0.730182 -0.001380 0.683251 0.000000
212.81199646 189.37500000 177.50000000 0.458219 0.704825 0.541532 0.000000
139.68800354 187.50000000 182.50000000 0.000978 0.000978 0.999999 0.000000
145.31199646 263.43798828 137.50000000 -0.711758 0.610776 0.346921 0.000000
174.37500000 258.75000000 172.50000000 0.000978 0.000978 0.999999 0.000000
175.31199646 224.06199646 182.50000000 0.001139 0.983039 0.183394 0.000000
246.56199646 184.21899414 165.00000000 -0.146112 -0.971963 0.184228 0.000000
195.93800354 146.25000000 112.50000000 0.792408 0.012446 -0.609864 0.000000
192.18800354 113.43800354 172.50000000 -0.000978 -0.000978 0.999999 0.000000
97.96880341 197.81199646 135.00000000 -0.913298 -0.325661 0.244607 0.000000
151.87500000 275.62500000 147.50000000 -0.596580 -0.799732 0.067240 0.000000
125.62500000 183.75000000 62.50000000 0.879622 0.152159 -0.450680 0.000000
112.50000000 262.50000000 147.50000000 -0.379162 0.592543 0.710724 0.000000
227.81199646 171.56199646 182.50000000 0.000978 0.000978 0.999999 0.000000
174.37500000 200.62500000 182.50000000 -0.271401 0.327149 0.905160 0.000000
260.15600586 118.12500000 165.00000000 -0.435783 0.838765 0.326447 0.000000
195.00000000 133.12500000 182.50000000 -0.037455 -0.542410 0.839279 0.000000
262.50000000 172.50000000 162.50000000 0.000978 0.000978 0.999999 0.000000
135.00000000 265.31201172 162.50000000 0.000978 0.000978 0.999999 0.000000
140.62500000 225.93800354 107.50000000 0.367402 0.576414 -0.729906 0.000000
169.68800354 255.93800354 172.50000000 0.000978 0.000978 0.999999 0.000000
267.18798828 133.12500000 167.50000000 0.000978 0.000978 0.999999 0.000000
254.06199646 135.93800354 182.50000000 0.000978 0.000978 0.999999 0.000000
185.62500000 177.18800354 187.50000000 0.000978 0.000978 0.999999 0.000000
137.81199646 183.75000000 182.50000000 0.000978 0.000978 0.999999 0.000000
186.56199646 164.06199646 112.50000000 0.394422 0.538443 -0.744655 0.000000
158.43800354 272.81201172 167.50000000 0.000978 0.000978 0.999999 0.000000
180.93800354 125.62500000 107.50000000 -0.111180 0.440496 0.890844 0.000000
223.12500000 195.00000000 127.50000000 -0.284104 -0.346578 0.893962 0.000000
218.43800354 163.12500000 127.50000000 -0.110302 -0.983017 0.146665 0.000000
126.56199646 227.81199646 172.50000000 0.000978 0.000978 0.999999 0.000000
184.21899414 180.00000000 130.00000000 -0.668685 0.203243 0.715229 0.000000
145.31199646 250.31199646 172.50000000 -0.000978 -0.000978 0.999999 0.000000
112.03099823 159.37500000 125.00000000 -0.874782 -0.484515 0.001327 0.000000
156.56199646 110.62500000 157.50000000 -0.000978 -0.000978 0.999999 0.000000
127.03099823 186.56199646 65.00000000 0.947352 -0.307922 -0.087791 0.000000
228.75000000 165.93800354 127.50000000 -0.568136 -0.758051 -0.320281 0.000000
166.40600586 271.87500000 165.00000000 -0.507146 -0.847215 0.158206 0.000000
250.31199646 141.56199646 182.50000000 0.000978 0.000978 0.999999 0.000000
244.68800354 126.56199646 182.50000000 0.000978 0.000978 0.999999 0.000000
101.71900177 188.43800354 65.00000000 -0.983315 -0.173944 -0.053248 0.000000
160.31199646 109.21900177 110.00000000 -0.000978 -0.000978 -0.999999 0.000000
125.62500000 150.00000000 167.50000000 0.000978 0.000978 0.999999 0.000000
127.96900177 135.00000000 145.00000000 -0.701101 -0.701101 -0.130055 0.000000
144.37500000 153.75000000 97.50000000 0.445057 -0.891500 0.084575 0.000000
117.18800354 238.12500000 97.50000000 0.620875 0.617510 -0.482903 0.000000
224.06199646 184.68800354 177.50000000 0.043166 0.930027 0.364947 0.000000
130.31199646 238.12500000 172.50000000 0.000978 0.000978 0.999999 0.000000
260.62500000 154.68800354 182.50000000 0.254123 0.138253 0.957240 0.000000
244.68800354 141.56199646 182.50000000 0.000978 0.000978 0.999999 0.000000
97.03119659 203.43800354 120.00000000 -0.980393 -0.186455 -0.063756 0.000000
158.43800354 225.93800354 117.50000000 -0.000978 -0.000978 -0.999999 0.000000
180.00000000 106.40599823 115.00000000 0.037724 -0.996979 -0.067902 0.000000
137.34399414 240.93800354 175.00000000 -0.701656 0.548325 0.454993 0.000000
253.12500000 117.18800354 152.50000000 -0.647869 -0.614387 0.450327 0.000000
246.56199646 118.12500000 147.50000000 -0.515904 -0.382453 0.766533 0.000000
193.12500000 202.50000000 122.50000000 -0.609843 -0.596329 0.521999 0.000000
256.87500000 145.31199646 157.50000000 -0.256407 0.204303 0.944730 0.000000
206.25000000 166.87500000 142.50000000 0.318246 -0.947069 -0.042177 0.000000
190.31199646 211.87500000 122.50000000 -0.719665 -0.581962 0.378685 0.000000
145.31199646 240.93800354 122.50000000 -0.000978 -0.000978 -0.999999 0.000000
234.84399414 186.56199646 150.00000000 -0.871255 -0.001330 -0.490829 0.000000
234.84399414 142.50000000 135.00000000 -0.826701 0.168928 0.536683 0.000000
123.75000000 141.09399414 140.00000000 -0.000978 -0.000978 -0.999999 0.000000
138.28100586 124.68800354 130.00000000 -0.701101 -0.701101 -0.130055 0.000000
245.62500000 117.18800354 147.50000000 -0.625115 -0.311750 0.715571 0.000000
218.43800354 158.43800354 187.50000000 0.235154 -0.133817 0.962702 0.000000
199.68800354 223.59399414 165.00000000 -0.974548 -0.223803 0.013026 0.000000
228.75000000 178.12500000 137.50000000 0.745935 -0.472590 0.469297 0.000000
153.75000000 202.50000000 92.50000000 0.265877 -0.035862 -0.963340 0.000000
255.93800354 120.93800354 182.50000000 0.000978 0.000978 0.999999 0.000000
102.18800354 183.28100586 110.00000000 -0.000978 -0.000978 -0.999999 0.000000
184.68800354 197.81199646 112.50000000 -0.108574 0.377946 0.919439 0.000000
139.68800354 150.93800354 177.50000000 0.000978 0.000978 0.999999 0.000000
97.96880341 207.18800354 100.00000000 0.000978 0.000978 -0.999999 0.000000
125.62500000 255.93800354 162.50000000 -0.000978 -0.000978 0.999999 0.000000
147.18800354 174.37500000 92.50000000 0.000978 0.000978 0.999999 0.000000
100.31199646 258.28100586 130.00000000 -0.956138 0.283633 -0.073154 0.000000
191.25000000 165.93800354 132.50000000 -0.619570 -0.162088 0.768024 0.000000
248.43800354 105.46900177 170.00000000 0.140714 -0.896876 0.419300 0.000000
176.25000000 179.06199646 127.50000000 0.280208 0.837527 -0.469077 0.000000
225.93800354 149.06199646 182.50000000 -0.000978 -0.000978 0.999999 0.000000
201.56199646 207.18800354 172.50000000 0.656816 0.656816 -0.370385 0.000000
145.31199646 146.25000000 177.50000000 -0.000978 -0.000978 0.999999 0.000000
109.68800354 242.81199646 97.50000000 0.423389 0.848329 -0.317930 0.000000
109.68800354 165.00000000 152.50000000 -0.909704 -0.302261 0.284739 0.000000
195.93800354 136.87500000 117.50000000 -0.000978 -0.000978 -0.999999 0.000000
123.75000000 150.93800354 167.50000000 0.000978 0.000978 0.999999 0.000000
180.93800354 103.12500000 162.50000000 -0.400339 -0.799069 0.448572 0.000000
140.62500000 143.43800354 87.50000000 -0.294902 -0.565893 0.769934 0.000000
148.59399414 230.62500000 180.00000000 -0.553410 0.823510 0.124774 0.000000
159.37500000 107.81199646 152.50000000 -0.365542 -0.790666 0.491147 0.000000
111.56199646 162.18800354 117.50000000 -0.882563 -0.440555 -0.164299 0.000000
237.18800354 145.31199646 137.50000000 -0.875773 0.351832 0.330509 0.000000
224.06199646 137.34399414 130.00000000 -0.419351 0.568527 0.707758 0.000000
249.37500000 180.93800354 157.50000000 0.446401 -0.105615 0.888578 0.000000
233.43800354 106.40599823 170.00000000 -0.176474 -0.932395 0.315430 0.000000
123.75000000 138.75000000 92.50000000 -0.706420 -0.706420 -0.044062 0.000000
120.00000000 147.65600586 125.00000000 -0.829699 -0.552657 -0.078543 0.000000
168.75000000 143.43800354 187.50000000 0.000978 0.000978 0.999999 0.000000
194.06199646 196.87500000 122.50000000 0.000978 0.000978 0.999999 0.000000
195.00000000 208.12500000 177.50000000 0.708110 0.531499 0.464853 0.000000
229.68800354 181.87500000 127.50000000 -0.240725 0.166246 0.956250 0.000000
241.87500000 133.12500000 147.50000000 -0.871255 -0.001330 0.490829 0.000000
166.87500000 234.84399414 130.00000000 -0.394855 -0.698843 0.596412 0.000000
145.31199646 135.00000000 87.50000000 0.000978 0.000978 0.999999 0.000000
108.75000000 268.12500000 122.50000000 0.000978 0.000978 0.999999 0.000000
225.93800354 184.68800354 177.50000000 -0.096403 0.889982 0.445689 0.000000
124.21900177 195.93800354 65.00000000 0.730182 0.001380 -0.683251 0.000000
229.68800354 138.75000000 187.50000000 0.554014 -0.740320 0.380782 0.000000
226.40600586 204.37500000 145.00000000 0.652709 -0.752003 0.091993 0.000000
180.93800354 178.12500000 127.50000000 -0.568104 0.451484 0.688055 0.000000
191.25000000 105.00000000 132.50000000 -0.531480 -0.826579 -0.185190 0.000000
105.93800354 233.43800354 157.50000000 0.000978 0.000978 0.999999 0.000000
224.53100586 111.56199646 115.00000000 -0.589471 -0.589471 0.552312 0.000000
200.62500000 154.68800354 187.50000000 -0.000978 -0.000978 0.999999 0.000000
105.00000000 177.18800354 142.50000000 -0.994730 -0.102383 0.005389 0.000000
135.93800354 247.50000000 172.50000000 0.000978 0.000978 0.999999 0.000000
100.78099823 197.81199646 65.00000000 -0.991309 0.039562 -0.125468 0.000000
165.00000000 209.06199646 182.50000000 0.000978 0.000978 0.999999 0.000000
237.18800354 114.37500000 182.50000000 -0.000978 -0.000978 0.999999 0.000000
166.87500000 106.87500000 162.50000000 -0.701101 -0.701101 0.130055 0.000000
183.75000000 166.87500000 187.50000000 0.000978 0.000978 0.999999 0.000000
143.43800354 279.37500000 152.50000000 0.001139 0.983039 0.183394 0.000000
225.93800354 140.62500000 127.50000000 -0.290394 0.458108 0.840124 0.000000
184.68800354 163.12500000 112.50000000 0.095512 0.709727 -0.697972 0.000000
159.37500000 219.37500000 182.50000000 0.000978 0.000978 0.999999 0.000000
114.37500000 180.00000000 167.50000000 -0.406387 -0.299039 0.863380 0.000000
141.09399414 152.81199646 90.00000000 0.457515 -0.734997 -0.500459 0.000000
225.93800354 180.00000000 127.50000000 -0.145004 0.170222 0.974679 0.000000
121.87500000 198.75000000 62.50000000 0.658905 0.391380 -0.642391 0.000000
244.68800354 116.25000000 182.50000000 0.099491 -0.317046 0.943177 0.000000
190.31199646 163.12500000 192.50000000 -0.712925 0.470298 0.520152 0.000000
218.43800354 181.87500000 182.50000000 0.360694 0.589188 0.723020 0.000000
174.37500000 176.25000000 187.50000000 0.000978 0.000978 0.999999 0.000000
184.68800354 104.06199646 167.50000000 -0.462269 -0.748514 0.475430 0.000000
197.81199646 100.31199646 147.50000000 0.001142 -0.982962 -0.183806 0.000000
120.00000000 199.68800354 62.50000000 0.436226 0.323651 -0.839617 0.000000
227.81199646 99.84380341 155.00000000 -0.001139 -0.983039 0.183394 0.000000
137.34399414 124.68800354 100.00000000 -0.393482 -0.918997 -0.024838 0.000000
226.87500000 168.75000000 182.50000000 0.340608 -0.034703 0.939565 0.000000
132.18800354 273.75000000 132.50000000 -0.202668 -0.812195 0.547051 0.000000
249.37500000 135.00000000 152.50000000 0.000978 0.000978 0.999999 0.000000
148.12500000 255.00000000 132.50000000 0.936483 -0.001257 -0.350710 0.000000
177.18800354 198.75000000 107.50000000 -0.172798 0.045844 0.983890 0.000000
249.37500000 140.62500000 182.50000000 0.000978 0.000978 0.999999 0.000000
149.53100586 277.50000000 150.00000000 -0.503441 -0.848911 0.160924 0.000000
259.68798828 119.06199646 162.50000000 -0.292123 0.876369 0.382938 0.000000
121.87500000 200.62500000 62.50000000 0.436226 0.323651 -0.839617 0.000000
120.00000000 178.12500000 172.50000000 0.000978 0.000978 0.999999 0.000000
134.06199646 231.56199646 107.50000000 0.505584 0.539178 -0.673552 0.000000
101.25000000 201.56199646 62.50000000 -0.937821 -0.103308 -0.331390 0.000000
150.00000000 227.34399414 115.00000000 0.378197 0.471540 -0.796629 0.000000
118.12500000 201.56199646 62.50000000 0.436226 0.323651 -0.839617 0.000000
104.06199646 232.03100586 85.00000000 -0.825207 0.413396 -0.384886 0.000000
217.50000000 167.81199646 187.50000000 -0.000978 -0.000978 0.999999 0.000000
155.62500000 230.15600586 120.00000000 -0.218786 -0.855529 0.469258 0.000000
156.56199646 158.43800354 187.50000000 0.000978 0.000978 0.999999 0.000000
109.68800354 220.31199646 162.50000000 -0.482854 0.128281 0.866254 0.000000
160.31199646 150.93800354 187.50000000 0.000978 0.000978 0.999999 0.000000
220.31199646 136.87500000 127.50000000 -0.242126 0.393640 0.886805 0.000000
223.59399414 169.68800354 185.00000000 0.709698 0.199458 0.675682 0.000000
158.43800354 257.81201172 142.50000000 -0.751784 -0.250595 0.609938 0.000000
159.37500000 229.68800354 182.50000000 -0.099775 0.550931 0.828565 0.000000
228.75000000 143.90600586 185.00000000 0.308760 0.505099 0.805942 0.000000
213.75000000 103.12500000 162.50000000 0.003789 -0.935854 0.352366 0.000000
110.62500000 164.53100586 155.00000000 -0.878190 -0.304864 0.368567 0.000000
224.06199646 114.37500000 177.50000000 0.000978 0.000978 0.999999 0.000000
191.25000000 240.00000000 167.50000000 -0.656816 -0.656816 0.370385 0.000000
249.37500000 120.00000000 152.50000000 -0.585848 -0.394416 0.707968 0.000000
206.25000000 181.87500000 187.50000000 0.000978 0.000978 0.999999 0.000000
164.06199646 254.06199646 142.50000000 -0.264286 -0.480661 0.836133 0.000000
180.93800354 221.71899414 125.00000000 -0.252784 -0.847208 0.467267 0.000000
151.87500000 168.75000000 187.50000000 0.000978 0.000978 0.999999 0.000000
153.75000000 195.00000000 87.50000000 -0.000978 -0.000978 -0.999999 0.000000
221.25000000 162.18800354 187.50000000 0.000978 0.000978 0.999999 0.000000
130.31199646 148.12500000 172.50000000 -0.171817 -0.893737 0.414382 0.000000
114.37500000 256.87500000 157.50000000 0.000978 0.000978 0.999999 0.000000
209.06199646 135.93800354 122.50000000 0.000978 0.000978 0.999999 0.000000
184.68800354 228.75000000 137.50000000 -0.633865 -0.633865 0.443204 0.000000
150.00000000 138.28100586 95.00000000 -0.000978 -0.000978 0.999999 0.000000
147.18800354 129.37500000 167.50000000 -0.468618 -0.323457 0.822054 0.000000
120.00000000 204.37500000 62.50000000 0.413538 0.140688 -0.899552 0.000000
246.56199646 132.18800354 152.50000000 0.000978 0.000978 0.999999 0.000000
247.50000000 98.43750000 147.50000000 -0.082031 -0.926548 0.367123 0.000000
141.56199646 231.56199646 177.50000000 0.000978 0.000978 0.999999 0.000000
209.06199646 151.87500000 187.50000000 0.000978 0.000978 0.999999 0.000000
238.12500000 119.06199646 182.50000000 0.000978 0.000978 0.999999 0.000000
155.15600586 165.93800354 105.00000000 -0.199752 0.723133 0.661194 0.000000
194.53100586 210.93800354 135.00000000 -0.867916 -0.433203 0.243016 0.000000
150.00000000 235.31199646 122.50000000 -0.000978 -0.000978 -0.999999 0.000000
120.93800354 204.84399414 65.00000000 0.936483 0.001257 -0.350710 0.000000
211.87500000 146.25000000 182.50000000 0.000978 0.000978 0.999999 0.000000
158.90600586 109.68800354 110.00000000 -0.332161 -0.912354 -0.239330 0.000000
150.00000000 238.12500000 122.50000000 -0.000978 -0.000978 -0.999999 0.000000
268.12500000 172.50000000 167.50000000 0.000978 0.000978 0.999999 0.000000
101.25000000 242.81199646 97.50000000 -0.581255 0.791789 -0.187649 0.000000
120.00000000 206.25000000 62.50000000 0.842686 0.456133 -0.286049 0.000000
227.81199646 153.75000000 127.50000000 -0.475884 -0.382320 0.792064 0.000000
234.84399414 187.50000000 150.00000000 0.000000 0.000000 0.000000 0.000000
101.71900177 207.18800354 65.00000000 -0.959649 -0.085843 -0.267779 0.000000
134.06199646 152.34399414 175.00000000 0.433862 -0.686533 0.583470 0.000000
165.00000000 179.06199646 187.50000000 -0.000978 -0.000978 0.999999 0.000000
217.50000000 180.00000000 187.50000000 0.384959 0.652613 0.652613 0.000000
131.71899414 130.31199646 105.00000000 -0.701101 -0.701101 -0.130055 0.000000
255.93800354 170.62500000 177.50000000 0.299471 0.247888 0.921341 0.000000
176.25000000 253.12500000 152.50000000 0.705724 -0.708486 0.001381 0.000000
103.12500000 208.12500000 62.50000000 -0.848757 -0.301471 -0.434427 0.000000
264.37500000 174.37500000 162.50000000 0.000978 0.000978 0.999999 0.000000
116.71900177 152.81199646 150.00000000 -0.805227 -0.537337 0.250757 0.000000
212.81199646 178.12500000 187.50000000 0.256546 0.165210 0.952308 0.000000
223.12500000 112.50000000 177.50000000 0.000978 0.000978 0.999999 0.000000
151.87500000 111.56199646 117.50000000 -0.589471 -0.589471 -0.552312 0.000000
116.25000000 161.25000000 162.50000000 0.000978 0.000978 0.999999 0.000000
113.43800354 225.00000000 167.50000000 0.000978 0.000978 0.999999 0.000000
187.50000000 236.25000000 172.50000000 -0.361587 -0.352355 -0.863192 0.000000
109.68800354 216.56199646 162.50000000 0.000978 0.000978 0.999999 0.000000
215.62500000 170.62500000 132.50000000 0.483171 -0.819974 0.306900 0.000000
195.00000000 232.50000000 157.50000000 -0.912229 -0.391353 0.121166 0.000000
236.25000000 126.56199646 182.50000000 0.000978 0.000978 0.999999 0.000000
102.18800354 210.00000000 62.50000000 -0.931453 0.221238 -0.288877 0.000000
272.81201172 153.75000000 177.50000000 0.000978 0.000978 0.999999 0.000000
99.37500000 219.37500000 152.50000000 -0.812840 0.209716 0.543424 0.000000
165.93800354 128.43800354 97.50000000 -0.223117 -0.170308 0.959799 0.000000
180.00000000 255.00000000 172.50000000 0.000978 0.000978 0.999999 0.000000
117.18800354 210.00000000 62.50000000 0.560185 0.316208 -0.765640 0.000000
118.12500000 279.84399414 140.00000000 -0.542236 0.788851 0.289298 0.000000
131.25000000 234.37500000 107.50000000 0.352568 0.470623 -0.808833 0.000000
142.50000000 263.43798828 132.50000000 -0.202534 -0.626156 0.752933 0.000000
241.40600586 113.43800354 140.00000000 -0.494559 -0.504550 0.707702 0.000000
195.00000000 146.25000000 187.50000000 0.000978 0.000978 0.999999 0.000000
217.50000000 152.81199646 122.50000000 0.000978 0.000978 0.999999 0.000000
132.18800354 133.12500000 157.50000000 -0.323139 -0.683626 0.654398 0.000000
161.25000000 250.31199646 172.50000000 0.000978 0.000978 0.999999 0.000000
261.56201172 125.62500000 162.50000000 -0.456748 0.099782 0.883982 0.000000
118.12500000 210.93800354 62.50000000 0.528187 0.338746 -0.778634 0.000000
148.12500000 147.65600586 100.00000000 -0.652946 -0.322423 0.685350 0.000000
239.06199646 172.50000000 142.50000000 -0.619586 -0.481900 0.619586 0.000000
165.00000000 130.31199646 97.50000000 -0.421229 -0.339802 0.840893 0.000000
193.59399414 210.00000000 130.00000000 -0.887439 -0.393922 0.239326 0.000000
169.68800354 105.93800354 117.50000000 -0.227681 -0.966037 -0.122202 0.000000
273.75000000 139.68800354 177.50000000 -0.000978 -0.000978 0.999999 0.000000
194.06199646 176.25000000 132.50000000 0.240990 0.292325 0.925457 0.000000
157.50000000 207.18800354 182.50000000 0.000978 0.000978 0.999999 0.000000
174.37500000 238.12500000 137.50000000 -0.534848 -0.612460 0.582090 0.000000
120.46900177 163.12500000 170.00000000 -0.470686 -0.287382 0.834186 0.000000
153.75000000 275.62500000 157.50000000 -0.000978 -0.000978 0.999999 0.000000
194.06199646 156.56199646 192.50000000 0.000978 0.000978 0.999999 0.000000
104.06199646 212.81199646 62.50000000 -0.689850 0.459343 -0.559563 0.000000
247.50000000 180.93800354 172.50000000 0.000978 0.000978 0.999999 0.000000
184.68800354 195.00000000 112.50000000 -0.028090 0.445431 0.894875 0.000000
120.93800354 225.93800354 172.50000000 0.000978 0.000978 0.999999 0.000000
120.00000000 257.81201172 122.50000000 0.000978 0.000978 0.999999 0.000000
116.25000000 212.81199646 62.50000000 0.503533 0.183782 -0.844203 0.000000
120.93800354 181.87500000 172.50000000 0.000978 0.000978 0.999999 0.000000
165.93800354 227.81199646 122.50000000 -0.386821 -0.483931 0.784972 0.000000
139.68800354 157.03100586 180.00000000 -0.228238 -0.572924 0.787188 0.000000
255.93800354 123.75000000 182.50000000 0.000978 0.000978 0.999999 0.000000
174.37500000 169.68800354 187.50000000 -0.000978 -0.000978 0.999999 0.000000
117.18800354 242.81199646 107.50000000 0.551259 0.732269 -0.399869 0.000000
128.90600586 224.06199646 95.00000000 0.798651 0.505334 -0.326793 0.000000
114.37500000 164.06199646 162.50000000 -0.760577 -0.343955 0.550651 0.000000
144.37500000 148.12500000 97.50000000 -0.287544 -0.932765 0.217411 0.000000
224.06199646 117.18800354 127.50000000 -0.343064 -0.863045 0.370756 0.000000
134.06199646 234.37500000 112.50000000 -0.445057 0.891500 0.084575 0.000000
172.50000000 212.81199646 107.50000000 0.459343 -0.689850 0.559563 0.000000
136.87500000 268.12500000 162.50000000 0.000978 0.000978 0.999999 0.000000
106.87500000 171.56199646 127.50000000 -0.882563 -0.440555 0.164299 0.000000
111.56199646 159.84399414 145.00000000 -0.882515 -0.467856 0.047740 0.000000
170.15600586 263.43798828 155.00000000 -0.794313 -0.264771 0.546776 0.000000
152.81199646 152.34399414 185.00000000 -0.596580 0.067240 0.799732 0.000000
162.18800354 148.12500000 187.50000000 0.000978 0.000978 0.999999 0.000000
202.50000000 203.43800354 167.50000000 0.848329 0.423389 -0.317930 0.000000
218.43800354 109.68800354 172.50000000 -0.001380 -0.730182 0.683251 0.000000
224.06199646 175.31199646 182.50000000 0.000978 0.000978 0.999999 0.000000
163.12500000 228.75000000 182.50000000 0.282865 0.452893 0.845503 0.000000
230.62500000 100.78099823 160.00000000 -0.177317 -0.948848 0.261238 0.000000
150.00000000 133.12500000 172.50000000 0.000978 0.000978 0.999999 0.000000
192.18800354 186.56199646 187.50000000 0.000978 0.000978 0.999999 0.000000
191.25000000 135.00000000 182.50000000 -0.029444 -0.344369 0.938373 0.000000
230.62500000 194.06199646 132.50000000 -0.983039 0.001139 -0.183394 0.000000
180.00000000 207.18800354 107.50000000 -0.000978 -0.000978 0.999999 0.000000
257.81201172 149.06199646 157.50000000 -0.456013 0.394782 0.797621 0.000000
255.46899414 112.50000000 150.00000000 -0.603114 -0.522023 0.603114 0.000000
256.87500000 128.43800354 157.50000000 0.000978 0.000978 0.999999 0.000000
139.68800354 123.75000000 97.50000000 -0.656816 -0.656816 -0.370385 0.000000
173.43800354 217.03100586 115.00000000 -0.610605 -0.383480 0.692896 0.000000
235.78100586 169.68800354 135.00000000 -0.776848 -0.245403 0.579901 0.000000
180.93800354 161.25000000 187.50000000 0.000978 0.000978 0.999999 0.000000
192.18800354 129.37500000 122.50000000 -0.812007 0.441898 -0.381276 0.000000
153.75000000 240.93800354 177.50000000 0.000978 0.000978 0.999999 0.000000
173.43800354 249.37500000 172.50000000 0.000978 0.000978 0.999999 0.000000
185.62500000 248.43800354 157.50000000 -0.814369 -0.435074 0.384076 0.000000
180.00000000 101.25000000 152.50000000 0.000000 0.000000 0.000000 0.000000
184.68800354 139.68800354 182.50000000 0.000978 0.000978 0.999999 0.000000
155.62500000 277.50000000 152.50000000 0.000978 0.000978 0.999999 0.000000
152.81199646 168.75000000 187.50000000 0.000978 0.000978 0.999999 0.000000
156.56199646 225.93800354 117.50000000 -0.000978 -0.000978 -0.999999 0.000000
119.06199646 187.50000000 172.50000000 -0.378085 -0.390636 0.839318 0.000000
150.00000000 120.00000000 162.50000000 -0.663079 -0.001379 0.748548 0.000000
154.68800354 135.93800354 177.50000000 0.000978 0.000978 0.999999 0.000000
118.12500000 186.56199646 172.50000000 -0.378085 -0.390636 0.839318 0.000000
169.68800354 169.68800354 187.50000000 0.000978 0.000978 0.999999 0.000000
246.56199646 165.00000000 147.50000000 0.000978 0.000978 0.999999 0.000000
187.50000000 176.25000000 187.50000000 0.000978 0.000978 0.999999 0.000000
201.56199646 121.87500000 122.50000000 0.000978 0.000978 0.999999 0.000000
152.81199646 172.50000000 187.50000000 0.000978 0.000978 0.999999 0.000000
256.87500000 153.75000000 182.50000000 0.000978 0.000978 0.999999 0.000000
266.25000000 137.81199646 162.50000000 0.000978 0.000978 0.999999 0.000000
242.81199646 116.25000000 142.50000000 -0.555541 -0.465453 0.689004 0.000000
188.43800354 209.06199646 182.50000000 0.000978 0.000978 0.999999 0.000000
128.90600586 194.06199646 180.00000000 -0.811578 -0.079003 0.578878 0.000000
131.25000000 132.18800354 112.50000000 -0.882563 -0.440555 -0.164299 0.000000
125.62500000 267.18798828 157.50000000 0.000978 0.000978 0.999999 0.000000
203.43800354 183.75000000 127.50000000 0.000978 0.000978 0.999999 0.000000
221.25000000 175.78100586 130.00000000 0.179242 0.681731 0.709306 0.000000
160.31199646 270.00000000 167.50000000 0.000978 0.000978 0.999999 0.000000
210.93800354 107.81199646 172.50000000 -0.303667 -0.927948 -0.216098 0.000000
166.87500000 184.68800354 102.50000000 -0.477722 0.399991 0.782169 0.000000
241.87500000 139.68800354 147.50000000 -0.768157 0.634058 0.088914 0.000000
163.12500000 132.18800354 97.50000000 0.000978 0.000978 0.999999 0.000000
177.18800354 164.06199646 187.50000000 0.000978 0.000978 0.999999 0.000000
207.18800354 177.18800354 187.50000000 0.000978 0.000978 0.999999 0.000000
111.56199646 262.50000000 122.50000000 0.000978 0.000978 0.999999 0.000000
112.50000000 217.96899414 65.00000000 0.215900 0.819194 -0.531328 0.000000
118.59400177 149.06199646 130.00000000 -0.829699 -0.552657 -0.078543 0.000000
159.37500000 219.37500000 112.50000000 0.000978 0.000978 -0.999999 0.000000
176.25000000 262.50000000 157.50000000 0.786644 -0.489431 0.376362 0.000000
237.18800354 135.93800354 182.50000000 0.000978 0.000978 0.999999 0.000000
128.43800354 214.68800354 82.50000000 0.721693 0.482788 -0.496060 0.000000
194.06199646 185.62500000 187.50000000 0.000978 0.000978 0.999999 0.000000
194.06199646 218.43800354 177.50000000 0.000978 0.000978 0.999999 0.000000
99.37500000 198.75000000 142.50000000 -0.935714 -0.233579 0.264350 0.000000
248.43800354 166.87500000 177.50000000 -0.186323 0.676000 0.712957 0.000000
219.84399414 156.56199646 185.00000000 0.607262 -0.546367 0.576815 0.000000
127.50000000 251.25000000 167.50000000 -0.000978 -0.000978 0.999999 0.000000
134.06199646 211.87500000 87.50000000 0.356989 0.518523 -0.776977 0.000000
228.28100586 126.56199646 135.00000000 -0.873509 -0.219497 0.434515 0.000000
261.56201172 150.00000000 157.50000000 -0.334741 -0.094688 0.937541 0.000000
175.31199646 158.43800354 107.50000000 0.000978 0.000978 0.999999 0.000000
155.62500000 109.68800354 152.50000000 0.000978 0.000978 0.999999 0.000000
120.00000000 231.56199646 92.50000000 -0.000978 -0.000978 -0.999999 0.000000
160.31199646 142.50000000 102.50000000 0.000978 0.000978 0.999999 0.000000
116.25000000 255.93800354 122.50000000 -0.273010 -0.557066 0.784311 0.000000
177.18800354 121.40599823 175.00000000 -0.004052 -0.844099 0.536172 0.000000
218.43800354 191.25000000 167.50000000 -0.480146 -0.861914 -0.162985 0.000000
131.71899414 256.87500000 125.00000000 -0.843789 0.492337 -0.213598 0.000000
220.31199646 186.09399414 175.00000000 0.206680 0.945803 0.250480 0.000000
151.87500000 195.93800354 87.50000000 -0.000978 -0.000978 -0.999999 0.000000
218.43800354 162.65600586 125.00000000 -0.255491 -0.788418 0.559573 0.000000
243.28100586 118.12500000 145.00000000 -0.645722 -0.391397 0.655631 0.000000
144.37500000 217.50000000 182.50000000 0.000978 0.000978 0.999999 0.000000
219.84399414 176.25000000 130.00000000 0.254822 0.688495 0.678999 0.000000
147.18800354 116.71900177 105.00000000 -0.548503 -0.822012 -0.153105 0.000000
175.31199646 127.50000000 177.50000000 0.000978 0.000978 0.999999 0.000000
119.06199646 278.43798828 142.50000000 -0.187046 0.364097 0.912385 0.000000
171.56199646 150.93800354 187.50000000 -0.000978 -0.000978 0.999999 0.000000
165.00000000 134.06199646 97.50000000 0.000978 0.000978 0.999999 0.000000
114.37500000 270.93798828 142.50000000 -0.589471 0.589471 0.552312 0.000000
127.96900177 135.93800354 140.00000000 -0.822012 -0.548503 -0.153105 0.000000
176.25000000 233.43800354 137.50000000 -0.909199 0.303066 -0.285497 0.000000
135.00000000 260.62500000 167.50000000 -0.085046 0.304858 0.948593 0.000000
106.87500000 195.00000000 162.50000000 -0.793179 0.004124 0.608975 0.000000
132.18800354 271.87500000 157.50000000 0.000978 0.000978 0.999999 0.000000
172.50000000 152.81199646 187.50000000 0.000978 0.000978 0.999999 0.000000
138.75000000 213.75000000 92.50000000 0.290230 0.678272 -0.675065 0.000000
209.06199646 104.06199646 117.50000000 0.702572 -0.699576 -0.130328 0.000000
136.87500000 231.56199646 177.50000000 0.000978 0.000978 0.999999 0.000000
180.00000000 196.87500000 107.50000000 0.000978 0.000978 0.999999 0.000000
133.12500000 128.90600586 95.00000000 -0.656816 -0.656816 -0.370385 0.000000
250.31199646 115.31199646 147.50000000 0.000978 0.000978 0.999999 0.000000
167.81199646 174.37500000 187.50000000 -0.000978 -0.000978 0.999999 0.000000
103.12500000 239.06199646 152.50000000 -0.790330 0.138419 0.596841 0.000000
155.62500000 204.37500000 92.50000000 -0.000978 -0.000978 -0.999999 0.000000
224.06199646 180.00000000 182.50000000 0.000978 0.000978 0.999999 0.000000
267.65600586 166.87500000 175.00000000 0.155771 0.654845 0.739536 0.000000
118.12500000 148.12500000 67.50000000 -0.784318 -0.596203 -0.171427 0.000000
160.31199646 274.68798828 157.50000000 -0.335213 -0.940925 0.047888 0.000000
122.81199646 207.18800354 177.50000000 -0.983039 -0.001139 0.183394 0.000000
257.81201172 154.68800354 157.50000000 0.000978 0.000978 0.999999 0.000000
241.87500000 110.62500000 137.50000000 -0.589471 -0.589471 0.552312 0.000000
96.56250000 218.43800354 142.50000000 -0.923249 0.369573 0.105008 0.000000
195.93800354 190.31199646 182.50000000 0.000978 0.000978 0.999999 0.000000
191.25000000 156.56199646 192.50000000 0.000978 0.000978 0.999999 0.000000
194.06199646 103.12500000 137.50000000 -0.373818 -0.920061 -0.117249 0.000000
170.62500000 145.31199646 187.50000000 0.000978 0.000978 0.999999 0.000000
188.43800354 203.43800354 182.50000000 0.000978 0.000978 0.999999 0.000000
180.93800354 174.37500000 187.50000000 0.000978 0.000978 0.999999 0.000000
139.68800354 126.56199646 157.50000000 -0.849417 -0.489875 0.196250 0.000000
244.68800354 154.68800354 182.50000000 0.000978 0.000978 0.999999 0.000000
120.00000000 254.06199646 122.50000000 -0.312621 -0.348867 0.883493 0.000000
162.18800354 109.21900177 110.00000000 -0.000978 -0.000978 -0.999999 0.000000
175.31199646 167.81199646 117.50000000 0.280208 0.837527 -0.469077 0.000000
162.18800354 150.93800354 112.50000000 -0.289214 -0.615180 0.733422 0.000000
175.31199646 103.59400177 140.00000000 0.001139 -0.983039 -0.183394 0.000000
225.00000000 130.31199646 182.50000000 -0.057478 -0.391654 0.918315 0.000000
107.81199646 240.00000000 92.50000000 0.000978 0.000978 -0.999999 0.000000
238.12500000 151.87500000 182.50000000 0.000978 0.000978 0.999999 0.000000
199.68800354 129.37500000 182.50000000 -0.210990 -0.166433 0.963215 0.000000
136.87500000 256.87500000 127.50000000 0.008454 0.262086 -0.965007 0.000000
135.93800354 235.31199646 112.50000000 0.481704 0.639475 -0.599193 0.000000
169.68800354 240.00000000 177.50000000 0.000978 0.000978 0.999999 0.000000
255.93800354 174.37500000 157.50000000 0.000978 0.000978 0.999999 0.000000
200.62500000 191.25000000 127.50000000 -0.000978 -0.000978 0.999999 0.000000
100.31199646 193.12500000 137.50000000 -0.933568 -0.312114 0.176171 0.000000
210.00000000 180.00000000 127.50000000 0.239078 0.582850 0.776613 0.000000
193.12500000 105.93800354 172.50000000 -0.000978 -0.000978 0.999999 0.000000
221.25000000 159.37500000 122.50000000 -0.326808 -0.674752 0.661745 0.000000
150.00000000 165.00000000 187.50000000 0.000978 0.000978 0.999999 0.000000
138.75000000 259.68798828 167.50000000 0.000978 0.000978 0.999999 0.000000
141.56199646 239.06199646 122.50000000 0.311357 -0.142762 -0.939508 0.000000
165.93800354 136.87500000 97.50000000 0.000978 0.000978 0.999999 0.000000
164.06199646 234.37500000 127.50000000 -0.280017 -0.555289 0.783099 0.000000
266.71899414 130.31199646 175.00000000 0.746812 -0.085891 0.659465 0.000000
145.78100586 165.00000000 95.00000000 0.933568 -0.312114 -0.176171 0.000000
263.43798828 120.93800354 167.50000000 -0.687340 0.412404 0.597903 0.000000
150.93800354 206.25000000 182.50000000 0.000978 0.000978 0.999999 0.000000
120.00000000 274.68798828 127.50000000 0.000978 0.000978 0.999999 0.000000
155.62500000 245.62500000 177.50000000 0.000978 0.000978 0.999999 0.000000
135.93800354 228.75000000 107.50000000 0.495389 0.502061 -0.708890 0.000000
129.37500000 236.25000000 112.50000000 0.369573 0.923249 0.105008 0.000000
146.25000000 243.75000000 177.50000000 0.000978 0.000978 0.999999 0.000000
169.68800354 166.40600586 115.00000000 -0.280208 0.837527 -0.469077 0.000000
225.00000000 174.84399414 140.00000000 0.268448 -0.960561 0.072519 0.000000
96.09380341 220.31199646 120.00000000 -0.983039 -0.001139 -0.183394 0.000000
242.81199646 151.87500000 142.50000000 -0.527571 0.267699 0.806229 0.000000
120.93800354 221.25000000 172.50000000 -0.303659 -0.133610 0.943366 0.000000
119.06199646 239.06199646 102.50000000 0.603036 0.701624 -0.379567 0.000000
145.78100586 179.06199646 185.00000000 -0.909737 0.148097 0.387873 0.000000
237.65600586 139.68800354 140.00000000 -0.835916 0.257087 0.484924 0.000000
151.40600586 110.62500000 125.00000000 -0.570985 -0.819117 -0.054984 0.000000
255.00000000 112.50000000 177.50000000 0.478171 0.156466 0.864217 0.000000
225.93800354 186.09399414 175.00000000 -0.096403 0.889982 0.445689 0.000000
150.93800354 202.50000000 182.50000000 0.000978 0.000978 0.999999 0.000000
132.18800354 140.62500000 167.50000000 -0.705592 -0.552852 0.443278 0.000000
154.68800354 204.37500000 92.50000000 0.271059 0.001205 -0.962562 0.000000
198.75000000 173.43800354 187.50000000 -0.103665 0.399457 0.910872 0.000000
155.62500000 161.25000000 107.50000000 -0.416270 0.188417 0.889504 0.000000
114.37500000 152.34399414 70.00000000 -0.784318 -0.596203 -0.171427 0.000000
141.56199646 214.68800354 92.50000000 0.199102 0.625087 -0.754735 0.000000
195.00000000 143.43800354 112.50000000 0.241996 0.045451 -0.969212 0.000000
150.00000000 259.21899414 170.00000000 0.282445 0.742018 0.607976 0.000000
196.87500000 139.68800354 182.50000000 0.000978 0.000978 0.999999 0.000000
163.12500000 200.62500000 187.50000000 0.271667 0.235070 0.933241 0.000000
256.87500000 166.87500000 157.50000000 0.000978 0.000978 0.999999 0.000000
138.75000000 183.75000000 82.50000000 0.000978 0.000978 0.999999 0.000000
237.18800354 163.12500000 132.50000000 0.000978 0.000978 0.999999 0.000000
210.00000000 119.06199646 177.50000000 0.000978 0.000978 0.999999 0.000000
142.50000000 266.25000000 132.50000000 0.098487 -0.205700 0.973647 0.000000
130.31199646 242.81199646 172.50000000 0.000978 0.000978 0.999999 0.000000
241.87500000 157.50000000 137.50000000 0.264574 0.484279 0.833951 0.000000
129.37500000 172.50000000 177.50000000 0.000978 0.000978 0.999999 0.000000
193.12500000 167.81199646 132.50000000 -0.622140 -0.032301 0.782239 0.000000
143.90600586 148.12500000 95.00000000 -0.699576 -0.702572 0.130328 0.000000
189.37500000 147.18800354 107.50000000 -0.000978 -0.000978 -0.999999 0.000000
153.75000000 236.25000000 177.50000000 0.000978 0.000978 0.999999 0.000000
214.68800354 186.09399414 180.00000000 0.457428 0.713587 0.530616 0.000000
246.56199646 182.81199646 162.50000000 -0.206923 -0.907280 0.366095 0.000000
146.25000000 129.37500000 167.50000000 -0.502732 -0.446690 0.740087 0.000000
102.18800354 210.93800354 157.50000000 0.000978 0.000978 0.999999 0.000000
179.06199646 165.93800354 112.50000000 0.322496 0.497247 -0.805445 0.000000
204.37500000 99.84380341 145.00000000 -0.035565 -0.996909 -0.070053 0.000000
147.18800354 222.18800354 182.50000000 0.000978 0.000978 0.999999 0.000000
177.18800354 136.87500000 182.50000000 0.000978 0.000978 0.999999 0.000000
253.12500000 180.93800354 172.50000000 0.246770 0.203142 0.947543 0.000000
211.87500000 131.25000000 182.50000000 0.000978 0.000978 0.999999 0.000000
188.43800354 127.50000000 132.50000000 0.000978 0.000978 0.999999 0.000000
122.81199646 222.65600586 85.00000000 0.822132 0.505090 -0.262647 0.000000
119.06199646 232.50000000 167.50000000 -0.117596 0.524101 0.843498 0.000000
129.84399414 154.68800354 70.00000000 0.606331 0.001369 -0.795211 0.000000
162.18800354 139.68800354 182.50000000 -0.142874 -0.672258 0.726400 0.000000
124.68800354 257.81201172 162.50000000 -0.000978 -0.000978 0.999999 0.000000
178.59399414 146.25000000 105.00000000 -0.572176 -0.632938 0.521541 0.000000
126.56199646 155.62500000 67.50000000 0.549962 -0.143791 -0.822719 0.000000
239.06199646 106.87500000 172.50000000 -0.001330 -0.871255 0.490829 0.000000
127.50000000 135.93800354 142.50000000 -0.816980 -0.567388 -0.103029 0.000000
215.62500000 133.12500000 127.50000000 0.000978 0.000978 0.999999 0.000000
157.50000000 264.37500000 142.50000000 -0.643364 -0.340413 0.685712 0.000000
253.12500000 110.62500000 147.50000000 -0.689433 -0.179652 0.701717 0.000000
137.81199646 132.18800354 162.50000000 -0.344358 -0.703405 0.621803 0.000000
145.31199646 228.28100586 180.00000000 -0.545519 0.633342 0.548896 0.000000
105.00000000 224.06199646 157.50000000 -0.575891 0.131759 0.806839 0.000000
239.06199646 161.25000000 137.50000000 0.000978 0.000978 0.999999 0.000000
222.18800354 173.90600586 140.00000000 0.316468 -0.946821 0.058127 0.000000
253.12500000 148.12500000 152.50000000 -0.498017 0.551676 0.669054 0.000000
195.00000000 155.62500000 117.50000000 0.752163 0.452614 -0.478948 0.000000
235.31199646 183.75000000 177.50000000 0.835813 0.207816 -0.508162 0.000000
140.62500000 154.68800354 87.50000000 0.953822 -0.065295 -0.293188 0.000000
165.93800354 106.40599823 120.00000000 -0.302261 -0.909704 -0.284739 0.000000
126.56199646 157.50000000 67.50000000 -0.000978 -0.000978 -0.999999 0.000000
121.87500000 167.81199646 172.50000000 -0.502942 -0.376802 0.777862 0.000000
245.62500000 102.65599823 165.00000000 0.240168 -0.865512 0.439553 0.000000
198.75000000 171.56199646 137.50000000 0.000978 0.000978 0.999999 0.000000
226.87500000 111.56199646 117.50000000 -0.589471 -0.589471 0.552312 0.000000
119.06199646 246.56199646 162.50000000 -0.270015 0.187777 0.944368 0.000000
137.34399414 123.75000000 110.00000000 -0.734343 -0.677527 0.041191 0.000000
115.78099823 205.31199646 170.00000000 0.001369 0.801148 0.598464 0.000000
245.62500000 120.00000000 147.50000000 -0.566081 -0.410945 0.714616 0.000000
235.31199646 172.50000000 137.50000000 -0.630351 -0.453117 0.630351 0.000000
227.81199646 98.90619659 135.00000000 -0.144344 -0.986935 -0.071585 0.000000
171.56199646 248.43800354 172.50000000 0.000978 0.000978 0.999999 0.000000
122.81199646 268.12500000 127.50000000 -0.310679 -0.854753 0.415784 0.000000
239.06199646 141.56199646 142.50000000 -0.827527 0.201947 0.523848 0.000000
228.75000000 176.25000000 182.50000000 0.000978 0.000978 0.999999 0.000000
146.25000000 276.56201172 142.50000000 0.000978 0.000978 0.999999 0.000000
113.43800354 164.06199646 162.50000000 -0.760577 -0.343955 0.550651 0.000000
145.31199646 140.15600586 175.00000000 -0.740320 -0.380782 0.554014 0.000000
142.03100586 120.00000000 125.00000000 -0.701101 -0.701101 0.130055 0.000000
97.03119659 202.50000000 130.00000000 -0.959898 -0.280324 0.003641 0.000000
127.50000000 159.37500000 67.50000000 -0.000978 -0.000978 -0.999999 0.000000
182.81199646 108.75000000 172.50000000 0.001139 -0.983039 0.183394 0.000000
132.18800354 255.93800354 122.50000000 -0.740667 0.513023 -0.433843 0.000000
120.93800354 247.50000000 162.50000000 0.000978 0.000978 0.999999 0.000000
229.68800354 134.06199646 132.50000000 -0.368811 0.223036 0.902349 0.000000
142.50000000 239.06199646 122.50000000 -0.000978 -0.000978 -0.999999 0.000000
135.00000000 281.25000000 137.50000000 0.198980 -0.480245 0.854267 0.000000
157.50000000 168.75000000 187.50000000 0.000978 0.000978 0.999999 0.000000
155.62500000 254.06199646 137.50000000 0.000978 0.000978 0.999999 0.000000
135.93800354 272.81201172 157.50000000 0.000978 0.000978 0.999999 0.000000
140.62500000 200.62500000 182.50000000 0.000978 0.000978 0.999999 0.000000
167.34399414 199.68800354 100.00000000 -0.775034 0.061602 0.628909 0.000000
198.75000000 101.25000000 137.50000000 -0.342855 -0.925009 -0.163731 0.000000
167.81199646 156.56199646 187.50000000 0.000978 0.000978 0.999999 0.000000
100.31199646 246.09399414 105.00000000 -0.724238 0.469014 -0.505475 0.000000
154.21899414 108.75000000 140.00000000 -0.430295 -0.900203 0.066935 0.000000
166.40600586 202.50000000 100.00000000 -0.817077 -0.140875 0.559053 0.000000
231.09399414 152.81199646 130.00000000 -0.661858 -0.195935 0.723570 0.000000
125.62500000 161.25000000 67.50000000 -0.000978 -0.000978 -0.999999 0.000000
219.37500000 99.37500000 147.50000000 -0.195528 -0.980010 0.036736 0.000000
214.68800354 197.34399414 140.00000000 0.098331 -0.964150 0.246465 0.000000
123.28099823 143.43800354 130.00000000 -0.764755 -0.641361 -0.061697 0.000000
169.68800354 164.06199646 187.50000000 0.000978 0.000978 0.999999 0.000000
96.09380341 221.25000000 120.00000000 -0.983039 -0.001139 -0.183394 0.000000
138.75000000 222.18800354 177.50000000 0.000978 0.000978 0.999999 0.000000
119.06199646 174.37500000 172.50000000 -0.000978 -0.000978 0.999999 0.000000
267.18798828 134.06199646 177.50000000 0.659215 -0.488121 0.571991 0.000000
234.37500000 98.90619659 150.00000000 -0.141374 -0.989614 0.026013 0.000000
240.00000000 142.50000000 142.50000000 -0.724921 0.427687 0.539975 0.000000
145.31199646 220.31199646 107.50000000 -0.000978 -0.000978 -0.999999 0.000000
