183.94099426 261.92599487 358.50000000 0.755625 0.347879 -0.554988 0.000000
222.93400574 150.88299561 361.50000000 0.628671 0.046831 -0.776260 0.000000
207.67599487 181.39799500 396.50000000 0.113882 0.157966 0.980856 0.000000
258.53500366 183.94099426 386.50000000 0.000978 0.000978 0.999999 0.000000
183.09399414 125.02899933 361.00000000 0.162841 -0.867017 0.470918 0.000000
164.02099609 249.21099854 334.00000000 0.476882 0.500144 -0.722800 0.000000
141.98199463 291.59399414 397.00000000 0.894164 0.447738 0.001313 0.000000
217.42399597 214.45700073 337.00000000 0.107333 0.971050 0.213404 0.000000
129.69099426 287.35501099 335.50000000 0.488923 -0.226946 -0.842288 0.000000
98.32810211 293.28900146 305.50000000 -0.001376 0.763803 -0.645448 0.000000
155.96899414 264.46899414 400.50000000 0.426711 0.202282 0.881476 0.000000
137.32000732 250.05900574 409.50000000 0.169363 0.096257 0.980842 0.000000
121.21499634 180.12699890 399.00000000 0.866180 0.288727 0.407884 0.000000
116.97699738 275.48800659 326.50000000 0.711165 0.230775 -0.664068 0.000000
144.94900513 270.40200806 337.50000000 0.211794 0.322666 -0.922513 0.000000
185.63699341 232.25799561 389.50000000 0.825535 0.228209 -0.516151 0.000000
81.79879761 272.94500732 379.00000000 -0.854730 0.170354 0.490322 0.000000
241.58200073 150.03500366 373.50000000 0.506611 -0.001337 -0.862174 0.000000
155.96899414 222.08599854 338.50000000 -0.147474 -0.862941 0.483305 0.000000
128.84399414 209.37100220 410.50000000 -0.015346 -0.216030 0.976266 0.000000
126.30100250 280.57400513 333.50000000 0.488268 0.022993 -0.872391 0.000000
112.73799896 199.62300110 404.00000000 -0.436304 -0.305879 0.846213 0.000000
141.55900574 250.48199463 328.00000000 0.194060 0.271134 -0.942776 0.000000
146.64500427 144.10200500 356.50000000 0.738047 -0.247065 -0.627890 0.000000
172.49800110 255.99200439 393.00000000 0.533339 0.281615 0.797648 0.000000
227.17199707 171.22700500 362.50000000 0.659465 -0.085891 -0.746812 0.000000
170.37899780 193.26600647 403.50000000 0.193750 -0.170344 0.966149 0.000000
110.19499969 299.22299194 323.50000000 0.845616 0.095865 -0.525112 0.000000
91.97070313 303.46099854 361.00000000 -0.845690 0.269573 -0.460585 0.000000
105.53299713 159.35899353 336.00000000 -0.761184 -0.473080 -0.443615 0.000000
84.34179688 255.99200439 391.00000000 -0.764296 0.139099 0.629685 0.000000
235.64799500 211.49000549 375.00000000 0.315996 0.768336 -0.556602 0.000000
122.48600006 301.76599121 331.00000000 0.001337 0.506611 -0.862174 0.000000
217.00000000 194.53700256 337.00000000 0.647419 -0.344094 -0.680035 0.000000
157.24000549 217.84800720 333.00000000 0.705724 0.708486 -0.001381 0.000000
200.04699707 147.06799316 392.00000000 0.149475 -0.686980 0.711137 0.000000
106.38099670 155.12100220 339.00000000 -0.800132 -0.560553 -0.213471 0.000000
78.83200073 271.25000000 322.50000000 -0.974019 0.221974 0.044880 0.000000
226.32400513 166.98800659 393.50000000 0.078196 0.222176 0.971866 0.000000
94.51370239 257.68798828 401.00000000 -0.603977 0.222027 0.765451 0.000000
190.29899597 222.08599854 338.00000000 0.223479 0.973293 0.052511 0.000000
251.75399780 140.28700256 381.00000000 0.557708 -0.819640 0.130966 0.000000
80.95120239 278.03100586 372.00000000 -0.877355 0.326917 0.351246 0.000000
175.46499634 240.73399353 395.50000000 0.557099 0.340719 0.757332 0.000000
93.66600037 284.81201172 294.00000000 0.494375 0.534595 -0.685421 0.000000
76.71289825 218.69500732 371.00000000 -0.948187 -0.317711 -0.001236 0.000000
72.47460175 239.88699341 275.00000000 0.842882 -0.538096 -0.001349 0.000000
228.02000427 158.08799744 393.00000000 0.001266 -0.365926 0.930643 0.000000
205.13299561 137.74400330 381.00000000 0.090635 -0.888222 0.450386 0.000000
139.86300659 239.03900146 325.50000000 0.754823 0.603543 -0.256860 0.000000
85.61329651 193.26600647 310.50000000 -0.830793 -0.364162 0.420914 0.000000
137.32000732 299.22299194 393.50000000 0.001379 0.663079 0.748548 0.000000
192.84199524 254.29699707 366.00000000 0.728225 0.469448 -0.499307 0.000000
191.14599609 206.82800293 335.00000000 -0.450661 -0.133052 -0.882724 0.000000
148.33999634 323.80499268 353.50000000 0.610852 0.757706 -0.229655 0.000000
108.07599640 204.28500366 313.00000000 0.846281 -0.151595 -0.510712 0.000000
164.86900330 299.22299194 376.00000000 0.606140 0.606140 0.514965 0.000000
171.22700500 198.35200500 359.50000000 -0.018654 0.299710 -0.953848 0.000000
244.97300720 180.55099487 389.50000000 0.000978 0.000978 0.999999 0.000000
151.72999573 311.93798828 346.50000000 0.698823 0.165951 -0.695778 0.000000
82.64649963 215.30499268 389.00000000 -0.607227 -0.405370 0.683338 0.000000
233.10499573 176.73599243 366.00000000 0.466127 -0.198067 -0.862261 0.000000
184.78900146 223.78100586 341.50000000 -0.302944 0.941434 -0.148076 0.000000
80.95120239 279.72698975 370.00000000 -0.828343 0.285474 0.482030 0.000000
107.22899628 267.01199341 311.00000000 0.761378 0.212441 -0.612514 0.000000
128.84399414 138.16799927 344.50000000 0.006866 -0.806037 -0.591826 0.000000
179.70300293 263.62100220 354.50000000 0.675934 0.262421 -0.688657 0.000000
223.78100586 215.72900391 375.00000000 0.300050 0.951660 -0.065676 0.000000
78.40820313 281.42199707 363.00000000 -0.974443 0.157575 0.160096 0.000000
184.78900146 225.05299377 354.00000000 0.627887 0.711821 -0.314751 0.000000
207.67599487 217.84800720 372.50000000 -0.052874 0.440613 0.896139 0.000000
81.37500000 242.42999268 274.50000000 0.713858 -0.136760 -0.686807 0.000000
127.99600220 153.42599487 333.50000000 0.029414 0.196484 -0.980066 0.000000
94.51370239 181.39799500 382.00000000 -0.670659 -0.405708 0.620981 0.000000
174.61700439 268.70700073 352.50000000 0.534694 0.254097 -0.805939 0.000000
183.94099426 227.59599304 378.00000000 0.686089 0.692340 0.223487 0.000000
135.62500000 309.39498901 335.50000000 0.885265 -0.392622 -0.249307 0.000000
96.63279724 285.23599243 297.00000000 0.510519 0.648679 -0.564435 0.000000
228.02000427 147.49200439 390.50000000 0.110987 -0.267674 0.957096 0.000000
140.28700256 153.42599487 389.00000000 -0.324288 -0.519181 0.790752 0.000000
210.21899414 137.32000732 350.50000000 0.474516 0.454813 -0.753644 0.000000
140.71099854 313.20901489 338.00000000 0.274370 0.277243 -0.920792 0.000000
77.56050110 281.42199707 360.00000000 -0.631969 0.767496 0.107538 0.000000
136.47300720 289.89801025 398.50000000 0.109058 0.463144 0.879548 0.000000
212.76199341 150.88299561 393.50000000 0.089459 -0.340480 0.935986 0.000000
80.10350037 262.77301025 379.00000000 -0.868986 0.436744 0.232630 0.000000
172.49800110 281.42199707 355.00000000 0.686174 0.305146 -0.660342 0.000000
189.02699280 203.43800354 357.50000000 0.308962 0.937873 0.157914 0.000000
172.49800110 262.77301025 391.00000000 0.546309 0.258284 0.796766 0.000000
197.50399780 153.42599487 351.50000000 0.243710 -0.200142 -0.948972 0.000000
74.16989899 251.75399780 373.00000000 0.349570 0.743040 -0.570694 0.000000
186.48399353 233.10499573 384.50000000 0.784014 -0.583774 -0.211021 0.000000
75.44139862 244.54899597 275.00000000 0.777502 -0.604048 -0.174976 0.000000
80.10350037 262.77301025 295.00000000 -0.888414 0.429039 -0.163237 0.000000
255.99200439 169.53100586 387.50000000 0.261813 0.058877 0.963321 0.000000
155.12100220 204.28500366 405.50000000 0.446277 -0.148759 0.882444 0.000000
145.37300110 144.10200500 355.00000000 0.738047 -0.247065 -0.627890 0.000000
196.23199463 219.54299927 375.00000000 0.613358 0.748959 0.250704 0.000000
194.96099854 128.84399414 360.50000000 0.259443 -0.772040 0.580209 0.000000
160.20700073 176.73599243 346.00000000 0.864139 0.501448 -0.042589 0.000000
257.68798828 156.39300537 382.00000000 0.936165 -0.201700 -0.287944 0.000000
155.12100220 291.59399414 390.50000000 0.473685 0.574113 0.667845 0.000000
170.37899780 250.05900574 396.50000000 0.512649 0.327393 0.793728 0.000000
120.36699677 170.37899780 337.50000000 0.287423 0.341036 -0.895032 0.000000
104.68599701 160.20700073 375.00000000 -0.557909 -0.777258 0.290875 0.000000
187.75599670 260.23001099 364.00000000 0.808296 0.376138 -0.452966 0.000000
228.44299316 167.83599854 364.00000000 0.619302 -0.185026 -0.763041 0.000000
145.37300110 209.37100220 335.00000000 0.637534 -0.683424 -0.355643 0.000000
88.58010101 217.00000000 396.00000000 -0.722599 -0.153003 0.674122 0.000000
96.63279724 238.19099426 405.50000000 -0.611198 -0.079470 0.787478 0.000000
162.75000000 147.06799316 388.00000000 -0.004029 -0.508951 0.860786 0.000000
188.17999268 242.42999268 356.50000000 0.760926 0.312380 -0.568692 0.000000
141.55900574 248.78700256 409.00000000 0.137953 0.083715 0.986894 0.000000
152.57800293 224.62899780 408.50000000 -0.001340 0.507781 0.861485 0.000000
256.83999634 158.51199341 377.50000000 0.913927 0.080121 -0.397891 0.000000
181.82200623 209.37100220 345.00000000 0.627399 0.756253 0.185612 0.000000
155.96899414 270.40200806 399.50000000 0.644128 0.098307 0.758574 0.000000
101.29499817 201.74200439 307.00000000 0.652378 -0.058786 -0.755611 0.000000
166.98800659 278.03100586 350.50000000 0.498575 0.009407 -0.866795 0.000000
202.58999634 210.64300537 329.00000000 -0.245205 0.390842 -0.887196 0.000000
137.74400330 307.69900513 384.00000000 0.110037 0.787865 0.605937 0.000000
89.42769623 212.76199341 297.00000000 0.312331 -0.846867 -0.430426 0.000000
97.48049927 199.19900513 394.50000000 -0.454028 -0.405555 0.793337 0.000000
105.10900116 151.72999573 352.50000000 -0.688657 -0.697943 -0.196538 0.000000
180.97500610 211.06599426 339.00000000 0.736305 0.600967 0.310956 0.000000
104.26200104 188.17999268 313.50000000 0.609683 -0.518484 -0.599550 0.000000
160.63099670 244.12500000 329.00000000 0.442322 0.461909 -0.768760 0.000000
203.43800354 212.33799744 387.00000000 0.182873 0.857869 0.480228 0.000000
82.22270203 229.29100037 392.00000000 -0.702819 0.015370 0.711203 0.000000
87.73239899 278.87899780 296.00000000 -0.820446 0.474000 -0.319675 0.000000
127.99600220 161.05499268 334.50000000 0.154796 0.157313 -0.975341 0.000000
175.04100037 293.28900146 369.00000000 0.831460 0.535039 -0.149692 0.000000
193.26600647 221.66200256 354.00000000 0.297862 0.953913 0.036447 0.000000
74.59380341 240.31100464 315.00000000 -0.992361 0.014350 -0.122527 0.000000
140.71099854 238.19099426 410.50000000 0.276796 0.001209 0.960928 0.000000
161.47900391 285.66000366 389.00000000 0.454601 0.435048 0.777220 0.000000
91.12300110 177.16000366 349.00000000 -0.852333 -0.521865 0.034424 0.000000
124.60500336 296.25601196 395.00000000 -0.206771 0.552920 0.807171 0.000000
179.70300293 166.98800659 345.50000000 -0.326635 -0.407133 -0.852967 0.000000
219.54299927 166.14100647 394.50000000 0.238824 0.018002 0.970896 0.000000
147.49200439 156.81599426 353.50000000 0.941195 0.253665 0.223170 0.000000
111.04299927 294.98400879 324.50000000 0.771307 0.110608 -0.626779 0.000000
109.34799957 179.70300293 393.50000000 -0.476157 -0.492747 0.728337 0.000000
134.35400391 240.73399353 324.00000000 0.294280 0.276884 -0.914732 0.000000
201.74200439 214.88099670 331.00000000 -0.562800 0.345465 -0.750940 0.000000
177.16000366 268.70700073 354.50000000 0.633313 0.449502 -0.629971 0.000000
267.01199341 190.72300720 385.50000000 0.739506 0.247553 0.625978 0.000000
127.14800262 249.21099854 410.50000000 0.119045 0.126260 0.984828 0.000000
133.08200073 290.74600220 398.50000000 0.169563 0.676726 0.716443 0.000000
124.60500336 253.44900513 324.50000000 0.583337 0.379580 -0.718079 0.000000
141.55900574 312.78500366 376.50000000 0.033754 0.887065 0.460409 0.000000
139.86300659 251.75399780 408.50000000 0.146275 0.158777 0.976419 0.000000
164.44500732 252.60200500 399.50000000 0.500256 0.247819 0.829656 0.000000
110.19499969 315.75201416 334.00000000 -0.842661 0.531832 -0.084124 0.000000
166.14100647 196.65600586 358.50000000 0.098070 0.064253 -0.993103 0.000000
149.61099243 225.47700500 328.00000000 -0.127692 -0.991025 -0.039551 0.000000
80.10350037 261.07800293 295.00000000 -0.947390 0.302583 -0.104385 0.000000
199.19900513 158.51199341 394.50000000 0.836494 0.419031 0.353116 0.000000
157.66400146 222.50999451 322.00000000 0.160813 0.277030 -0.947309 0.000000
106.38099670 314.48001099 351.00000000 -0.546410 0.826242 -0.136971 0.000000
166.14100647 131.81100464 372.00000000 -0.082115 -0.799540 0.594973 0.000000
161.90199280 267.85900879 342.50000000 0.552681 0.366824 -0.748321 0.000000
115.28099823 197.50399780 320.50000000 0.713531 -0.357582 -0.602501 0.000000
253.02499390 163.59800720 375.00000000 0.052110 -0.293597 -0.954508 0.000000
121.21499634 239.88699341 413.50000000 0.000978 0.000978 0.999999 0.000000
112.73799896 277.18399048 401.50000000 -0.081821 0.445159 0.891705 0.000000
108.50000000 311.93798828 374.50000000 -0.356065 0.784632 0.507514 0.000000
164.44500732 171.64999390 397.00000000 0.217991 -0.173072 0.960482 0.000000
84.34179688 286.50799561 326.00000000 -0.840570 0.533080 -0.096270 0.000000
73.74610138 255.14500427 378.50000000 -0.545574 0.472163 -0.692395 0.000000
188.17999268 180.12699890 344.00000000 0.264764 0.416058 -0.869940 0.000000
73.74610138 230.98599243 276.00000000 -0.792312 0.606725 0.064241 0.000000
179.70300293 179.70300293 398.50000000 0.212342 -0.242481 0.946633 0.000000
91.54689789 223.78100586 291.50000000 0.583206 -0.118992 -0.803562 0.000000
178.43200684 130.53900146 372.00000000 0.185255 -0.629254 0.754798 0.000000
130.53900146 242.42999268 322.50000000 0.373039 0.226749 -0.899682 0.000000
191.14599609 214.45700073 394.00000000 0.513995 0.750465 0.415465 0.000000
103.41400146 284.38900757 396.00000000 -0.452281 0.357064 0.817280 0.000000
146.64500427 318.71899414 367.50000000 0.339463 0.719532 0.605837 0.000000
107.22899628 183.09399414 394.00000000 -0.529577 -0.430591 0.730849 0.000000
229.71499634 158.08799744 393.00000000 0.001266 -0.365926 0.930643 0.000000
97.48049927 281.42199707 393.50000000 -0.599549 0.379440 0.704675 0.000000
146.64500427 170.37899780 336.50000000 -0.000978 -0.000978 -0.999999 0.000000
188.17999268 222.50999451 337.00000000 0.154924 0.983589 -0.092474 0.000000
158.51199341 283.96499634 391.50000000 0.528225 0.438807 0.726930 0.000000
152.57800293 314.05700684 369.00000000 0.212018 0.772240 0.598911 0.000000
96.20899963 181.39799500 330.00000000 -0.997324 -0.028800 0.067199 0.000000
106.80500031 295.83200073 390.50000000 -0.440137 0.546434 0.712523 0.000000
88.15619659 225.47700500 398.50000000 -0.691041 -0.064920 0.719894 0.000000
150.03500366 161.90199280 353.50000000 0.450294 0.174544 0.875654 0.000000
131.38699341 204.28500366 410.50000000 -0.001266 -0.365926 0.930643 0.000000
167.83599854 221.23800659 322.50000000 0.321389 -0.538846 -0.778688 0.000000
124.18199921 195.80900574 338.00000000 0.542116 -0.830069 -0.130754 0.000000
217.42399597 158.51199341 358.00000000 0.479767 0.036696 -0.876628 0.000000
84.34179688 196.65600586 349.00000000 -0.936739 -0.312246 -0.158186 0.000000
135.62500000 203.01400757 337.00000000 0.196406 -0.719126 -0.666545 0.000000
139.43899536 294.98400879 339.00000000 0.540831 -0.120994 -0.832384 0.000000
122.91000366 200.04699707 408.50000000 -0.210451 -0.143313 0.967043 0.000000
145.79699707 211.91400146 332.50000000 0.541375 -0.561614 -0.625702 0.000000
265.31600952 165.71699524 385.00000000 0.999999 -0.000978 -0.000978 0.000000
198.35200500 159.35899353 395.50000000 0.836494 0.419031 0.353116 0.000000
173.77000427 281.42199707 381.50000000 0.637920 0.421393 0.644582 0.000000
77.98439789 235.22500610 276.00000000 -0.606026 0.791161 -0.082443 0.000000
99.17579651 220.39100647 298.50000000 0.392055 -0.433661 -0.811314 0.000000
125.45300293 326.77099609 352.00000000 -0.000978 -0.000978 0.999999 0.000000
111.89099884 314.90399170 373.00000000 -0.470326 0.758748 0.450660 0.000000
97.90429688 284.81201172 298.00000000 0.461272 0.635717 -0.618944 0.000000
168.68400574 272.09799194 349.50000000 0.358655 0.540417 -0.761128 0.000000
232.68200684 189.87500000 365.00000000 0.000000 0.000000 0.000000 0.000000
133.92999268 204.70899963 335.00000000 0.360030 -0.860672 -0.360030 0.000000
153.42599487 172.07400513 337.50000000 -0.000978 -0.000978 -0.999999 0.000000
163.59800720 226.32400513 404.50000000 0.476256 0.079609 0.875696 0.000000
79.67970276 214.88099670 325.00000000 -0.973338 -0.227393 0.030078 0.000000
192.41799927 161.90199280 347.50000000 0.182506 -0.094315 -0.978671 0.000000
171.22700500 232.68200684 380.00000000 0.214802 0.969785 -0.115662 0.000000
109.34799957 312.36099243 374.00000000 -0.408237 0.772560 0.486306 0.000000
72.89839935 241.58200073 351.50000000 -0.995500 0.001065 0.094759 0.000000
164.44500732 130.11500549 369.00000000 -0.004051 -0.849278 0.527930 0.000000
172.92199707 222.50999451 342.00000000 -0.173819 0.150982 0.973135 0.000000
161.05499268 214.03300476 354.00000000 0.020966 -0.666730 -0.745004 0.000000
138.16799927 308.12298584 383.00000000 0.110037 0.787865 0.605937 0.000000
152.15400696 196.65600586 353.00000000 0.746336 -0.240399 -0.620637 0.000000
179.70300293 211.49000549 341.00000000 0.983029 0.132121 -0.127273 0.000000
88.15619659 191.57000732 301.50000000 -0.151203 -0.579360 -0.800924 0.000000
222.08599854 189.87500000 389.50000000 0.050187 0.157564 0.986233 0.000000
98.75199890 259.38299561 404.00000000 -0.390497 0.209142 0.896533 0.000000
200.89500427 164.44500732 349.50000000 0.664375 0.189601 -0.722951 0.000000
178.85499573 234.80099487 338.50000000 0.708787 0.546115 -0.446519 0.000000
238.61500549 182.24600220 369.00000000 0.483092 -0.172850 -0.858338 0.000000
79.67970276 268.28298950 307.00000000 -0.964318 0.214727 -0.154864 0.000000
142.83000183 265.31600952 335.00000000 0.170603 0.444735 -0.879264 0.000000
150.88299561 164.86900330 360.00000000 0.465545 -0.815100 0.344789 0.000000
79.25589752 205.13299561 361.00000000 -0.846239 -0.419223 -0.328833 0.000000
192.41799927 172.49800110 396.00000000 -0.106711 -0.106711 0.988547 0.000000
208.94700623 174.61700439 352.00000000 0.193474 -0.217491 -0.956695 0.000000
186.48399353 222.93400574 381.50000000 -0.534958 0.602461 0.592335 0.000000
170.37899780 256.41598511 344.00000000 -0.086864 0.420532 -0.903110 0.000000
166.98800659 250.90600586 398.50000000 0.538506 0.387921 0.748016 0.000000
200.04699707 199.62300110 351.00000000 0.457631 0.866070 0.201238 0.000000
92.39450073 278.45498657 289.00000000 -0.592821 0.803222 0.058287 0.000000
118.67199707 265.73999023 325.00000000 0.548825 0.407086 -0.730118 0.000000
212.33799744 220.39100647 338.00000000 -0.095916 0.432317 -0.896606 0.000000
219.54299927 219.96699524 364.00000000 0.925815 0.359659 0.116240 0.000000
104.26200104 161.90199280 334.50000000 -0.737860 -0.209707 -0.641550 0.000000
172.92199707 266.16400146 389.50000000 0.469289 0.309197 0.827142 0.000000
147.06799316 153.42599487 356.00000000 0.863502 0.503368 0.031375 0.000000
82.64649963 202.58999634 346.00000000 -0.976187 -0.061999 -0.207880 0.000000
212.76199341 154.27299500 355.50000000 0.399897 -0.046500 -0.915380 0.000000
100.87100220 267.01199341 402.50000000 -0.487233 0.331700 0.807824 0.000000
171.64999390 284.81201172 356.00000000 0.771373 0.229075 -0.593724 0.000000
131.38699341 285.66000366 401.50000000 0.165621 -0.033587 0.985617 0.000000
240.73399353 205.97999573 383.50000000 0.372516 0.353967 0.857869 0.000000
187.33200073 132.23399353 365.50000000 0.563568 -0.815029 -0.134606 0.000000
105.53299713 210.21899414 309.00000000 0.712543 -0.240660 -0.659063 0.000000
107.65200043 186.06100464 396.00000000 -0.536927 -0.346665 0.769112 0.000000
183.09399414 233.52900696 379.00000000 -0.838660 -0.200976 -0.506218 0.000000
139.01600647 194.11300659 346.50000000 0.670073 0.120346 -0.732475 0.000000
163.59800720 259.80700684 398.00000000 0.524877 0.256987 0.811457 0.000000
145.79699707 271.67401123 403.00000000 0.367526 0.249445 0.895936 0.000000
198.35200500 200.04699707 333.50000000 -0.265383 -0.061629 -0.962171 0.000000
83.07029724 244.54899597 276.00000000 0.509887 0.145472 -0.847852 0.000000
86.88480377 183.94099426 354.00000000 -0.914940 -0.376905 -0.144317 0.000000
181.39799500 161.05499268 344.50000000 -0.283223 0.046574 -0.957923 0.000000
87.30860138 218.69500732 395.50000000 -0.709116 -0.140017 0.691050 0.000000
155.96899414 289.89801025 391.50000000 0.456573 0.610437 0.647231 0.000000
89.42769623 179.70300293 358.00000000 -0.357229 -0.931960 0.061955 0.000000
208.52299500 194.53700256 344.00000000 0.134980 0.936678 -0.323133 0.000000
132.23399353 326.77099609 356.00000000 -0.016972 0.912546 0.408622 0.000000
212.76199341 224.20500183 351.00000000 -0.142431 0.985045 0.096949 0.000000
164.86900330 297.52700806 354.00000000 0.729001 0.342582 -0.592618 0.000000
217.84800720 219.54299927 372.50000000 0.235967 -0.331511 0.913466 0.000000
127.14800262 269.55499268 331.50000000 0.313234 0.289705 -0.904409 0.000000
104.68599701 282.26998901 311.00000000 0.883632 0.284509 -0.371818 0.000000
95.78520203 231.83399963 405.00000000 -0.601634 0.249765 0.758719 0.000000
122.91000366 198.35200500 332.50000000 0.606140 -0.606140 -0.514965 0.000000
83.49410248 204.28500366 316.00000000 -0.883104 -0.456388 0.108798 0.000000
186.48399353 266.16400146 374.50000000 0.493082 0.247309 0.834092 0.000000
75.86519623 221.23800659 339.00000000 -0.836099 -0.277666 0.473117 0.000000
187.33200073 238.19099426 387.50000000 0.755099 -0.376734 0.536561 0.000000
178.85499573 208.94700623 351.00000000 0.589761 0.640168 0.492308 0.000000
244.12500000 207.67599487 381.50000000 0.181429 0.596123 0.782126 0.000000
200.89500427 198.35200500 332.50000000 -0.215398 -0.102031 -0.971181 0.000000
193.26600647 221.66200256 350.00000000 0.456125 0.889377 0.030947 0.000000
102.56600189 159.78300476 370.00000000 -0.847525 -0.453756 0.275330 0.000000
78.83200073 247.51600647 275.50000000 0.105832 0.546557 -0.830708 0.000000
144.94900513 151.72999573 386.50000000 0.104578 -0.755613 0.646616 0.000000
73.32230377 272.09799194 357.00000000 -0.991311 -0.018914 -0.130172 0.000000
78.40820313 270.40200806 317.00000000 -0.941031 0.289865 -0.174469 0.000000
228.86700439 150.88299561 391.50000000 0.110987 -0.267674 0.957096 0.000000
98.75199890 294.13699341 385.00000000 -0.606140 0.606140 0.514965 0.000000
73.74610138 247.09199524 368.00000000 -0.696178 0.590346 -0.408446 0.000000
184.36500549 222.93400574 391.00000000 0.773663 0.501178 0.387642 0.000000
86.46089935 195.38499451 300.00000000 -0.020871 -0.624729 -0.780563 0.000000
79.67970276 267.85900879 373.50000000 -0.942371 0.139260 0.304209 0.000000
140.71099854 153.85000610 338.00000000 0.319803 -0.517095 -0.793939 0.000000
81.79879761 202.58999634 350.00000000 -0.973756 -0.183132 -0.135139 0.000000
219.11900330 221.23800659 359.00000000 0.847534 0.518339 0.114063 0.000000
116.97699738 244.97300720 412.50000000 -0.127507 0.190629 0.973346 0.000000
153.42599487 237.34399414 325.50000000 -0.133877 -0.049203 -0.989776 0.000000
111.04299927 272.09799194 404.50000000 0.033906 0.178885 0.983285 0.000000
214.45700073 196.65600586 333.50000000 0.239317 -0.471013 -0.849043 0.000000
250.90600586 149.61099243 388.00000000 0.197045 -0.218493 0.955737 0.000000
195.38499451 252.60200500 372.00000000 0.792160 0.510503 0.334468 0.000000
80.10350037 271.25000000 313.00000000 -0.885687 0.405013 -0.226985 0.000000
136.04899597 274.64099121 336.00000000 0.293517 0.193360 -0.936194 0.000000
111.04299927 225.47700500 310.50000000 0.504695 -0.042631 -0.862244 0.000000
196.65600586 216.15199280 382.50000000 0.443583 0.835441 0.324458 0.000000
182.66999817 267.85900879 360.00000000 0.707483 0.357826 -0.609449 0.000000
143.25399780 213.60899353 410.50000000 -0.000978 -0.000978 0.999999 0.000000
185.63699341 227.59599304 366.00000000 0.988242 0.109282 -0.106932 0.000000
120.36699677 314.48001099 332.50000000 0.233684 0.552484 -0.800096 0.000000
146.22099304 218.69500732 410.00000000 0.188601 0.046261 0.980964 0.000000
84.34179688 205.13299561 322.00000000 -0.845185 -0.463389 0.266333 0.000000
234.80099487 178.85499573 366.50000000 0.574766 -0.084991 -0.813892 0.000000
108.92400360 315.32800293 366.00000000 -0.438791 0.879049 0.186376 0.000000
116.12899780 257.26400757 319.00000000 0.631350 0.070470 -0.772289 0.000000
79.25589752 238.19099426 388.00000000 -0.901143 0.140493 0.410126 0.000000
189.87500000 223.35699463 352.00000000 0.246228 0.962998 0.109578 0.000000
182.24600220 233.95300293 344.50000000 0.926115 0.364751 -0.096273 0.000000
121.21499634 170.37899780 337.50000000 -0.009298 0.463590 -0.886001 0.000000
100.02300262 300.49398804 311.00000000 -0.658695 0.690905 -0.297943 0.000000
127.14800262 163.17399597 390.00000000 -0.276941 -0.401035 0.873198 0.000000
105.95700073 259.38299561 406.50000000 -0.274412 0.163566 0.947599 0.000000
124.60500336 173.34599304 339.00000000 -0.027207 0.369242 -0.928935 0.000000
205.13299561 210.64300537 389.00000000 0.122137 0.810811 0.572424 0.000000
139.86300659 151.72999573 339.50000000 0.253099 -0.583227 -0.771872 0.000000
162.32600403 306.85198975 359.00000000 0.890875 0.342875 -0.297957 0.000000
99.17579651 284.81201172 393.50000000 -0.530617 0.405766 0.744178 0.000000
95.78520203 279.30300903 393.00000000 -0.621145 0.365476 0.693257 0.000000
161.90199280 185.63699341 402.50000000 0.101171 -0.244604 0.964330 0.000000
98.32810211 303.88500977 331.00000000 -0.558635 0.790226 -0.251933 0.000000
184.78900146 206.82800293 344.50000000 0.675923 0.669471 0.308118 0.000000
83.91799927 251.75399780 275.50000000 0.643792 -0.175858 -0.744719 0.000000
98.75199890 257.68798828 294.00000000 0.894688 0.446689 0.001310 0.000000
240.73399353 166.98800659 390.50000000 0.438855 -0.072913 0.895595 0.000000
96.63279724 269.55499268 398.50000000 -0.597315 0.386692 0.702627 0.000000
239.88699341 167.83599854 370.50000000 0.209581 -0.160115 -0.964593 0.000000
120.36699677 206.82800293 319.50000000 0.568503 -0.403720 -0.716808 0.000000
166.14100647 184.78900146 355.50000000 -0.423598 0.875636 -0.232006 0.000000
180.55099487 175.88900757 342.00000000 0.013726 -0.313202 -0.949587 0.000000
76.28910065 267.01199341 366.50000000 -0.980251 0.017484 0.196983 0.000000
183.94099426 250.05900574 350.50000000 0.709698 0.199458 -0.675682 0.000000
126.30100250 239.88699341 413.50000000 0.095888 0.298172 0.949684 0.000000
95.36129761 300.07000732 324.00000000 -0.913790 0.391229 -0.109212 0.000000
111.04299927 293.71301270 394.00000000 -0.233309 0.489491 0.840217 0.000000
142.40600586 232.25799561 325.50000000 0.000978 0.000978 -0.999999 0.000000
208.52299500 203.86099243 332.00000000 0.243065 0.053055 -0.968558 0.000000
94.51370239 184.78900146 384.00000000 -0.542818 -0.469328 0.696477 0.000000
199.19900513 198.35200500 353.50000000 0.620305 0.380081 -0.686120 0.000000
105.95700073 178.43200684 322.00000000 0.346106 -0.729586 -0.589843 0.000000
160.20700073 233.10499573 405.50000000 0.507273 0.092361 0.856822 0.000000
145.37300110 211.06599426 333.00000000 0.541375 -0.561614 -0.625702 0.000000
209.37100220 182.24600220 351.50000000 0.325234 0.091596 -0.941187 0.000000
138.59199524 251.75399780 409.00000000 0.146275 0.158777 0.976419 0.000000
91.54689789 265.31600952 395.50000000 -0.672682 0.293797 0.679104 0.000000
83.49410248 205.13299561 321.00000000 -0.845060 -0.511755 0.154854 0.000000
85.18949890 254.29699707 276.00000000 0.410646 0.240415 -0.879529 0.000000
114.01000214 209.37100220 408.00000000 -0.205700 -0.131597 0.969727 0.000000
180.55099487 215.30499268 335.50000000 0.939435 0.262265 0.220635 0.000000
234.80099487 147.91600037 390.00000000 0.096516 -0.216847 0.971423 0.000000
111.89099884 233.10499573 310.50000000 0.705658 -0.012526 -0.708442 0.000000
189.87500000 224.62899780 389.50000000 0.018338 -0.091688 0.995619 0.000000
98.75199890 278.03100586 297.00000000 0.820864 0.256035 -0.510518 0.000000
171.64999390 294.98400879 374.00000000 0.603859 0.583561 0.542965 0.000000
111.04299927 196.65600586 315.50000000 -0.001213 -0.282560 -0.959249 0.000000
127.14800262 290.74600220 398.50000000 -0.205090 0.420508 0.883805 0.000000
162.32600403 272.09799194 395.00000000 0.485485 0.317859 0.814414 0.000000
251.75399780 181.39799500 373.50000000 0.397643 0.001287 -0.917539 0.000000
132.23399353 255.99200439 409.50000000 0.111896 0.285664 0.951775 0.000000
127.99600220 163.59800720 335.50000000 0.137663 0.279335 -0.950274 0.000000
89.00389862 281.42199707 296.50000000 -0.789240 0.553880 -0.265172 0.000000
79.67970276 270.82598877 312.00000000 -0.920566 0.355577 -0.161626 0.000000
137.32000732 166.56399536 395.00000000 -0.416439 -0.353580 0.837592 0.000000
205.97999573 132.65800476 371.00000000 -0.446689 -0.894688 -0.001310 0.000000
197.08000183 194.96099854 351.00000000 -0.009590 0.571319 -0.820672 0.000000
122.91000366 156.81599426 333.50000000 0.290826 0.132681 -0.947531 0.000000
172.92199707 201.74200439 360.50000000 0.003729 0.324417 -0.945907 0.000000
175.46499634 214.45700073 400.50000000 0.415245 0.175069 0.892705 0.000000
108.50000000 207.25199890 405.00000000 -0.408183 -0.424190 0.808362 0.000000
202.58999634 197.50399780 346.50000000 0.308050 0.915471 -0.258877 0.000000
108.07599640 155.12100220 334.00000000 -0.699893 -0.447200 -0.556922 0.000000
101.71900177 307.27499390 331.00000000 -0.700078 0.681368 -0.213610 0.000000
105.10900116 172.07400513 386.50000000 -0.339808 -0.710507 0.616206 0.000000
126.72499847 306.85198975 332.00000000 -0.794516 0.292218 -0.532310 0.000000
250.05900574 181.39799500 373.50000000 0.416143 0.009132 -0.909253 0.000000
199.19900513 211.91400146 324.50000000 0.001205 -0.962562 -0.271059 0.000000
76.71289825 214.45700073 380.00000000 -0.893974 -0.379754 0.237901 0.000000
121.21499634 323.38101196 352.00000000 -0.470042 0.881498 0.044961 0.000000
181.39799500 191.14599609 400.00000000 0.390023 -0.192836 0.900387 0.000000
154.27299500 262.77301025 337.50000000 0.375432 0.308554 -0.873982 0.000000
78.40820313 278.87899780 334.00000000 -0.751386 0.651004 0.107763 0.000000
77.98439789 227.17199707 388.50000000 -0.733723 0.067750 0.676063 0.000000
204.28500366 135.20100403 376.00000000 0.057851 -0.828261 0.557348 0.000000
236.49600220 171.22700500 369.50000000 0.310682 -0.139739 -0.940186 0.000000
111.04299927 155.12100220 332.50000000 -0.452678 0.047579 -0.890404 0.000000
138.16799927 143.25399780 341.50000000 -0.000978 -0.999999 -0.000978 0.000000
153.85000610 166.98800659 361.00000000 0.465545 -0.815100 0.344789 0.000000
118.67199707 232.25799561 412.50000000 -0.001337 -0.506611 0.862174 0.000000
146.64500427 173.77000427 336.50000000 -0.000978 -0.000978 -0.999999 0.000000
172.07400513 247.09199524 397.00000000 0.530554 0.310685 0.788662 0.000000
77.56050110 276.33599854 348.00000000 -0.895379 0.171578 -0.410923 0.000000
94.93750000 225.47700500 293.50000000 0.671016 -0.237291 -0.702446 0.000000
162.75000000 163.59800720 394.50000000 0.181572 -0.411079 0.893334 0.000000
72.89839935 250.90600586 351.50000000 0.000000 0.000000 0.000000 0.000000
106.80500031 221.23800659 408.50000000 -0.270701 -0.270701 0.923819 0.000000
83.91799927 191.57000732 303.50000000 -0.612805 -0.756260 -0.229217 0.000000
96.20899963 188.17999268 306.00000000 0.707670 -0.491206 -0.507857 0.000000
194.96099854 210.21899414 393.50000000 -0.166474 0.887378 0.429937 0.000000
174.61700439 179.70300293 399.50000000 0.151723 -0.611399 0.776641 0.000000
249.63499451 181.39799500 373.00000000 0.393543 0.043727 -0.918266 0.000000
162.32600403 301.76599121 354.00000000 0.729026 0.396603 -0.557877 0.000000
217.00000000 197.50399780 335.50000000 0.647419 -0.344094 -0.680035 0.000000
73.74610138 227.17199707 339.50000000 -0.881968 -0.434402 -0.182829 0.000000
100.02300262 160.20700073 348.50000000 -0.866594 -0.360442 -0.345104 0.000000
75.01760101 261.92599487 349.00000000 -0.984425 0.062634 -0.164268 0.000000
111.89099884 219.54299927 409.50000000 -0.122063 -0.263814 0.956819 0.000000
177.16000366 147.06799316 351.00000000 -0.506611 -0.001337 -0.862174 0.000000
205.97999573 149.61099243 393.00000000 0.092564 -0.421372 0.902151 0.000000
200.47099304 212.76199341 379.00000000 0.684157 0.727186 0.055937 0.000000
77.56050110 211.91400146 356.00000000 -0.990110 -0.070475 -0.121309 0.000000
176.31199646 212.76199341 348.50000000 0.713412 0.649856 0.262167 0.000000
143.25399780 269.55499268 404.50000000 0.260410 0.294939 0.919346 0.000000
180.55099487 229.29100037 334.00000000 0.806203 0.453589 -0.379861 0.000000
97.05660248 185.63699341 387.00000000 -0.534310 -0.467729 0.704090 0.000000
235.64799500 142.40600586 387.50000000 0.101116 -0.619884 0.778152 0.000000
114.85700226 141.55900574 365.00000000 -0.628994 -0.768112 -0.119879 0.000000
71.62699890 229.71499634 340.00000000 -0.801357 -0.567184 -0.190075 0.000000
100.02300262 310.66598511 362.00000000 -0.788451 0.591716 0.167981 0.000000
129.69099426 156.81599426 334.50000000 0.310519 0.125014 -0.942311 0.000000
101.71900177 243.27699280 296.50000000 0.940034 0.154171 -0.304249 0.000000
83.91799927 236.49600220 394.50000000 -0.763803 0.001376 0.645448 0.000000
115.70500183 192.41799927 403.00000000 -0.465623 -0.308848 0.829342 0.000000
113.16200256 180.55099487 396.00000000 -0.185831 -0.723357 0.664997 0.000000
156.81599426 254.29699707 333.50000000 0.315473 0.499367 -0.806913 0.000000
130.53900146 308.12298584 384.00000000 0.001376 0.763803 0.645448 0.000000
180.55099487 126.30100250 363.50000000 0.541585 -0.568580 0.619195 0.000000
212.33799744 193.26600647 341.00000000 0.045390 0.985783 -0.161776 0.000000
136.47300720 320.83801270 366.00000000 0.051092 0.931450 0.360265 0.000000
119.51999664 171.22700500 391.50000000 -0.242503 -0.308510 0.919790 0.000000
228.02000427 183.94099426 361.50000000 0.600218 0.001367 -0.799835 0.000000
175.46499634 239.88699341 380.50000000 -0.686825 -0.680480 0.255378 0.000000
222.08599854 214.88099670 357.00000000 0.980955 0.185199 0.058547 0.000000
157.66400146 290.74600220 346.50000000 0.262418 0.046016 -0.963857 0.000000
155.12100220 170.80299377 397.00000000 -0.143581 -0.361044 0.921429 0.000000
89.00389862 217.00000000 396.50000000 -0.722599 -0.153003 0.674122 0.000000
107.22899628 177.16000366 390.00000000 -0.203296 -0.560974 0.802483 0.000000
209.79499817 205.13299561 391.00000000 0.466127 0.198067 0.862261 0.000000
239.88699341 197.50399780 387.50000000 0.003925 0.433025 0.901373 0.000000
213.60899353 189.02699280 352.50000000 0.609512 0.152002 -0.778068 0.000000
144.94900513 197.50399780 349.50000000 0.258172 -0.174367 -0.950233 0.000000
161.47900391 299.22299194 380.00000000 0.541918 0.589188 0.599318 0.000000
116.97699738 167.83599854 389.50000000 -0.243737 -0.376684 0.893701 0.000000
155.12100220 256.83999634 403.50000000 0.344149 0.172777 0.922881 0.000000
170.37899780 172.07400513 396.50000000 0.181053 -0.363532 0.913819 0.000000
76.71289825 253.44900513 301.00000000 -0.975346 0.186078 -0.118640 0.000000
211.49000549 133.08200073 373.00000000 0.001280 -0.920595 0.390517 0.000000
159.78300476 235.64799500 406.00000000 0.332776 0.111823 0.936352 0.000000
148.33999634 211.91400146 409.50000000 0.836494 0.419031 0.353116 0.000000
101.71900177 156.39300537 348.00000000 -0.855684 -0.470701 -0.215049 0.000000
220.39100647 183.94099426 390.50000000 0.012746 0.191195 0.981469 0.000000
90.69920349 277.18399048 389.50000000 -0.745642 0.285803 0.601942 0.000000
161.90199280 214.03300476 354.00000000 0.020966 -0.666730 -0.745004 0.000000
75.44139862 236.91999817 299.00000000 -0.989361 0.110706 0.094391 0.000000
192.84199524 200.04699707 339.00000000 0.704484 0.704484 0.086055 0.000000
179.27900696 220.39100647 336.00000000 -0.179598 0.713786 -0.676945 0.000000
236.49600220 181.39799500 389.50000000 0.034787 0.047436 0.998268 0.000000
137.32000732 283.11700439 401.50000000 0.263015 0.472196 0.841340 0.000000
162.75000000 244.97300720 403.50000000 0.481475 0.199490 0.853455 0.000000
239.03900146 207.67599487 383.50000000 0.410909 0.410909 0.813823 0.000000
127.14800262 135.20100403 354.00000000 -0.352553 -0.918903 -0.176984 0.000000
77.56050110 281.42199707 358.00000000 -0.752412 0.653449 0.082954 0.000000
162.75000000 217.00000000 325.50000000 0.417579 0.906781 -0.058110 0.000000
124.18199921 136.47300720 352.00000000 -0.499058 -0.857801 -0.122956 0.000000
104.26200104 206.82800293 402.50000000 -0.492528 -0.379489 0.783201 0.000000
228.02000427 204.28500366 385.50000000 0.193345 0.328828 0.924386 0.000000
116.12899780 249.21099854 315.50000000 0.365926 0.001266 -0.930643 0.000000
149.61099243 291.59399414 394.00000000 0.380417 0.428169 0.819728 0.000000
75.86519623 228.02000427 316.00000000 -0.985708 -0.145899 -0.084218 0.000000
200.89500427 178.85499573 396.50000000 -0.066227 0.404118 0.912306 0.000000
149.18800354 195.80900574 406.50000000 0.310106 -0.313073 0.897675 0.000000
85.61329651 289.47500610 365.00000000 -0.794739 0.603545 0.064207 0.000000
142.40600586 321.68600464 363.00000000 0.140925 0.919499 0.366962 0.000000
223.78100586 144.10200500 388.50000000 0.119142 -0.589826 0.798693 0.000000
193.26600647 197.08000183 353.00000000 -0.510528 -0.117147 -0.851844 0.000000
142.83000183 137.32000732 359.00000000 0.423066 -0.569065 -0.705110 0.000000
111.89099884 163.59800720 333.50000000 0.032773 0.241548 -0.969835 0.000000
80.10350037 211.91400146 314.00000000 -0.999999 -0.000978 -0.000978 0.000000
236.07200623 175.46499634 368.00000000 0.354942 -0.292041 -0.888104 0.000000
138.16799927 240.73399353 324.50000000 0.268760 0.184176 -0.945435 0.000000
237.34399414 137.32000732 381.50000000 -0.156339 -0.714909 0.681516 0.000000
218.69500732 134.35400391 375.00000000 0.123978 -0.884947 0.448886 0.000000
172.07400513 291.59399414 360.50000000 0.765765 0.481664 -0.426150 0.000000
141.55900574 292.44100952 396.50000000 0.366881 0.407820 0.836111 0.000000
79.67970276 277.60699463 344.00000000 -0.919621 0.277757 -0.277757 0.000000
83.07029724 196.23199463 364.00000000 -0.879205 -0.476292 -0.012007 0.000000
208.52299500 129.26800537 362.00000000 0.059860 -0.924501 0.376451 0.000000
105.10900116 204.70899963 402.00000000 -0.474000 -0.319675 0.820446 0.000000
228.02000427 214.45700073 379.50000000 -0.095004 0.627025 0.773184 0.000000
118.67199707 225.47700500 315.50000000 0.520405 -0.171480 -0.836525 0.000000
201.74200439 202.16600037 332.00000000 -0.284535 0.008548 -0.958627 0.000000
173.77000427 173.77000427 396.50000000 0.195462 -0.346695 0.917386 0.000000
128.84399414 321.68600464 367.00000000 -0.493167 0.780982 -0.383215 0.000000
258.53500366 193.26600647 377.50000000 -0.205535 0.112225 0.972194 0.000000
97.48049927 168.25999451 373.00000000 -0.704621 -0.544707 0.454756 0.000000
138.59199524 278.03100586 403.00000000 0.134973 0.421969 0.896507 0.000000
185.21299744 232.25799561 386.00000000 0.796062 -0.434362 -0.421444 0.000000
78.40820313 259.38299561 302.00000000 -0.944977 0.314992 -0.088303 0.000000
111.89099884 211.06599426 407.50000000 -0.394900 -0.232207 0.888895 0.000000
184.78900146 203.86099243 360.00000000 0.205264 0.898212 0.388692 0.000000
75.86519623 253.44900513 376.00000000 -0.752163 0.478948 -0.452614 0.000000
176.31199646 214.45700073 399.50000000 0.415245 0.175069 0.892705 0.000000
178.85499573 236.49600220 377.50000000 -0.191470 0.974869 0.113881 0.000000
119.51999664 203.86099243 408.00000000 -0.310618 -0.200988 0.929043 0.000000
111.89099884 169.53100586 387.50000000 -0.432440 -0.541793 0.720733 0.000000
87.30860138 209.79499817 392.00000000 -0.581547 -0.397034 0.710047 0.000000
143.25399780 251.75399780 408.50000000 0.073087 0.124131 0.989570 0.000000
211.06599426 198.77499390 351.00000000 -0.709495 0.631920 -0.311919 0.000000
159.35899353 307.69900513 354.50000000 0.785839 0.334502 -0.520158 0.000000
166.56399536 297.52700806 357.00000000 0.745866 0.349371 -0.567118 0.000000
194.53700256 242.42999268 381.00000000 0.668658 0.431876 0.605293 0.000000
154.27299500 223.35699463 342.00000000 0.224400 -0.961903 -0.156162 0.000000
141.55900574 145.79699707 384.50000000 -0.132038 -0.430188 0.893031 0.000000
80.95120239 202.58999634 359.00000000 -0.907456 -0.401294 -0.124443 0.000000
115.70500183 321.26199341 354.00000000 -0.530341 0.847731 0.009495 0.000000
229.29100037 133.08200073 364.00000000 -0.552920 -0.807171 -0.206771 0.000000
111.04299927 238.61500549 311.00000000 0.622107 0.250418 -0.741804 0.000000
121.63899994 137.32000732 356.00000000 -0.493025 -0.850506 -0.183209 0.000000
190.72300720 205.13299561 396.50000000 0.466512 0.137209 0.873808 0.000000
85.61329651 235.64799500 396.50000000 -0.625730 0.223141 0.747443 0.000000
248.36300659 168.68400574 389.50000000 0.069040 0.022305 0.997365 0.000000
75.01760101 223.78100586 339.00000000 -0.717142 -0.311030 0.623672 0.000000
119.51999664 288.20300293 399.50000000 -0.324168 -0.215636 0.921095 0.000000
123.75800323 261.07800293 407.50000000 0.063309 0.405449 0.911923 0.000000
108.92400360 184.78900146 325.00000000 0.937251 -0.284647 -0.201336 0.000000
138.16799927 267.43600464 335.00000000 0.250831 0.493968 -0.832514 0.000000
179.70300293 154.69700623 347.00000000 0.108960 -0.547704 -0.829547 0.000000
208.52299500 200.89500427 392.50000000 0.536420 0.133738 0.833288 0.000000
208.52299500 155.96899414 353.50000000 0.402270 -0.060542 -0.913517 0.000000
78.40820313 218.69500732 324.00000000 -0.931007 -0.343146 -0.124408 0.000000
202.58999634 204.28500366 394.50000000 0.307650 0.292930 0.905286 0.000000
105.95700073 172.07400513 387.50000000 0.066762 -0.903324 -0.423731 0.000000
200.04699707 235.64799500 378.50000000 0.675566 0.622710 -0.394769 0.000000
262.77301025 178.00799561 378.50000000 0.520916 -0.042834 -0.852533 0.000000
183.94099426 183.94099426 398.50000000 0.266083 -0.166133 0.949526 0.000000
95.36129761 297.52700806 316.00000000 -0.724856 0.642737 -0.247936 0.000000
166.14100647 232.25799561 324.50000000 0.206716 0.447638 -0.869994 0.000000
138.16799927 277.18399048 403.50000000 0.134973 0.421969 0.896507 0.000000
130.53900146 176.31199646 338.50000000 -0.359177 0.180298 -0.915688 0.000000
143.25399780 158.51199341 391.50000000 -0.156069 -0.226891 0.961334 0.000000
72.05079651 236.49600220 349.50000000 -0.114983 0.950265 0.289441 0.000000
110.61900330 283.11700439 322.00000000 0.817922 0.162986 -0.551761 0.000000
122.91000366 197.92799377 408.00000000 -0.170639 -0.226196 0.959019 0.000000
230.56199646 171.22700500 365.50000000 0.659465 -0.085891 -0.746812 0.000000
75.01760101 244.97300720 315.00000000 -0.992461 0.083180 -0.090017 0.000000
109.77100372 296.67999268 322.00000000 0.835756 0.063422 -0.545426 0.000000
184.78900146 259.38299561 380.50000000 0.729586 0.346106 0.589843 0.000000
258.53500366 209.37100220 379.50000000 -0.869608 -0.296976 0.394446 0.000000
241.58200073 148.33999634 389.50000000 0.024958 -0.217492 0.975743 0.000000
158.51199341 226.32400513 406.50000000 0.297954 -0.060102 0.952686 0.000000
130.53900146 257.26400757 409.00000000 0.111896 0.285664 0.951775 0.000000
245.82000732 141.55900574 386.50000000 0.148193 -0.441700 0.884839 0.000000
224.62899780 211.91400146 367.50000000 0.267025 0.526242 -0.807321 0.000000
108.07599640 151.72999573 343.00000000 -0.874720 -0.478515 -0.076730 0.000000
169.10699463 289.05099487 354.00000000 0.665757 0.336948 -0.665757 0.000000
222.93400574 138.16799927 362.50000000 0.376432 -0.309375 -0.873262 0.000000
149.61099243 294.98400879 392.00000000 0.595633 0.397638 0.697930 0.000000
83.49410248 257.68798828 277.00000000 -0.158824 0.521002 -0.838649 0.000000
191.57000732 139.43899536 352.00000000 -0.224618 0.073218 -0.971692 0.000000
182.24600220 233.10499573 381.50000000 -0.333776 -0.936985 0.103216 0.000000
141.55900574 251.75399780 408.50000000 0.146275 0.158777 0.976419 0.000000
254.29699707 147.49200439 386.50000000 0.390822 -0.196137 0.899327 0.000000
147.49200439 175.46499634 336.50000000 -0.000978 -0.000978 -0.999999 0.000000
239.88699341 138.16799927 383.50000000 -0.117284 -0.705190 0.699251 0.000000
170.37899780 215.72900391 330.00000000 -0.127707 0.991672 -0.016657 0.000000
86.88480377 185.63699341 348.00000000 -0.918872 -0.394537 -0.003855 0.000000
78.83200073 268.28298950 312.00000000 -0.905558 0.393783 -0.157797 0.000000
202.58999634 155.12100220 351.50000000 0.146333 -0.156339 -0.976803 0.000000
188.60400391 222.08599854 334.00000000 0.154924 0.983589 -0.092474 0.000000
91.54689789 212.76199341 298.50000000 0.560091 0.051938 -0.826801 0.000000
105.10900116 191.57000732 396.50000000 -0.484227 -0.444832 0.753424 0.000000
185.63699341 152.57800293 349.50000000 0.180851 -0.329458 -0.926688 0.000000
164.44500732 272.09799194 347.50000000 0.358655 0.540417 -0.761128 0.000000
80.52729797 203.01400757 361.00000000 -0.907456 -0.401294 -0.124443 0.000000
158.51199341 179.27900696 341.00000000 0.152551 0.946355 -0.284852 0.000000
149.61099243 287.35501099 396.00000000 0.412124 0.371069 0.832143 0.000000
75.86519623 243.27699280 301.00000000 -0.989656 0.103745 -0.099082 0.000000
207.67599487 144.94900513 353.50000000 0.183414 0.354032 -0.917072 0.000000
162.32600403 172.92199707 342.00000000 0.384539 0.684909 -0.618894 0.000000
108.07599640 307.69900513 325.00000000 0.217621 0.794856 -0.566432 0.000000
129.69099426 133.92999268 352.50000000 -0.290332 -0.939796 -0.180254 0.000000
106.80500031 155.54499817 337.00000000 -0.811923 -0.468722 -0.347967 0.000000
111.04299927 313.63299561 373.50000000 -0.419329 0.771761 0.478068 0.000000
178.00799561 241.58200073 343.50000000 0.737860 0.209707 -0.641550 0.000000
179.70300293 273.36898804 379.00000000 0.719032 0.329489 0.611907 0.000000
105.95700073 196.23199463 399.00000000 -0.541194 -0.172403 0.823035 0.000000
175.46499634 216.15199280 343.50000000 0.000978 0.000978 0.999999 0.000000
258.53500366 174.61700439 376.50000000 0.449831 -0.009234 -0.893066 0.000000
88.15619659 286.50799561 382.50000000 -0.592260 0.413089 0.691799 0.000000
100.87100220 228.86700439 298.50000000 0.714450 -0.058939 -0.697200 0.000000
105.10900116 309.81799316 375.00000000 -0.333548 0.704518 0.626419 0.000000
83.91799927 195.38499451 354.00000000 -0.993250 0.108375 0.041339 0.000000
164.44500732 267.01199341 395.50000000 0.320091 0.183109 0.929523 0.000000
135.62500000 182.66999817 340.00000000 -0.276381 0.458576 -0.844583 0.000000
91.12300110 281.42199707 388.00000000 -0.526253 0.408215 0.745935 0.000000
86.88480377 287.35501099 316.00000000 -0.786402 0.527990 -0.320622 0.000000
90.27539825 202.58999634 390.00000000 -0.651174 -0.405948 0.641232 0.000000
217.84800720 136.47300720 356.50000000 0.976143 0.067194 -0.206468 0.000000
203.43800354 184.78900146 350.50000000 0.808921 0.134574 -0.572308 0.000000
234.37699890 183.09399414 366.00000000 0.582808 -0.075894 -0.809058 0.000000
128.84399414 201.31799316 333.00000000 0.694712 -0.662771 -0.279482 0.000000
192.41799927 230.13900757 383.00000000 -0.457144 -0.716470 0.526963 0.000000
250.90600586 145.79699707 379.50000000 0.456573 -0.610437 -0.647231 0.000000
111.04299927 289.47500610 396.00000000 -0.142872 0.403153 0.903911 0.000000
82.22270203 198.35200500 298.50000000 0.501752 0.077301 -0.861551 0.000000
87.30860138 191.57000732 379.50000000 -0.779228 -0.255562 0.572270 0.000000
91.97070313 189.87500000 303.00000000 0.250878 -0.350642 -0.902281 0.000000
175.04100037 229.71499634 326.00000000 0.467115 0.654631 -0.594358 0.000000
80.95120239 202.58999634 371.00000000 -0.833730 -0.547799 -0.069360 0.000000
210.21899414 198.77499390 333.00000000 0.001174 -0.228974 -0.973432 0.000000
156.81599426 228.86700439 406.50000000 0.269586 0.067080 0.960637 0.000000
117.82399750 296.25601196 394.00000000 -0.161984 0.631283 0.758448 0.000000
180.12699890 222.08599854 338.00000000 -0.421345 0.874179 -0.241411 0.000000
164.44500732 256.83999634 339.50000000 0.530881 0.296342 -0.793944 0.000000
133.92999268 212.33799744 324.00000000 0.386692 -0.597315 -0.702627 0.000000
88.15619659 218.69500732 290.50000000 0.356941 -0.215321 -0.908972 0.000000
172.07400513 267.01199341 350.50000000 0.509183 0.241516 -0.826077 0.000000
77.56050110 208.52299500 376.00000000 -0.929758 -0.021922 0.367519 0.000000
75.01760101 250.90600586 316.00000000 -0.997914 0.035070 -0.054200 0.000000
89.85160065 178.85499573 365.50000000 -0.934860 -0.350081 0.059002 0.000000
99.59960175 309.39498901 346.00000000 -0.748016 0.538506 -0.387921 0.000000
