88.94539642 280.31298828 333.12500000 -0.630351 0.630351 -0.453117 0.000000
117.69499969 309.06298828 338.12500000 0.852207 0.425330 0.304691 0.000000
189.57000732 215.62500000 410.62500000 0.804104 -0.134758 0.579014 0.000000
146.44500732 155.42999268 415.62500000 0.001363 -0.811146 0.584843 0.000000
253.36000061 150.03900146 348.12500000 0.637225 0.603598 0.479180 0.000000
209.33599854 222.81300354 398.12500000 0.115751 0.043828 0.992311 0.000000
150.03900146 256.95300293 325.62500000 0.262121 0.497874 -0.826689 0.000000
170.70300293 260.99600220 398.75000000 0.165841 0.670970 0.722700 0.000000
133.86700439 192.26600647 438.12500000 -0.451931 -0.014578 0.891934 0.000000
200.35200500 212.92999268 340.62500000 -0.501672 0.326485 -0.801082 0.000000
149.14100647 269.98098755 402.50000000 0.378640 0.565502 0.732693 0.000000
115.89800262 207.98800659 426.25000000 -0.892272 0.081619 0.444061 0.000000
97.03130341 260.09799194 292.50000000 0.697496 0.248315 -0.672190 0.000000
150.03900146 162.61700439 323.12500000 -0.642962 -0.322291 0.694787 0.000000
110.95700073 272.22698975 312.50000000 0.781057 0.235408 -0.578388 0.000000
230.00000000 165.76199341 395.00000000 0.198718 0.626962 -0.753279 0.000000
208.43800354 175.19500732 395.62500000 -0.000978 -0.000978 -0.999999 0.000000
170.70300293 158.57400513 392.50000000 0.792405 -0.558887 -0.244416 0.000000
163.96499634 182.38299561 332.50000000 -0.548052 0.043231 0.835326 0.000000
122.63700104 150.93800354 322.50000000 -0.555689 -0.785521 -0.272335 0.000000
190.46899414 212.03100586 408.12500000 0.695446 -0.223480 0.682943 0.000000
200.80099487 218.32000732 402.50000000 0.567307 -0.245364 0.786104 0.000000
78.61329651 230.00000000 327.50000000 -0.980561 0.056272 -0.187971 0.000000
193.16400146 226.85600281 347.50000000 0.373584 0.742273 -0.556297 0.000000
221.91400146 212.03100586 390.62500000 -0.367124 -0.321424 -0.872872 0.000000
218.32000732 151.38699341 362.50000000 0.137022 0.989089 -0.054118 0.000000
113.20300293 170.70300293 298.12500000 0.811146 -0.001363 -0.584843 0.000000
192.26600647 231.79699707 350.62500000 0.680998 0.584426 -0.441234 0.000000
200.35200500 235.83999634 380.00000000 0.895990 -0.408318 0.174581 0.000000
194.06300354 196.75799561 333.12500000 -0.299303 0.477944 -0.825825 0.000000
123.98400116 149.58999634 323.75000000 -0.555689 -0.785521 -0.272335 0.000000
89.84380341 184.62899780 370.00000000 -0.861883 -0.493532 -0.116548 0.000000
101.07399750 177.89100647 345.00000000 -0.859712 -0.362715 -0.359628 0.000000
157.22700500 189.57000732 330.62500000 0.000978 0.000978 0.999999 0.000000
150.03900146 206.64100647 343.12500000 -0.683775 -0.583954 0.437549 0.000000
79.51180267 213.82800293 336.25000000 -0.999999 -0.000978 -0.000978 0.000000
77.71489716 235.39100647 326.25000000 -0.992395 -0.107500 -0.059974 0.000000
126.68000031 213.82800293 308.12500000 0.513525 -0.194266 -0.835795 0.000000
132.07000732 248.41799927 418.75000000 -0.038726 0.958167 0.283577 0.000000
77.71489716 229.10200500 330.00000000 -0.978451 -0.056565 -0.198579 0.000000
84.00399780 265.93798828 313.75000000 -0.839651 0.496503 -0.220162 0.000000
138.35899353 207.98800659 440.00000000 -0.215896 0.091101 0.972157 0.000000
162.61700439 154.98100281 375.00000000 -0.032351 -0.932990 0.358444 0.000000
93.43750000 267.28500366 390.00000000 -0.519156 0.660286 0.542678 0.000000
168.00799561 185.97700500 335.62500000 -0.494685 0.494685 0.714545 0.000000
132.07000732 262.34399414 320.62500000 0.371989 0.448621 -0.812627 0.000000
137.46099854 306.36700439 360.62500000 -0.200632 0.907896 0.368066 0.000000
81.75789642 219.21899414 393.12500000 -0.894688 0.446689 -0.001310 0.000000
202.14900208 169.80499268 320.62500000 0.129574 0.621062 -0.772976 0.000000
91.19149780 200.35200500 400.00000000 -0.832037 -0.201568 0.516803 0.000000
115.44899750 203.94500732 427.50000000 -0.686089 0.223487 0.692340 0.000000
84.45320129 277.61700439 370.62500000 -0.511887 0.679719 0.525313 0.000000
212.92999268 161.71899414 393.12500000 0.113398 0.605280 -0.787894 0.000000
76.81639862 221.01600647 338.75000000 -0.940919 0.001250 -0.338631 0.000000
86.25000000 200.35200500 280.62500000 -0.967003 0.108294 -0.230603 0.000000
79.96099854 213.82800293 353.12500000 -0.812514 -0.462703 0.354580 0.000000
203.04699707 153.18400574 373.75000000 -0.110520 0.969271 -0.219769 0.000000
156.77699280 269.53100586 333.75000000 0.434773 0.493836 -0.753059 0.000000
92.08989716 188.67199707 391.25000000 -0.800096 -0.233684 0.552484 0.000000
96.58209991 179.68800354 295.00000000 -0.689629 -0.640719 -0.337478 0.000000
98.82820129 167.55900574 381.25000000 -0.908751 -0.415009 -0.044036 0.000000
107.36299896 265.93798828 401.25000000 -0.312842 0.470050 0.825338 0.000000
248.86700439 179.68800354 363.12500000 0.921248 0.291753 -0.257260 0.000000
185.07800293 191.81700134 355.00000000 0.023054 -0.253589 0.967037 0.000000
165.31300354 194.06300354 438.12500000 0.262259 -0.237015 0.935438 0.000000
120.39099884 155.87899780 386.25000000 -0.495219 -0.865581 0.074353 0.000000
235.39100647 192.26600647 348.12500000 0.796463 0.112942 -0.594047 0.000000
143.75000000 300.07800293 340.62500000 0.487277 0.537512 -0.688216 0.000000
138.35899353 285.25399780 390.00000000 0.271226 0.953922 0.128336 0.000000
149.14100647 242.57800293 318.12500000 0.180317 -0.798548 -0.574288 0.000000
159.92199707 207.53900146 348.12500000 -0.536479 -0.654201 0.533115 0.000000
91.64070129 181.48399353 370.62500000 -0.889009 -0.440960 -0.123355 0.000000
146.44500732 177.89100647 435.62500000 0.206106 -0.393210 0.896050 0.000000
166.21099854 204.39500427 347.50000000 -0.600414 -0.590266 0.539527 0.000000
177.44099426 192.26600647 423.75000000 0.442434 -0.378545 0.812992 0.000000
206.64100647 211.13299561 400.62500000 0.531842 0.105215 0.840282 0.000000
196.75799561 247.07000732 390.62500000 0.531329 0.581932 0.615667 0.000000
204.84399414 231.79699707 395.62500000 0.237329 0.696270 0.677409 0.000000
92.98829651 222.81300354 410.00000000 0.126825 -0.687840 0.714697 0.000000
176.09399414 148.69099426 353.75000000 -0.136781 0.987860 -0.073651 0.000000
113.20300293 280.31298828 393.12500000 0.699611 -0.300752 0.648145 0.000000
243.92599487 192.26600647 362.50000000 0.789995 0.358796 -0.497166 0.000000
132.96899414 148.69099426 391.25000000 -0.301637 -0.942785 -0.142026 0.000000
98.82820129 178.33999634 306.25000000 -0.823820 -0.562920 0.066643 0.000000
123.98400116 238.08599854 423.12500000 -0.146410 0.216376 0.965270 0.000000
187.32400513 261.44500732 382.50000000 0.741138 0.670821 0.026720 0.000000
189.12100220 264.14099121 372.50000000 0.736693 0.658032 0.155810 0.000000
75.46880341 240.33200073 341.25000000 -0.994189 -0.079401 -0.072691 0.000000
243.92599487 149.14100647 340.00000000 0.258903 -0.681407 -0.684583 0.000000
260.54699707 186.87500000 375.62500000 0.347459 0.347459 -0.870944 0.000000
186.42599487 150.03900146 360.00000000 -0.048282 0.983301 -0.175463 0.000000
250.66400146 151.38699341 372.50000000 -0.026663 0.984199 -0.175046 0.000000
177.89100647 227.75399780 421.25000000 0.635466 0.233789 0.735885 0.000000
180.58599854 153.63299561 375.62500000 0.713174 0.608728 -0.347611 0.000000
109.60900116 215.62500000 295.62500000 0.521683 0.130055 -0.843168 0.000000
147.79299927 207.53900146 333.75000000 -0.122674 -0.607460 0.784821 0.000000
243.47700500 177.89100647 355.62500000 -0.000978 -0.000978 -0.999999 0.000000
150.48800659 263.24200439 406.25000000 0.114763 0.533140 0.838207 0.000000
228.20300293 190.46899414 395.62500000 -0.321200 -0.446547 -0.835121 0.000000
190.46899414 259.19900513 358.75000000 0.888421 0.418681 -0.188188 0.000000
154.53100586 167.55900574 326.25000000 -0.307086 0.421279 0.853360 0.000000
223.71099854 217.42199707 375.62500000 0.839321 0.478952 -0.257186 0.000000
99.27739716 291.09399414 323.75000000 -0.801374 0.444851 -0.399884 0.000000
181.03500366 189.57000732 415.00000000 -0.894013 0.446332 0.039105 0.000000
177.89100647 196.75799561 355.62500000 0.007502 -0.093238 0.995616 0.000000
177.89100647 242.12899780 412.50000000 0.562344 0.562344 0.606250 0.000000
108.71099854 183.28100586 295.62500000 0.792682 0.275784 -0.543689 0.000000
74.57039642 250.21499634 338.75000000 -0.868135 0.415063 -0.272147 0.000000
91.64070129 209.78500366 403.75000000 -0.681224 -0.079888 0.727704 0.000000
144.64900208 168.00799561 430.62500000 0.049440 -0.806585 0.589047 0.000000
141.05499268 296.48498535 338.12500000 0.511099 0.581945 -0.632549 0.000000
142.85200500 284.35598755 390.00000000 0.282279 0.891642 0.353968 0.000000
116.79699707 158.57400513 336.25000000 -0.821317 -0.485253 0.299946 0.000000
219.21899414 150.48800659 351.25000000 0.110113 0.993241 -0.036704 0.000000
191.36700439 151.38699341 368.75000000 -0.098519 0.986375 -0.131754 0.000000
147.34399414 221.46499634 437.50000000 0.034325 0.319091 0.947102 0.000000
210.23399353 159.47300720 316.25000000 0.359440 0.803548 -0.474461 0.000000
167.10899353 166.21099854 418.12500000 0.450060 -0.489625 0.746802 0.000000
128.47700500 159.47300720 415.00000000 -0.559391 -0.656822 0.505635 0.000000
188.67199707 221.91400146 410.62500000 0.405516 0.060625 0.912075 0.000000
151.83599854 149.58999634 401.25000000 -0.160902 -0.801502 0.575939 0.000000
181.03500366 275.82000732 358.75000000 0.732125 0.527196 -0.431343 0.000000
134.76600647 222.36300659 313.75000000 0.721453 0.407778 -0.559663 0.000000
190.46899414 170.70300293 390.62500000 0.372815 0.210343 -0.903750 0.000000
185.52699280 218.32000732 415.00000000 0.589265 -0.218074 0.777953 0.000000
158.57400513 219.21899414 338.75000000 0.217918 -0.899458 0.378796 0.000000
75.46880341 261.44500732 345.62500000 -0.845865 0.223235 -0.484436 0.000000
164.41400146 269.53100586 338.12500000 0.120276 0.139714 -0.982860 0.000000
152.73399353 166.66000366 426.25000000 0.811146 0.001363 0.584843 0.000000
257.85198975 163.96499634 366.25000000 0.627147 0.443184 -0.640526 0.000000
106.01599884 285.70300293 313.12500000 0.738813 0.349109 -0.576436 0.000000
231.79699707 148.69099426 342.50000000 0.165311 0.986241 -0.001125 0.000000
141.05499268 279.41400146 330.62500000 0.549905 0.105918 -0.828484 0.000000
236.28900146 205.74200439 390.62500000 0.102769 -0.379561 -0.919441 0.000000
129.37500000 306.81698608 355.00000000 -0.258439 0.955562 0.141810 0.000000
175.19500732 177.44099426 328.75000000 -0.152304 0.049993 -0.987068 0.000000
109.60900116 163.96499634 396.25000000 -0.560562 -0.808357 0.179803 0.000000
92.08989716 178.78900146 382.50000000 -0.942538 -0.314179 0.113639 0.000000
187.77400208 150.93800354 328.12500000 -0.229271 0.915641 0.330207 0.000000
75.46880341 235.83999634 346.25000000 -0.993763 -0.082157 -0.075404 0.000000
91.64070129 208.43800354 280.62500000 0.507945 -0.305400 -0.805433 0.000000
180.58599854 198.55499268 355.62500000 0.000978 0.000978 0.999999 0.000000
125.78099823 305.91799927 337.50000000 -0.001133 0.984462 -0.175594 0.000000
75.91799927 264.14099121 360.00000000 -0.940182 0.340389 0.013919 0.000000
168.00799561 238.98399353 423.12500000 0.367214 0.572855 0.732797 0.000000
148.24200439 140.60600281 337.50000000 -0.174164 -0.916130 0.361071 0.000000
196.75799561 241.23100281 397.50000000 0.802584 0.319444 0.503800 0.000000
179.68800354 148.69099426 342.50000000 -0.001032 0.998267 0.058843 0.000000
89.39459991 192.26600647 335.00000000 -0.759556 -0.642023 -0.104310 0.000000
143.75000000 267.28500366 326.25000000 0.189940 0.437305 -0.879026 0.000000
164.86300659 292.89099121 370.00000000 0.403026 0.879465 0.253202 0.000000
106.46499634 176.99200439 293.75000000 0.151973 -0.511987 -0.845443 0.000000
141.05499268 146.89500427 368.75000000 -0.000978 -0.000978 0.999999 0.000000
159.47300720 159.92199707 337.50000000 -0.940585 0.314428 0.128200 0.000000
175.19500732 168.45700073 387.50000000 0.718888 -0.560237 0.411502 0.000000
167.10899353 197.20700073 438.75000000 0.598341 -0.079298 0.797308 0.000000
103.76999664 228.20300293 417.50000000 -0.259157 0.259157 0.930417 0.000000
158.12500000 278.06698608 338.75000000 0.555559 0.112278 -0.823861 0.000000
133.86700439 258.75000000 320.62500000 0.311924 0.426762 -0.848868 0.000000
162.16799927 269.53100586 397.50000000 0.443080 0.616968 0.650408 0.000000
188.22300720 238.08599854 347.50000000 0.868496 0.097759 -0.485961 0.000000
140.15600586 156.77699280 417.50000000 0.166180 -0.669292 0.724177 0.000000
86.69930267 272.22698975 375.00000000 -0.755878 0.222867 0.615612 0.000000
106.91400146 172.05099487 297.50000000 -0.405383 -0.703216 -0.584083 0.000000
106.91400146 159.92199707 380.62500000 -0.440053 -0.860310 0.257332 0.000000
177.89100647 184.62899780 421.25000000 0.567538 -0.467089 0.678032 0.000000
179.23800659 274.92199707 353.75000000 0.550506 0.513469 -0.658250 0.000000
170.25399780 248.86700439 411.25000000 0.527799 0.581759 0.618857 0.000000
110.95700073 250.66400146 413.75000000 -0.403246 0.435377 0.804885 0.000000
88.94539642 258.75000000 390.62500000 -0.741883 0.175910 0.647044 0.000000
177.89100647 194.96099854 425.62500000 0.545010 -0.195839 0.815237 0.000000
91.64070129 267.73498535 295.62500000 -0.364385 0.573539 -0.733673 0.000000
100.62500000 260.09799194 402.50000000 -0.437942 0.594469 0.674398 0.000000
174.29699707 194.06300354 345.62500000 -0.582768 -0.555741 0.592903 0.000000
152.73399353 154.98100281 412.50000000 0.216065 -0.738352 0.638868 0.000000
151.38699341 209.33599854 338.75000000 0.617230 -0.743518 -0.257311 0.000000
140.15600586 145.09800720 342.50000000 -0.490003 -0.858603 0.150658 0.000000
115.00000000 258.75000000 308.12500000 0.551530 0.461552 -0.694827 0.000000
102.42199707 220.11700439 415.62500000 -0.559930 -0.147037 0.815389 0.000000
132.07000732 251.56300354 315.62500000 0.397597 0.394429 -0.828458 0.000000
107.81300354 160.37100220 383.75000000 -0.440042 -0.854018 0.277518 0.000000
137.46099854 159.02400208 318.12500000 -0.003896 -0.419467 0.907762 0.000000
166.66000366 160.82000732 413.75000000 0.581753 -0.813364 -0.001362 0.000000
174.29699707 174.74600220 420.00000000 0.700282 -0.318604 0.638825 0.000000
213.82800293 183.28100586 395.62500000 -0.000978 -0.000978 -0.999999 0.000000
120.39099884 176.99200439 315.62500000 0.752366 0.376999 -0.540202 0.000000
94.33599854 215.62500000 280.62500000 0.402205 -0.806012 -0.434253 0.000000
182.83200073 188.67199707 400.00000000 -0.586295 0.420206 -0.692593 0.000000
168.90600586 193.16400146 335.62500000 -0.636844 -0.351983 0.685958 0.000000
250.66400146 170.70300293 390.62500000 -0.183341 0.097208 -0.978231 0.000000
266.38699341 184.17999268 376.25000000 0.731076 0.475780 -0.489042 0.000000
260.54699707 194.06300354 378.12500000 0.269636 0.361997 -0.892331 0.000000
136.56300354 170.70300293 430.62500000 -0.224338 -0.453193 0.862722 0.000000
202.14900208 164.41400146 393.12500000 0.001250 0.940919 -0.338631 0.000000
235.39100647 150.93800354 368.12500000 0.001137 0.983522 -0.180786 0.000000
123.98400116 241.67999268 423.12500000 0.000978 0.000978 0.999999 0.000000
140.15600586 146.89500427 383.75000000 -0.151726 -0.966120 -0.208786 0.000000
97.92970276 187.32400513 401.25000000 -0.606225 0.439221 0.663006 0.000000
103.31999969 224.60899353 290.62500000 0.708468 0.092409 -0.699667 0.000000
159.47300720 271.32800293 337.50000000 0.425106 0.390078 -0.816777 0.000000
115.00000000 203.04699707 303.12500000 0.674867 -0.251297 -0.693833 0.000000
117.24600220 179.68800354 307.50000000 0.921977 -0.038142 -0.385363 0.000000
208.43800354 214.72700500 340.62500000 -0.363343 0.183809 -0.913344 0.000000
85.35160065 199.90199280 330.00000000 -0.684002 0.687161 0.244850 0.000000
220.56700134 223.71099854 368.75000000 0.910330 0.389739 0.139293 0.000000
123.98400116 152.28500366 361.25000000 -0.580095 -0.810406 0.082048 0.000000
124.88300323 230.89900208 308.12500000 0.038462 -0.169001 -0.984865 0.000000
123.08599854 152.28500366 356.25000000 -0.511431 -0.850454 -0.123149 0.000000
77.71489716 216.52400208 351.25000000 -0.813790 -0.417287 0.404497 0.000000
206.64100647 234.94200134 360.00000000 -0.432024 0.859468 -0.273259 0.000000
88.94539642 266.83599854 383.12500000 -0.764521 0.295274 0.572992 0.000000
185.07800293 246.17199707 345.62500000 0.811146 -0.001363 -0.584843 0.000000
143.75000000 300.07800293 370.62500000 0.009597 0.818485 0.574448 0.000000
126.68000031 241.67999268 423.12500000 0.017484 0.196983 0.980251 0.000000
150.93800354 142.40199280 347.50000000 -0.088372 -0.981772 0.168269 0.000000
169.80499268 191.36700439 338.12500000 -0.609447 -0.572306 0.548671 0.000000
238.98399353 190.46899414 350.62500000 0.709082 0.123903 -0.694154 0.000000
141.05499268 217.42199707 318.12500000 0.427682 -0.238601 -0.871870 0.000000
119.49199677 291.09399414 323.12500000 0.697859 -0.348112 -0.625948 0.000000
99.72660065 173.84800720 391.25000000 -0.535108 -0.133411 0.834183 0.000000
95.23439789 207.53900146 408.12500000 -0.751583 0.023793 0.659209 0.000000
90.74220276 263.69198608 291.25000000 -0.599504 0.636448 -0.485313 0.000000
231.79699707 163.51600647 393.12500000 0.267925 0.540551 -0.797509 0.000000
150.03900146 198.55499268 338.12500000 0.494685 -0.494685 0.714545 0.000000
244.82400513 159.92199707 390.00000000 0.076746 0.473034 -0.877695 0.000000
187.77400208 207.98800659 351.25000000 0.907943 0.417307 -0.038664 0.000000
168.45700073 275.82000732 386.25000000 0.562344 0.562344 0.606250 0.000000
174.29699707 266.83599854 343.12500000 0.713271 0.483827 -0.507104 0.000000
179.23800659 265.93798828 387.50000000 0.582909 0.397963 0.708408 0.000000
172.50000000 192.26600647 343.12500000 -0.751579 -0.126503 0.647400 0.000000
94.78520203 238.98399353 408.75000000 -0.797286 0.207386 0.566856 0.000000
102.42199707 270.42999268 395.62500000 -0.462565 0.469149 0.752285 0.000000
75.91799927 232.69500732 360.00000000 -0.928826 0.014093 0.370249 0.000000
85.80079651 197.65600586 342.50000000 -0.834616 -0.547497 0.060520 0.000000
79.06250000 226.40600586 305.62500000 -0.994408 -0.061383 -0.085936 0.000000
99.27739716 167.10899353 380.00000000 -0.911663 -0.408585 0.043920 0.000000
105.56600189 304.57000732 338.75000000 -0.056555 0.873148 0.484163 0.000000
172.50000000 191.36700439 433.12500000 0.811146 -0.001363 0.584843 0.000000
236.73800659 203.94500732 355.00000000 0.820768 0.379427 -0.427054 0.000000
113.20300293 208.43800354 298.12500000 0.583216 0.084962 -0.807862 0.000000
78.61329651 227.30499268 325.00000000 -0.992406 0.041584 -0.115762 0.000000
141.95300293 214.72700500 318.12500000 0.605367 -0.125810 -0.785941 0.000000
205.74200439 152.28500366 370.00000000 0.108521 0.981571 -0.157295 0.000000
162.61700439 150.93800354 390.62500000 0.540388 -0.480159 0.690961 0.000000
196.75799561 150.93800354 358.12500000 -0.165311 0.986241 -0.001125 0.000000
248.86700439 212.48100281 387.50000000 -0.783358 -0.262166 -0.563578 0.000000
251.56300354 159.47300720 386.25000000 -0.278565 0.325730 -0.903494 0.000000
86.69930267 195.85899353 365.00000000 -0.911718 -0.331929 -0.242062 0.000000
140.15600586 265.48800659 407.50000000 -0.252634 0.337332 0.906853 0.000000
162.61700439 160.37100220 417.50000000 0.379580 -0.718079 0.583337 0.000000
93.43750000 228.20300293 280.62500000 0.685380 -0.149785 -0.712614 0.000000
168.90600586 186.87500000 335.62500000 -0.552047 -0.831600 0.060711 0.000000
104.21900177 172.94900513 312.50000000 -0.705724 -0.708486 -0.001381 0.000000
199.90199280 216.52400208 401.25000000 -0.533772 -0.250546 0.807660 0.000000
150.93800354 150.48800659 377.50000000 0.417795 -0.894455 0.159365 0.000000
227.30499268 170.70300293 395.62500000 -0.000978 -0.000978 -0.999999 0.000000
136.56300354 258.75000000 320.62500000 0.001203 0.268202 -0.963362 0.000000
172.50000000 268.63299561 390.62500000 0.322291 0.642962 0.694787 0.000000
238.98399353 187.77400208 395.62500000 -0.195259 -0.380394 -0.903977 0.000000
168.00799561 196.75799561 338.12500000 -0.606486 -0.599728 0.522017 0.000000
79.51180267 230.00000000 281.25000000 -0.909164 0.396446 -0.127479 0.000000
105.11699677 251.11300659 411.25000000 -0.395332 -0.176821 0.901358 0.000000
97.48049927 178.78900146 300.00000000 -0.821191 -0.545965 0.166033 0.000000
98.82820129 233.59399414 413.12500000 -0.647303 -0.020971 0.761944 0.000000
170.70300293 173.39900208 423.12500000 0.744633 -0.369872 0.555623 0.000000
135.66400146 265.48800659 406.25000000 0.038230 0.698043 0.715034 0.000000
171.15199280 288.39898682 368.75000000 0.779289 0.591025 0.208325 0.000000
164.41400146 220.56700134 433.75000000 0.349609 0.127505 0.928179 0.000000
144.64900208 303.22299194 343.75000000 0.510235 0.624743 -0.591064 0.000000
125.33200073 199.45300293 312.50000000 0.776580 -0.377752 -0.504209 0.000000
83.55470276 269.08200073 325.00000000 -0.889169 0.445287 -0.105352 0.000000
179.68800354 154.98100281 376.25000000 0.630351 0.630351 -0.453117 0.000000
150.03900146 172.50000000 433.12500000 0.037903 -0.607847 0.793149 0.000000
77.71489716 238.98399353 332.50000000 -0.970516 -0.240535 -0.015557 0.000000
116.79699707 229.10200500 423.12500000 -0.163135 0.133248 0.977564 0.000000
245.27400208 201.25000000 368.12500000 0.764418 0.333125 -0.551990 0.000000
80.41020203 252.46099854 306.25000000 -0.941504 0.309332 -0.133729 0.000000
180.13699341 184.17999268 417.50000000 0.901769 0.170605 0.397123 0.000000
79.51180267 222.81300354 303.75000000 -0.991170 -0.129088 0.030308 0.000000
269.53100586 166.21099854 375.62500000 0.825280 0.514840 -0.232062 0.000000
130.27400208 240.78100586 310.62500000 0.436406 -0.436406 -0.786829 0.000000
99.27739716 208.43800354 412.50000000 -0.746410 -0.185453 0.639123 0.000000
149.58999634 273.12500000 332.50000000 0.412911 0.231051 -0.880976 0.000000
172.05099487 287.50000000 366.25000000 0.708486 0.705724 0.001381 0.000000
175.19500732 159.02400208 380.62500000 0.237266 0.667801 -0.705512 0.000000
122.18800354 280.31298828 395.62500000 -0.882342 -0.240367 0.404593 0.000000
101.07399750 284.80499268 376.25000000 -0.509444 0.667489 0.543070 0.000000
109.60900116 202.14900208 420.62500000 -0.684271 -0.098594 0.722532 0.000000
174.29699707 194.96099854 348.12500000 -0.641692 -0.544006 0.540638 0.000000
119.49199677 275.37100220 318.75000000 0.532430 0.354414 -0.768706 0.000000
104.66799927 230.89900208 292.50000000 0.600598 -0.184917 -0.777874 0.000000
165.31300354 246.17199707 328.12500000 0.402378 0.601083 -0.690500 0.000000
189.57000732 227.75399780 345.00000000 0.695028 0.465019 -0.548355 0.000000
157.22700500 289.74600220 378.75000000 0.344925 0.668598 0.658790 0.000000
121.28900146 194.96099854 430.62500000 -0.490141 -0.209630 0.846060 0.000000
93.43750000 237.18800354 280.62500000 0.728125 -0.206483 -0.653605 0.000000
238.08599854 173.39900208 395.62500000 -0.470124 0.480021 -0.740651 0.000000
116.79699707 266.38699341 315.00000000 0.619263 0.165036 -0.767644 0.000000
98.82820129 175.64500427 355.00000000 -0.809733 -0.525781 -0.260550 0.000000
94.33599854 289.29699707 343.12500000 -0.917945 0.001284 -0.396706 0.000000
146.44500732 292.89099121 338.12500000 0.397776 0.491943 -0.774446 0.000000
86.69930267 267.73498535 380.00000000 -0.781930 0.365975 0.504627 0.000000
109.60900116 180.58599854 295.62500000 0.792682 0.275784 -0.543689 0.000000
107.81300354 305.91799927 328.75000000 -0.321430 0.882801 -0.342557 0.000000
204.84399414 236.28900146 370.62500000 -0.380871 0.924606 -0.006412 0.000000
84.90239716 195.85899353 370.00000000 -0.926945 -0.280504 -0.249179 0.000000
92.08989716 188.67199707 332.50000000 -0.824619 -0.565648 -0.006815 0.000000
88.49610138 194.06300354 342.50000000 -0.806272 -0.590332 0.037860 0.000000
141.95300293 158.57400513 418.75000000 0.132671 -0.630558 0.764719 0.000000
85.80079651 198.55499268 335.00000000 -0.816586 -0.542870 -0.196163 0.000000
162.16799927 199.45300293 441.25000000 0.536294 -0.185814 0.823324 0.000000
138.35899353 265.03900146 325.62500000 0.923684 0.381265 0.037996 0.000000
200.80099487 245.27400208 386.25000000 0.973365 0.224810 0.044962 0.000000
86.25000000 276.71899414 373.12500000 -0.441694 0.396721 0.804686 0.000000
156.32800293 227.30499268 318.12500000 0.471732 -0.308741 -0.825922 0.000000
165.31300354 282.10998535 345.62500000 0.740312 -0.130116 -0.659551 0.000000
121.73799896 185.07800293 316.25000000 0.932879 -0.251863 -0.257491 0.000000
102.87100220 161.71899414 376.25000000 -0.778674 -0.578934 -0.241873 0.000000
123.98400116 304.12100220 362.50000000 -0.467117 0.818642 0.334107 0.000000
121.73799896 152.73399353 321.25000000 -0.536781 -0.763819 -0.358395 0.000000
173.39900208 169.35600281 395.00000000 0.831350 -0.228124 -0.506771 0.000000
132.07000732 278.51599121 395.62500000 -0.000978 -0.000978 0.999999 0.000000
114.10199738 213.82800293 425.62500000 -0.715617 -0.133522 0.685612 0.000000
223.71099854 172.50000000 330.62500000 0.616179 0.091771 -0.782241 0.000000
242.57800293 167.10899353 350.62500000 0.313803 0.887356 -0.337826 0.000000
176.09399414 172.94900513 390.00000000 0.732116 -0.655374 0.185715 0.000000
83.55470276 204.84399414 350.62500000 -0.849574 -0.506223 0.148199 0.000000
156.32800293 153.18400574 377.50000000 0.597482 -0.773484 -0.211512 0.000000
117.69499969 301.87500000 328.12500000 0.388613 0.388613 -0.835440 0.000000
154.53100586 161.71899414 420.62500000 0.446689 -0.894688 -0.001310 0.000000
118.14499664 155.42999268 370.00000000 -0.697260 -0.697260 -0.166305 0.000000
159.92199707 292.89099121 345.62500000 -0.001250 0.940919 -0.338631 0.000000
151.83599854 166.66000366 427.50000000 0.120569 -0.527307 0.841077 0.000000
172.94900513 184.17999268 425.00000000 0.871161 -0.321918 0.370739 0.000000
107.36299896 250.66400146 298.75000000 0.582909 0.397963 -0.708408 0.000000
80.41020203 252.46099854 303.75000000 -0.908327 0.326179 -0.261820 0.000000
141.05499268 223.71099854 315.62500000 0.808487 -0.379428 -0.449871 0.000000
188.67199707 158.12500000 385.62500000 0.202289 0.745844 -0.634662 0.000000
130.27400208 180.58599854 433.12500000 -0.579049 -0.263491 0.771540 0.000000
187.77400208 217.42199707 343.12500000 -0.564391 -0.001360 -0.825507 0.000000
72.77349854 252.46099854 358.12500000 -0.951025 0.210284 0.226564 0.000000
86.69930267 195.85899353 338.75000000 -0.844446 -0.535135 -0.023267 0.000000
194.06300354 150.48800659 353.75000000 -0.109244 0.994010 -0.003245 0.000000
113.20300293 221.91400146 298.12500000 0.517464 0.207896 -0.830067 0.000000
194.06300354 198.55499268 335.62500000 -0.243039 0.524778 -0.815806 0.000000
81.75789642 238.08599854 385.62500000 -0.915519 0.324396 0.237891 0.000000
190.91799927 248.86700439 393.75000000 0.490490 0.819573 0.296175 0.000000
238.53500366 205.74200439 362.50000000 0.511431 0.850454 -0.123149 0.000000
181.93400574 188.67199707 402.50000000 -0.909526 0.258405 -0.325561 0.000000
242.57800293 154.08200073 337.50000000 0.863587 0.497302 -0.083118 0.000000
163.06599426 245.27400208 418.75000000 0.411682 0.580322 0.702669 0.000000
160.82000732 194.96099854 333.12500000 -0.411385 -0.395502 0.821182 0.000000
150.93800354 214.27699280 440.00000000 0.078351 0.542762 0.836224 0.000000
81.75789642 266.38699341 332.50000000 -0.914812 0.402937 -0.027562 0.000000
123.98400116 176.09399414 428.12500000 -0.553246 -0.322326 0.768130 0.000000
89.84380341 283.00799561 335.62500000 -0.451484 0.688055 -0.568104 0.000000
144.64900208 230.00000000 315.62500000 -0.000978 -0.000978 -0.999999 0.000000
141.50399780 142.85200500 328.75000000 -0.616207 -0.786196 0.046747 0.000000
104.66799927 208.43800354 416.25000000 -0.657133 -0.123678 0.743559 0.000000
76.81639862 218.32000732 351.25000000 -0.700860 -0.366023 -0.612227 0.000000
197.20700073 232.69500732 402.50000000 0.887434 0.169934 0.428466 0.000000
168.90600586 156.77699280 400.00000000 0.705546 -0.702613 0.092410 0.000000
117.69499969 300.52700806 327.50000000 -0.388613 0.388613 -0.835440 0.000000
196.75799561 232.69500732 403.12500000 0.887434 0.169934 0.428466 0.000000
141.95300293 275.82000732 330.62500000 0.000978 0.000978 -0.999999 0.000000
240.78100586 181.48399353 353.12500000 0.811146 -0.001363 -0.584843 0.000000
75.46880341 238.08599854 345.62500000 -0.996906 -0.061698 -0.048709 0.000000
219.21899414 210.68400574 345.00000000 0.176274 0.709693 -0.682102 0.000000
165.76199341 185.97700500 433.75000000 0.375935 -0.082194 0.922994 0.000000
217.87100220 229.10200500 377.50000000 0.891965 0.451947 -0.011928 0.000000
108.71099854 288.39898682 378.12500000 -0.328049 0.891275 0.313070 0.000000
92.53910065 248.86700439 280.62500000 0.661324 0.347808 -0.664590 0.000000
80.85939789 256.50399780 375.00000000 -0.926728 0.035192 0.374080 0.000000
140.60600281 196.75799561 441.25000000 -0.184881 -0.073711 0.979993 0.000000
85.80079651 199.45300293 361.25000000 -0.847822 -0.473380 0.238973 0.000000
254.25799561 155.87899780 351.25000000 0.272284 0.654436 -0.705390 0.000000
83.55470276 204.39500427 326.25000000 -0.895208 -0.445632 0.003944 0.000000
108.71099854 209.33599854 420.62500000 -0.811146 0.001363 0.584843 0.000000
244.37500000 156.77699280 387.50000000 -0.450272 0.610964 -0.651137 0.000000
72.77349854 258.75000000 353.12500000 -0.973862 0.116863 -0.194772 0.000000
99.72660065 291.09399414 323.12500000 -0.801374 0.444851 -0.399884 0.000000
106.01599884 228.20300293 418.12500000 -0.397617 0.575802 0.714390 0.000000
150.93800354 141.95300293 343.12500000 -0.192032 -0.954787 0.226947 0.000000
151.83599854 212.03100586 330.62500000 -0.097759 -0.868496 -0.485961 0.000000
219.21899414 203.04699707 393.12500000 0.385946 0.254814 0.886632 0.000000
164.41400146 154.98100281 402.50000000 0.492556 -0.816730 0.300569 0.000000
125.78099823 150.03900146 320.62500000 -0.536781 -0.763819 -0.358395 0.000000
80.85939789 275.37100220 365.00000000 -0.855678 0.475044 0.205303 0.000000
102.87100220 273.12500000 303.75000000 0.591738 0.082066 -0.801942 0.000000
84.90239716 202.14900208 352.50000000 -0.951098 -0.308766 -0.008680 0.000000
159.47300720 155.42999268 342.50000000 -0.880149 0.221150 0.420037 0.000000
113.20300293 221.01600647 423.12500000 -0.185002 0.151829 0.970939 0.000000
164.41400146 224.60899353 323.12500000 0.397047 -0.416182 -0.818013 0.000000
190.02000427 218.32000732 410.00000000 0.643406 0.073739 0.761966 0.000000
88.49610138 242.57800293 401.25000000 -0.729753 0.438514 0.524562 0.000000
197.65600586 184.17999268 328.12500000 -0.000978 -0.000978 -0.999999 0.000000
124.88300323 168.45700073 322.50000000 0.796404 0.141417 -0.587999 0.000000
160.82000732 245.72300720 420.00000000 0.324683 0.583136 0.744670 0.000000
185.97700500 186.87500000 395.62500000 -0.333568 0.559169 -0.758988 0.000000
166.21099854 154.08200073 390.00000000 0.628153 -0.756535 -0.181874 0.000000
162.16799927 196.75799561 440.00000000 0.442489 -0.223494 0.868478 0.000000
80.41020203 215.62500000 293.75000000 -0.966413 -0.188094 0.175122 0.000000
84.90239716 228.20300293 398.75000000 -0.830979 0.130436 0.540796 0.000000
79.51180267 230.89900208 291.25000000 -0.996891 0.001050 -0.078785 0.000000
220.56700134 148.24200439 330.00000000 0.241378 0.958917 -0.149048 0.000000
96.13289642 289.29699707 363.12500000 -0.485253 0.821317 0.299946 0.000000
116.34799957 212.92999268 301.25000000 0.642276 0.258496 -0.721569 0.000000
118.59400177 225.50799561 303.12500000 0.605040 0.148633 -0.782199 0.000000
99.27739716 177.89100647 308.75000000 -0.822838 -0.562392 0.081568 0.000000
107.81300354 234.49200439 295.62500000 0.743967 0.117312 -0.657839 0.000000
118.14499664 231.79699707 303.75000000 0.684615 0.156353 -0.711939 0.000000
156.32800293 280.31298828 338.12500000 0.580861 0.248940 -0.775003 0.000000
168.00799561 291.54299927 356.25000000 0.707327 0.695364 -0.127110 0.000000
88.94539642 263.24200439 388.12500000 -0.756225 0.302170 0.580359 0.000000
77.71489716 241.67999268 315.00000000 -0.999999 -0.000978 -0.000978 0.000000
97.03130341 290.64498901 358.75000000 -0.603715 0.785575 0.135650 0.000000
171.60200500 202.14900208 435.62500000 0.606074 -0.318391 0.728905 0.000000
127.57800293 210.23399353 308.12500000 -0.223149 -0.338322 -0.914190 0.000000
208.43800354 219.66799927 342.50000000 0.846511 0.532286 0.009481 0.000000
228.20300293 212.48100281 390.00000000 0.329630 -0.001244 -0.944109 0.000000
119.04299927 207.53900146 303.75000000 0.697260 -0.697260 -0.166305 0.000000
236.28900146 185.97700500 395.62500000 -0.000978 -0.000978 -0.999999 0.000000
155.42999268 287.50000000 340.62500000 0.437386 0.392526 -0.809084 0.000000
113.20300293 157.22700500 383.12500000 -0.411457 -0.849310 0.330719 0.000000
200.35200500 225.95700073 346.25000000 -0.083141 0.719094 -0.689922 0.000000
214.72700500 184.17999268 395.62500000 -0.000978 -0.000978 -0.999999 0.000000
103.76999664 171.60200500 396.25000000 -0.744015 -0.496560 0.447069 0.000000
234.49200439 152.28500366 377.50000000 0.094315 0.978671 -0.182506 0.000000
91.19149780 194.96099854 396.25000000 -0.811146 -0.001363 0.584843 0.000000
84.90239716 273.12500000 342.50000000 -0.828805 0.483599 -0.281451 0.000000
144.64900208 280.31298828 393.12500000 -0.001380 0.680398 0.732842 0.000000
242.57800293 151.38699341 371.25000000 0.079839 0.976494 -0.200212 0.000000
78.16410065 253.80900574 370.00000000 -0.897943 0.140882 0.416953 0.000000
237.18800354 147.79299927 336.25000000 -0.001365 0.812439 0.583045 0.000000
194.06300354 246.62100220 393.75000000 0.512725 0.703118 0.492684 0.000000
193.16400146 246.62100220 393.75000000 0.500548 0.720057 0.480593 0.000000
176.99200439 230.89900208 325.62500000 0.229657 0.333652 -0.914294 0.000000
161.71899414 268.63299561 398.12500000 0.470174 0.577260 0.667613 0.000000
238.08599854 212.92999268 375.62500000 -0.256523 -0.840228 0.477716 0.000000
93.43750000 266.38699341 295.00000000 -0.156536 0.007883 -0.987641 0.000000
230.00000000 167.10899353 395.62500000 0.345609 0.389004 -0.853950 0.000000
183.28100586 150.48800659 326.25000000 -0.116148 0.993227 -0.003256 0.000000
136.56300354 176.09399414 330.62500000 0.000978 0.000978 0.999999 0.000000
254.70700073 176.99200439 372.50000000 0.942321 -0.047696 -0.331295 0.000000
105.11699677 286.60198975 378.12500000 -0.451713 0.798937 0.397057 0.000000
79.06250000 272.67599487 363.75000000 -0.731056 0.182381 0.657491 0.000000
85.35160065 271.77700806 321.25000000 -0.866783 0.495107 -0.059635 0.000000
180.58599854 257.85198975 395.62500000 0.683963 0.486634 0.543491 0.000000
232.69500732 153.18400574 380.00000000 0.092380 0.976765 -0.193382 0.000000
134.76600647 238.08599854 425.62500000 0.168302 0.404212 0.899048 0.000000
185.97700500 196.30900574 355.00000000 0.195510 -0.039102 0.979922 0.000000
122.18800354 154.53100586 380.62500000 -0.442573 -0.889388 0.114532 0.000000
219.21899414 188.67199707 395.62500000 -0.000978 -0.000978 -0.999999 0.000000
267.73498535 179.23800659 376.25000000 0.868858 0.278461 -0.409322 0.000000
212.92999268 182.83200073 328.75000000 0.389488 0.103221 -0.915229 0.000000
161.71899414 261.44500732 333.12500000 0.660733 0.088973 -0.745330 0.000000
85.35160065 203.04699707 393.12500000 -0.873935 -0.245183 0.419669 0.000000
136.56300354 168.00799561 325.62500000 0.233391 -0.640651 0.731502 0.000000
168.90600586 212.92999268 433.12500000 0.782062 0.434118 0.447125 0.000000
97.48049927 287.50000000 323.75000000 -0.830067 0.433147 -0.351243 0.000000
214.72700500 234.94200134 366.25000000 0.872437 0.359059 -0.331557 0.000000
110.05899811 279.41400146 315.00000000 0.792912 0.313033 -0.522782 0.000000
191.36700439 256.95300293 383.12500000 0.559869 0.706067 0.433608 0.000000
142.85200500 153.63299561 413.12500000 -0.029073 -0.823734 0.566231 0.000000
189.57000732 177.89100647 325.62500000 -0.299740 0.748548 -0.591465 0.000000
211.13299561 159.02400208 315.62500000 0.359440 0.803548 -0.474461 0.000000
143.75000000 180.58599854 438.12500000 -0.673162 -0.738352 0.041098 0.000000
183.28100586 151.38699341 368.75000000 0.096873 0.883090 -0.459094 0.000000
97.48049927 173.39900208 366.25000000 -0.842469 -0.498850 -0.203458 0.000000
160.82000732 160.37100220 416.25000000 0.395638 -0.792890 0.463461 0.000000
77.71489716 233.59399414 310.00000000 -0.989004 -0.092245 0.115598 0.000000
245.72300720 186.87500000 362.50000000 0.926036 0.371747 0.065289 0.000000
215.17599487 229.10200500 356.25000000 0.999999 0.000978 0.000978 0.000000
216.52400208 204.84399414 395.62500000 0.385946 0.254814 0.886632 0.000000
212.92999268 204.84399414 395.62500000 0.660511 0.052784 0.748959 0.000000
142.85200500 230.44900513 431.25000000 -0.222030 0.328032 0.918203 0.000000
182.38299561 168.00799561 385.62500000 0.288225 0.442356 -0.849263 0.000000
76.36720276 245.27400208 333.12500000 -0.982255 -0.088198 -0.165521 0.000000
155.42999268 231.34800720 432.50000000 -0.001297 0.421606 0.906778 0.000000
98.82820129 242.12899780 411.25000000 -0.324006 0.446096 0.834277 0.000000
118.59400177 154.98100281 363.75000000 -0.657622 -0.752971 0.023837 0.000000
194.06300354 151.38699341 322.50000000 0.022615 0.996118 0.085074 0.000000
151.83599854 303.22299194 352.50000000 0.480598 0.876858 -0.012048 0.000000
145.54699707 258.75000000 323.12500000 0.000978 0.999999 0.000978 0.000000
120.39099884 305.91799927 331.25000000 0.422782 0.581947 -0.694689 0.000000
98.82820129 290.19500732 325.62500000 -0.830067 0.433147 -0.351243 0.000000
128.47700500 288.39898682 388.12500000 -0.034543 0.977928 0.206068 0.000000
75.91799927 244.37500000 333.75000000 -0.838175 -0.081114 -0.539335 0.000000
135.66400146 291.54299927 331.25000000 0.531842 0.105215 -0.840282 0.000000
92.98829651 287.50000000 356.25000000 -0.727483 0.673706 -0.129961 0.000000
105.11699677 187.77400208 293.12500000 0.346584 -0.230573 -0.909239 0.000000
221.01600647 190.46899414 395.62500000 -0.000978 -0.000978 -0.999999 0.000000
108.71099854 170.70300293 405.62500000 -0.739775 -0.401873 0.539658 0.000000
244.37500000 165.76199341 348.75000000 0.313803 0.887356 -0.337826 0.000000
75.91799927 236.28900146 338.75000000 -0.947567 0.085189 -0.307992 0.000000
192.26600647 237.63699341 402.50000000 0.253202 0.520385 0.815529 0.000000
84.45320129 269.08200073 373.75000000 -0.786002 0.468360 0.403535 0.000000
114.55100250 159.02400208 328.75000000 -0.833454 -0.552453 -0.012277 0.000000
117.69499969 268.63299561 405.62500000 -0.287230 0.691598 0.662715 0.000000
86.69930267 195.85899353 358.75000000 -0.823861 -0.555559 0.112278 0.000000
84.00399780 264.14099121 310.00000000 -0.839651 0.496503 -0.220162 0.000000
99.72660065 277.16799927 386.25000000 -0.599283 0.783446 -0.164539 0.000000
126.68000031 172.94900513 427.50000000 -0.504441 -0.675381 0.537959 0.000000
168.90600586 290.19500732 355.62500000 0.720807 0.675283 -0.156301 0.000000
185.07800293 258.30099487 388.75000000 0.606365 0.639958 0.471990 0.000000
137.46099854 305.01998901 363.75000000 -0.230174 0.842954 0.486261 0.000000
170.25399780 174.29699707 425.00000000 0.809056 -0.257214 0.528459 0.000000
83.10549927 204.84399414 302.50000000 -0.850454 -0.511431 0.123149 0.000000
100.17600250 204.84399414 411.25000000 -0.829815 -0.175567 0.529701 0.000000
151.83599854 216.52400208 323.12500000 0.506260 -0.466423 -0.725362 0.000000
243.47700500 149.58999634 358.75000000 0.072969 0.997239 0.013748 0.000000
78.61329651 256.95300293 335.00000000 -0.909196 0.336039 0.245847 0.000000
152.73399353 178.78900146 435.62500000 0.248940 -0.580861 0.775003 0.000000
168.00799561 220.56700134 335.00000000 0.298516 -0.941893 0.154029 0.000000
85.35160065 278.96499634 351.25000000 -0.737882 0.490271 -0.463859 0.000000
92.53910065 221.01600647 408.12500000 -0.567744 -0.078655 0.819439 0.000000
78.61329651 230.00000000 320.00000000 -0.214545 -0.859679 -0.463597 0.000000
230.89900208 151.38699341 368.75000000 0.088163 0.994348 -0.059148 0.000000
135.21499634 165.31300354 323.75000000 0.325707 -0.724334 0.607663 0.000000
128.47700500 263.24200439 320.62500000 0.153355 0.546420 -0.823352 0.000000
113.20300293 261.44500732 408.12500000 -0.156539 0.333857 0.929535 0.000000
225.50799561 173.39900208 333.12500000 0.686172 0.469135 -0.555950 0.000000
82.20709991 220.11700439 393.75000000 -0.894688 0.446689 -0.001310 0.000000
139.25799561 232.69500732 430.62500000 -0.015971 0.281332 0.959478 0.000000
181.03500366 149.14100647 355.00000000 -0.100421 0.994278 -0.036416 0.000000
145.54699707 226.40600586 315.62500000 -0.000978 -0.000978 -0.999999 0.000000
75.91799927 221.91400146 350.00000000 -0.970072 -0.242814 -0.001184 0.000000
174.29699707 191.36700439 345.62500000 -0.532372 -0.616875 0.579694 0.000000
118.59400177 180.58599854 310.62500000 0.904633 -0.160982 -0.394619 0.000000
204.84399414 231.34800720 351.25000000 -0.343394 0.727474 -0.594022 0.000000
207.08999634 237.18800354 366.25000000 -0.354961 0.831397 -0.427530 0.000000
205.74200439 215.62500000 400.62500000 0.000978 0.000978 0.999999 0.000000
114.55100250 160.82000732 401.25000000 -0.734814 -0.585580 0.342264 0.000000
95.68360138 243.47700500 282.50000000 0.913096 -0.043861 -0.405378 0.000000
83.10549927 244.37500000 282.50000000 -0.925371 0.308457 -0.220326 0.000000
76.81639862 228.20300293 336.25000000 -0.982439 -0.120522 -0.142435 0.000000
167.10899353 238.98399353 323.12500000 0.424190 0.408183 -0.808362 0.000000
179.68800354 265.48800659 386.25000000 0.582909 0.397963 0.708408 0.000000
120.83999634 173.39900208 313.75000000 0.863559 0.314440 -0.394200 0.000000
84.90239716 201.25000000 321.25000000 -0.894688 -0.446689 -0.001310 0.000000
142.40199280 301.87500000 341.25000000 0.329499 0.641143 -0.693084 0.000000
101.52300262 290.64498901 320.00000000 -0.689961 0.647752 -0.323064 0.000000
203.04699707 221.01600647 400.62500000 0.608069 0.049609 0.792333 0.000000
121.28900146 181.48399353 318.12500000 0.852941 -0.202367 -0.481185 0.000000
191.81700134 210.23399353 406.25000000 0.776997 -0.311118 0.547249 0.000000
216.07400513 231.79699707 375.00000000 0.760442 0.649226 -0.015292 0.000000
165.76199341 254.25799561 332.50000000 0.562949 0.312750 -0.765033 0.000000
100.17600250 180.58599854 338.75000000 -0.687298 -0.724449 0.052869 0.000000
133.86700439 169.80499268 328.12500000 0.354414 -0.532430 0.768706 0.000000
97.92970276 259.64898682 293.12500000 0.673476 0.241316 -0.698711 0.000000
141.95300293 242.12899780 425.00000000 -0.319595 0.673259 0.666770 0.000000
135.66400146 307.71499634 356.25000000 -0.115063 0.935395 0.334360 0.000000
139.25799561 305.01998901 365.00000000 -0.091071 0.813853 0.573889 0.000000
148.24200439 157.22700500 323.12500000 -0.456353 -0.456353 0.763861 0.000000
79.51180267 222.81300354 293.75000000 -0.999999 -0.000978 -0.000978 0.000000
89.84380341 265.03900146 295.62500000 -0.522334 0.663414 -0.535770 0.000000
171.60200500 198.55499268 433.12500000 0.550330 -0.264974 0.791786 0.000000
93.43750000 251.11300659 282.50000000 0.671907 0.304533 -0.675130 0.000000
105.11699677 287.94900513 377.50000000 -0.365654 0.883288 0.293426 0.000000
170.70300293 168.90600586 418.12500000 0.441974 -0.281816 0.851609 0.000000
129.37500000 150.48800659 371.25000000 -0.281286 -0.953755 0.105973 0.000000
104.21900177 260.99600220 403.75000000 -0.308457 0.925371 0.220326 0.000000
225.50799561 194.51199341 395.00000000 -0.296457 -0.384634 -0.874168 0.000000
105.11699677 161.71899414 383.12500000 -0.375250 -0.886546 0.270598 0.000000
179.68800354 175.19500732 390.62500000 0.409557 -0.785120 0.464597 0.000000
178.78900146 208.43800354 355.62500000 -0.850640 0.524216 0.040111 0.000000
82.20709991 206.64100647 328.75000000 -0.913373 -0.376925 -0.153876 0.000000
231.34800720 204.84399414 391.25000000 -0.099554 -0.142734 -0.984742 0.000000
177.89100647 222.36300659 342.50000000 -0.031072 -0.986258 -0.162266 0.000000
81.75789642 206.64100647 388.12500000 -0.780923 -0.449721 0.433486 0.000000
148.24200439 145.09800720 358.75000000 -0.060354 -0.971820 0.227867 0.000000
123.08599854 153.18400574 350.00000000 -0.468061 -0.863312 0.188710 0.000000
130.27400208 234.94200134 426.25000000 -0.118220 0.544394 0.830457 0.000000
142.85200500 190.91799927 441.25000000 -0.626816 -0.208939 0.750631 0.000000
150.03900146 304.12100220 352.50000000 0.460408 0.887260 -0.028188 0.000000
88.49610138 194.96099854 283.75000000 -0.398776 -0.466584 -0.789479 0.000000
168.00799561 156.77699280 376.25000000 0.233543 -0.882109 0.409073 0.000000
143.75000000 212.92999268 440.62500000 -0.189210 0.232151 0.954099 0.000000
190.46899414 161.71899414 315.62500000 -0.560604 0.186868 -0.806724 0.000000
257.85198975 167.10899353 368.12500000 0.453709 0.530159 -0.716296 0.000000
77.71489716 238.98399353 313.75000000 -0.999999 0.000978 0.000978 0.000000
166.21099854 230.00000000 428.12500000 0.630131 0.319115 0.707885 0.000000
177.89100647 199.00399780 426.25000000 0.793120 -0.210985 0.571354 0.000000
103.31999969 296.03500366 351.25000000 -0.708486 0.705724 0.001381 0.000000
108.71099854 278.96499634 391.25000000 -0.385548 0.769470 0.509184 0.000000
173.84800720 203.04699707 352.50000000 -0.825256 0.159679 0.541714 0.000000
107.81300354 250.66400146 413.12500000 -0.227057 0.646720 0.728147 0.000000
109.16000366 269.53100586 308.75000000 0.776547 0.301370 -0.553309 0.000000
146.44500732 243.47700500 315.62500000 0.262166 -0.783358 -0.563578 0.000000
156.32800293 247.07000732 418.12500000 -0.192450 0.731310 0.654330 0.000000
136.11300659 149.14100647 380.00000000 -0.388613 -0.388613 -0.835440 0.000000
166.21099854 207.08999634 348.75000000 -0.570673 -0.197364 0.797107 0.000000
221.91400146 189.57000732 395.62500000 -0.000978 -0.000978 -0.999999 0.000000
126.68000031 227.30499268 428.12500000 -0.532894 0.178632 0.827112 0.000000
154.53100586 224.60899353 318.12500000 0.415463 -0.278497 -0.865927 0.000000
88.49610138 221.91400146 405.00000000 -0.713765 -0.032508 0.699631 0.000000
249.31700134 169.80499268 361.25000000 0.879310 0.136718 -0.456205 0.000000
157.22700500 288.39898682 380.62500000 0.297416 0.718621 0.628592 0.000000
152.73399353 291.54299927 378.75000000 0.137946 0.425216 0.894518 0.000000
116.79699707 270.42999268 315.62500000 0.752965 0.101276 -0.650221 0.000000
202.14900208 203.94500732 400.62500000 0.102630 -0.834049 0.542060 0.000000
155.42999268 287.94900513 381.25000000 0.297416 0.718621 0.628592 0.000000
188.67199707 227.30499268 408.12500000 0.583955 0.287999 0.758982 0.000000
176.09399414 151.38699341 370.00000000 -0.311505 0.811178 -0.494929 0.000000
78.61329651 230.89900208 381.25000000 -0.882872 0.126940 0.452133 0.000000
123.08599854 278.06698608 396.25000000 -0.233621 0.719677 0.653824 0.000000
82.20709991 256.95300293 378.75000000 -0.923868 0.249887 0.289869 0.000000
163.96499634 261.44500732 335.00000000 0.440957 0.450720 -0.776150 0.000000
91.64070129 197.65600586 283.12500000 0.217178 -0.453827 -0.864219 0.000000
114.10199738 300.52700806 362.50000000 -0.406026 0.873938 0.267162 0.000000
202.14900208 193.16400146 395.62500000 -0.589103 0.342426 -0.731916 0.000000
247.07000732 149.58999634 343.75000000 -0.007458 0.996241 -0.086305 0.000000
146.44500732 161.71899414 423.12500000 -0.135575 -0.788122 0.600403 0.000000
218.32000732 225.95700073 361.25000000 0.787370 0.581702 -0.204133 0.000000
121.73799896 153.63299561 338.75000000 -0.661422 -0.743550 0.098260 0.000000
108.26200104 286.60198975 382.50000000 -0.690783 0.690783 0.213628 0.000000
198.10600281 249.76600647 370.00000000 0.789199 -0.231023 -0.569029 0.000000
118.14499664 203.04699707 430.00000000 -0.541916 0.185670 0.819667 0.000000
207.53900146 180.13699341 327.50000000 0.268563 0.716698 -0.643598 0.000000
111.40599823 162.61700439 343.12500000 -0.644508 -0.763494 -0.041079 0.000000
148.24200439 230.00000000 315.62500000 -0.000978 -0.000978 -0.999999 0.000000
115.44899750 158.12500000 343.75000000 -0.636057 -0.761183 -0.126616 0.000000
104.21900177 247.96899414 295.62500000 0.811146 0.001363 -0.584843 0.000000
85.35160065 199.00399780 283.75000000 -0.630351 -0.630351 -0.453117 0.000000
72.32430267 252.46099854 356.25000000 -0.944944 0.196120 0.261951 0.000000
179.68800354 199.45300293 355.62500000 0.000978 0.000978 0.999999 0.000000
140.15600586 172.50000000 433.12500000 -0.179205 -0.379916 0.907496 0.000000
220.11700439 149.58999634 337.50000000 0.079237 0.994373 -0.070309 0.000000
94.33599854 196.30900574 402.50000000 -0.592802 -0.416788 0.689111 0.000000
