83.47049713 103.51799774 442.39999390 -0.515749 -0.545989 0.660226 0.000000
156.73500061 182.97900391 470.00000000 0.702401 0.329301 0.631026 0.000000
66.70349884 233.27999878 443.20001221 -0.558502 0.359851 0.747384 0.000000
127.57499695 201.93299866 358.00000000 0.089068 0.179355 -0.979744 0.000000
73.62899780 255.51400757 352.00000000 -0.403542 0.869519 -0.284764 0.000000
227.44799805 166.21200562 442.79998779 0.080874 0.415337 0.906065 0.000000
161.10899353 182.97900391 466.00000000 0.653099 0.254598 0.713191 0.000000
205.21299744 172.77299500 432.79998779 -0.168762 -0.749546 0.640079 0.000000
255.87899780 159.65100098 438.00000000 -0.293299 0.008590 0.955982 0.000000
60.50699997 199.74600220 450.79998779 -0.727769 0.186173 0.660070 0.000000
59.41350174 128.30400085 376.00000000 -0.878400 -0.475514 -0.047963 0.000000
126.11699677 108.98500061 480.00000000 -0.020598 -0.547910 0.836284 0.000000
80.19000244 169.12800598 479.60000610 -0.638028 0.192177 0.745647 0.000000
79.46099854 240.20500183 447.20001221 -0.617807 0.773381 0.142111 0.000000
79.46099854 169.85699463 478.00000000 -0.635415 0.119973 0.762794 0.000000
106.43399811 250.77600098 358.00000000 0.541947 -0.093439 -0.835202 0.000000
158.19299316 194.27799988 427.20001221 0.325255 0.915050 -0.238520 0.000000
58.31999969 138.14500427 361.60000610 -0.701371 -0.701371 -0.127114 0.000000
117.36900330 136.32299805 403.60000610 0.105393 -0.153850 0.982457 0.000000
255.87899780 154.18299866 440.00000000 -0.789172 0.210754 0.576880 0.000000
230.36399841 159.65100098 432.39999390 -0.355677 -0.101429 0.929089 0.000000
78.00299835 125.02300262 368.79998779 0.693242 -0.294347 -0.657856 0.000000
66.70349884 246.40199280 344.79998779 -0.781116 0.612146 -0.123022 0.000000
152.36099243 71.44200134 402.00000000 -0.466627 -0.269504 0.842393 0.000000
169.85699463 79.82550049 416.00000000 -0.481358 0.001326 0.876523 0.000000
158.19299316 94.04100037 467.60000610 0.038621 -0.419505 0.906931 0.000000
103.51799774 230.72799683 457.60000610 0.029276 0.600857 0.798820 0.000000
55.40399933 171.31500244 330.00000000 0.544204 -0.121096 -0.830167 0.000000
145.07099915 231.45700073 439.20001221 0.674087 0.567036 0.473367 0.000000
129.39700317 173.50199890 373.60000610 0.449025 -0.891185 0.064539 0.000000
169.49200439 196.83000183 394.39999390 -0.921632 0.387578 -0.019444 0.000000
227.44799805 114.45300293 454.79998779 0.358863 0.113253 0.926494 0.000000
139.96800232 233.27999878 443.60000610 0.545969 0.689557 0.475845 0.000000
96.22799683 175.68899536 486.00000000 -0.258998 0.284755 0.922949 0.000000
89.66699982 278.84201050 392.00000000 -0.312972 0.949051 0.036746 0.000000
69.61949921 223.80299377 336.00000000 0.489683 -0.292558 -0.821353 0.000000
147.98699951 89.66699982 462.79998779 -0.189565 -0.725896 0.661166 0.000000
120.28500366 255.14999390 436.39999390 0.297822 0.648770 0.700285 0.000000
142.15499878 185.16600037 360.39999390 0.546965 -0.304578 -0.779783 0.000000
149.08000183 208.49400330 457.60000610 0.604969 0.724990 0.329246 0.000000
117.36900330 114.81700134 482.39999390 -0.130177 -0.525095 0.841029 0.000000
108.62100220 136.32299805 490.00000000 -0.234170 -0.293777 0.926747 0.000000
180.79200745 115.91100311 471.60000610 0.289705 0.211331 0.933494 0.000000
126.84600067 173.13699341 407.20001221 -0.001380 -0.738126 -0.674661 0.000000
98.77950287 281.39401245 403.20001221 -0.055519 0.998299 0.017808 0.000000
88.57350159 202.66200256 472.00000000 -0.902537 0.347807 0.253884 0.000000
43.37549973 177.14700317 411.20001221 -0.987236 -0.110220 0.114960 0.000000
152.72500610 247.13099670 403.20001221 0.726811 0.357689 -0.586349 0.000000
102.78900146 104.24700165 469.20001221 -0.339199 -0.725463 0.598872 0.000000
75.08699799 236.19599915 335.60000610 0.629676 -0.293208 -0.719401 0.000000
137.78100586 264.62701416 374.79998779 0.778202 0.398036 -0.485767 0.000000
216.51300049 140.69700623 454.79998779 0.260691 0.211036 0.942074 0.000000
78.36750031 107.16300201 440.79998779 -0.602300 -0.669037 0.435458 0.000000
176.05299377 164.75399780 402.39999390 0.335922 -0.941348 0.031932 0.000000
142.15499878 198.65199280 472.00000000 0.412142 0.693523 0.590902 0.000000
82.37699890 117.36900330 466.00000000 -0.475845 -0.545969 0.689557 0.000000
235.46699524 117.73300171 439.20001221 -0.367898 -0.364793 0.855323 0.000000
142.88400269 179.69799805 391.20001221 -0.713975 -0.700003 0.015369 0.000000
163.29600525 182.97900391 463.60000610 0.716836 0.276198 0.640203 0.000000
158.92199707 195.73599243 456.79998779 0.678915 0.678915 0.279553 0.000000
101.33100128 112.99500275 475.60000610 -0.295395 -0.589193 0.752059 0.000000
136.32299805 69.25499725 431.60000610 -0.037058 -0.976656 0.211589 0.000000
190.26899719 119.91999817 468.79998779 0.440579 0.129750 0.888288 0.000000
130.12600708 130.49099731 436.79998779 -0.930160 0.342112 -0.133273 0.000000
139.96800232 174.23100281 405.20001221 -0.464599 -0.732446 -0.497666 0.000000
173.50199890 172.04400635 382.79998779 0.634605 -0.769872 -0.067634 0.000000
248.58900452 165.11799622 436.79998779 -0.097865 0.061869 0.993275 0.000000
72.17099762 107.52700043 410.39999390 -0.862342 -0.504752 0.039885 0.000000
174.96000671 75.81600189 450.79998779 -0.001182 -0.970765 0.240031 0.000000
147.62199402 201.20399475 376.00000000 0.729624 0.182790 0.658966 0.000000
111.53700256 212.50300598 357.60000610 0.679374 0.541822 -0.494853 0.000000
197.19400024 124.65899658 419.20001221 -0.614131 0.482892 0.624226 0.000000
155.27699280 104.97599792 433.20001221 0.497538 -0.207182 0.842337 0.000000
54.31050110 197.55900574 443.20001221 -0.763970 0.243153 0.597685 0.000000
100.60199738 271.55200195 422.39999390 -0.001380 0.738126 0.674661 0.000000
185.52999878 88.93800354 423.20001221 -0.507036 0.045592 0.860718 0.000000
146.52900696 259.15899658 388.79998779 0.887384 0.445815 -0.117469 0.000000
100.60199738 212.86799622 469.20001221 -0.133164 0.671804 0.728661 0.000000
45.56250000 174.23100281 420.00000000 -0.928075 -0.032541 0.370970 0.000000
109.71399689 159.65100098 377.60000610 0.701615 -0.676613 -0.223454 0.000000
76.90950012 156.73500061 476.79998779 -0.802864 0.040776 0.594766 0.000000
164.02499390 189.17500305 412.79998779 -0.301661 0.886973 -0.349686 0.000000
170.95100403 133.40699768 474.39999390 0.314179 0.113639 0.942538 0.000000
64.51650238 119.55599976 382.39999390 -0.819551 -0.540813 -0.189360 0.000000
231.45700073 118.09799957 452.79998779 0.358863 0.113253 0.926494 0.000000
143.61300659 252.23399353 384.39999390 0.643776 -0.479050 -0.596711 0.000000
61.96500015 234.00900269 438.00000000 -0.801953 0.454815 0.387316 0.000000
155.27699280 188.44599915 468.00000000 0.630097 0.439564 0.640126 0.000000
172.40800476 197.55900574 438.39999390 -0.473007 0.559920 0.680261 0.000000
95.86350250 185.16600037 352.79998779 0.207958 -0.166105 -0.963931 0.000000
54.67499924 135.22900391 400.00000000 -0.804794 -0.438540 0.399987 0.000000
164.75399780 89.66699982 465.20001221 0.022088 -0.388485 0.921190 0.000000
70.71299744 118.82700348 446.79998779 -0.750919 -0.422289 0.507733 0.000000
156.73500061 226.71899414 420.39999390 0.900981 0.411594 -0.137198 0.000000
99.87300110 277.74899292 381.20001221 0.037758 0.930924 -0.363256 0.000000
116.27500153 230.36399841 366.39999390 0.846340 0.242465 -0.474256 0.000000
191.72700500 125.02300262 467.20001221 0.239380 0.256178 0.936520 0.000000
59.77799988 245.67300415 427.60000610 -0.563463 0.647562 0.513004 0.000000
47.38499832 176.78199768 338.39999390 -0.990633 0.124543 -0.055987 0.000000
63.42300034 126.48100281 404.79998779 -0.876850 -0.470195 -0.100252 0.000000
67.06800079 144.34199524 464.39999390 -0.737328 0.082895 0.670430 0.000000
145.80000305 101.33100128 471.60000610 -0.138531 -0.503087 0.853061 0.000000
82.37699890 223.80299377 456.39999390 -0.412124 0.371069 0.832143 0.000000
174.59500122 120.28500366 472.00000000 0.093632 0.013991 0.995509 0.000000
115.18199921 231.82200623 455.60000610 0.243092 0.475482 0.845472 0.000000
66.70349884 191.72700500 459.20001221 -0.747203 0.647576 0.149441 0.000000
65.61000061 201.20399475 455.60000610 -0.649807 0.254547 0.716210 0.000000
87.11550140 118.82700348 383.20001221 0.666675 -0.727420 -0.162493 0.000000
68.16149902 169.85699463 468.00000000 -0.842467 -0.020548 0.538357 0.000000
47.38499832 175.68899536 330.00000000 -0.001116 0.155160 -0.987889 0.000000
151.63200378 184.07200623 370.39999390 -0.033831 -0.466874 -0.883677 0.000000
80.91899872 222.34500122 342.79998779 0.380564 -0.258186 -0.887982 0.000000
114.81700134 166.21200562 401.60000610 -0.579363 0.596254 -0.555716 0.000000
97.68599701 124.29399872 480.79998779 -0.368148 -0.520597 0.770354 0.000000
153.08999634 234.37300110 400.79998779 0.924214 0.008998 -0.381769 0.000000
51.75899887 175.68899536 330.00000000 0.240637 -0.114528 -0.963835 0.000000
115.91100311 164.02499390 491.60000610 -0.162435 0.108697 0.980714 0.000000
219.42900085 88.93800354 443.60000610 -0.288949 0.240554 0.926630 0.000000
237.65400696 141.42599487 438.79998779 -0.398491 0.376441 0.836359 0.000000
158.19299316 212.86799622 438.79998779 -0.444306 -0.890013 -0.102316 0.000000
104.24700165 215.41900635 467.20001221 -0.192884 0.655806 0.729873 0.000000
115.54599762 262.44000244 364.00000000 0.381185 0.123365 -0.916231 0.000000
152.72500610 192.45599365 388.79998779 0.812516 0.523553 -0.256339 0.000000
78.36750031 181.52099609 346.39999390 0.325861 -0.325861 -0.887484 0.000000
154.18299866 199.01699829 428.00000000 0.086449 0.279992 -0.956102 0.000000
121.74299622 208.12899780 471.20001221 0.296776 0.497767 0.814956 0.000000
99.14399719 268.27200317 426.79998779 -0.001357 0.831841 0.555013 0.000000
76.90950012 271.18798828 384.79998779 -0.593011 0.682710 -0.426901 0.000000
90.39600372 279.57199097 389.60000610 -0.290183 0.954919 -0.062639 0.000000
42.64649963 181.52099609 401.60000610 -0.999999 0.000978 0.000978 0.000000
177.14700317 142.15499878 407.60000610 -0.968585 -0.010802 0.248447 0.000000
128.66799927 115.91100311 431.20001221 -0.829960 -0.445690 0.335449 0.000000
87.48000336 140.69700623 482.79998779 -0.445533 -0.375270 0.812818 0.000000
73.99349976 128.30400085 360.00000000 -0.345603 -0.579250 -0.738260 0.000000
47.38499832 184.43699646 430.00000000 -0.848864 -0.527969 0.026056 0.000000
134.86500549 227.08299255 452.00000000 0.364920 0.374237 0.852514 0.000000
192.45599365 176.78199768 415.20001221 0.271826 -0.881557 -0.385963 0.000000
157.46400452 143.24800110 424.79998779 -0.597842 -0.097458 0.795668 0.000000
95.49900055 194.64300537 478.79998779 -0.186863 0.237947 0.953133 0.000000
107.89199829 219.42900085 464.39999390 -0.009443 0.511295 0.859353 0.000000
158.19299316 102.05999756 409.20001221 -0.152762 0.412600 0.898012 0.000000
180.06300354 181.52099609 444.39999390 -0.269124 -0.392409 0.879538 0.000000
93.31199646 266.81399536 427.60000610 -0.179386 0.541172 0.821556 0.000000
178.60499573 194.27799988 385.60000610 0.711656 0.569655 -0.411143 0.000000
205.21299744 116.63999939 428.00000000 -0.327149 0.271401 0.905160 0.000000
145.07099915 106.43399811 406.79998779 -0.039057 0.448488 0.892935 0.000000
117.36900330 86.02200317 413.20001221 -0.591751 0.332353 0.734420 0.000000
162.56700134 188.08200073 390.79998779 -0.120862 0.992396 -0.023285 0.000000
107.16300201 154.91200256 382.39999390 0.675923 -0.669471 -0.308118 0.000000
78.73200226 226.35400391 453.60000610 -0.237225 0.544221 0.804703 0.000000
141.78999329 183.70799255 480.00000000 0.319552 0.307662 0.896232 0.000000
82.37699890 275.92599487 389.60000610 -0.446689 0.894688 0.001310 0.000000
151.63200378 199.38099670 383.20001221 0.432166 -0.432166 -0.791495 0.000000
100.60199738 242.75700378 450.00000000 -0.020971 0.669667 0.742366 0.000000
96.95700073 101.33100128 457.20001221 -0.456325 -0.869823 -0.187551 0.000000
76.54499817 159.65100098 476.39999390 -0.817214 -0.006844 0.576293 0.000000
55.40399933 139.96800232 439.60000610 -0.768552 -0.301988 0.564031 0.000000
212.86799622 122.47200012 429.20001221 -0.256837 0.317782 0.912715 0.000000
115.18199921 147.25799561 406.00000000 -0.452758 -0.041897 0.890649 0.000000
174.96000671 129.03300476 406.00000000 -0.344659 -0.001253 0.938727 0.000000
114.81700134 218.69999695 464.79998779 0.127721 0.463528 0.876829 0.000000
79.09649658 123.93000031 370.39999390 0.693242 -0.294347 -0.657856 0.000000
78.36750031 192.45599365 471.20001221 -0.572934 0.535752 0.620255 0.000000
155.27699280 205.94200134 424.00000000 0.511295 -0.859353 0.009443 0.000000
141.06100464 210.68099976 368.79998779 0.212688 -0.432812 -0.876035 0.000000
111.17199707 146.52900696 404.79998779 0.187198 -0.935989 -0.298130 0.000000
70.71299744 108.98500061 415.20001221 -0.707106 -0.707106 0.001384 0.000000
158.92199707 120.28500366 478.00000000 0.304120 0.395814 0.866512 0.000000
139.23899841 261.71099854 416.39999390 0.513912 0.608269 0.604899 0.000000
210.31599426 118.09799957 461.60000610 0.486830 0.170168 0.856761 0.000000
114.08799744 183.70799255 358.39999390 -0.086065 -0.489580 -0.867700 0.000000
170.58599854 163.66000366 424.00000000 0.476814 -0.872498 0.106749 0.000000
168.39900208 172.04400635 375.60000610 0.332196 -0.737313 -0.588230 0.000000
86.02200317 119.19100189 380.00000000 0.699747 -0.475961 -0.532743 0.000000
129.03300476 179.33399963 362.79998779 0.284444 -0.809329 -0.513885 0.000000
52.48799896 178.60499573 330.00000000 0.170122 0.045757 -0.984360 0.000000
170.58599854 164.75399780 468.39999390 0.651474 0.734640 0.189436 0.000000
86.38649750 90.39600372 422.39999390 0.594615 0.800939 -0.070208 0.000000
45.56250000 221.61599731 372.00000000 -0.968855 0.241286 0.055681 0.000000
72.53549957 157.46400452 350.39999390 0.520687 -0.551018 -0.652123 0.000000
80.19000244 182.25000000 475.60000610 -0.525524 0.188225 0.829696 0.000000
147.25799561 103.51799774 408.39999390 0.026762 0.335166 0.941779 0.000000
239.84100342 139.23899841 446.00000000 0.367656 -0.003817 0.929954 0.000000
110.44300079 218.69999695 358.39999390 0.417918 0.268987 -0.867750 0.000000
57.95550156 141.42599487 355.20001221 -0.904198 -0.421413 -0.069554 0.000000
83.83499908 172.77299500 350.00000000 0.446568 -0.404652 -0.798019 0.000000
180.06300354 163.29600525 427.60000610 0.368505 -0.709167 0.601072 0.000000
158.92199707 215.78399658 409.20001221 0.873098 0.088575 -0.479431 0.000000
238.38299561 126.11699677 441.20001221 -0.635415 -0.119973 0.762794 0.000000
132.67799377 178.60499573 366.79998779 0.321389 -0.778688 -0.538846 0.000000
212.13900757 111.53700256 434.00000000 -0.420968 0.459977 0.781798 0.000000
69.98400116 110.80799866 398.79998779 -0.900054 -0.425757 0.092918 0.000000
183.34300232 201.20399475 414.39999390 0.788063 0.574403 -0.221401 0.000000
91.85399628 205.57800293 350.00000000 0.377535 -0.227696 -0.897564 0.000000
84.56400299 115.91100311 466.79998779 -0.520394 -0.496968 0.694416 0.000000
145.43600464 150.90299988 415.20001221 0.799524 -0.128574 -0.586712 0.000000
148.71600342 110.44300079 436.00000000 -0.449467 -0.676706 0.583137 0.000000
173.50199890 200.47500610 436.39999390 -0.271518 0.801998 0.532050 0.000000
212.13900757 87.48000336 459.60000610 0.347265 -0.534626 0.770443 0.000000
111.90100098 218.69999695 359.20001221 0.446919 0.260830 -0.855705 0.000000
240.20500183 165.48300171 435.20001221 -0.416228 0.063722 0.907025 0.000000
149.08000183 200.47500610 445.60000610 -0.266923 -0.122285 0.955928 0.000000
166.94099426 159.65100098 430.00000000 0.328831 -0.594487 -0.733795 0.000000
208.49400330 126.48100281 426.39999390 -0.408435 0.257721 0.875649 0.000000
143.24800110 201.20399475 367.20001221 -0.000978 0.999999 -0.000978 0.000000
134.13600159 178.24000549 404.00000000 -0.090920 -0.812503 -0.575823 0.000000
115.91100311 79.82550049 439.20001221 -0.313814 -0.785332 0.533643 0.000000
78.36750031 101.33100128 424.79998779 -0.653747 -0.692488 0.305082 0.000000
174.23100281 172.77299500 381.20001221 0.405353 -0.906820 -0.115616 0.000000
201.93299866 158.19299316 422.79998779 -0.274588 -0.274588 0.921522 0.000000
203.39100647 82.37699890 437.20001221 -0.359305 0.008887 0.933178 0.000000
103.51799774 231.09300232 356.39999390 0.519989 0.148779 -0.841116 0.000000
167.66999817 70.34850311 440.79998779 -0.120274 -0.919334 0.374646 0.000000
162.56700134 187.71699524 390.39999390 -0.231551 0.961526 -0.147826 0.000000
181.88499451 201.93299866 410.39999390 0.785994 0.586814 -0.194583 0.000000
51.02999878 180.79200745 330.00000000 -0.121734 -0.009870 -0.992514 0.000000
212.50300598 149.44500732 424.79998779 -0.422159 -0.116409 0.899016 0.000000
72.90000153 267.90798950 407.20001221 -0.614766 0.744356 0.260762 0.000000
156.36999512 218.69999695 414.39999390 0.952344 0.304099 -0.023777 0.000000
194.64300537 142.15499878 462.00000000 0.399666 0.115583 0.909345 0.000000
76.90950012 112.26599884 447.20001221 -0.894688 -0.446689 0.001310 0.000000
144.34199524 158.19299316 486.79998779 0.345854 0.148620 0.926443 0.000000
42.64649963 186.62399292 411.20001221 -0.999020 -0.013375 -0.042183 0.000000
79.46099854 270.82299805 377.60000610 -0.416967 0.890594 -0.181606 0.000000
205.94200134 125.38800049 425.60000610 -0.525924 0.364101 0.768658 0.000000
96.95700073 133.04200745 404.79998779 0.931223 -0.348362 -0.107084 0.000000
119.55599976 178.60499573 403.60000610 0.131587 0.030366 -0.990839 0.000000
146.52900696 96.95700073 469.20001221 -0.068068 -0.476476 0.876549 0.000000
52.85250092 153.08999634 441.60000610 -0.965438 -0.149027 0.213822 0.000000
120.28500366 148.35200500 408.00000000 -0.345198 0.029515 0.938066 0.000000
148.71600342 221.97999573 444.79998779 0.628725 0.618665 0.471125 0.000000
153.81900024 207.76499939 386.79998779 0.934818 0.170345 -0.311606 0.000000
96.22799683 210.68099976 470.00000000 -0.222867 0.615612 0.755878 0.000000
121.01399994 209.22300720 359.60000610 -0.212622 0.070055 -0.974620 0.000000
144.70599365 228.90600586 441.60000610 0.666830 0.459594 0.586610 0.000000
117.73300171 228.90600586 368.79998779 0.846340 0.242465 -0.474256 0.000000
212.13900757 141.78999329 424.79998779 -0.453182 -0.149130 0.878855 0.000000
63.78749847 145.07099915 456.79998779 -0.771354 -0.325540 0.546843 0.000000
86.02200317 123.93000031 375.60000610 0.948930 -0.315485 -0.001237 0.000000
133.40699768 68.89050293 424.00000000 -0.328078 -0.928392 0.174510 0.000000
47.74950027 228.17700195 385.60000610 -0.928213 0.372047 -0.001270 0.000000
197.55900574 97.68599701 430.79998779 -0.611911 0.250113 0.750339 0.000000
193.18499756 134.86500549 463.60000610 0.325885 0.097100 0.940410 0.000000
232.91499329 150.90299988 433.60000610 -0.344659 -0.001253 0.938727 0.000000
92.21849823 168.39900208 485.60000610 -0.349730 0.124806 0.928500 0.000000
145.07099915 205.57800293 370.79998779 0.294123 0.196547 -0.935340 0.000000
146.89300537 180.06300354 377.60000610 0.146278 -0.958057 -0.246433 0.000000
75.08699799 256.97299194 430.39999390 -0.126616 0.761183 0.636057 0.000000
235.46699524 129.03300476 439.60000610 -0.471113 -0.047794 0.880777 0.000000
122.10700226 167.66999817 388.79998779 -0.882320 0.447637 -0.145374 0.000000
166.94099426 185.89500427 450.00000000 0.804198 0.535611 0.257656 0.000000
161.10899353 142.52000427 398.39999390 0.316653 -0.383961 0.867355 0.000000
69.61949921 263.16900635 381.60000610 -0.701371 0.701371 -0.127114 0.000000
76.54499817 191.72700500 468.39999390 -0.646890 0.452990 0.613459 0.000000
88.93800354 275.19699097 379.20001221 -0.314719 0.851136 -0.420142 0.000000
113.72399902 239.11199951 452.39999390 0.217772 0.569915 0.792321 0.000000
136.32299805 201.56799316 472.79998779 0.526185 -0.133378 0.839845 0.000000
51.39450073 229.63499451 426.39999390 -0.767003 0.273591 0.580392 0.000000
158.19299316 87.48000336 463.60000610 -0.863517 -0.172703 0.473827 0.000000
142.88400269 111.53700256 479.60000610 -0.372680 -0.372680 0.849835 0.000000
61.96500015 152.72500610 343.20001221 0.494348 -0.343964 -0.798316 0.000000
74.72250366 157.46400452 352.79998779 0.355769 -0.647598 -0.673829 0.000000
102.78900146 169.49200439 488.79998779 -0.093718 0.258047 0.961576 0.000000
78.73200226 121.37799835 371.20001221 0.681267 -0.369362 -0.632019 0.000000
123.93000031 278.11300659 388.00000000 0.242814 0.970072 0.001184 0.000000
208.49400330 77.27400208 438.79998779 -0.344659 -0.001253 0.938727 0.000000
164.75399780 169.12800598 376.39999390 -0.253271 -0.371760 -0.893112 0.000000
174.23100281 174.96000671 459.60000610 0.514965 -0.606140 0.606140 0.000000
91.12500000 102.78900146 405.20001221 0.441700 -0.884839 0.148193 0.000000
147.25799561 92.94750214 467.20001221 -0.986471 -0.156859 -0.047639 0.000000
80.19000244 100.23699951 436.79998779 -0.784388 -0.612027 0.100787 0.000000
160.74400330 168.39900208 475.20001221 0.965588 -0.191554 0.175917 0.000000
118.46199799 181.52099609 359.20001221 -0.149662 -0.666675 -0.730168 0.000000
42.64649963 212.13900757 400.79998779 -0.947818 0.238659 0.211384 0.000000
66.33899689 116.63999939 381.20001221 -0.851552 -0.510353 -0.119998 0.000000
185.16600037 123.93000031 411.60000610 -0.386576 0.221951 0.895152 0.000000
103.88200378 208.49400330 353.60000610 0.270176 -0.154578 -0.950321 0.000000
155.27699280 98.41500092 410.79998779 -0.052874 0.440613 0.896139 0.000000
158.19299316 147.25799561 426.79998779 0.804794 -0.399987 0.438540 0.000000
103.15299988 104.97599792 470.39999390 -0.351373 -0.648815 0.674964 0.000000
52.48799896 145.43600464 336.79998779 -0.452839 -0.855363 0.251577 0.000000
139.96800232 165.11799622 486.39999390 0.246928 0.402567 0.881457 0.000000
156.73500061 190.63299561 373.60000610 0.198135 0.970221 -0.139333 0.000000
46.65599823 205.57800293 348.39999390 -0.884912 0.362078 -0.292968 0.000000
115.18199921 164.38900757 379.20001221 0.615432 -0.782081 -0.097943 0.000000
82.37699890 110.80799866 454.00000000 -0.334885 -0.222778 0.915545 0.000000
213.59700012 99.87300110 438.79998779 -0.371359 0.325512 0.869560 0.000000
110.07900238 105.33999634 472.79998779 -0.205810 -0.620524 0.756699 0.000000
148.71600342 197.92300415 374.39999390 0.752285 0.469149 0.462565 0.000000
223.80299377 132.67799377 430.79998779 -0.696231 0.077036 0.713673 0.000000
94.76999664 141.42599487 378.00000000 0.967223 -0.156254 -0.200160 0.000000
150.90299988 63.05849838 420.00000000 -0.328303 -0.888966 0.319308 0.000000
192.45599365 70.71299744 439.60000610 0.233657 -0.841470 0.487167 0.000000
48.11399841 185.16600037 330.00000000 -0.891076 0.044757 -0.451641 0.000000
154.91200256 182.25000000 472.79998779 0.729201 0.336179 0.596028 0.000000
97.32150269 180.79200745 354.39999390 0.295497 -0.263785 -0.918204 0.000000
49.57199860 185.16600037 330.00000000 -0.891076 0.044757 -0.451641 0.000000
227.44799805 121.01399994 434.79998779 -0.628500 0.178916 0.756952 0.000000
139.96800232 123.20099640 442.00000000 -0.001137 -0.180786 0.983522 0.000000
95.49900055 281.02899170 402.39999390 -0.118669 0.992606 0.025508 0.000000
170.22099304 198.28799438 424.00000000 -0.941381 0.128309 0.311993 0.000000
106.43399811 116.63999939 402.79998779 -0.028445 -0.146778 0.988760 0.000000
151.99600220 199.01699829 396.79998779 0.979868 -0.012816 0.199236 0.000000
189.53999329 113.35900116 418.39999390 -0.570955 0.187273 0.799337 0.000000
182.25000000 182.25000000 378.79998779 0.424290 0.499646 -0.755203 0.000000
72.17099762 153.81900024 354.00000000 0.510720 -0.524116 -0.681518 0.000000
173.50199890 211.41000366 417.20001221 0.537868 0.537868 0.649151 0.000000
150.17399597 255.87899780 399.60000610 0.902989 0.036013 -0.428153 0.000000
128.30400085 94.76999664 466.79998779 -0.206097 -0.548065 0.810647 0.000000
68.89050293 114.45300293 435.20001221 -0.691378 -0.691378 0.209744 0.000000
42.64649963 182.97900391 391.20001221 -0.944987 -0.158628 0.286072 0.000000
139.96800232 136.32299805 435.60000610 -0.394862 0.861936 0.318041 0.000000
51.75899887 185.89500427 330.00000000 0.162760 0.001122 -0.986665 0.000000
137.05200195 95.49900055 410.00000000 0.565449 0.283517 0.774523 0.000000
182.61399841 203.39100647 416.00000000 0.859981 0.454928 -0.231243 0.000000
166.94099426 178.60499573 463.60000610 0.423598 0.579748 0.696030 0.000000
142.88400269 161.83799744 418.00000000 0.074558 0.150300 0.985825 0.000000
96.95700073 82.01249695 423.20001221 -0.445098 -0.838658 0.313911 0.000000
90.39600372 150.90299988 486.00000000 -0.442856 -0.050109 0.895192 0.000000
58.31999969 131.58399963 373.60000610 -0.928721 -0.370724 0.006370 0.000000
156.00599670 188.44599915 387.20001221 0.588632 0.629111 -0.507674 0.000000
158.19299316 174.96000671 472.39999390 0.837737 0.260732 0.479809 0.000000
259.15899658 165.48300171 439.20001221 -0.880149 0.221150 -0.420037 0.000000
102.42400360 200.47500610 354.39999390 0.148361 0.021518 -0.988699 0.000000
76.18049622 101.33100128 402.39999390 -0.009725 0.662692 0.748829 0.000000
156.73500061 143.61300659 401.20001221 0.463643 -0.340216 0.818100 0.000000
125.38800049 96.22799683 416.39999390 -0.908316 0.166833 0.383574 0.000000
150.90299988 199.01699829 373.20001221 0.684258 0.234378 0.690550 0.000000
195.37199402 123.56500244 418.39999390 -0.589200 0.401052 0.701428 0.000000
133.77099609 137.78100586 427.20001221 -0.924788 0.308263 -0.223029 0.000000
79.46099854 270.82299805 411.20001221 -0.520263 0.806330 0.281351 0.000000
153.45399475 220.88699341 404.00000000 0.913064 0.292705 -0.283967 0.000000
128.30400085 255.87899780 430.79998779 0.398850 0.536724 0.743536 0.000000
122.10700226 178.60499573 362.39999390 0.188211 -0.598297 -0.778857 0.000000
166.21200562 189.90400696 402.39999390 -0.367907 0.920461 0.131891 0.000000
115.91100311 110.07900238 405.20001221 -0.075707 0.283579 0.955956 0.000000
76.18049622 139.23899841 363.20001221 0.632921 -0.278995 -0.722200 0.000000
142.15499878 267.17800903 388.79998779 0.811830 0.582673 -0.037727 0.000000
136.32299805 267.54299927 379.60000610 0.906635 0.060803 -0.417512 0.000000
99.87300110 228.90600586 354.00000000 0.573991 0.066942 -0.816121 0.000000
170.58599854 166.57600403 469.60000610 0.668150 0.725985 0.162852 0.000000
233.27999878 173.50199890 434.79998779 0.681980 0.715247 -0.152727 0.000000
106.06900024 93.31199646 404.00000000 -0.272170 -0.028325 0.961832 0.000000
59.41350174 250.77600098 374.39999390 -0.781848 0.568759 -0.255393 0.000000
235.46699524 168.39900208 434.00000000 0.213537 -0.062231 0.974951 0.000000
185.89500427 131.94900513 410.00000000 -0.530304 0.034435 0.847108 0.000000
72.90000153 200.47500610 461.20001221 -0.631236 0.431373 0.644561 0.000000
43.37549973 172.77299500 389.60000610 -0.980356 -0.111376 0.162781 0.000000
205.57800293 111.53700256 464.39999390 0.508302 0.847170 -0.154701 0.000000
134.86500549 273.01000977 399.20001221 0.521849 0.830421 0.195126 0.000000
56.86199951 239.11199951 357.20001221 -0.764711 0.588118 -0.263313 0.000000
97.68599701 231.82200623 352.39999390 0.615060 0.058509 -0.786306 0.000000
177.87600708 66.70349884 434.39999390 0.001357 -0.826370 0.563126 0.000000
94.76999664 89.30249786 435.20001221 -0.373797 -0.862964 0.339955 0.000000
143.61300659 121.01399994 484.39999390 0.262963 -0.309453 0.913832 0.000000
181.52099609 145.43600464 467.20001221 0.283633 0.073154 0.956138 0.000000
222.34500122 153.81900024 448.39999390 0.535232 -0.321139 0.781279 0.000000
145.07099915 201.93299866 442.00000000 -0.676072 -0.589268 0.442368 0.000000
72.53549957 170.58599854 472.00000000 -0.758980 0.208681 0.616768 0.000000
144.70599365 215.78399658 382.39999390 0.680625 0.614384 -0.399101 0.000000
72.90000153 105.70500183 399.60000610 -0.821670 -0.471553 0.320151 0.000000
69.25499725 174.23100281 342.79998779 0.454836 -0.047520 -0.889306 0.000000
231.82200623 145.07099915 448.39999390 0.341160 0.273223 0.899421 0.000000
94.04100037 134.50000000 384.00000000 0.893566 -0.433373 -0.117166 0.000000
78.36750031 117.36900330 373.60000610 0.685050 -0.419655 -0.595479 0.000000
115.18199921 139.96800232 491.60000610 -0.151130 -0.202798 0.967488 0.000000
111.53700256 251.13999939 360.79998779 0.528471 -0.114381 -0.841210 0.000000
177.87600708 166.21200562 446.79998779 -0.166474 0.429937 0.887378 0.000000
145.80000305 211.41000366 457.20001221 0.499333 0.640559 0.583396 0.000000
44.83349991 198.28799438 420.00000000 -0.936297 -0.075486 0.343000 0.000000
95.49900055 225.26100159 461.20001221 -0.186543 0.391886 0.900903 0.000000
127.93900299 72.90000153 422.39999390 -0.708486 -0.705724 0.001381 0.000000
141.78999329 149.44500732 488.79998779 0.265723 0.025715 0.963706 0.000000
215.41900635 106.43399811 460.00000000 0.513295 -0.006736 0.858186 0.000000
134.86500549 141.78999329 418.39999390 -0.854811 -0.508304 0.104525 0.000000
206.30700684 158.19299316 450.79998779 0.397057 0.451713 0.798937 0.000000
82.74150085 94.04100037 409.60000610 -0.707106 -0.707106 0.001384 0.000000
78.73200226 189.53999329 346.79998779 0.241063 0.098211 -0.965527 0.000000
88.57350159 157.46400452 485.60000610 -0.363930 -0.093350 0.926737 0.000000
99.87300110 166.94099426 489.20001221 -0.258998 0.284755 0.922949 0.000000
234.00900269 172.04400635 440.39999390 -0.123862 0.385504 0.914355 0.000000
186.62399292 137.05200195 410.79998779 -0.462963 -0.079246 0.882828 0.000000
185.89500427 108.25599670 418.39999390 -0.325861 0.325861 0.887484 0.000000
72.53549957 207.76499939 457.60000610 -0.673370 0.305197 0.673370 0.000000
138.50999451 262.44000244 416.39999390 0.513912 0.608269 0.604899 0.000000
186.25900269 100.60199738 420.79998779 -0.535611 0.257656 0.804198 0.000000
239.84100342 173.86700439 437.60000610 0.092125 0.735535 0.671194 0.000000
58.68450165 147.98699951 343.20001221 0.210373 -0.145841 -0.966682 0.000000
236.19599915 117.36900330 439.60000610 -0.367898 -0.364793 0.855323 0.000000
51.02999878 147.62199402 341.60000610 -0.640214 -0.682786 0.352036 0.000000
96.95700073 127.20999908 408.79998779 0.264351 0.530266 0.805566 0.000000
145.80000305 213.23199463 455.20001221 0.593771 0.593771 0.543021 0.000000
176.41799927 147.98699951 411.60000610 0.481552 -0.592293 0.645985 0.000000
98.05049896 96.22799683 400.00000000 -0.381950 -0.160447 0.910149 0.000000
189.53999329 78.36750031 426.39999390 -0.671993 -0.240784 0.700320 0.000000
172.77299500 165.11799622 426.39999390 0.497755 -0.857647 0.129155 0.000000
92.94750214 159.65100098 487.20001221 -0.379559 0.011580 0.925095 0.000000
144.70599365 172.04400635 406.39999390 -0.316332 -0.839915 -0.440995 0.000000
130.12600708 274.10400391 405.60000610 0.434087 0.851182 0.295056 0.000000
102.78900146 181.15600586 485.60000610 -0.210346 0.277211 0.937501 0.000000
115.18199921 268.27200317 366.00000000 0.336368 0.498973 -0.798675 0.000000
189.53999329 146.52900696 413.20001221 -0.465764 -0.297528 0.833391 0.000000
142.88400269 132.67799377 486.79998779 0.350700 -0.155090 0.923556 0.000000
143.61300659 255.14999390 382.00000000 0.455521 -0.471966 -0.754817 0.000000
84.92849731 166.21200562 483.20001221 -0.469368 0.169208 0.866639 0.000000
169.49200439 152.36099243 420.00000000 0.466602 -0.761298 0.450230 0.000000
106.43399811 278.84201050 410.39999390 -0.176655 0.950702 0.254869 0.000000
55.03950119 244.94400024 416.00000000 -0.969278 0.245614 -0.013179 0.000000
172.04400635 189.17500305 372.79998779 -0.332817 0.925428 -0.181154 0.000000
201.93299866 164.02499390 450.00000000 0.447475 0.444221 0.776166 0.000000
135.22900391 67.79699707 421.60000610 -0.328078 -0.928392 0.174510 0.000000
151.26800537 199.01699829 383.20001221 0.940290 -0.226392 -0.254170 0.000000
179.33399963 193.54899597 386.39999390 0.711656 0.569655 -0.411143 0.000000
160.38000488 111.53700256 476.39999390 0.034797 -0.217180 0.975511 0.000000
188.81100464 104.24700165 421.20001221 -0.475968 0.208705 0.854340 0.000000
112.26599884 147.25799561 402.79998779 0.213517 -0.870492 -0.443458 0.000000
88.20899963 163.29600525 485.20001221 -0.420372 0.141074 0.896318 0.000000
207.76499939 175.32400513 436.00000000 -0.164901 -0.953207 0.253384 0.000000
134.13600159 180.42700195 392.00000000 0.096782 -0.958791 0.267119 0.000000
83.83499908 141.42599487 367.60000610 0.482406 -0.291941 -0.825866 0.000000
128.66799927 147.25799561 408.00000000 -0.396603 -0.557877 0.729026 0.000000
81.64800262 98.77950287 433.60000610 -0.743494 -0.668729 -0.004154 0.000000
137.05200195 244.21499634 434.79998779 0.461685 0.461685 0.757426 0.000000
169.12800598 102.05999756 413.20001221 -0.075160 0.540303 0.838107 0.000000
216.51300049 82.37699890 454.00000000 0.233144 -0.480003 0.845719 0.000000
152.36099243 197.55900574 393.20001221 0.949523 0.055101 0.308819 0.000000
117.36900330 176.78199768 362.39999390 0.309051 -0.803533 0.508746 0.000000
178.60499573 134.13600159 407.60000610 -0.298120 -0.023700 0.954234 0.000000
99.14399719 210.68099976 470.79998779 -0.148583 0.616845 0.772933 0.000000
172.77299500 163.29600525 469.20001221 0.919853 0.392005 -0.014231 0.000000
114.45300293 249.31799316 362.79998779 0.567913 -0.167211 -0.805925 0.000000
51.39450073 180.06300354 438.39999390 -0.818966 0.049166 0.571731 0.000000
172.04400635 68.16149902 412.79998779 -0.526981 -0.490176 0.694276 0.000000
110.80799866 156.73500061 406.00000000 -0.878249 0.001325 -0.478202 0.000000
103.88200378 149.44500732 387.20001221 0.726441 -0.569018 -0.385358 0.000000
129.76199341 231.09300232 378.79998779 0.542523 0.222849 -0.809942 0.000000
192.09100342 124.65899658 467.20001221 0.239380 0.256178 0.936520 0.000000
199.74600220 161.47300720 423.20001221 -0.303631 -0.315480 0.899044 0.000000
78.00299835 189.90400696 472.00000000 -0.573918 0.570532 0.587462 0.000000
139.23899841 65.24549866 416.00000000 -0.528837 -0.846977 -0.054419 0.000000
88.20899963 143.24800110 369.60000610 0.504792 -0.410041 -0.759639 0.000000
231.45700073 130.49099731 451.20001221 0.430188 0.132038 0.893031 0.000000
117.73300171 139.23899841 404.00000000 0.206431 -0.201103 0.957572 0.000000
207.76499939 142.15499878 456.39999390 0.290426 0.253229 0.922783 0.000000
99.14399719 252.23399353 442.79998779 -0.006898 0.633223 0.773939 0.000000
226.71899414 95.13449860 453.60000610 0.432045 -0.138312 0.891183 0.000000
83.10600281 210.68099976 464.39999390 -0.217918 0.378796 0.899458 0.000000
56.86199951 247.49499512 375.20001221 -0.798729 0.589081 -0.122541 0.000000
103.51799774 121.01399994 482.00000000 -0.284288 -0.437956 0.852863 0.000000
137.78100586 266.81399536 411.60000610 0.513624 0.719739 0.467082 0.000000
206.30700684 91.85399628 462.00000000 0.078008 -0.166817 0.982897 0.000000
127.57499695 152.36099243 412.39999390 0.012252 -0.139227 0.990185 0.000000
71.44200134 108.25599670 428.00000000 -0.317711 -0.948187 0.001236 0.000000
112.26599884 95.13449860 457.60000610 -0.347474 -0.693317 0.631326 0.000000
156.73500061 179.33399963 374.00000000 -0.692677 -0.433546 -0.576400 0.000000
247.13099670 158.92199707 437.20001221 -0.136511 0.068839 0.988244 0.000000
113.35900116 264.62701416 363.20001221 0.416211 0.299488 -0.858531 0.000000
201.20399475 174.59500122 438.39999390 -0.133461 -0.984726 0.111819 0.000000
149.80900574 166.94099426 408.79998779 -0.628640 -0.697218 -0.344527 0.000000
154.18299866 196.83000183 462.39999390 0.503436 0.567418 0.651605 0.000000
70.34850311 129.03300476 460.79998779 -0.945338 -0.288064 0.152823 0.000000
107.89199829 116.63999939 480.39999390 -0.194951 -0.345790 0.917836 0.000000
69.98400116 214.32600403 454.79998779 -0.368901 0.287592 0.883857 0.000000
183.70799255 69.98400116 418.00000000 -0.290319 -0.428566 0.855597 0.000000
110.07900238 115.91100311 402.79998779 -0.094033 0.045357 0.994535 0.000000
80.91899872 99.87300110 432.39999390 -0.739740 -0.672364 0.026670 0.000000
188.08200073 68.52600098 434.79998779 0.001219 -0.956644 0.291258 0.000000
43.01100159 204.11999512 405.20001221 -0.972717 0.161484 0.166570 0.000000
130.49099731 229.63499451 453.20001221 0.427529 0.297881 0.853514 0.000000
190.26899719 78.00299835 455.60000610 -0.004110 -0.590527 0.807008 0.000000
187.35299683 127.57499695 411.60000610 -0.406157 0.217109 0.887637 0.000000
177.14700317 97.32150269 416.79998779 -0.359314 0.222571 0.906287 0.000000
46.29150009 224.53199768 372.00000000 -0.973751 0.227090 -0.015456 0.000000
145.07099915 249.68200684 421.60000610 0.506091 0.796654 0.330476 0.000000
137.78100586 223.43800354 452.79998779 0.265463 0.417156 0.869201 0.000000
224.16700745 121.01399994 455.20001221 0.082108 -0.243797 0.966344 0.000000
118.82700348 108.25599670 477.60000610 -0.166266 -0.681844 0.712351 0.000000
67.79699707 115.54599762 396.79998779 -0.921138 -0.348424 0.173507 0.000000
51.39450073 161.10899353 433.60000610 -0.930160 -0.342112 0.133273 0.000000
142.88400269 85.29299927 408.39999390 -0.402911 0.001287 0.915238 0.000000
160.01499939 160.38000488 424.79998779 0.847758 -0.256014 -0.464504 0.000000
42.64649963 179.33399963 381.60000610 -0.996521 -0.053249 -0.064116 0.000000
170.58599854 86.02200317 416.39999390 -0.234659 0.068287 0.969676 0.000000
95.13449860 279.93600464 396.00000000 -0.191426 0.976889 -0.095095 0.000000
180.79200745 83.83499908 419.60000610 -0.693317 -0.347474 0.631326 0.000000
181.52099609 141.42599487 467.60000610 0.283633 0.073154 0.956138 0.000000
217.97099304 99.14399719 441.20001221 -0.381171 0.406477 0.830352 0.000000
63.78749847 249.31799316 360.00000000 -0.652946 0.685350 -0.322423 0.000000
70.34850311 108.62100220 428.00000000 -0.393973 -0.917490 0.054756 0.000000
170.58599854 212.86799622 409.20001221 0.111877 0.885100 -0.451755 0.000000
134.13600159 240.93400574 440.00000000 0.497175 0.621890 0.605037 0.000000
57.22650146 252.96299744 398.39999390 -0.768122 -0.596736 0.232151 0.000000
252.96299744 174.23100281 438.00000000 -0.330794 -0.219097 0.917917 0.000000
114.45300293 96.95700073 407.60000610 -0.458081 0.093858 0.883942 0.000000
185.52999878 139.23899841 410.39999390 -0.445528 -0.019949 0.895046 0.000000
112.26599884 238.01800537 453.60000610 0.217772 0.569915 0.792321 0.000000
156.73500061 160.01499939 413.60000610 -0.152930 -0.326526 0.932734 0.000000
63.42300034 118.46199799 420.00000000 -0.812549 -0.579987 0.058140 0.000000
47.74950027 155.27699280 416.00000000 -0.926324 -0.347544 0.145387 0.000000
104.97599792 162.93099976 366.39999390 0.392581 -0.566697 -0.724386 0.000000
155.64100647 222.34500122 429.60000610 0.799516 0.419867 0.429519 0.000000
239.84100342 120.28500366 447.60000610 0.890845 -0.099294 0.443325 0.000000
59.41350174 150.90299988 451.20001221 -0.975894 -0.074880 0.204999 0.000000
211.41000366 102.78900146 462.00000000 0.456163 0.009255 0.889848 0.000000
84.19950104 96.22799683 431.20001221 -0.696503 -0.708384 0.114351 0.000000
138.87399292 163.29600525 487.20001221 0.282730 0.357527 0.890077 0.000000
170.58599854 168.03500366 388.00000000 0.415934 -0.827123 -0.377978 0.000000
50.30099869 207.03599548 342.00000000 -0.774818 0.438792 -0.455104 0.000000
137.41600037 136.32299805 404.79998779 0.420471 -0.649818 0.633199 0.000000
235.83099365 140.69700623 438.39999390 -0.427050 0.357714 0.830463 0.000000
134.13600159 212.86799622 368.39999390 0.248196 0.709808 -0.659220 0.000000
153.08999634 67.79699707 401.20001221 -0.255350 -0.255350 0.932520 0.000000
151.63200378 245.67300415 399.60000610 0.795962 0.414934 -0.440766 0.000000
56.86199951 246.76600647 370.39999390 -0.833195 0.537403 -0.130324 0.000000
166.57600403 190.26899719 388.00000000 -0.654720 0.750960 -0.086032 0.000000
166.94099426 149.80900574 410.39999390 -0.545426 -0.835756 -0.063422 0.000000
86.02200317 180.42700195 480.00000000 -0.535232 0.321139 0.781279 0.000000
123.20099640 133.40699768 402.79998779 0.251531 -0.647020 0.719790 0.000000
41.18849945 186.62399292 399.20001221 -0.961234 -0.172732 0.214926 0.000000
126.84600067 173.86700439 406.39999390 -0.001380 -0.738126 -0.674661 0.000000
156.00599670 187.35299683 468.39999390 0.662814 0.322494 0.675778 0.000000
122.47200012 169.12800598 490.00000000 0.137068 0.275466 0.951489 0.000000
142.88400269 66.70349884 426.39999390 0.446689 -0.894688 -0.001310 0.000000
140.69700623 201.20399475 470.00000000 0.436838 0.736855 0.515963 0.000000
200.83900452 114.45300293 464.79998779 0.385856 0.289014 0.876120 0.000000
125.38800049 233.27999878 376.39999390 0.554433 0.223935 -0.801534 0.000000
148.71600342 242.75700378 422.00000000 0.807441 0.160290 0.567755 0.000000
240.20500183 129.76199341 443.20001221 -0.977194 0.079496 0.196906 0.000000
60.87149811 253.69200134 379.20001221 -0.745009 0.644455 -0.172160 0.000000
82.74150085 169.12800598 480.79998779 -0.571718 0.200791 0.795501 0.000000
121.74299622 243.48599243 374.00000000 0.423663 -0.110460 -0.899060 0.000000
59.41350174 126.11699677 423.20001221 -0.904742 -0.425216 0.025169 0.000000
145.07099915 138.14500427 418.39999390 0.744597 -0.223223 -0.629083 0.000000
103.51799774 125.75199890 484.00000000 -0.256888 -0.344964 0.902778 0.000000
90.76049805 192.45599365 478.39999390 -0.361183 0.392454 0.845888 0.000000
143.61300659 84.92849731 460.00000000 -0.295196 -0.944896 0.141532 0.000000
153.81900024 203.75500488 392.79998779 0.930594 -0.335014 0.147516 0.000000
41.18849945 199.01699829 386.39999390 -0.969377 0.242649 0.037800 0.000000
135.59399414 155.27699280 421.20001221 -0.896895 0.099035 0.431012 0.000000
148.71600342 184.80099487 369.60000610 -0.063571 -0.546713 -0.834903 0.000000
75.08699799 199.38099670 464.79998779 -0.593771 0.593771 0.543021 0.000000
121.01399994 119.55599976 402.79998779 -0.096941 0.322695 0.941526 0.000000
160.38000488 110.80799866 476.39999390 0.034797 -0.217180 0.975511 0.000000
106.43399811 276.65499878 378.39999390 -0.124434 0.879618 -0.459118 0.000000
98.05049896 141.42599487 390.39999390 0.889822 -0.448382 -0.084679 0.000000
44.83349991 188.08200073 360.79998779 -0.861339 -0.322039 -0.392919 0.000000
132.67799377 177.14700317 385.20001221 0.475007 -0.729889 0.491558 0.000000
127.57499695 169.85699463 489.20001221 0.154012 0.263829 0.952195 0.000000
111.17199707 193.18499756 398.39999390 -0.279449 -0.223279 0.933839 0.000000
127.57499695 108.62100220 479.60000610 0.091041 -0.582373 0.807808 0.000000
116.27500153 253.69200134 363.20001221 0.564001 -0.090875 -0.820759 0.000000
163.29600525 148.35200500 415.20001221 0.526385 -0.844798 -0.096098 0.000000
101.33100128 211.41000366 352.39999390 0.249703 -0.161573 -0.954747 0.000000
41.91749954 200.47500610 404.00000000 -0.923710 0.163997 0.346216 0.000000
75.08699799 260.25299072 360.39999390 -0.340597 0.797924 -0.497303 0.000000
102.78900146 277.38400269 380.79998779 -0.003817 0.929954 -0.367656 0.000000
190.26899719 171.67900085 398.39999390 0.438818 -0.876158 -0.199463 0.000000
200.47500610 163.29600525 450.79998779 0.434812 0.405931 0.803840 0.000000
52.85250092 239.11199951 378.39999390 -0.847170 0.508302 0.154701 0.000000
154.18299866 119.55599976 480.00000000 0.409531 -0.334787 0.848647 0.000000
110.44300079 126.11699677 485.60000610 -0.304502 -0.457534 0.835429 0.000000
122.47200012 202.66200256 358.79998779 -0.101365 0.167314 -0.980679 0.000000
48.11399841 153.81900024 400.39999390 -0.946704 -0.215098 0.239759 0.000000
165.48300171 99.87300110 470.79998779 0.199757 -0.240524 0.949866 0.000000
181.52099609 136.32299805 408.39999390 -0.354926 -0.062013 0.932835 0.000000
151.63200378 201.56799316 460.00000000 0.363989 0.566387 0.739404 0.000000
132.31300354 166.94099426 412.79998779 -0.388064 0.384922 0.837402 0.000000
160.38000488 166.57600403 392.00000000 -0.124434 -0.879618 -0.459118 0.000000
152.36099243 198.65199280 444.79998779 -0.348514 -0.842374 0.411028 0.000000
52.12350082 142.88400269 413.60000610 -0.882240 -0.453274 0.127260 0.000000
149.44500732 103.88200378 408.00000000 0.008869 0.350971 0.936344 0.000000
201.93299866 174.59500122 438.39999390 0.102100 -0.960257 0.259773 0.000000
64.15200043 182.97900391 338.79998779 0.540913 -0.099528 -0.835169 0.000000
206.30700684 93.31199646 437.20001221 -0.452142 0.181151 0.873356 0.000000
123.20099640 169.49200439 391.20001221 -0.827435 0.529016 -0.188396 0.000000
79.82550049 112.99500275 453.60000610 -0.334885 -0.222778 0.915545 0.000000
171.31500244 190.63299561 377.60000610 -0.128066 0.963731 -0.234141 0.000000
137.41600037 136.32299805 437.60000610 -0.337764 0.922844 0.185134 0.000000
48.11399841 180.79200745 330.79998779 -0.906275 0.019730 -0.422227 0.000000
190.99800110 88.93800354 462.00000000 0.056691 -0.485331 0.872490 0.000000
53.58150101 242.75700378 383.20001221 -0.824794 0.502923 -0.258425 0.000000
203.39100647 91.12500000 462.00000000 0.092820 -0.296764 0.950429 0.000000
190.99800110 80.91899872 428.39999390 -0.635815 -0.129545 0.760893 0.000000
63.42300034 252.59800720 365.60000610 -0.750588 0.583433 -0.310200 0.000000
46.65599823 190.26899719 422.79998779 -0.865883 0.104134 0.489288 0.000000
139.60400391 145.07099915 424.00000000 -0.899421 0.273223 -0.341160 0.000000
55.76850128 182.25000000 331.20001221 0.472269 0.039469 -0.880570 0.000000
76.54499817 257.70098877 354.39999390 -0.530452 0.827986 -0.181826 0.000000
62.69400024 122.10700226 381.60000610 -0.772976 -0.621062 -0.129574 0.000000
87.84449768 92.58300018 432.00000000 -0.674710 -0.717549 0.172885 0.000000
179.33399963 174.23100281 382.79998779 0.335590 -0.775551 -0.534696 0.000000
60.50699997 240.57000732 349.20001221 -0.783999 0.564040 -0.259238 0.000000
169.12800598 196.10099792 397.20001221 -0.831679 0.553990 0.037488 0.000000
209.95199585 120.64900208 428.79998779 -0.272124 0.328020 0.904628 0.000000
127.57499695 175.32400513 368.00000000 0.288455 -0.750622 -0.594441 0.000000
196.10099792 166.57600403 452.79998779 0.636067 0.517964 0.571954 0.000000
50.66550064 166.94099426 436.79998779 -0.925354 -0.157715 0.344740 0.000000
92.58300018 117.00399780 474.39999390 -0.403535 -0.468360 0.786002 0.000000
100.60199738 194.64300537 354.00000000 0.332705 0.072327 -0.940253 0.000000
184.43699646 137.05200195 410.00000000 -0.429429 -0.086990 0.898901 0.000000
189.53999329 152.36099243 415.60000610 -0.441389 -0.295808 0.847156 0.000000
66.33899689 254.05599976 425.60000610 -0.680647 0.607780 0.409051 0.000000
146.16400146 249.31799316 420.79998779 0.506091 0.796654 0.330476 0.000000
111.53700256 252.23399353 360.39999390 0.540755 -0.102383 -0.834926 0.000000
111.53700256 93.31199646 406.00000000 -0.506022 0.107512 0.855794 0.000000
44.10449982 210.68099976 372.79998779 -0.999999 0.000978 0.000978 0.000000
89.66699982 102.05999756 459.60000610 0.446786 -0.886480 0.120561 0.000000
128.30400085 219.42900085 461.20001221 0.129687 0.627565 0.767687 0.000000
70.71299744 250.77600098 343.60000610 -0.484131 0.841502 -0.239775 0.000000
164.75399780 188.44599915 404.00000000 -0.286117 0.958188 0.003653 0.000000
209.95199585 134.13600159 425.20001221 -0.340119 0.112470 0.933633 0.000000
87.48000336 153.45399475 361.60000610 0.528610 -0.378973 -0.759573 0.000000
113.72399902 95.49900055 463.60000610 -0.085451 -0.974641 0.206817 0.000000
159.28599548 142.15499878 399.20001221 0.457534 -0.304502 0.835429 0.000000
151.63200378 221.61599731 396.39999390 0.898023 0.214649 -0.384032 0.000000
131.58399963 123.20099640 429.60000610 -0.656470 0.189100 -0.730266 0.000000
107.89199829 265.35598755 361.20001221 0.360427 0.442992 -0.820884 0.000000
145.80000305 77.63849640 448.00000000 0.025862 -0.864328 0.502263 0.000000
128.66799927 126.84600067 437.60000610 -0.930160 0.342112 -0.133273 0.000000
165.48300171 166.94099426 378.79998779 -0.497552 -0.710551 -0.497552 0.000000
83.83499908 178.60499573 349.20001221 0.405218 -0.100959 -0.908629 0.000000
166.94099426 187.71699524 372.00000000 0.039703 0.975728 -0.215358 0.000000
115.91100311 244.57899475 365.60000610 0.666618 -0.276559 -0.692196 0.000000
129.76199341 175.68899536 386.00000000 0.443909 -0.696622 0.563615 0.000000
106.06900024 152.36099243 387.20001221 0.600184 -0.702133 -0.383131 0.000000
81.28350067 99.87300110 431.20001221 -0.756799 -0.650127 0.067752 0.000000
72.90000153 221.61599731 338.79998779 0.533188 -0.239548 -0.811373 0.000000
147.25799561 180.79200745 478.79998779 0.325861 0.325861 0.887484 0.000000
166.94099426 151.26800537 420.79998779 0.444195 -0.865804 0.230379 0.000000
197.92300415 80.91899872 433.60000610 -0.493332 -0.014787 0.869716 0.000000
111.53700256 266.81399536 363.60000610 0.362802 0.432511 -0.825414 0.000000
254.42100525 162.56700134 438.00000000 -0.474516 -0.454813 0.753644 0.000000
