81.91410065 137.10899353 115.00000000 -0.779162 0.293574 0.553824 0.000000
57.65620041 149.76600647 187.50000000 0.580716 0.580716 -0.570558 0.000000
95.62500000 208.12500000 112.50000000 0.000978 0.000978 0.999999 0.000000
173.67199707 120.23400116 187.50000000 0.148969 0.310238 -0.938915 0.000000
155.39100647 182.10899353 162.50000000 0.000978 0.000978 0.999999 0.000000
57.65620041 160.31199646 197.50000000 -0.000978 -0.000978 -0.999999 0.000000
184.92199707 101.95300293 137.50000000 0.000978 0.000978 0.999999 0.000000
39.37500000 205.31199646 177.50000000 0.911978 -0.049404 -0.407252 0.000000
86.48439789 251.71899414 137.50000000 -0.915805 0.049323 0.398582 0.000000
121.64099884 149.76600647 207.50000000 -0.000978 -0.000978 -0.999999 0.000000
212.34399414 146.95300293 162.50000000 -0.297952 -0.274697 0.914203 0.000000
125.85900116 235.89799500 160.00000000 -0.216487 -0.492016 0.843240 0.000000
47.10940170 153.28100586 177.50000000 0.741998 0.528118 -0.412952 0.000000
135.00000000 104.06199646 162.50000000 0.089313 0.698400 -0.710113 0.000000
208.12500000 168.04699707 192.50000000 -0.355120 -0.923313 -0.146226 0.000000
219.37500000 145.54699707 167.50000000 -0.851189 -0.258260 0.456922 0.000000
175.07800293 169.45300293 162.50000000 -0.412428 -0.787656 0.457714 0.000000
56.25000000 201.09399414 62.50000000 -0.269752 0.139527 0.952768 0.000000
56.95309830 201.09399414 62.50000000 -0.269752 0.139527 0.952768 0.000000
95.62500000 182.10899353 222.50000000 -0.000978 -0.000978 -0.999999 0.000000
108.28099823 183.51600647 117.50000000 -0.675900 0.293800 0.675900 0.000000
169.45300293 180.00000000 162.50000000 -0.736611 -0.563483 0.374022 0.000000
151.17199707 147.65600586 137.50000000 0.000978 0.000978 0.999999 0.000000
120.93800354 109.68800354 127.50000000 0.000978 0.000978 0.999999 0.000000
125.15599823 165.23399353 147.50000000 0.000978 0.000978 0.999999 0.000000
107.57800293 234.84399414 147.50000000 -0.586220 -0.586220 0.559189 0.000000
184.92199707 146.60200500 145.00000000 -0.263015 -0.841340 0.472196 0.000000
73.82810211 242.57800293 112.50000000 -0.921899 0.001279 0.387428 0.000000
206.71899414 142.03100586 187.50000000 0.000978 0.000978 -0.999999 0.000000
54.14059830 201.79699707 62.50000000 0.000978 0.000978 0.999999 0.000000
88.24220276 113.90599823 165.00000000 0.520158 0.785839 -0.334502 0.000000
148.35899353 176.48399353 147.50000000 -0.277644 -0.756778 -0.591778 0.000000
212.34399414 159.60899353 192.50000000 -0.270668 0.043656 -0.961682 0.000000
80.85939789 133.59399414 187.50000000 0.523806 0.710048 -0.470594 0.000000
159.60899353 175.07800293 197.50000000 -0.000978 -0.000978 -0.999999 0.000000
92.10939789 149.76600647 207.50000000 -0.000978 -0.000978 -0.999999 0.000000
129.37500000 191.95300293 142.50000000 0.000978 0.000978 0.999999 0.000000
62.92969894 250.31199646 190.00000000 0.447922 -0.352956 -0.821454 0.000000
175.78100586 175.78100586 172.50000000 -0.921899 -0.001279 0.387428 0.000000
224.29699707 130.78100586 182.50000000 -0.327949 0.850180 -0.411879 0.000000
76.64060211 251.71899414 197.50000000 0.171359 -0.289254 -0.941790 0.000000
92.81250000 139.92199707 122.50000000 0.000978 0.000978 0.999999 0.000000
213.04699707 138.16400146 160.00000000 -0.551880 0.001356 0.833922 0.000000
137.81199646 97.38279724 140.00000000 -0.139426 0.843894 -0.518077 0.000000
136.40600586 208.82800293 152.50000000 -0.000978 -0.000978 0.999999 0.000000
192.65600586 163.12500000 162.50000000 -0.195702 -0.645662 0.738120 0.000000
159.60899353 121.64099884 182.50000000 0.081950 0.369447 -0.925631 0.000000
87.89060211 129.37500000 187.50000000 0.142356 0.630860 -0.762726 0.000000
166.64100647 99.84380341 127.50000000 0.000978 0.000978 0.999999 0.000000
73.12500000 196.17199707 77.50000000 -0.000978 -0.000978 0.999999 0.000000
130.78100586 130.78100586 187.50000000 -0.000978 -0.000978 -0.999999 0.000000
52.03120041 202.14799500 200.00000000 0.726775 -0.120386 -0.676243 0.000000
73.12500000 206.71899414 212.50000000 -0.000978 -0.000978 -0.999999 0.000000
180.70300293 97.03119659 132.50000000 -0.571952 0.020673 0.820027 0.000000
217.96899414 103.35900116 157.50000000 0.000978 0.000978 0.999999 0.000000
61.87500000 260.15600586 142.50000000 0.555272 -0.830820 0.037575 0.000000
146.95300293 171.56199646 142.50000000 0.000978 0.000978 0.999999 0.000000
170.15600586 163.12500000 152.50000000 -0.268867 -0.695237 0.666600 0.000000
102.65599823 208.82800293 117.50000000 -0.713531 -0.357582 0.602501 0.000000
42.53910065 206.01600647 105.00000000 0.990125 0.001104 0.140185 0.000000
39.72660065 221.48399353 135.00000000 0.984120 -0.163028 0.070209 0.000000
41.13280106 215.15600586 115.00000000 0.001330 -0.871255 0.490829 0.000000
58.35940170 203.20300293 62.50000000 0.000978 0.000978 0.999999 0.000000
69.60939789 168.04699707 212.50000000 0.225124 0.298750 -0.927398 0.000000
160.31199646 138.51600647 192.50000000 -0.000978 -0.000978 -0.999999 0.000000
136.40600586 195.46899414 162.50000000 -0.817758 0.001361 0.575560 0.000000
107.57800293 236.25000000 147.50000000 -0.596499 0.525528 0.606638 0.000000
58.00780106 257.34399414 165.00000000 0.787350 -0.603486 -0.126035 0.000000
181.40600586 141.32800293 142.50000000 0.000978 0.000978 0.999999 0.000000
215.15600586 155.39100647 172.50000000 -0.534220 -0.179077 0.826160 0.000000
225.70300293 129.37500000 177.50000000 -0.519315 0.126556 -0.845160 0.000000
174.37500000 121.64099884 127.50000000 0.000978 0.000978 0.999999 0.000000
93.51560211 194.76600647 222.50000000 -0.000978 -0.000978 -0.999999 0.000000
80.15619659 265.07800293 187.50000000 -0.000978 -0.000978 -0.999999 0.000000
127.26599884 116.36699677 175.00000000 0.067126 0.798367 -0.598418 0.000000
75.23439789 142.03100586 192.50000000 0.549731 0.570029 -0.610625 0.000000
76.64060211 163.12500000 212.50000000 -0.000978 -0.000978 -0.999999 0.000000
221.13299561 133.59399414 165.00000000 -0.585743 0.174058 0.791586 0.000000
96.32810211 127.96900177 112.50000000 -0.275113 -0.532933 0.800185 0.000000
178.59399414 120.93800354 187.50000000 0.000978 0.000978 -0.999999 0.000000
189.84399414 111.09400177 182.50000000 -0.000978 -0.000978 -0.999999 0.000000
110.74199677 206.01600647 120.00000000 -0.513425 -0.411724 0.752913 0.000000
89.29689789 134.29699707 192.50000000 0.213278 0.649175 -0.730127 0.000000
163.12500000 120.93800354 182.50000000 0.026518 0.607133 -0.794158 0.000000
102.65599823 272.10900879 152.50000000 0.000978 0.000978 0.999999 0.000000
69.60939789 259.45300293 187.50000000 0.516247 -0.775179 -0.364124 0.000000
140.62500000 221.48399353 172.50000000 -0.887065 0.405895 0.219921 0.000000
58.35940170 204.60899353 62.50000000 0.000978 0.000978 0.999999 0.000000
215.50799561 116.71900177 175.00000000 -0.646117 0.149104 -0.748532 0.000000
105.46900177 226.40600586 212.50000000 -0.001330 -0.490829 -0.871255 0.000000
68.20310211 208.12500000 207.50000000 -0.000978 -0.000978 -0.999999 0.000000
90.00000000 212.34399414 107.50000000 0.000978 0.000978 0.999999 0.000000
69.60939789 180.70300293 82.50000000 -0.498053 -0.034113 0.866475 0.000000
39.37500000 201.79699707 132.50000000 0.973162 -0.088243 0.212530 0.000000
151.17199707 177.53900146 145.00000000 0.048006 -0.984713 0.167436 0.000000
106.17199707 232.03100586 142.50000000 -0.410218 -0.619479 0.669303 0.000000
122.34400177 118.82800293 127.50000000 0.000978 0.000978 0.999999 0.000000
109.68800354 236.25000000 152.50000000 -0.531184 -0.575027 0.622244 0.000000
118.12500000 208.82800293 127.50000000 -0.341152 -0.185440 0.921535 0.000000
59.76559830 227.10899353 197.50000000 0.587785 -0.032112 -0.808379 0.000000
182.81199646 141.32800293 192.50000000 -0.000978 -0.000978 -0.999999 0.000000
145.54699707 161.01600647 142.50000000 0.344386 -0.095142 0.933995 0.000000
184.21899414 153.28100586 147.50000000 0.000978 0.000978 0.999999 0.000000
184.92199707 170.50799561 190.00000000 -0.528901 -0.582974 -0.616770 0.000000
49.21879959 206.01600647 62.50000000 0.803547 0.026460 0.594653 0.000000
101.25000000 201.79699707 112.50000000 0.000978 0.000978 0.999999 0.000000
65.39060211 265.07800293 172.50000000 0.549994 -0.827179 0.115251 0.000000
133.59399414 165.93800354 142.50000000 0.618940 0.672039 0.406542 0.000000
95.62500000 210.23399353 112.50000000 0.000978 0.000978 0.999999 0.000000
220.07800293 124.45300293 177.50000000 -0.000978 -0.000978 -0.999999 0.000000
179.29699707 111.09400177 132.50000000 0.000978 0.000978 0.999999 0.000000
58.35940170 206.01600647 62.50000000 0.000978 0.000978 0.999999 0.000000
113.90599823 225.70300293 207.50000000 -0.266290 -0.891106 -0.367451 0.000000
108.98400116 145.54699707 207.50000000 -0.204834 0.257073 -0.944434 0.000000
216.91400146 151.17199707 170.00000000 -0.702398 0.279999 0.654398 0.000000
233.43800354 120.23400116 167.50000000 -0.672407 0.538261 0.508078 0.000000
103.00800323 281.25000000 165.00000000 -0.499367 -0.806913 0.315473 0.000000
121.64099884 176.48399353 142.50000000 -0.349264 0.364650 0.863160 0.000000
47.81250000 241.87500000 157.50000000 0.887295 -0.444357 -0.123511 0.000000
208.82800293 114.60900116 152.50000000 0.000978 0.000978 0.999999 0.000000
88.59380341 241.87500000 137.50000000 -0.000978 -0.000978 0.999999 0.000000
68.20310211 154.68800354 202.50000000 -0.000978 -0.000978 -0.999999 0.000000
80.85939789 139.21899414 112.50000000 -0.898671 0.155732 0.410046 0.000000
59.06250000 206.71899414 62.50000000 0.000978 0.000978 0.999999 0.000000
99.84380341 270.70300293 187.50000000 0.224442 -0.263475 -0.938193 0.000000
40.42969894 184.21899414 185.00000000 0.990125 -0.001104 -0.140185 0.000000
214.45300293 131.48399353 182.50000000 -0.000978 -0.000978 -0.999999 0.000000
132.18800354 227.10899353 157.50000000 0.000978 0.000978 0.999999 0.000000
177.18800354 105.46900177 132.50000000 -0.348961 -0.408426 0.843454 0.000000
55.54690170 217.26600647 197.50000000 0.000978 0.000978 -0.999999 0.000000
206.71899414 109.68800354 147.50000000 0.000978 0.000978 0.999999 0.000000
44.29690170 171.56199646 192.50000000 -0.000978 -0.000978 -0.999999 0.000000
90.70310211 225.35200500 125.00000000 -0.224631 -0.782335 0.580942 0.000000
65.03910065 265.07800293 155.00000000 0.463285 -0.879816 0.106258 0.000000
175.78100586 144.84399414 192.50000000 -0.000978 -0.000978 -0.999999 0.000000
138.51600647 247.50000000 197.50000000 -0.000978 -0.000978 -0.999999 0.000000
52.38280106 148.35899353 95.00000000 0.931719 0.358758 -0.056508 0.000000
162.07000732 191.25000000 190.00000000 -0.779029 0.511288 0.362902 0.000000
40.78120041 219.37500000 122.50000000 0.953133 -0.237947 0.186863 0.000000
214.45300293 149.06199646 187.50000000 -0.000978 -0.000978 -0.999999 0.000000
87.89060211 229.21899414 127.50000000 -0.723671 -0.641328 0.254948 0.000000
118.12500000 238.35899353 202.50000000 -0.000978 -0.000978 -0.999999 0.000000
121.64099884 153.98399353 207.50000000 -0.000978 -0.000978 -0.999999 0.000000
141.32800293 152.92999268 140.00000000 0.533729 -0.325366 0.780558 0.000000
58.35940170 208.12500000 62.50000000 -0.833441 -0.395451 0.385998 0.000000
132.18800354 113.90599823 172.50000000 0.191616 0.599375 -0.777195 0.000000
189.14100647 118.12500000 182.50000000 -0.000978 -0.000978 -0.999999 0.000000
132.18800354 238.35899353 162.50000000 0.000978 0.000978 0.999999 0.000000
109.33599854 186.32800293 115.00000000 -0.981956 0.090810 0.165879 0.000000
91.40619659 180.70300293 222.50000000 -0.000978 -0.000978 -0.999999 0.000000
60.46879959 233.43800354 197.50000000 0.313890 -0.419035 -0.851987 0.000000
124.45300293 195.46899414 212.50000000 -0.000978 -0.000978 -0.999999 0.000000
150.46899414 142.03100586 192.50000000 -0.211622 0.897571 -0.386758 0.000000
116.71900177 108.98400116 122.50000000 -0.904041 0.360740 0.229296 0.000000
187.73399353 118.12500000 182.50000000 -0.000978 -0.000978 -0.999999 0.000000
108.98400116 229.21899414 207.50000000 -0.250035 -0.399757 -0.881860 0.000000
163.82800293 120.23400116 182.50000000 0.086798 0.525054 -0.846631 0.000000
143.78900146 222.89100647 180.00000000 -0.677430 0.677430 0.286667 0.000000
206.71899414 135.70300293 152.50000000 0.000978 0.000978 0.999999 0.000000
214.45300293 155.39100647 187.50000000 0.269355 0.224695 -0.936462 0.000000
220.07800293 130.78100586 182.50000000 -0.147743 0.035504 -0.988388 0.000000
98.43750000 234.84399414 137.50000000 -0.279666 -0.394556 0.875279 0.000000
137.81199646 165.93800354 207.50000000 0.081381 0.552531 -0.829510 0.000000
152.57800293 157.50000000 142.50000000 0.000978 0.000978 0.999999 0.000000
98.43750000 126.56199646 112.50000000 -0.643418 -0.226997 0.731085 0.000000
189.14100647 120.23400116 182.50000000 -0.000978 -0.000978 -0.999999 0.000000
106.87500000 224.29699707 212.50000000 -0.000978 -0.000978 -0.999999 0.000000
201.79699707 125.15599823 182.50000000 -0.000978 -0.000978 -0.999999 0.000000
231.67999268 137.10899353 180.00000000 0.287493 0.573398 0.767178 0.000000
114.60900116 233.43800354 152.50000000 -0.079781 -0.388089 0.918162 0.000000
227.81199646 110.39099884 162.50000000 -0.664375 0.210048 0.717276 0.000000
139.92199707 120.93800354 182.50000000 0.000978 0.000978 -0.999999 0.000000
125.15599823 195.46899414 212.50000000 -0.000978 -0.000978 -0.999999 0.000000
136.40600586 119.53099823 177.50000000 -0.457770 0.272812 -0.846180 0.000000
119.53099823 207.42199707 212.50000000 0.000978 0.000978 -0.999999 0.000000
138.51600647 220.78100586 167.50000000 -0.903588 0.333520 0.268873 0.000000
67.50000000 251.71899414 102.50000000 0.000978 0.000978 0.999999 0.000000
83.67189789 266.48400879 137.50000000 -0.918060 -0.152776 0.365822 0.000000
48.51559830 237.65600586 122.50000000 0.818902 -0.515490 0.252327 0.000000
131.48399353 238.35899353 202.50000000 -0.266352 0.025776 -0.963531 0.000000
75.93750000 201.09399414 212.50000000 0.164591 -0.250232 -0.954093 0.000000
63.28120041 203.90600586 207.50000000 -0.000978 -0.000978 -0.999999 0.000000
185.62500000 148.35899353 147.50000000 -0.180735 -0.264988 0.947162 0.000000
93.51560211 168.75000000 112.50000000 -0.652256 0.541018 0.530906 0.000000
97.73439789 182.81199646 222.50000000 -0.000978 -0.000978 -0.999999 0.000000
106.17199707 205.31199646 217.50000000 -0.253609 -0.966654 -0.035530 0.000000
51.32809830 210.93800354 62.50000000 -0.032184 -0.611489 0.790598 0.000000
75.93750000 189.14100647 217.50000000 0.906318 -0.139542 -0.398893 0.000000
54.84379959 210.93800354 62.50000000 0.000978 0.000978 0.999999 0.000000
203.20300293 160.31199646 162.50000000 -0.543070 -0.667489 0.509444 0.000000
147.65600586 142.73399353 132.50000000 -0.306995 -0.163823 0.937505 0.000000
80.85939789 163.82800293 97.50000000 0.000978 0.000978 0.999999 0.000000
227.10899353 119.53099823 162.50000000 -0.699421 -0.573160 0.426963 0.000000
55.19530106 251.01600647 170.00000000 0.874314 -0.482047 0.056630 0.000000
61.17190170 158.90600586 197.50000000 0.207981 0.465338 -0.860352 0.000000
56.95309830 246.79699707 107.50000000 0.770366 -0.577379 0.270498 0.000000
61.17190170 254.17999268 185.00000000 0.469991 -0.715782 -0.516492 0.000000
78.04689789 147.65600586 97.50000000 -0.914326 0.286363 0.286363 0.000000
229.92199707 146.25000000 177.50000000 -0.209592 -0.012880 0.977704 0.000000
52.03120041 211.64100647 62.50000000 -0.032184 -0.611489 0.790598 0.000000
56.95309830 137.81199646 137.50000000 0.788330 0.614082 0.037941 0.000000
210.93800354 116.71900177 177.50000000 -0.000978 -0.000978 -0.999999 0.000000
180.00000000 103.00800323 170.00000000 -0.001104 0.990125 -0.140185 0.000000
152.57800293 105.81999969 165.00000000 0.004142 0.769006 -0.639228 0.000000
94.92189789 221.48399353 122.50000000 -0.453316 -0.257947 0.853210 0.000000
83.67189789 263.67199707 192.50000000 -0.652123 0.520687 -0.551018 0.000000
104.76599884 261.56201172 197.50000000 -0.000978 -0.000978 -0.999999 0.000000
141.32800293 182.10899353 202.50000000 -0.241533 0.103514 -0.964856 0.000000
112.50000000 173.32000732 145.00000000 0.408054 0.890698 0.200371 0.000000
86.48439789 240.46899414 207.50000000 0.368173 -0.162222 -0.915496 0.000000
123.75000000 224.29699707 147.50000000 -0.305734 -0.796809 0.521173 0.000000
82.26560211 202.50000000 217.50000000 -0.000978 -0.000978 -0.999999 0.000000
180.00000000 146.25000000 192.50000000 -0.000978 -0.000978 -0.999999 0.000000
113.90599823 216.56199646 212.50000000 -0.000978 -0.000978 -0.999999 0.000000
206.71899414 136.40600586 152.50000000 0.000978 0.000978 0.999999 0.000000
101.95300293 131.83599854 195.00000000 -0.962540 -0.193033 -0.190407 0.000000
40.42969894 194.76600647 180.00000000 0.990125 -0.001104 -0.140185 0.000000
140.62500000 127.96900177 127.50000000 0.000978 0.000978 0.999999 0.000000
68.90619659 180.70300293 212.50000000 -0.000978 -0.000978 -0.999999 0.000000
149.06199646 183.51600647 167.50000000 0.065546 -0.983189 0.170419 0.000000
215.85899353 98.43750000 152.50000000 -0.802700 -0.363698 0.472648 0.000000
186.32800293 111.09400177 182.50000000 0.000978 0.000978 -0.999999 0.000000
87.18750000 183.51600647 97.50000000 -0.935218 0.100633 0.339470 0.000000
109.68800354 192.65600586 117.50000000 -0.232813 -0.045100 0.971475 0.000000
120.93800354 186.32800293 132.50000000 -0.760387 0.302554 0.574693 0.000000
56.25000000 235.54699707 192.50000000 -0.000978 -0.000978 -0.999999 0.000000
226.75799561 153.98399353 185.00000000 -0.789894 -0.262251 -0.554339 0.000000
67.85160065 259.45300293 185.00000000 0.517732 -0.688634 -0.507679 0.000000
88.59380341 105.11699677 145.00000000 0.501483 0.824420 -0.262386 0.000000
142.73399353 101.25000000 152.50000000 0.190884 0.837183 -0.512531 0.000000
173.67199707 182.10899353 192.50000000 -0.000978 -0.000978 -0.999999 0.000000
135.70300293 150.46899414 142.50000000 0.000978 0.000978 0.999999 0.000000
90.70310211 207.77299500 105.00000000 -0.497718 -0.753969 0.428728 0.000000
116.71900177 232.73399353 207.50000000 -0.000978 -0.000978 -0.999999 0.000000
128.67199707 256.28900146 170.00000000 -0.731916 -0.342426 0.589103 0.000000
110.39099884 170.15600586 217.50000000 -0.000978 -0.000978 -0.999999 0.000000
167.34399414 149.06199646 192.50000000 -0.000978 -0.000978 -0.999999 0.000000
80.15619659 146.25000000 202.50000000 -0.000978 -0.000978 -0.999999 0.000000
51.32809830 246.79699707 162.50000000 0.846887 -0.523035 -0.096009 0.000000
73.12500000 115.31199646 112.50000000 0.755307 0.645928 0.110857 0.000000
123.04699707 125.15599823 182.50000000 -0.001361 0.817758 -0.575560 0.000000
189.14100647 121.64099884 137.50000000 0.000978 0.000978 0.999999 0.000000
166.64100647 141.32800293 192.50000000 -0.000978 -0.000978 -0.999999 0.000000
156.09399414 135.70300293 132.50000000 0.000978 0.000978 0.999999 0.000000
175.78100586 120.93800354 127.50000000 0.000978 0.000978 0.999999 0.000000
99.14060211 230.62500000 137.50000000 -0.279666 -0.394556 0.875279 0.000000
55.89839935 191.25000000 205.00000000 0.890184 0.166457 -0.424104 0.000000
39.72660065 179.29699707 130.00000000 0.926351 0.307838 0.217047 0.000000
172.96899414 101.25000000 162.50000000 0.000978 0.000978 -0.999999 0.000000
51.32809830 182.10899353 202.50000000 -0.000978 -0.000978 -0.999999 0.000000
134.29699707 113.90599823 127.50000000 0.000978 0.000978 0.999999 0.000000
41.83589935 225.70300293 160.00000000 0.959610 -0.262181 -0.102031 0.000000
63.98440170 211.64100647 207.50000000 -0.000978 -0.000978 -0.999999 0.000000
38.67190170 176.48399353 167.50000000 0.996937 0.077339 -0.011654 0.000000
45.70309830 226.40600586 182.50000000 0.891187 -0.188156 -0.412776 0.000000
221.48399353 121.64099884 177.50000000 -0.000978 -0.000978 -0.999999 0.000000
80.50779724 149.06199646 100.00000000 -0.856795 0.283555 0.430697 0.000000
50.27339935 214.45300293 65.00000000 0.432166 -0.432166 0.791495 0.000000
77.34380341 187.73399353 87.50000000 -0.572347 0.144202 0.807233 0.000000
101.25000000 282.30499268 170.00000000 -0.536984 -0.713208 -0.450535 0.000000
150.46899414 161.01600647 202.50000000 -0.000978 -0.000978 -0.999999 0.000000
92.81250000 180.70300293 222.50000000 -0.000978 -0.000978 -0.999999 0.000000
47.10940170 197.57800293 197.50000000 0.457154 -0.789924 -0.408693 0.000000
159.96099854 144.14100647 135.00000000 -0.406657 -0.782530 0.471462 0.000000
45.00000000 159.25799561 140.00000000 0.923364 0.309691 0.226916 0.000000
102.65599823 95.27339935 125.00000000 0.227263 0.973816 -0.005888 0.000000
142.03100586 182.10899353 192.50000000 0.214948 -0.931442 0.293622 0.000000
142.03100586 101.95300293 152.50000000 -0.027791 0.970263 -0.240451 0.000000
122.34400177 100.19499969 155.00000000 -0.258793 0.703346 -0.662066 0.000000
145.54699707 122.34400177 182.50000000 -0.852726 0.427134 -0.300690 0.000000
146.25000000 125.50800323 185.00000000 -0.852726 0.427134 -0.300690 0.000000
73.12500000 177.89100647 82.50000000 -0.247606 -0.273073 0.929582 0.000000
65.39060211 170.85899353 212.50000000 0.104817 0.431846 -0.895836 0.000000
176.48399353 161.71899414 192.50000000 -0.601161 0.235780 -0.763553 0.000000
114.60900116 120.23400116 177.50000000 -0.265008 0.850169 -0.454955 0.000000
137.10899353 187.03100586 202.50000000 -0.000978 -0.000978 -0.999999 0.000000
136.40600586 180.35200500 205.00000000 -0.647068 -0.704871 -0.290619 0.000000
176.48399353 127.26599884 187.50000000 -0.000978 -0.000978 -0.999999 0.000000
73.12500000 214.45300293 212.50000000 0.755411 -0.561301 -0.338075 0.000000
171.56199646 163.12500000 197.50000000 0.629885 0.528563 -0.569092 0.000000
195.46899414 140.62500000 187.50000000 0.000978 0.000978 -0.999999 0.000000
202.50000000 132.89100647 147.50000000 0.000978 0.000978 0.999999 0.000000
187.03100586 124.45300293 137.50000000 0.000978 0.000978 0.999999 0.000000
80.85939789 164.53100586 97.50000000 0.000978 0.000978 0.999999 0.000000
56.95309830 170.85899353 202.50000000 -0.000978 -0.000978 -0.999999 0.000000
55.54690170 163.12500000 197.50000000 -0.000978 -0.000978 -0.999999 0.000000
80.15619659 118.47699738 165.00000000 0.400952 0.878490 -0.259793 0.000000
185.62500000 99.14060211 137.50000000 0.000978 0.000978 0.999999 0.000000
40.42969894 223.59399414 130.00000000 0.961130 -0.275483 0.018366 0.000000
119.53099823 251.01600647 202.50000000 -0.000978 -0.000978 -0.999999 0.000000
136.05499268 189.84399414 155.00000000 -0.908468 -0.215888 0.357881 0.000000
123.75000000 201.79699707 212.50000000 0.000978 0.000978 -0.999999 0.000000
73.12500000 143.78900146 195.00000000 0.776848 0.579901 -0.245403 0.000000
56.25000000 205.31199646 202.50000000 0.250836 -0.120869 -0.960454 0.000000
41.83589935 177.18800354 120.00000000 0.990125 -0.001104 0.140185 0.000000
81.56250000 213.75000000 212.50000000 -0.000978 -0.000978 -0.999999 0.000000
113.20300293 202.14799500 120.00000000 -0.657252 -0.092220 0.748008 0.000000
55.89839935 253.12500000 170.00000000 0.955200 -0.258341 -0.144406 0.000000
75.23439789 112.50000000 132.50000000 0.674266 0.736989 -0.047042 0.000000
121.64099884 249.60899353 162.50000000 -0.164480 -0.953451 0.252738 0.000000
71.71880341 261.56201172 122.50000000 0.149225 -0.937787 0.313508 0.000000
100.89800262 208.12500000 115.00000000 -0.730602 -0.427147 0.532697 0.000000
112.50000000 213.75000000 127.50000000 -0.620255 -0.282224 0.731869 0.000000
123.04699707 208.82800293 207.50000000 0.000978 0.000978 -0.999999 0.000000
45.00000000 238.71099854 140.00000000 0.703673 -0.703673 0.098426 0.000000
112.50000000 189.14100647 217.50000000 -0.436625 -0.099043 -0.894175 0.000000
99.84380341 152.57800293 127.50000000 -0.338624 -0.163041 0.926688 0.000000
119.53099823 198.28100586 127.50000000 0.000978 0.000978 0.999999 0.000000
79.10160065 134.29699707 110.00000000 -0.842770 0.045969 0.536308 0.000000
206.01600647 123.04699707 182.50000000 -0.000978 -0.000978 -0.999999 0.000000
210.23399353 162.42199707 172.50000000 -0.502332 -0.653536 0.566174 0.000000
111.09400177 205.66400146 120.00000000 -0.513425 -0.411724 0.752913 0.000000
87.53910065 127.96900177 115.00000000 0.550877 -0.199903 0.810292 0.000000
111.09400177 222.18800354 137.50000000 -0.464392 -0.658867 0.591806 0.000000
89.29689789 210.93800354 107.50000000 -0.375601 -0.521939 0.765835 0.000000
118.82800293 203.90600586 127.50000000 -0.000978 -0.000978 0.999999 0.000000
139.21899414 213.75000000 167.50000000 -0.950228 -0.237218 -0.201974 0.000000
149.76600647 165.93800354 202.50000000 -0.000978 -0.000978 -0.999999 0.000000
85.07810211 130.78100586 187.50000000 0.612105 0.591870 -0.524421 0.000000
63.98440170 189.84399414 212.50000000 0.000978 0.000978 -0.999999 0.000000
116.01599884 254.53100586 202.50000000 -0.000978 -0.000978 -0.999999 0.000000
83.67189789 185.62500000 92.50000000 -0.214274 0.151940 0.964884 0.000000
177.18800354 140.62500000 137.50000000 0.000978 0.000978 0.999999 0.000000
108.98400116 153.98399353 132.50000000 -0.206731 -0.305174 0.929586 0.000000
206.01600647 146.95300293 157.50000000 0.000978 0.000978 0.999999 0.000000
79.10160065 209.53100586 90.00000000 -0.751309 -0.285529 0.594986 0.000000
156.79699707 128.67199707 187.50000000 -0.000978 -0.000978 -0.999999 0.000000
194.76600647 108.98400116 142.50000000 -0.220259 -0.490646 0.843061 0.000000
220.07800293 153.28100586 172.50000000 -0.711247 -0.265723 0.650783 0.000000
98.43750000 228.51600647 132.50000000 0.023819 -0.673945 0.738397 0.000000
53.43750000 234.84399414 192.50000000 -0.000978 -0.000978 -0.999999 0.000000
76.64060211 243.28100586 202.50000000 -0.000978 -0.000978 -0.999999 0.000000
167.34399414 137.81199646 192.50000000 0.317920 0.417174 -0.851406 0.000000
119.53099823 235.54699707 157.50000000 0.000978 0.000978 0.999999 0.000000
158.20300293 182.81199646 192.50000000 0.734276 -0.440566 -0.516469 0.000000
100.89800262 217.96899414 125.00000000 -0.139724 -0.533891 0.833929 0.000000
112.50000000 268.59399414 162.50000000 -0.741182 0.136258 0.657331 0.000000
172.96899414 156.09399414 147.50000000 -0.222229 -0.470158 0.854146 0.000000
113.90599823 132.89100647 127.50000000 0.000978 0.000978 0.999999 0.000000
46.40620041 171.21099854 80.00000000 0.980430 0.191332 0.046348 0.000000
158.90600586 111.09400177 172.50000000 -0.000978 -0.000978 -0.999999 0.000000
61.17190170 132.89100647 97.50000000 0.811391 0.578744 -0.081857 0.000000
121.99199677 184.21899414 135.00000000 -0.809874 0.232935 0.538373 0.000000
88.59380341 112.50000000 162.50000000 0.520158 0.785839 -0.334502 0.000000
215.85899353 140.62500000 162.50000000 -0.405353 -0.115616 0.906820 0.000000
206.71899414 115.31199646 177.50000000 -0.000978 -0.000978 -0.999999 0.000000
84.37500000 226.40600586 212.50000000 0.453671 -0.853879 -0.255094 0.000000
133.94500732 191.95300293 150.00000000 -0.916173 0.032956 0.399425 0.000000
139.92199707 240.46899414 167.50000000 -0.608818 0.635653 0.474643 0.000000
184.21899414 105.11699677 175.00000000 -0.477148 0.477148 -0.738011 0.000000
215.85899353 166.64100647 192.50000000 -0.449799 -0.892963 -0.017249 0.000000
56.95309830 218.67199707 62.50000000 -0.586320 -0.576182 0.569423 0.000000
90.00000000 240.46899414 207.50000000 0.228931 -0.357250 -0.905518 0.000000
150.46899414 147.65600586 197.50000000 -0.008776 0.329723 -0.944037 0.000000
143.43800354 223.59399414 177.50000000 -0.829352 0.442216 0.341498 0.000000
173.67199707 137.10899353 192.50000000 0.047621 0.943408 -0.328198 0.000000
85.07810211 149.76600647 117.50000000 -0.746113 0.433174 0.505644 0.000000
129.37500000 210.23399353 137.50000000 -0.946448 -0.247912 -0.206822 0.000000
172.61700439 152.57800293 145.00000000 -0.392780 -0.570271 0.721467 0.000000
146.95300293 177.18800354 147.50000000 -0.277644 -0.756778 -0.591778 0.000000
171.56199646 123.75000000 187.50000000 0.287044 0.252770 -0.923966 0.000000
36.56250000 193.35899353 147.50000000 0.990429 -0.118759 0.070333 0.000000
129.02299500 267.89099121 175.00000000 -0.491743 0.186832 0.850460 0.000000
128.67199707 103.00800323 160.00000000 -0.035282 0.743743 -0.667534 0.000000
127.61699677 271.40600586 180.00000000 -0.636164 -0.769944 -0.049812 0.000000
170.15600586 100.54699707 127.50000000 -0.278915 0.043776 0.959318 0.000000
138.51600647 187.03100586 157.50000000 -0.834614 -0.356793 0.419665 0.000000
78.04689789 130.78100586 107.50000000 -0.971343 0.194778 0.136217 0.000000
160.31199646 146.25000000 192.50000000 0.082320 0.197813 -0.976777 0.000000
48.51559830 229.21899414 187.50000000 0.763044 -0.423187 -0.488544 0.000000
68.90619659 120.93800354 107.50000000 0.504921 0.745047 0.435844 0.000000
108.98400116 152.57800293 212.50000000 0.129452 0.614527 -0.778202 0.000000
47.46089935 239.06199646 165.00000000 0.817758 0.001361 -0.575560 0.000000
210.23399353 107.57800293 172.50000000 -0.000978 -0.000978 -0.999999 0.000000
61.17190170 130.42999268 130.00000000 0.459279 0.001316 -0.888291 0.000000
115.66400146 277.73400879 170.00000000 -0.787871 -0.488190 0.375407 0.000000
70.31250000 225.00000000 82.50000000 -0.741539 -0.493809 0.454172 0.000000
157.50000000 174.37500000 142.50000000 0.064911 -0.156967 0.985468 0.000000
207.42199707 112.50000000 177.50000000 -0.000978 -0.000978 -0.999999 0.000000
117.42199707 249.60899353 202.50000000 -0.000978 -0.000978 -0.999999 0.000000
106.87500000 102.65599823 112.50000000 -0.609218 -0.435633 0.662629 0.000000
128.67199707 216.91400146 145.00000000 -0.726420 -0.451737 0.517926 0.000000
42.18750000 229.92199707 152.50000000 0.932915 -0.331123 -0.141517 0.000000
90.00000000 112.50000000 107.50000000 0.000978 0.000978 0.999999 0.000000
170.85899353 191.25000000 177.50000000 -0.391878 -0.862132 0.321186 0.000000
123.75000000 102.65599823 157.50000000 0.439574 0.633454 -0.636797 0.000000
54.14059830 248.90600586 127.50000000 0.990125 0.001104 -0.140185 0.000000
62.57809830 200.39100647 207.50000000 -0.000978 -0.000978 -0.999999 0.000000
133.59399414 150.46899414 202.50000000 -0.000978 -0.000978 -0.999999 0.000000
156.09399414 99.14060211 122.50000000 -0.290875 -0.777258 0.557909 0.000000
73.12500000 203.20300293 212.50000000 -0.000978 -0.000978 -0.999999 0.000000
156.79699707 172.96899414 197.50000000 -0.000978 -0.000978 -0.999999 0.000000
120.23400116 121.64099884 127.50000000 0.000978 0.000978 0.999999 0.000000
133.59399414 192.65600586 207.50000000 -0.631320 0.286092 -0.720824 0.000000
51.32809830 173.67199707 197.50000000 0.000978 0.000978 -0.999999 0.000000
77.34380341 203.20300293 87.50000000 -0.741741 -0.076932 0.666260 0.000000
214.45300293 108.98400116 172.50000000 -0.000978 -0.000978 -0.999999 0.000000
78.04689789 153.28100586 92.50000000 -0.683826 0.061904 0.727015 0.000000
71.01560211 140.62500000 187.50000000 0.092087 0.741080 0.665072 0.000000
130.78100586 168.75000000 207.50000000 -0.000978 -0.000978 -0.999999 0.000000
163.12500000 196.17199707 177.50000000 0.684719 -0.687867 0.240832 0.000000
171.56199646 156.09399414 147.50000000 -0.222229 -0.470158 0.854146 0.000000
69.60939789 239.06199646 92.50000000 -0.813345 -0.506186 0.286786 0.000000
104.06199646 253.82800293 157.50000000 0.000978 0.000978 0.999999 0.000000
150.11700439 143.43800354 195.00000000 -0.300939 0.680734 -0.667860 0.000000
188.43800354 95.62500000 152.50000000 -0.000978 -0.000978 -0.999999 0.000000
99.14060211 262.96899414 192.50000000 -0.000978 -0.000978 -0.999999 0.000000
101.25000000 170.85899353 217.50000000 -0.000978 -0.000978 -0.999999 0.000000
113.20300293 144.49200439 205.00000000 -0.393887 0.393887 -0.830485 0.000000
229.21899414 147.65600586 177.50000000 -0.149450 0.159497 0.975820 0.000000
148.35899353 118.12500000 177.50000000 -0.580716 -0.580716 0.570558 0.000000
107.57800293 130.07800293 192.50000000 -0.000978 -0.000978 -0.999999 0.000000
141.32800293 209.17999268 190.00000000 -0.540252 0.405599 -0.737304 0.000000
97.03119659 227.10899353 212.50000000 -0.000978 -0.000978 -0.999999 0.000000
139.21899414 212.34399414 197.50000000 0.000978 0.000978 -0.999999 0.000000
145.54699707 136.05499268 130.00000000 -0.040557 -0.815326 0.577581 0.000000
169.10200500 156.79699707 145.00000000 -0.271007 -0.873582 0.404240 0.000000
118.82800293 131.48399353 192.50000000 0.283536 0.392704 -0.874866 0.000000
38.67190170 213.04699707 172.50000000 0.951873 -0.184974 -0.244382 0.000000
118.12500000 130.78100586 192.50000000 -0.000978 -0.000978 -0.999999 0.000000
76.64060211 227.10899353 207.50000000 -0.000978 -0.000978 -0.999999 0.000000
184.92199707 117.42199707 182.50000000 -0.000978 -0.000978 -0.999999 0.000000
223.59399414 119.53099823 172.50000000 -0.215299 0.608722 -0.763613 0.000000
80.85939789 161.01600647 212.50000000 -0.000978 -0.000978 -0.999999 0.000000
69.60939789 262.26599121 122.50000000 0.243860 -0.958304 0.148952 0.000000
87.89060211 163.82800293 107.50000000 -0.758051 -0.568136 -0.320281 0.000000
65.39060211 141.32800293 187.50000000 -0.000978 -0.000978 0.999999 0.000000
99.84380341 107.57800293 162.50000000 -0.000978 -0.000978 -0.999999 0.000000
182.81199646 147.65600586 192.50000000 -0.000978 -0.000978 -0.999999 0.000000
191.95300293 108.98400116 137.50000000 -0.286846 -0.051809 0.956575 0.000000
67.50000000 260.85900879 122.50000000 0.300244 -0.946101 0.121432 0.000000
56.95309830 149.06199646 67.50000000 0.000978 0.000978 0.999999 0.000000
90.00000000 259.45300293 142.50000000 -0.803260 0.023584 0.595161 0.000000
87.18750000 242.57800293 137.50000000 -0.000978 -0.000978 0.999999 0.000000
84.02339935 212.34399414 100.00000000 -0.625631 -0.595277 0.504214 0.000000
135.00000000 99.14060211 147.50000000 -0.001195 0.967043 -0.254611 0.000000
58.35940170 149.06199646 67.50000000 0.000978 0.000978 0.999999 0.000000
133.59399414 168.75000000 142.50000000 0.000978 0.000978 0.999999 0.000000
119.53099823 148.35899353 207.50000000 -0.000978 -0.000978 -0.999999 0.000000
130.78100586 205.31199646 137.50000000 -0.615746 0.286282 0.734097 0.000000
52.73440170 247.85200500 170.00000000 0.788763 -0.602301 -0.122828 0.000000
73.82810211 213.75000000 82.50000000 -0.844099 0.004052 0.536172 0.000000
45.00000000 215.15600586 97.50000000 0.950746 -0.237347 0.199372 0.000000
171.56199646 142.03100586 137.50000000 0.000978 0.000978 0.999999 0.000000
92.81250000 187.03100586 222.50000000 -0.000978 -0.000978 -0.999999 0.000000
100.89800262 95.62500000 125.00000000 0.000978 0.000978 -0.999999 0.000000
136.40600586 187.73399353 152.50000000 -0.918844 -0.357093 0.167961 0.000000
189.14100647 101.25000000 167.50000000 0.446689 0.894688 -0.001310 0.000000
131.48399353 251.71899414 167.50000000 -0.481699 -0.253931 0.838741 0.000000
199.68800354 108.98400116 142.50000000 0.000978 0.000978 0.999999 0.000000
63.28120041 144.84399414 187.50000000 0.854781 0.513995 0.071819 0.000000
116.71900177 210.93800354 127.50000000 -0.346805 -0.101208 0.932461 0.000000
184.92199707 155.39100647 192.50000000 -0.000978 -0.000978 -0.999999 0.000000
210.23399353 121.64099884 177.50000000 0.031783 0.326727 -0.944584 0.000000
92.10939789 144.84399414 122.50000000 0.000978 0.000978 0.999999 0.000000
116.71900177 205.31199646 212.50000000 -0.000978 -0.000978 -0.999999 0.000000
120.93800354 108.98400116 127.50000000 0.000978 0.000978 0.999999 0.000000
75.23439789 191.25000000 82.50000000 0.000978 0.000978 0.999999 0.000000
97.03119659 168.04699707 217.50000000 -0.000978 -0.000978 -0.999999 0.000000
71.01560211 254.53100586 112.50000000 -0.632924 -0.632924 0.445886 0.000000
141.32800293 249.96099854 175.00000000 -0.698557 -0.379686 0.606512 0.000000
59.06250000 249.60899353 107.50000000 0.575507 -0.656045 0.488258 0.000000
168.75000000 127.26599884 187.50000000 -0.000978 -0.000978 -0.999999 0.000000
124.45300293 161.01600647 207.50000000 -0.112288 0.336865 -0.934833 0.000000
107.57800293 125.15599823 122.50000000 -0.524410 0.678550 0.514358 0.000000
137.81199646 188.08599854 195.00000000 -0.940741 0.312678 -0.131298 0.000000
133.94500732 228.51600647 200.00000000 -0.553915 -0.169627 -0.815110 0.000000
44.64839935 182.81199646 85.00000000 0.988304 0.140523 -0.059229 0.000000
117.42199707 239.06199646 157.50000000 0.000978 0.000978 0.999999 0.000000
59.76559830 256.28900146 130.00000000 0.635686 -0.764878 0.104235 0.000000
60.46879959 151.17199707 67.50000000 -0.288159 -0.057124 0.955877 0.000000
73.47660065 144.14100647 85.00000000 -0.998927 0.044328 0.013401 0.000000
137.10899353 187.38299561 155.00000000 -0.874639 -0.400310 0.273419 0.000000
162.42199707 168.04699707 197.50000000 -0.000978 -0.000978 -0.999999 0.000000
127.61699677 213.04699707 140.00000000 -0.821529 -0.457460 0.340325 0.000000
95.62500000 189.14100647 102.50000000 -0.821112 -0.040566 0.569323 0.000000
55.54690170 151.87500000 67.50000000 0.291191 0.057221 0.954952 0.000000
91.40619659 196.87500000 222.50000000 0.000978 0.000978 -0.999999 0.000000
109.68800354 185.62500000 117.50000000 -0.803011 -0.017968 0.595693 0.000000
131.48399353 242.57800293 167.50000000 0.000978 0.000978 0.999999 0.000000
91.75779724 106.87500000 155.00000000 0.322177 0.807824 -0.493582 0.000000
132.89100647 98.43750000 142.50000000 -0.083420 0.972402 -0.217888 0.000000
46.05469894 171.56199646 80.00000000 0.984994 0.170146 0.028936 0.000000
47.81250000 237.65600586 122.50000000 -0.001371 -0.618487 0.785794 0.000000
183.51600647 143.43800354 192.50000000 -0.000978 -0.000978 -0.999999 0.000000
113.20300293 171.56199646 147.50000000 0.205372 0.826054 0.524841 0.000000
213.75000000 109.68800354 172.50000000 -0.000978 -0.000978 -0.999999 0.000000
53.08589935 152.57800293 70.00000000 0.797435 0.346780 0.493802 0.000000
141.32800293 94.92189789 132.50000000 0.703673 0.703673 0.098426 0.000000
63.98440170 210.93800354 207.50000000 -0.000978 -0.000978 -0.999999 0.000000
81.56250000 254.53100586 197.50000000 0.167893 -0.017132 -0.985656 0.000000
83.67189789 165.93800354 217.50000000 0.379647 0.348655 -0.856917 0.000000
111.09400177 227.46099854 210.00000000 -0.517346 -0.591494 -0.618456 0.000000
85.42970276 175.07800293 100.00000000 -0.625934 0.240020 0.742022 0.000000
110.39099884 227.10899353 212.50000000 -0.074941 -0.521756 -0.849797 0.000000
107.93000031 261.56201172 160.00000000 0.096519 0.834101 0.543102 0.000000
178.59399414 112.50000000 182.50000000 0.187330 0.107932 -0.976349 0.000000
196.17199707 95.62500000 152.50000000 0.000978 0.000978 -0.999999 0.000000
68.90619659 265.78100586 177.50000000 0.536082 -0.801779 -0.264134 0.000000
63.28120041 241.87500000 87.50000000 -0.295884 -0.905318 0.304717 0.000000
85.07810211 240.46899414 132.50000000 -0.827658 -0.508265 0.238009 0.000000
232.73399353 132.18800354 172.50000000 -0.888740 0.176002 0.423279 0.000000
101.25000000 171.56199646 117.50000000 -0.233579 0.935714 0.264350 0.000000
180.70300293 161.01600647 152.50000000 0.000978 0.000978 0.999999 0.000000
83.67189789 249.96099854 200.00000000 0.064778 -0.654979 -0.752866 0.000000
123.75000000 114.60900116 127.50000000 0.000978 0.000978 0.999999 0.000000
79.45310211 228.51600647 207.50000000 -0.000978 -0.000978 -0.999999 0.000000
49.21879959 153.28100586 182.50000000 0.962562 -0.001205 -0.271059 0.000000
120.93800354 159.60899353 147.50000000 0.000978 0.000978 0.999999 0.000000
136.40600586 181.40600586 202.50000000 -0.134755 -0.365367 -0.921058 0.000000
43.59379959 197.57800293 187.50000000 0.779928 -0.052563 -0.623658 0.000000
40.78120041 216.56199646 177.50000000 0.855022 -0.313869 -0.412823 0.000000
226.40600586 132.18800354 167.50000000 0.000978 0.000978 0.999999 0.000000
78.39839935 140.62500000 195.00000000 0.375612 0.710219 -0.595403 0.000000
52.38280106 153.98399353 70.00000000 0.747901 0.334375 0.573444 0.000000
89.29689789 201.09399414 97.50000000 -0.638391 -0.041050 0.768617 0.000000
137.10899353 138.51600647 132.50000000 0.199458 -0.675682 0.709698 0.000000
94.92189789 107.57800293 157.50000000 -0.090630 0.982432 -0.163135 0.000000
123.04699707 227.10899353 207.50000000 -0.000978 -0.000978 -0.999999 0.000000
116.71900177 157.50000000 137.50000000 0.000978 0.000978 0.999999 0.000000
207.42199707 130.78100586 152.50000000 -0.000978 -0.000978 0.999999 0.000000
80.85939789 185.62500000 217.50000000 -0.000978 -0.000978 -0.999999 0.000000
118.82800293 136.40600586 127.50000000 -0.000978 -0.000978 0.999999 0.000000
180.70300293 134.29699707 137.50000000 0.000978 0.000978 0.999999 0.000000
171.56199646 159.96099854 195.00000000 -0.098035 0.621864 -0.776965 0.000000
139.21899414 113.90599823 127.50000000 0.000978 0.000978 0.999999 0.000000
60.82030106 153.98399353 70.00000000 -0.813639 -0.026336 0.580774 0.000000
82.26560211 147.65600586 202.50000000 -0.000978 -0.000978 -0.999999 0.000000
72.42189789 248.20300293 197.50000000 -0.000978 -0.000978 -0.999999 0.000000
76.64060211 269.64801025 180.00000000 0.265048 -0.620561 -0.738007 0.000000
113.90599823 192.65600586 122.50000000 -0.879205 -0.012007 0.476292 0.000000
120.93800354 176.48399353 212.50000000 0.000978 0.000978 -0.999999 0.000000
108.98400116 150.46899414 127.50000000 -0.366607 -0.917219 0.155913 0.000000
166.64100647 97.73439789 152.50000000 0.490073 0.854296 -0.173228 0.000000
61.87500000 131.13299561 90.00000000 0.871240 0.489476 -0.036813 0.000000
106.87500000 259.45300293 197.50000000 -0.000978 -0.000978 -0.999999 0.000000
58.35940170 154.68800354 67.50000000 -0.262003 0.116011 0.958069 0.000000
59.06250000 154.68800354 67.50000000 -0.262003 0.116011 0.958069 0.000000
75.23439789 150.46899414 87.50000000 -0.990125 0.001104 0.140185 0.000000
76.64060211 158.20300293 207.50000000 0.000978 0.000978 -0.999999 0.000000
97.73439789 247.50000000 147.50000000 -0.583242 -0.386090 0.714677 0.000000
56.95309830 246.09399414 187.50000000 0.632427 -0.223302 -0.741736 0.000000
116.01599884 170.85899353 147.50000000 -0.535962 -0.037393 0.843413 0.000000
188.43800354 131.13299561 140.00000000 -0.830186 -0.412721 0.374770 0.000000
80.50779724 187.03100586 90.00000000 -0.705752 0.089132 0.702830 0.000000
85.07810211 114.60900116 107.50000000 0.000978 0.000978 0.999999 0.000000
135.00000000 155.39100647 147.50000000 0.000978 0.000978 0.999999 0.000000
77.69529724 109.68800354 120.00000000 0.703673 0.703673 -0.098426 0.000000
80.15619659 225.70300293 207.50000000 -0.000978 -0.000978 -0.999999 0.000000
41.48440170 189.14100647 122.50000000 0.000978 0.000978 0.999999 0.000000
94.92189789 235.54699707 207.50000000 -0.000978 -0.000978 -0.999999 0.000000
222.89100647 147.65600586 187.50000000 -0.000978 -0.000978 -0.999999 0.000000
53.43750000 246.09399414 122.50000000 0.990125 0.001104 -0.140185 0.000000
57.65620041 155.39100647 67.50000000 -0.157630 0.111197 0.981218 0.000000
151.17199707 160.31199646 202.50000000 -0.320161 0.329180 -0.888334 0.000000
192.65600586 138.51600647 142.50000000 -0.536944 -0.828470 -0.159150 0.000000
149.76600647 101.25000000 122.50000000 0.000978 0.000978 0.999999 0.000000
167.34399414 88.94529724 135.00000000 0.200018 0.801600 -0.563410 0.000000
79.45310211 200.39100647 87.50000000 -0.802107 -0.357026 0.478703 0.000000
138.16400146 192.65600586 190.00000000 -0.844930 -0.363898 -0.392010 0.000000
68.90619659 190.54699707 212.50000000 -0.000978 -0.000978 -0.999999 0.000000
112.50000000 236.60200500 155.00000000 -0.431004 -0.667308 0.607400 0.000000
53.43750000 156.09399414 67.50000000 0.430026 0.179299 0.884833 0.000000
131.48399353 124.45300293 182.50000000 0.092409 0.708468 -0.699667 0.000000
58.35940170 205.31199646 202.50000000 -0.000978 -0.000978 -0.999999 0.000000
125.15599823 117.42199707 177.50000000 -0.427752 0.644125 -0.634138 0.000000
177.89100647 123.75000000 187.50000000 -0.000978 -0.000978 -0.999999 0.000000
37.26559830 198.28100586 142.50000000 0.888413 -0.442074 0.123667 0.000000
226.40600586 136.40600586 182.50000000 -0.530932 0.371814 -0.761489 0.000000
98.43750000 267.89099121 147.50000000 -0.000978 -0.000978 0.999999 0.000000
61.17190170 177.89100647 207.50000000 -0.000978 -0.000978 -0.999999 0.000000
101.95300293 210.93800354 212.50000000 -0.145347 -0.201943 -0.968552 0.000000
83.67189789 218.67199707 112.50000000 -0.704008 -0.595192 0.387452 0.000000
119.53099823 125.15599823 127.50000000 0.000978 0.000978 0.999999 0.000000
198.28100586 98.08589935 160.00000000 0.001279 0.921899 -0.387428 0.000000
78.04689789 156.09399414 207.50000000 0.107568 0.426083 -0.898266 0.000000
112.50000000 257.34399414 162.50000000 -0.387082 -0.228128 0.893379 0.000000
36.21089935 193.35899353 155.00000000 0.990125 0.001104 0.140185 0.000000
80.15619659 238.35899353 122.50000000 0.000978 0.000978 0.999999 0.000000
64.68750000 208.82800293 207.50000000 -0.000978 -0.000978 -0.999999 0.000000
58.71089935 232.03100586 75.00000000 -0.088878 -0.630890 0.770765 0.000000
85.78119659 273.51599121 142.50000000 0.000978 0.000978 0.999999 0.000000
182.81199646 118.12500000 182.50000000 -0.000978 -0.000978 -0.999999 0.000000
115.31199646 124.45300293 127.50000000 0.000978 0.000978 0.999999 0.000000
134.29699707 138.51600647 192.50000000 0.000978 0.000978 -0.999999 0.000000
89.64839935 151.17199707 120.00000000 -0.720301 0.146476 0.678020 0.000000
96.32810211 217.96899414 122.50000000 -0.415781 -0.247668 0.875092 0.000000
106.17199707 142.73399353 202.50000000 -0.520427 0.634955 -0.570954 0.000000
99.14060211 160.31199646 127.50000000 -0.526955 0.437752 0.728486 0.000000
66.09380341 230.62500000 202.50000000 0.359638 -0.056646 -0.931371 0.000000
170.85899353 132.18800354 187.50000000 -0.126274 0.329943 -0.935517 0.000000
127.96900177 123.04699707 127.50000000 0.000978 0.000978 0.999999 0.000000
50.27339935 157.50000000 70.00000000 0.612460 0.534848 0.582090 0.000000
215.85899353 150.46899414 187.50000000 -0.000978 -0.000978 -0.999999 0.000000
174.72700500 111.79699707 180.00000000 0.161856 0.776003 -0.609608 0.000000
55.89839935 253.82800293 170.00000000 0.955200 -0.258341 -0.144406 0.000000
137.81199646 215.15600586 197.50000000 -0.000978 -0.000978 -0.999999 0.000000
90.70310211 256.64099121 197.50000000 -0.561247 -0.374710 -0.737966 0.000000
92.81250000 116.01599884 107.50000000 0.000978 0.000978 0.999999 0.000000
82.96880341 130.78100586 117.50000000 0.295360 -0.301238 0.906652 0.000000
63.28120041 245.39100647 92.50000000 -0.000978 -0.000978 0.999999 0.000000
75.58589935 153.98399353 90.00000000 -0.803739 0.009617 0.594904 0.000000
81.56250000 183.51600647 92.50000000 -0.386166 0.117649 0.914896 0.000000
72.77339935 203.20300293 80.00000000 -0.737050 0.020979 0.675513 0.000000
37.26559830 187.73399353 137.50000000 -0.000978 -0.000978 0.999999 0.000000
79.45310211 142.73399353 107.50000000 -0.960301 0.183606 0.210025 0.000000
173.67199707 136.05499268 190.00000000 -0.095508 0.712635 -0.695003 0.000000
61.17190170 157.50000000 67.50000000 -0.517999 0.341591 0.784215 0.000000
215.15600586 109.68800354 152.50000000 -0.001228 -0.305890 0.952066 0.000000
195.46899414 98.43750000 137.50000000 -0.837527 -0.280208 0.469077 0.000000
203.90600586 137.10899353 152.50000000 0.000978 0.000978 0.999999 0.000000
79.45310211 243.98399353 122.50000000 -0.731560 0.001383 0.681775 0.000000
157.50000000 177.18800354 142.50000000 0.165921 -0.710871 0.683471 0.000000
97.03119659 253.47700500 150.00000000 -0.685051 0.123876 0.717886 0.000000
53.43750000 158.20300293 67.50000000 0.423244 0.078074 0.902646 0.000000
73.47660065 232.73399353 105.00000000 -0.816731 -0.543982 0.192439 0.000000
98.43750000 203.20300293 112.50000000 0.000978 0.000978 0.999999 0.000000
55.54690170 209.53100586 202.50000000 0.245859 -0.063649 -0.967214 0.000000
80.15619659 251.01600647 127.50000000 0.000000 0.000000 0.000000 0.000000
37.96879959 201.79699707 167.50000000 0.991614 0.062760 -0.112969 0.000000
38.32030106 213.04699707 170.00000000 0.951873 -0.184974 -0.244382 0.000000
114.60900116 209.53100586 212.50000000 -0.000978 -0.000978 -0.999999 0.000000
119.53099823 245.39100647 202.50000000 -0.000978 -0.000978 -0.999999 0.000000
36.21089935 195.46899414 155.00000000 0.990125 0.001104 0.140185 0.000000
200.39100647 137.81199646 147.50000000 0.000978 0.000978 0.999999 0.000000
139.92199707 137.81199646 192.50000000 -0.000978 -0.000978 -0.999999 0.000000
104.06199646 206.01600647 117.50000000 -0.713531 -0.357582 0.602501 0.000000
111.09400177 193.35899353 117.50000000 -0.232813 -0.045100 0.971475 0.000000
135.00000000 199.33599854 205.00000000 -0.937830 -0.134754 -0.319869 0.000000
62.22660065 229.21899414 200.00000000 0.631307 -0.510096 -0.584169 0.000000
142.03100586 251.71899414 192.50000000 -0.846683 -0.357073 -0.394495 0.000000
