112.73400116 234.99000549 100.00000000 0.504884 0.545140 -0.669264 0.000000
179.00399780 118.44699860 57.50000000 0.633891 0.767955 0.091805 0.000000
122.25599670 172.91000366 30.00000000 0.769114 -0.178191 -0.613768 0.000000
71.60160065 159.58000183 100.00000000 -0.853488 -0.492567 -0.170106 0.000000
140.15600586 117.30500031 61.25000000 -0.001219 -0.956644 -0.291258 0.000000
126.44499969 243.75000000 148.75000000 0.149149 0.649324 0.745743 0.000000
96.73829651 213.28100586 156.25000000 -0.388603 0.649876 0.653184 0.000000
141.67999268 110.06800079 87.50000000 -0.200896 -0.962460 -0.182513 0.000000
106.26000214 116.54299927 92.50000000 -0.413313 -0.828209 -0.378474 0.000000
158.43800354 183.57400513 106.25000000 0.626156 0.752933 0.202534 0.000000
136.34800720 216.32800293 156.25000000 0.000978 0.000978 0.999999 0.000000
102.83200073 203.37899780 33.75000000 0.460328 0.793055 -0.398951 0.000000
111.21099854 158.43800354 158.75000000 -0.274588 -0.274588 0.921522 0.000000
68.17389679 209.47300720 50.00000000 -0.982742 0.183026 0.026813 0.000000
210.99600220 143.96499634 106.25000000 0.600504 0.693144 -0.398682 0.000000
182.43200684 174.43400574 117.50000000 0.691395 0.493853 -0.527335 0.000000
91.78710175 144.72700500 57.50000000 -0.755486 -0.590074 -0.284699 0.000000
73.12500000 174.81500244 135.00000000 -0.826242 -0.136971 0.546410 0.000000
133.30099487 177.10000610 72.50000000 0.994184 -0.098643 0.043225 0.000000
122.63700104 145.48800659 156.25000000 -0.256666 -0.432839 0.864160 0.000000
99.02349854 143.96499634 46.25000000 -0.616885 -0.711290 -0.336927 0.000000
173.67199707 133.30099487 148.75000000 -0.079551 -0.381577 0.920908 0.000000
200.33200073 143.96499634 151.25000000 0.151684 -0.395512 0.905849 0.000000
241.46499634 147.39300537 130.00000000 0.246242 0.478719 -0.842729 0.000000
92.16799927 193.47700500 16.25000000 0.212562 0.357162 -0.909534 0.000000
172.52900696 130.25399780 50.00000000 0.991490 0.129614 -0.012186 0.000000
151.58200073 181.28900146 153.75000000 0.910306 -0.249060 -0.330623 0.000000
173.29100037 177.48100281 150.00000000 0.942099 -0.288509 -0.170918 0.000000
181.28900146 104.73600006 92.50000000 0.001219 -0.956644 -0.291258 0.000000
204.14100647 113.11499786 67.50000000 -0.211782 -0.777566 -0.592063 0.000000
182.81300354 177.48100281 121.25000000 0.742560 0.536020 -0.401605 0.000000
196.52299500 102.06999969 101.25000000 -0.042947 -0.968155 -0.246640 0.000000
99.78520203 197.66600037 25.00000000 0.463471 0.657559 -0.593979 0.000000
213.28100586 160.72300720 153.75000000 -0.205700 0.131597 0.969727 0.000000
88.74030304 246.79699707 67.50000000 0.910306 0.249060 -0.330623 0.000000
67.41210175 188.90600586 67.50000000 -0.965282 -0.241002 -0.100736 0.000000
125.68399811 161.48399353 43.75000000 0.955378 0.294440 0.023605 0.000000
80.36139679 252.89100647 85.00000000 -0.859711 0.509813 -0.031436 0.000000
149.29699707 161.48399353 51.25000000 0.123788 0.669649 -0.732289 0.000000
121.11299896 115.01999664 86.25000000 -0.288727 -0.866180 -0.407884 0.000000
64.74610138 196.52299500 86.25000000 -0.956644 0.001219 -0.291258 0.000000
153.86700439 103.21299744 107.50000000 -0.138859 -0.956146 -0.257882 0.000000
154.62899780 109.68800354 76.25000000 -0.168775 -0.927568 -0.333366 0.000000
112.73400116 169.86300659 21.25000000 0.577101 0.154393 -0.801946 0.000000
183.57400513 153.86700439 156.25000000 -0.023608 -0.136029 0.990424 0.000000
179.76600647 151.58200073 81.25000000 0.613672 0.617035 -0.492619 0.000000
123.39800262 252.50999451 117.50000000 0.646536 0.449401 -0.616465 0.000000
135.20500183 206.42599487 75.00000000 0.489288 0.865883 -0.104134 0.000000
215.56599426 135.20500183 97.50000000 0.651247 0.699488 -0.294267 0.000000
180.52699280 161.48399353 158.75000000 -0.440842 0.078771 0.894122 0.000000
93.31060028 154.62899780 30.00000000 -0.691378 -0.691378 -0.209744 0.000000
68.93560028 196.52299500 17.50000000 -0.941326 -0.228746 -0.248155 0.000000
187.38299561 146.25000000 153.75000000 -0.607142 -0.695992 0.383372 0.000000
153.48599243 182.81300354 155.00000000 0.979553 -0.201023 -0.008134 0.000000
168.33999634 137.87100220 46.25000000 0.599265 0.413344 -0.685586 0.000000
114.25800323 197.66600037 37.50000000 0.530255 0.694183 -0.486764 0.000000
188.14500427 118.06600189 143.75000000 0.075931 -0.443159 0.893221 0.000000
124.92199707 255.93800354 131.25000000 0.312006 0.875140 0.369842 0.000000
129.87300110 173.67199707 52.50000000 0.874206 -0.436358 -0.212967 0.000000
70.45899963 221.66000366 42.50000000 -0.979863 0.199666 -0.001154 0.000000
152.34399414 204.90199280 123.75000000 0.831916 -0.553217 -0.043198 0.000000
76.93360138 167.57800293 136.25000000 -0.710075 -0.425383 0.561108 0.000000
86.07420349 197.28500366 16.25000000 0.325245 0.450944 -0.831183 0.000000
97.88089752 146.25000000 42.50000000 -0.645071 -0.717978 -0.261515 0.000000
118.06600189 119.58999634 76.25000000 -0.248329 -0.920108 -0.302875 0.000000
214.04299927 159.96099854 153.75000000 0.000978 0.000978 0.999999 0.000000
251.36700439 110.83000183 110.00000000 0.890184 0.166457 -0.424104 0.000000
168.33999634 145.48800659 53.75000000 0.550828 0.684767 -0.477161 0.000000
172.14799500 144.72700500 58.75000000 0.779602 0.454090 -0.431304 0.000000
145.48800659 212.52000427 106.25000000 0.836442 0.382779 -0.392230 0.000000
211.75799561 108.92600250 136.25000000 0.178496 -0.461729 0.868876 0.000000
64.36530304 208.71099854 130.00000000 -0.822565 -0.162722 0.544893 0.000000
169.86300659 166.05499268 156.25000000 0.000978 0.000978 0.999999 0.000000
87.59770203 198.04699707 16.25000000 0.448235 0.415871 -0.791288 0.000000
210.23399353 100.16600037 117.50000000 -0.000978 -0.999999 -0.000978 0.000000
97.50000000 237.27499390 147.50000000 -0.155241 0.513034 0.844214 0.000000
174.43400574 166.81599426 101.25000000 0.184615 0.511819 -0.839023 0.000000
171.38699341 151.96299744 67.50000000 0.747590 0.604738 -0.274592 0.000000
70.45899963 229.27699280 75.00000000 -0.940420 0.317071 -0.122781 0.000000
220.13699341 99.40429688 117.50000000 -0.096827 -0.979306 -0.177721 0.000000
150.05900574 114.25800323 63.75000000 -0.115875 -0.946978 -0.299677 0.000000
175.19500732 180.90800476 132.50000000 0.101943 0.946613 0.305829 0.000000
242.98800659 153.10600281 146.25000000 0.360951 -0.417695 0.833814 0.000000
94.07230377 122.63700104 112.50000000 -0.725150 -0.684623 -0.073818 0.000000
68.17389679 199.57000732 17.50000000 -0.941326 -0.228746 -0.248155 0.000000
135.96699524 238.41799927 147.50000000 0.566562 0.549650 0.613916 0.000000
191.95300293 136.72900391 70.00000000 0.435633 0.609218 -0.662629 0.000000
149.67799377 195.00000000 130.00000000 0.956644 0.001219 0.291258 0.000000
86.45510101 199.57000732 17.50000000 0.411660 0.352181 -0.840538 0.000000
177.48100281 113.11499786 65.00000000 0.134846 0.582359 0.801670 0.000000
191.95300293 118.06600189 141.25000000 0.151578 -0.349047 0.924765 0.000000
68.93560028 227.75399780 85.00000000 -0.800653 0.560918 -0.210536 0.000000
199.57000732 129.87300110 67.50000000 0.388868 0.726871 -0.566074 0.000000
123.39800262 254.41400146 136.25000000 0.313430 0.869958 0.380702 0.000000
122.25599670 150.82000732 25.00000000 0.825618 0.049060 -0.562093 0.000000
86.45510101 200.33200073 17.50000000 0.411660 0.352181 -0.840538 0.000000
242.22700500 124.16000366 136.25000000 0.000978 0.000978 0.999999 0.000000
71.60160065 180.14700317 55.00000000 -0.625115 0.311750 -0.715571 0.000000
142.44099426 226.99200439 113.75000000 0.481264 0.481264 -0.732646 0.000000
137.87100220 221.66000366 106.25000000 -0.001352 0.547504 -0.836802 0.000000
147.77299500 105.11699677 103.75000000 -0.142072 -0.954671 -0.261572 0.000000
103.97499847 206.42599487 40.00000000 0.415934 0.827123 -0.377978 0.000000
256.69900513 126.44499969 126.25000000 0.193202 0.211856 -0.958014 0.000000
114.25800323 229.27699280 153.75000000 0.000978 0.000978 0.999999 0.000000
176.71899414 116.92400360 142.50000000 0.041719 -0.201444 0.978611 0.000000
102.06999969 222.42199707 153.75000000 -0.123294 0.285034 0.950555 0.000000
150.82000732 156.53300476 47.50000000 0.455505 0.807122 -0.375592 0.000000
73.50589752 234.60899353 85.00000000 -0.000978 -0.000978 -0.999999 0.000000
102.83200073 198.80900574 28.75000000 0.543169 0.526352 -0.654157 0.000000
118.06600189 136.34800720 33.75000000 -0.493155 -0.725618 -0.479871 0.000000
168.33999634 179.76600647 103.75000000 0.614946 -0.493642 -0.614946 0.000000
65.12699890 177.48100281 102.50000000 0.000978 0.000978 -0.999999 0.000000
84.16989899 181.28900146 150.00000000 -0.444735 -0.170603 0.879264 0.000000
80.74220276 142.44099426 116.25000000 -0.843198 -0.380143 0.380143 0.000000
97.50000000 147.39300537 40.00000000 -0.632996 -0.739276 -0.229754 0.000000
94.07230377 122.63700104 115.00000000 -0.725150 -0.684623 -0.073818 0.000000
84.93170166 203.37899780 17.50000000 0.601043 0.260294 -0.755642 0.000000
65.88870239 198.04699707 77.50000000 -0.863156 -0.430817 -0.263361 0.000000
126.44499969 188.90600586 38.75000000 0.805494 0.483297 -0.342933 0.000000
85.69339752 198.04699707 152.50000000 -0.582087 -0.026395 0.812698 0.000000
83.40820313 143.20300293 80.00000000 -0.814577 -0.543559 -0.202502 0.000000
218.61300659 121.11299896 138.75000000 0.215851 -0.475476 0.852837 0.000000
149.29699707 195.76199341 121.25000000 0.778120 0.097813 0.620453 0.000000
101.68900299 132.53900146 65.00000000 -0.597207 -0.733157 -0.325308 0.000000
132.91999817 252.12899780 130.00000000 0.481264 0.481264 0.732646 0.000000
169.10200500 176.71899414 106.25000000 0.835813 -0.207816 -0.508162 0.000000
65.88870239 222.42199707 87.50000000 -0.934752 0.152809 -0.320762 0.000000
134.06300354 108.54499817 132.50000000 -0.314240 -0.182958 0.931547 0.000000
193.47700500 137.87100220 151.25000000 0.224194 -0.318441 0.921050 0.000000
121.87500000 120.35199738 133.75000000 -0.145110 -0.508619 0.848675 0.000000
131.77699280 106.64099884 106.25000000 -0.001219 -0.956644 -0.291258 0.000000
239.94099426 121.11299896 116.25000000 0.710793 0.153071 -0.686544 0.000000
66.65039825 174.43400574 117.50000000 -0.847170 -0.508302 -0.154701 0.000000
159.19900513 138.63299561 38.75000000 0.545865 0.261202 -0.796119 0.000000
179.00399780 105.11699677 91.25000000 0.001219 -0.956644 -0.291258 0.000000
65.50779724 188.14500427 128.75000000 -0.738994 -0.370313 0.562810 0.000000
145.86900330 179.00399780 90.00000000 -0.397431 -0.717354 -0.572234 0.000000
199.57000732 151.58200073 153.75000000 0.266540 -0.427986 0.863588 0.000000
68.17389679 196.52299500 30.00000000 -0.973379 -0.226114 0.037484 0.000000
244.51199341 119.58999634 136.25000000 0.000978 0.000978 0.999999 0.000000
84.55079651 140.15600586 83.75000000 -0.830325 -0.545310 -0.114879 0.000000
110.44899750 253.65199280 106.25000000 0.717886 0.123876 -0.685051 0.000000
122.63700104 166.81599426 163.75000000 0.000978 0.000978 0.999999 0.000000
159.19900513 152.34399414 51.25000000 0.549857 0.603997 -0.576927 0.000000
132.53900146 228.51600647 153.75000000 0.360485 0.168226 0.917470 0.000000
220.89900208 125.68399811 83.75000000 0.581343 0.725451 -0.368457 0.000000
222.80299377 151.58200073 127.50000000 0.279674 0.360435 -0.889870 0.000000
150.43899536 188.14500427 125.00000000 0.975664 -0.136518 0.171587 0.000000
232.32400513 119.58999634 136.25000000 0.000978 0.000978 0.999999 0.000000
139.39500427 185.47900391 70.00000000 0.276369 -0.941856 -0.191121 0.000000
244.89300537 110.44899750 117.50000000 0.808600 0.273704 0.520819 0.000000
254.79499817 128.73100281 135.00000000 0.446046 -0.357154 0.820661 0.000000
153.48599243 160.72300720 55.00000000 0.311396 0.931394 -0.188513 0.000000
89.88279724 259.74600220 83.75000000 -0.146978 0.963809 -0.222418 0.000000
156.15199280 115.40000153 55.00000000 -0.038033 -0.924605 -0.379023 0.000000
72.74420166 173.67199707 60.00000000 -0.901420 -0.359102 -0.241844 0.000000
124.92199707 223.18400574 156.25000000 0.077165 0.074928 0.994199 0.000000
62.84180069 207.94900513 95.00000000 -0.956644 0.001219 -0.291258 0.000000
123.01799774 241.46499634 112.50000000 0.893172 0.358161 -0.271964 0.000000
71.60160065 168.72099304 85.00000000 -0.691378 -0.691378 0.209744 0.000000
107.40200043 225.46899414 83.75000000 0.594022 0.727474 -0.343394 0.000000
80.74220276 209.47300720 16.25000000 0.652638 0.416825 -0.632710 0.000000
121.11299896 139.39500427 151.25000000 0.368856 -0.922827 0.111068 0.000000
108.16400146 135.96699524 47.50000000 -0.538615 -0.805595 0.246801 0.000000
143.58399963 207.94900513 95.00000000 0.666084 0.622897 -0.410281 0.000000
228.51600647 162.24600220 136.25000000 0.172106 0.534276 -0.827604 0.000000
143.96499634 235.37100220 121.25000000 0.656335 0.410417 -0.633073 0.000000
71.22070313 226.99200439 42.50000000 -0.988665 0.001112 0.150135 0.000000
75.41020203 172.14799500 53.75000000 -0.874237 -0.340235 -0.346338 0.000000
132.53900146 148.53500366 26.25000000 0.287593 0.517038 -0.806202 0.000000
76.17189789 243.36900330 77.50000000 -0.897706 0.440259 0.017187 0.000000
162.24600220 140.15600586 41.25000000 0.505740 0.495726 -0.706033 0.000000
150.82000732 191.95300293 116.25000000 0.952638 0.302484 0.031378 0.000000
100.54699707 161.48399353 153.75000000 -0.514160 -0.151743 0.844165 0.000000
103.59400177 151.58200073 153.75000000 -0.332894 -0.548391 0.767104 0.000000
127.58799744 111.97299957 132.50000000 -0.153324 -0.327367 0.932375 0.000000
201.47500610 137.87100220 80.00000000 0.387056 0.693407 -0.607761 0.000000
125.68399811 108.92600250 131.25000000 -0.401369 -0.449727 0.797903 0.000000
129.49200439 107.40200043 103.75000000 -0.060021 -0.973818 -0.219262 0.000000
151.20100403 115.01999664 140.00000000 -0.180298 -0.359177 0.915688 0.000000
230.03900146 116.54299927 136.25000000 0.000978 0.000978 0.999999 0.000000
90.64459991 198.80900574 18.75000000 0.463600 0.427813 -0.775920 0.000000
197.28500366 113.11499786 67.50000000 0.193773 -0.874196 -0.445234 0.000000
247.55900574 105.87899780 128.75000000 0.203332 -0.808741 0.551901 0.000000
102.83200073 201.47500610 30.00000000 0.843851 0.399224 -0.358519 0.000000
146.25000000 162.24600220 163.75000000 0.528750 0.023227 0.848460 0.000000
135.58599854 210.23399353 156.25000000 0.000978 0.000978 0.999999 0.000000
150.05900574 190.42999268 128.75000000 0.985032 -0.019540 0.171260 0.000000
108.16400146 189.66799927 26.25000000 0.512750 0.269623 -0.815102 0.000000
73.50589752 178.24200439 52.50000000 -0.903004 -0.342114 -0.259889 0.000000
147.01199341 163.00799561 163.75000000 0.495132 -0.001335 0.868817 0.000000
160.72300720 132.53900146 36.25000000 0.425633 0.387374 -0.817789 0.000000
174.81500244 169.10200500 102.50000000 0.350894 0.621816 -0.700155 0.000000
67.41210175 219.37500000 70.00000000 -0.975705 0.216690 -0.032324 0.000000
130.25399780 188.90600586 46.25000000 0.606140 0.514965 -0.606140 0.000000
67.79299927 187.38299561 66.25000000 -0.960545 -0.255368 -0.110184 0.000000
118.82800293 161.10400391 162.50000000 -0.789733 -0.368328 0.490567 0.000000
147.01199341 114.25800323 63.75000000 0.000000 0.000000 0.000000 0.000000
121.11299896 207.94900513 66.25000000 0.394864 0.917827 -0.040939 0.000000
145.10699463 205.66400146 95.00000000 0.666084 0.622897 -0.410281 0.000000
93.31060028 153.86700439 32.50000000 -0.691378 -0.691378 -0.209744 0.000000
192.71499634 110.83000183 72.50000000 -0.001219 -0.956644 -0.291258 0.000000
105.87899780 208.71099854 158.75000000 0.000978 0.000978 0.999999 0.000000
113.49600220 230.80099487 96.25000000 0.466786 0.583900 -0.664208 0.000000
86.83599854 155.39100647 48.75000000 -0.716369 -0.629439 -0.301036 0.000000
70.45899963 188.14500427 20.00000000 -0.944502 -0.313951 -0.096702 0.000000
134.82400513 191.19099426 161.25000000 -0.150659 0.148169 0.977419 0.000000
102.06999969 153.10600281 153.75000000 -0.332894 -0.548391 0.767104 0.000000
60.17580032 201.85600281 101.25000000 -0.952935 -0.208918 -0.219701 0.000000
225.46899414 143.96499634 123.75000000 0.786761 0.352353 -0.506809 0.000000
158.43800354 112.73400116 63.75000000 -0.223580 -0.886915 -0.404220 0.000000
99.02349854 150.43899536 27.50000000 -0.657559 -0.728397 -0.192494 0.000000
63.22269821 231.18200684 115.00000000 -0.886398 0.442483 0.136039 0.000000
119.58999634 196.52299500 38.75000000 0.560990 0.763525 -0.319877 0.000000
237.65600586 115.01999664 136.25000000 0.015620 -0.243919 0.969670 0.000000
246.79699707 151.58200073 143.75000000 0.376911 -0.376911 0.846095 0.000000
137.87100220 109.30699921 95.00000000 0.117926 -0.988944 0.089904 0.000000
238.41799927 132.15800476 137.50000000 0.288764 -0.414048 0.863238 0.000000
112.73400116 128.35000610 137.50000000 -0.163761 -0.809792 0.563399 0.000000
179.38499451 147.77299500 75.00000000 0.380190 0.755485 -0.533571 0.000000
166.05499268 112.73400116 141.25000000 -0.000978 -0.000978 0.999999 0.000000
157.67599487 163.77000427 88.75000000 0.671719 0.671719 0.312390 0.000000
198.04699707 108.54499817 77.50000000 0.043038 -0.932481 -0.358646 0.000000
263.55499268 127.20700073 128.75000000 0.969254 0.188716 -0.157905 0.000000
197.28500366 137.87100220 76.25000000 0.591255 0.654903 -0.470659 0.000000
72.74420166 232.32400513 85.00000000 -0.840909 0.526114 0.126792 0.000000
79.98049927 230.03900146 33.75000000 0.917618 0.204074 -0.341074 0.000000
148.53500366 191.95300293 83.75000000 0.997292 0.024532 -0.069330 0.000000
131.39700317 239.94099426 150.00000000 0.593771 0.593771 0.543021 0.000000
119.58999634 112.73400116 131.25000000 0.015332 -0.728973 0.684371 0.000000
117.30500031 137.87100220 151.25000000 0.091787 -0.227582 0.969423 0.000000
166.81599426 138.25199890 45.00000000 0.602207 0.409766 -0.685156 0.000000
149.29699707 196.14300537 97.50000000 0.962562 0.271059 -0.001205 0.000000
195.76199341 115.01999664 141.25000000 0.000978 0.000978 0.999999 0.000000
70.07810211 190.04899597 25.00000000 -0.907886 -0.406123 0.103956 0.000000
73.12500000 169.10200500 63.75000000 -0.825887 -0.423247 -0.372521 0.000000
112.73400116 237.65600586 101.25000000 0.500409 0.584653 -0.638569 0.000000
115.01999664 225.46899414 91.25000000 0.370096 0.559220 -0.741823 0.000000
90.26370239 219.37500000 45.00000000 0.715574 0.577394 -0.393154 0.000000
105.87899780 237.65600586 151.25000000 -0.176240 0.426762 0.887025 0.000000
212.52000427 135.96699524 92.50000000 0.519539 0.832768 -0.191251 0.000000
65.50779724 176.71899414 116.25000000 -0.914766 -0.332773 0.229052 0.000000
136.34800720 126.44499969 33.75000000 -0.299191 -0.894596 -0.331938 0.000000
102.06999969 121.87500000 86.25000000 -0.525683 -0.787726 -0.321162 0.000000
88.35939789 247.55900574 66.25000000 0.795887 0.443953 -0.411666 0.000000
68.17389679 222.42199707 67.50000000 -0.953522 0.300391 -0.023682 0.000000
89.50199890 220.13699341 45.00000000 0.715574 0.577394 -0.393154 0.000000
112.73400116 109.68800354 121.25000000 -0.786661 -0.576473 -0.221007 0.000000
67.79299927 231.56300354 126.25000000 -0.778284 0.424075 0.463071 0.000000
129.49200439 149.29699707 26.25000000 0.287593 0.517038 -0.806202 0.000000
105.11699677 168.33999634 158.75000000 -0.436445 -0.257001 0.862245 0.000000
160.72300720 172.14799500 101.25000000 -0.182912 0.078737 -0.979971 0.000000
214.80499268 108.92600250 73.75000000 0.001219 -0.956644 -0.291258 0.000000
68.55470276 173.67199707 123.75000000 -0.939530 -0.189010 0.285584 0.000000
159.96099854 176.33799744 132.50000000 0.145761 0.925929 0.348438 0.000000
260.12701416 113.49600220 125.00000000 -0.311458 -0.934373 -0.173032 0.000000
127.20700073 110.06800079 95.00000000 0.508302 -0.847170 0.154701 0.000000
140.15600586 192.71499634 158.75000000 0.454246 0.167969 0.874898 0.000000
195.76199341 99.78520203 118.75000000 -0.001219 -0.956644 0.291258 0.000000
165.29299927 176.33799744 102.50000000 0.574743 -0.167445 -0.801020 0.000000
147.77299500 188.14500427 143.75000000 0.999201 0.035942 -0.017458 0.000000
128.73100281 153.86700439 31.25000000 0.169350 0.909365 -0.379969 0.000000
240.70300293 121.87500000 136.25000000 0.000978 0.000978 0.999999 0.000000
151.58200073 190.42999268 121.25000000 0.934248 0.287138 0.211501 0.000000
253.65199280 146.25000000 131.25000000 0.344851 0.335736 -0.876561 0.000000
252.12899780 149.29699707 141.25000000 0.226916 -0.309691 0.923364 0.000000
178.24200439 182.05099487 151.25000000 0.459329 0.318238 0.829301 0.000000
86.45510101 239.94099426 57.50000000 0.911718 0.242062 -0.331929 0.000000
146.25000000 188.14500427 78.75000000 0.650911 -0.519720 -0.553359 0.000000
112.73400116 202.99800110 45.00000000 0.497940 0.784779 -0.369023 0.000000
248.32000732 136.34800720 136.25000000 0.369700 -0.436341 0.820322 0.000000
230.80099487 116.54299927 136.25000000 0.000978 0.000978 0.999999 0.000000
113.49600220 151.96299744 157.50000000 -0.320495 -0.288002 0.902407 0.000000
188.14500427 130.63499451 147.50000000 0.283753 -0.370831 0.884290 0.000000
201.85600281 124.92199707 61.25000000 0.383772 0.746315 -0.543814 0.000000
140.15600586 202.61700439 156.25000000 0.333966 0.286469 0.897999 0.000000
233.84800720 129.49200439 138.75000000 0.287149 -0.399578 0.870564 0.000000
168.33999634 177.86099243 132.50000000 -0.351383 0.889672 0.291573 0.000000
236.89500427 137.87100220 123.75000000 0.449291 0.609633 -0.653059 0.000000
73.88670349 163.77000427 71.25000000 -0.892114 -0.431117 -0.135169 0.000000
241.46499634 118.44699860 110.00000000 0.599590 0.767787 0.225820 0.000000
77.69529724 146.25000000 103.75000000 -0.857889 -0.481544 -0.179282 0.000000
254.41400146 110.44899750 131.25000000 0.195896 -0.356045 0.913705 0.000000
214.80499268 165.67399597 142.50000000 0.087675 0.926658 -0.365538 0.000000
146.25000000 214.80499268 108.75000000 0.799529 0.333536 -0.499506 0.000000
121.11299896 196.14300537 42.50000000 0.719404 0.673582 -0.169541 0.000000
154.62899780 143.20300293 38.75000000 0.758528 0.440700 -0.480019 0.000000
137.10899353 121.87500000 141.25000000 -0.267106 -0.399905 0.876773 0.000000
88.35939789 251.36700439 126.25000000 -0.391276 0.825323 0.407117 0.000000
165.29299927 158.43800354 156.25000000 0.115675 0.296500 0.948002 0.000000
147.77299500 150.82000732 38.75000000 0.502378 0.546063 -0.670397 0.000000
128.35000610 180.52699280 37.50000000 0.882469 -0.097114 -0.460235 0.000000
229.27699280 132.53900146 141.25000000 0.775646 -0.020888 0.630822 0.000000
153.86700439 145.48800659 38.75000000 0.484712 0.555154 -0.675913 0.000000
139.39500427 119.20899963 55.00000000 -0.223419 -0.923558 -0.311648 0.000000
191.95300293 164.91200256 125.00000000 0.455479 0.877700 -0.148934 0.000000
110.44899750 186.62100220 26.25000000 0.335059 0.517818 -0.787147 0.000000
124.54100037 256.69900513 125.00000000 0.614199 0.783432 -0.094829 0.000000
145.48800659 121.87500000 141.25000000 -0.025106 -0.223566 0.974365 0.000000
103.59400177 241.46499634 146.25000000 -0.432452 0.744869 0.508090 0.000000
142.44099426 218.23199463 152.50000000 0.713208 0.510385 0.480460 0.000000
78.83789825 217.08999634 145.00000000 -0.563861 0.476856 0.674291 0.000000
86.45510101 206.42599487 22.50000000 0.573880 0.651295 -0.496465 0.000000
174.81500244 180.52699280 152.50000000 0.864440 -0.233836 -0.445043 0.000000
69.31639862 205.66400146 136.25000000 -0.855516 -0.012164 0.517634 0.000000
146.25000000 197.28500366 156.25000000 0.000978 0.000978 0.999999 0.000000
234.60899353 150.82000732 131.25000000 0.082970 0.870479 -0.485162 0.000000
185.09800720 138.63299561 66.25000000 0.472079 0.766108 -0.436142 0.000000
205.66400146 137.87100220 148.75000000 0.156539 -0.333857 0.929535 0.000000
156.15199280 180.52699280 123.75000000 0.585852 0.622995 0.518319 0.000000
156.91400146 183.57400513 121.25000000 0.250113 0.750339 0.611911 0.000000
252.12899780 129.49200439 123.75000000 0.323651 0.436226 -0.839617 0.000000
184.33599854 135.58599854 61.25000000 0.406644 0.759395 -0.507897 0.000000
161.48399353 182.05099487 111.25000000 0.224973 0.963614 0.144347 0.000000
110.83000183 215.56599426 157.50000000 0.010907 0.267815 0.963408 0.000000
207.18800354 146.25000000 106.25000000 0.485364 0.727217 -0.485364 0.000000
116.54299927 256.69900513 136.25000000 0.169905 0.935166 0.310801 0.000000
111.97299957 257.46099854 108.75000000 0.833302 -0.023415 -0.552321 0.000000
156.53300476 177.48100281 132.50000000 0.267522 0.886261 0.378118 0.000000
104.73600006 147.77299500 20.00000000 -0.475476 -0.852837 -0.215851 0.000000
153.86700439 152.34399414 46.25000000 0.451104 0.694134 -0.560967 0.000000
105.87899780 147.39300537 20.00000000 -0.475476 -0.852837 -0.215851 0.000000
114.25800323 134.44299316 40.00000000 -0.304603 -0.910894 -0.278369 0.000000
101.30899811 217.47099304 60.00000000 0.586349 0.726811 -0.357689 0.000000
155.39100647 186.24000549 107.50000000 0.653112 0.741002 -0.156080 0.000000
70.83989716 187.00199890 20.00000000 -0.912707 -0.398197 0.091681 0.000000
75.41020203 170.24400330 55.00000000 -0.874237 -0.340235 -0.346338 0.000000
74.26760101 238.41799927 77.50000000 -0.938389 0.345052 -0.019099 0.000000
94.45320129 244.51199341 78.75000000 -0.001380 0.738126 -0.674661 0.000000
220.51800537 137.10899353 110.00000000 0.528695 0.705483 -0.471990 0.000000
69.69730377 221.66000366 57.50000000 -0.947804 0.290090 -0.132345 0.000000
123.39800262 116.16200256 82.50000000 -0.266581 -0.892078 -0.364873 0.000000
155.39100647 152.34399414 161.25000000 -0.049166 -0.818966 0.571731 0.000000
141.67999268 121.49400330 45.00000000 -0.142660 -0.989771 0.001106 0.000000
105.11699677 259.74600220 128.75000000 -0.321188 0.814838 0.482574 0.000000
86.45510101 259.74600220 92.50000000 -0.528771 0.819979 -0.219172 0.000000
73.88670349 235.75199890 92.50000000 -0.833457 0.392308 -0.389157 0.000000
177.48100281 130.25399780 148.75000000 0.092191 -0.338034 0.936608 0.000000
98.26170349 175.19500732 156.25000000 -0.359779 -0.299565 0.883640 0.000000
78.45709991 163.38900757 135.00000000 -0.761674 -0.424244 0.489765 0.000000
234.60899353 133.30099487 118.75000000 -0.000978 -0.000978 -0.999999 0.000000
160.34199524 131.77699280 35.00000000 0.425633 0.387374 -0.817789 0.000000
147.01199341 170.62500000 106.25000000 0.932203 -0.103878 0.346709 0.000000
94.45320129 133.30099487 131.25000000 -0.582768 -0.555741 0.592903 0.000000
102.83200073 149.29699707 18.75000000 -0.475476 -0.852837 -0.215851 0.000000
153.10600281 143.96499634 156.25000000 -0.135740 -0.512307 0.848007 0.000000
109.68800354 148.53500366 153.75000000 0.000978 0.000978 0.999999 0.000000
163.38900757 159.19900513 67.50000000 0.664083 0.728202 -0.169456 0.000000
101.30899811 246.79699707 93.75000000 0.813853 0.091071 -0.573889 0.000000
130.25399780 178.24200439 163.75000000 -0.150831 0.199819 0.968154 0.000000
124.92199707 163.77000427 41.25000000 0.933570 -0.072832 -0.350916 0.000000
141.67999268 234.60899353 118.75000000 0.469014 0.505475 -0.724238 0.000000
79.21880341 209.47300720 146.25000000 -0.649365 0.248054 0.718884 0.000000
99.02349854 137.10899353 58.75000000 -0.567569 -0.781390 -0.259415 0.000000
175.19500732 156.91400146 156.25000000 0.000978 0.000978 0.999999 0.000000
101.30899811 149.67799377 20.00000000 -0.475476 -0.852837 -0.215851 0.000000
153.86700439 162.24600220 101.25000000 0.468951 0.134192 -0.872970 0.000000
208.71099854 100.16600037 115.00000000 -0.001018 -0.999127 -0.041758 0.000000
129.49200439 127.96900177 141.25000000 -0.763893 -0.382761 0.519578 0.000000
148.53500366 114.25800323 63.75000000 -0.001219 -0.956644 -0.291258 0.000000
117.30500031 106.26000214 115.00000000 -0.291053 -0.956668 -0.008597 0.000000
96.73829651 221.66000366 58.75000000 0.639711 0.633030 -0.435939 0.000000
154.62899780 154.62899780 48.75000000 0.518484 0.609683 -0.599550 0.000000
95.59570313 263.55499268 102.50000000 -0.252440 0.967485 0.015702 0.000000
198.80900574 153.86700439 156.25000000 0.249735 -0.402268 0.880802 0.000000
118.06600189 138.25199890 30.00000000 -0.478826 -0.799110 -0.363523 0.000000
186.62100220 100.92800140 110.00000000 -0.001112 -0.988665 -0.150135 0.000000
167.57800293 156.53300476 77.50000000 0.593107 0.805029 -0.012385 0.000000
236.13299561 101.68900299 117.50000000 0.301236 -0.948432 -0.098658 0.000000
195.00000000 164.91200256 132.50000000 -0.001112 0.988665 -0.150135 0.000000
122.63700104 236.89500427 151.25000000 0.547504 -0.001352 0.836802 0.000000
99.40429688 150.05900574 25.00000000 -0.091187 -0.986477 0.136188 0.000000
158.43800354 168.72099304 157.50000000 0.830708 -0.105832 0.546557 0.000000
140.15600586 217.85200500 103.75000000 0.488462 0.701851 -0.518469 0.000000
246.79699707 159.19900513 143.75000000 0.353534 0.770025 -0.531107 0.000000
205.28300476 156.91400146 155.00000000 0.088520 -0.323693 0.942012 0.000000
223.94500732 142.44099426 121.25000000 0.612460 0.582090 -0.534848 0.000000
111.59200287 212.52000427 65.00000000 0.468866 0.819331 -0.329942 0.000000
89.12110138 129.49200439 103.75000000 -0.795668 -0.597842 -0.097458 0.000000
70.07810211 220.89900208 136.25000000 -0.670261 0.241294 0.701803 0.000000
207.18800354 145.86900330 105.00000000 0.485364 0.727217 -0.485364 0.000000
134.82400513 169.10200500 163.75000000 0.000978 0.000978 0.999999 0.000000
125.68399811 115.78099823 81.25000000 -0.404110 -0.847227 -0.344820 0.000000
111.97299957 261.26998901 113.75000000 0.705324 0.705324 -0.070967 0.000000
84.55079651 191.19099426 151.25000000 -0.458359 -0.245169 0.854283 0.000000
112.73400116 182.81300354 23.75000000 0.391975 0.439972 -0.807948 0.000000
93.69139862 222.42199707 56.25000000 0.613520 0.630329 -0.475688 0.000000
139.39500427 158.05700684 42.50000000 -0.001219 0.956644 -0.291258 0.000000
233.84800720 163.00799561 151.25000000 0.218048 0.193969 0.956468 0.000000
65.12699890 201.85600281 85.00000000 -0.956644 0.001219 -0.291258 0.000000
124.92199707 256.31799316 125.00000000 0.614199 0.783432 -0.094829 0.000000
84.55079651 158.43800354 138.75000000 -0.615842 -0.507859 0.602344 0.000000
95.21489716 195.00000000 21.25000000 0.414075 0.653539 -0.633584 0.000000
97.50000000 209.47300720 38.75000000 0.525116 0.782054 -0.335625 0.000000
203.37899780 164.91200256 142.50000000 -0.114800 0.978888 -0.169114 0.000000
68.55470276 214.80499268 38.75000000 -0.992651 -0.076009 0.094160 0.000000
196.52299500 161.86500549 120.00000000 0.532629 0.813610 -0.233122 0.000000
89.88279724 172.14799500 151.25000000 -0.442095 -0.270764 0.855125 0.000000
137.49000549 180.52699280 90.00000000 0.202496 -0.949964 -0.237831 0.000000
250.60600281 137.10899353 136.25000000 0.252796 -0.307689 0.917290 0.000000
124.16000366 153.10600281 28.75000000 0.280208 0.837527 -0.469077 0.000000
183.57400513 177.86099243 125.00000000 0.830852 0.510707 -0.221052 0.000000
235.37100220 143.96499634 126.25000000 0.234156 0.494328 -0.837144 0.000000
75.41020203 242.22700500 126.25000000 -0.644166 0.673670 0.362241 0.000000
144.72700500 240.70300293 128.75000000 0.824165 0.559512 -0.087738 0.000000
86.83599854 258.22299194 113.75000000 -0.698338 0.612894 0.369708 0.000000
140.15600586 111.59200287 82.50000000 -0.264868 -0.934747 -0.236840 0.000000
225.46899414 132.15800476 107.50000000 0.615578 0.739648 -0.272000 0.000000
163.77000427 171.38699341 101.25000000 -0.180527 0.259254 -0.948787 0.000000
83.40820313 160.72300720 47.50000000 -0.771866 -0.557725 -0.305231 0.000000
250.60600281 154.62899780 143.75000000 0.099792 0.027415 0.994631 0.000000
210.99600220 147.01199341 111.25000000 0.837438 0.544822 -0.043196 0.000000
258.60400391 134.06300354 135.00000000 0.300244 -0.121432 0.946101 0.000000
147.39300537 190.42999268 142.50000000 0.992044 -0.064773 0.107954 0.000000
145.10699463 172.14799500 162.50000000 0.240393 0.202364 0.949347 0.000000
156.91400146 179.38499451 125.00000000 0.691378 0.691378 0.209744 0.000000
150.82000732 201.09399414 153.75000000 0.501183 0.403232 0.765650 0.000000
191.19099426 131.01600647 146.25000000 0.259243 -0.461729 0.848292 0.000000
68.93560028 226.23100281 80.00000000 -0.895990 0.434798 -0.090294 0.000000
115.01999664 111.21099854 126.25000000 -0.432213 -0.652491 0.622453 0.000000
144.72700500 239.94099426 126.25000000 0.693872 0.564083 -0.447606 0.000000
114.25800323 154.62899780 18.75000000 0.478234 0.131478 -0.868335 0.000000
111.97299957 193.85699463 30.00000000 0.425008 0.648345 -0.631678 0.000000
241.46499634 107.02200317 100.00000000 -0.000978 -0.000978 -0.999999 0.000000
173.67199707 101.68900299 122.50000000 -0.131271 -0.969879 0.205191 0.000000
108.16400146 173.67199707 161.25000000 -0.412147 -0.217153 0.884861 0.000000
66.26959991 196.52299500 131.25000000 -0.817857 -0.121871 0.562368 0.000000
86.83599854 131.39700317 112.50000000 -0.875568 -0.481902 0.033937 0.000000
131.39700317 186.62100220 45.00000000 0.758822 0.460538 -0.460538 0.000000
115.78099823 166.81599426 23.75000000 0.590543 -0.174582 -0.787896 0.000000
143.96499634 141.67999268 153.75000000 -0.062368 -0.480927 0.874539 0.000000
124.92199707 202.61700439 58.75000000 0.407348 0.835142 -0.369601 0.000000
162.24600220 132.53900146 36.25000000 0.425633 0.387374 -0.817789 0.000000
173.67199707 144.72700500 61.25000000 0.759066 0.493475 -0.424618 0.000000
100.54699707 239.56100464 147.50000000 -0.300874 0.658061 0.690240 0.000000
93.69139862 246.03500366 138.75000000 -0.424894 0.658170 0.621512 0.000000
199.57000732 150.05900574 101.25000000 0.697466 0.598535 -0.394077 0.000000
147.77299500 228.51600647 121.25000000 0.871551 0.334272 -0.358694 0.000000
103.97499847 256.69900513 132.50000000 -0.261982 0.785947 0.560046 0.000000
185.85899353 126.44499969 146.25000000 -0.077976 -0.169149 0.982501 0.000000
84.55079651 155.77200317 52.50000000 -0.685845 -0.626635 -0.370060 0.000000
120.35199738 136.72900391 30.00000000 -0.465392 -0.793903 -0.391315 0.000000
102.83200073 248.32000732 141.25000000 -0.139504 0.739521 0.658519 0.000000
124.92199707 163.00799561 163.75000000 0.000978 0.000978 0.999999 0.000000
260.50799561 138.25199890 135.00000000 0.431761 0.500712 0.750247 0.000000
209.47300720 102.06999969 131.25000000 -0.001219 -0.956644 0.291258 0.000000
68.17389679 181.28900146 70.00000000 -0.999016 -0.044059 -0.005123 0.000000
115.78099823 156.53300476 20.00000000 0.512973 0.095736 -0.853050 0.000000
108.92600250 261.26998901 128.75000000 -0.315320 0.826735 0.465921 0.000000
226.23100281 138.25199890 117.50000000 0.504305 0.521059 -0.688603 0.000000
97.11920166 262.79299927 95.00000000 0.436487 0.800494 -0.410716 0.000000
112.73400116 157.67599487 18.75000000 0.456691 0.127415 -0.880454 0.000000
84.55079651 211.75799561 26.25000000 0.664307 0.549945 -0.506218 0.000000
103.21299744 150.82000732 152.50000000 -0.332894 -0.548391 0.767104 0.000000
90.64459991 153.48599243 42.50000000 -0.691378 -0.691378 -0.209744 0.000000
146.25000000 149.29699707 36.25000000 0.548896 0.545519 -0.633342 0.000000
143.96499634 229.27699280 146.25000000 0.531358 0.192258 0.825043 0.000000
233.84800720 118.82800293 136.25000000 0.000978 0.000978 0.999999 0.000000
235.75199890 150.05900574 147.50000000 0.127155 -0.395438 0.909648 0.000000
118.06600189 156.91400146 21.25000000 0.582376 0.217812 -0.783196 0.000000
113.49600220 158.43800354 18.75000000 0.456691 0.127415 -0.880454 0.000000
192.71499634 160.34199524 107.50000000 0.601999 0.766887 -0.222444 0.000000
83.02739716 240.70300293 48.75000000 0.678824 0.554792 -0.481044 0.000000
118.06600189 118.44699860 132.50000000 -0.373802 0.105431 0.921497 0.000000
71.22070313 169.10200500 85.00000000 -0.691378 -0.691378 0.209744 0.000000
118.44699860 113.49600220 130.00000000 -0.397930 -0.459150 0.794250 0.000000
214.80499268 162.24600220 153.75000000 -0.187536 0.149263 0.970850 0.000000
92.92970276 156.15199280 21.25000000 -0.706420 -0.706420 -0.044062 0.000000
79.98049927 204.14100647 148.75000000 -0.520064 -0.225515 0.823818 0.000000
66.65039825 201.85600281 57.50000000 -0.949964 -0.237831 -0.202496 0.000000
118.82800293 213.28100586 158.75000000 -0.015153 0.196990 0.980288 0.000000
70.83989716 175.19500732 66.25000000 -0.981497 -0.164191 -0.098515 0.000000
89.88279724 140.53700256 132.50000000 -0.777463 -0.495044 0.387920 0.000000
144.72700500 214.04299927 151.25000000 0.525127 0.105025 0.844519 0.000000
175.95700073 139.39500427 151.25000000 -0.000978 -0.000978 0.999999 0.000000
97.11920166 130.25399780 77.50000000 -0.559237 -0.782932 -0.272530 0.000000
94.45320129 142.44099426 141.25000000 -0.606700 -0.475613 0.636951 0.000000
89.12110138 226.23100281 148.75000000 -0.386366 0.424525 0.818841 0.000000
89.88279724 171.38699341 151.25000000 -0.538352 -0.192593 0.820418 0.000000
105.11699677 167.19700623 157.50000000 -0.845940 -0.286104 0.450034 0.000000
145.48800659 221.66000366 146.25000000 -0.000978 -0.000978 0.999999 0.000000
221.66000366 137.10899353 146.25000000 -0.716101 -0.237651 0.656294 0.000000
152.34399414 159.96099854 161.25000000 0.000978 0.000978 0.999999 0.000000
100.54699707 262.41198730 122.50000000 -0.372492 0.717088 0.589096 0.000000
101.30899811 204.90199280 33.75000000 0.564566 0.760797 -0.320082 0.000000
198.04699707 116.54299927 141.25000000 0.343136 -0.324996 0.881269 0.000000
124.16000366 127.96900177 43.75000000 -0.397370 -0.869342 -0.293841 0.000000
233.08599854 137.87100220 141.25000000 0.000978 0.000978 0.999999 0.000000
236.13299561 131.77699280 138.75000000 0.347083 -0.400002 0.848252 0.000000
83.78910065 251.74800110 70.00000000 -0.392694 0.913529 -0.106096 0.000000
90.64459991 250.60600281 73.75000000 0.839272 0.300518 -0.453113 0.000000
172.91000366 179.38499451 127.50000000 -0.856201 0.475334 0.202429 0.000000
73.88670349 231.18200684 32.50000000 -0.853341 0.486985 -0.186156 0.000000
68.17389679 185.09800720 70.00000000 -0.974257 -0.172669 -0.144941 0.000000
178.24200439 152.34399414 81.25000000 0.006122 0.956210 -0.292617 0.000000
144.72700500 188.14500427 96.25000000 0.177561 -0.012601 0.984029 0.000000
232.70500183 147.01199341 127.50000000 0.525710 0.663437 -0.532429 0.000000
241.46499634 156.91400146 138.75000000 0.201981 0.621361 -0.757043 0.000000
137.87100220 177.10000610 100.00000000 0.574136 0.262687 0.775477 0.000000
137.10899353 249.46299744 135.00000000 0.393526 0.785433 0.477737 0.000000
180.14700317 161.48399353 157.50000000 -0.362873 0.001264 0.931838 0.000000
150.43899536 216.32800293 122.50000000 0.894865 0.425381 -0.135155 0.000000
197.28500366 108.54499817 77.50000000 -0.091158 -0.918386 -0.385042 0.000000
127.96900177 232.70500183 110.00000000 0.385218 0.505497 -0.772062 0.000000
159.96099854 163.00799561 68.75000000 0.574964 0.757543 -0.309103 0.000000
182.05099487 120.35199738 143.75000000 0.250444 -0.409409 0.877304 0.000000
96.73829651 155.00999451 150.00000000 -0.699564 -0.035331 0.713696 0.000000
81.50389862 174.43400574 146.25000000 -0.669260 -0.366695 0.646239 0.000000
87.97850037 244.51199341 62.50000000 0.832623 0.341549 -0.435986 0.000000
80.36139679 254.41400146 97.50000000 -0.691378 0.691378 -0.209744 0.000000
130.25399780 165.29299927 56.25000000 0.810780 0.502212 -0.300697 0.000000
124.92199707 107.78299713 102.50000000 -0.064364 -0.977602 -0.200378 0.000000
110.83000183 236.89500427 100.00000000 0.492365 0.509056 -0.706002 0.000000
128.73100281 174.43400574 46.25000000 0.910950 -0.370386 -0.181618 0.000000
148.15400696 231.56300354 125.00000000 0.925947 0.278212 -0.255384 0.000000
141.67999268 167.95899963 97.50000000 -0.631452 0.181944 -0.753767 0.000000
67.03130341 228.13499451 127.50000000 -0.862513 0.273256 0.425913 0.000000
144.34599304 240.70300293 137.50000000 0.807458 0.541907 0.233128 0.000000
124.92199707 121.87500000 136.25000000 -0.338143 -0.311092 0.888190 0.000000
172.14799500 175.19500732 146.25000000 0.944502 -0.313951 -0.096702 0.000000
185.09800720 148.53500366 156.25000000 0.123953 -0.535186 0.835590 0.000000
60.55670166 222.42199707 107.50000000 -0.962859 0.203606 -0.177334 0.000000
159.19900513 184.71699524 102.50000000 0.200232 0.970554 -0.133913 0.000000
150.05900574 194.23800659 98.75000000 0.996924 0.011679 -0.077503 0.000000
145.48800659 187.00199890 157.50000000 0.418315 0.364644 0.831894 0.000000
247.55900574 105.87899780 121.25000000 0.482421 -0.492368 -0.724461 0.000000
82.64649963 255.93800354 87.50000000 -0.729282 0.669135 -0.142849 0.000000
67.79299927 175.57600403 92.50000000 -0.922975 -0.362844 -0.128306 0.000000
69.69730377 201.85600281 137.50000000 -0.858408 0.042714 0.511187 0.000000
226.99200439 163.77000427 151.25000000 -0.000978 -0.000978 0.999999 0.000000
99.02349854 263.93600464 102.50000000 0.037294 0.991111 -0.127703 0.000000
139.01400757 207.94900513 87.50000000 0.784216 0.392916 -0.480231 0.000000
87.59770203 218.99400330 150.00000000 -0.296974 -0.065566 0.952632 0.000000
169.48199463 169.86300659 100.00000000 0.444907 -0.371553 -0.814866 0.000000
118.44699860 110.44899750 127.50000000 -0.344171 -0.670400 0.657351 0.000000
237.65600586 148.53500366 128.75000000 0.116914 0.643765 -0.756239 0.000000
120.35199738 151.58200073 158.75000000 -0.177824 -0.457051 0.871483 0.000000
236.13299561 127.20700073 136.25000000 0.285988 -0.330442 0.899455 0.000000
79.98049927 162.24600220 53.75000000 -0.773381 -0.617807 -0.142111 0.000000
165.29299927 179.76600647 101.25000000 0.375748 -0.420140 -0.826012 0.000000
154.62899780 117.30500031 51.25000000 -0.214225 -0.941209 -0.261216 0.000000
108.92600250 131.77699280 53.75000000 -0.525683 -0.787726 -0.321162 0.000000
137.10899353 216.32800293 156.25000000 0.000978 0.000978 0.999999 0.000000
66.65039825 199.57000732 60.00000000 -0.969271 -0.219769 -0.110520 0.000000
217.85200500 131.77699280 93.75000000 0.691378 0.691378 -0.209744 0.000000
175.95700073 104.35500336 133.75000000 -0.156280 -0.930764 0.330539 0.000000
145.10699463 109.68800354 85.00000000 -0.233701 -0.962220 -0.139698 0.000000
249.84399414 157.67599487 143.75000000 -0.351070 -0.170600 0.920677 0.000000
156.15199280 172.91000366 103.75000000 -0.577450 -0.284748 -0.765161 0.000000
207.94900513 102.06999969 101.25000000 -0.022082 -0.982089 -0.187120 0.000000
170.62500000 103.59400177 98.75000000 0.027510 -0.974823 -0.221279 0.000000
156.15199280 174.81500244 102.50000000 -0.458852 -0.568976 -0.682438 0.000000
152.34399414 115.01999664 58.75000000 -0.192047 -0.960236 -0.202643 0.000000
172.14799500 128.73100281 43.75000000 0.701446 0.531499 -0.474850 0.000000
175.19500732 185.09800720 148.75000000 0.841839 0.246878 -0.479956 0.000000
223.18400574 105.87899780 86.25000000 0.098870 -0.961735 -0.255521 0.000000
140.91799927 227.75399780 148.75000000 0.641231 0.384079 0.664309 0.000000
83.02739716 168.72099304 20.00000000 -0.758171 -0.648834 -0.064739 0.000000
105.87899780 258.22299194 131.25000000 -0.304046 0.778423 0.549194 0.000000
60.55670166 190.42999268 115.00000000 -0.962382 -0.082854 0.258760 0.000000
257.46099854 122.63700104 133.75000000 0.000978 0.000978 0.999999 0.000000
175.95700073 103.21299744 97.50000000 -0.207883 -0.414293 -0.886085 0.000000
103.59400177 132.91999817 60.00000000 -0.478147 -0.819004 -0.317187 0.000000
112.73400116 111.21099854 98.75000000 -0.417307 -0.907943 -0.038664 0.000000
142.06100464 195.00000000 70.00000000 0.826013 0.265006 -0.497468 0.000000
180.52699280 144.72700500 153.75000000 0.075464 -0.556728 0.827260 0.000000
81.12310028 146.25000000 87.50000000 -0.879853 -0.475200 -0.006655 0.000000
119.58999634 162.24600220 28.75000000 0.737068 0.089032 -0.669929 0.000000
106.64099884 169.86300659 18.75000000 0.765161 0.574268 -0.291111 0.000000
172.14799500 135.20500183 62.50000000 0.152390 0.647281 -0.746863 0.000000
143.20300293 217.85200500 106.25000000 0.707560 0.484471 -0.514438 0.000000
120.35199738 155.39100647 23.75000000 0.797605 0.233861 -0.556000 0.000000
60.55670166 219.37500000 105.00000000 -0.953858 0.189695 -0.232747 0.000000
187.38299561 129.49200439 146.25000000 0.242098 -0.356545 0.902366 0.000000
58.27149963 201.85600281 110.00000000 -0.967251 -0.161856 -0.195522 0.000000
87.59770203 235.37100220 56.25000000 0.902327 0.272317 -0.334141 0.000000
155.39100647 165.67399597 90.00000000 0.690116 0.654560 0.308694 0.000000
112.73400116 166.05499268 161.25000000 -0.320495 -0.288002 0.902407 0.000000
152.34399414 190.42999268 153.75000000 0.811300 -0.063938 -0.581124 0.000000
89.88279724 135.58599854 126.25000000 -0.875627 -0.324363 0.357865 0.000000
142.82200623 173.67199707 95.00000000 0.975096 -0.059799 0.213569 0.000000
153.10600281 201.09399414 136.25000000 0.967567 -0.241579 0.073851 0.000000
148.91600037 187.38299561 87.50000000 0.664201 -0.502775 -0.553221 0.000000
140.15600586 186.62100220 68.75000000 0.757393 -0.468237 -0.455093 0.000000
230.80099487 159.19900513 136.25000000 0.278461 0.409322 -0.868858 0.000000
149.29699707 185.09800720 138.75000000 0.671878 0.490924 0.554593 0.000000
121.87500000 236.13299561 108.75000000 0.494559 0.504550 -0.707702 0.000000
67.03130341 213.66200256 60.00000000 -0.939530 0.189010 -0.285584 0.000000
202.61700439 109.68800354 138.75000000 0.000978 0.000978 0.999999 0.000000
233.08599854 156.91400146 136.25000000 0.314200 0.484720 -0.816287 0.000000
98.26170349 127.96900177 128.75000000 -0.481264 -0.481264 0.732646 0.000000
107.40200043 161.48399353 156.25000000 -0.285581 -0.152942 0.946072 0.000000
153.86700439 152.34399414 161.25000000 0.043547 -0.813341 0.580155 0.000000
148.53500366 102.83200073 113.75000000 -0.112713 -0.977262 -0.179598 0.000000
154.62899780 113.11499786 140.00000000 -0.211250 -0.509129 0.834363 0.000000
190.42999268 137.10899353 151.25000000 -0.033944 -0.476577 0.878477 0.000000
138.63299561 172.91000366 78.75000000 -0.108856 0.989066 -0.099492 0.000000
85.31250000 160.72300720 141.25000000 -0.640240 -0.475559 0.603271 0.000000
135.20500183 124.92199707 40.00000000 -0.341985 -0.913403 -0.220775 0.000000
158.43800354 143.20300293 156.25000000 0.020263 -0.490353 0.871288 0.000000
209.47300720 144.34599304 105.00000000 0.523693 0.694354 -0.493577 0.000000
109.68800354 205.66400146 158.75000000 -0.238813 0.020401 0.970851 0.000000
70.45899963 189.66799927 42.50000000 -0.978780 -0.196238 0.058992 0.000000
70.07810211 241.08399963 110.00000000 -0.446689 -0.894688 -0.001310 0.000000
89.88279724 211.37699890 32.50000000 0.635040 0.425027 -0.645040 0.000000
164.91200256 163.77000427 97.50000000 -0.100627 0.590636 -0.800640 0.000000
62.08010101 217.85200500 125.00000000 -0.879985 0.177168 0.440725 0.000000
86.83599854 255.17599487 76.25000000 -0.112738 0.906082 -0.407806 0.000000
65.88870239 195.00000000 82.50000000 -0.956644 0.001219 -0.291258 0.000000
169.86300659 140.15600586 48.75000000 0.763353 0.364659 -0.533213 0.000000
198.80900574 129.11099243 65.00000000 0.391975 0.807948 -0.439972 0.000000
243.75000000 130.25399780 136.25000000 0.055104 -0.104584 0.992988 0.000000
103.97499847 114.25800323 117.50000000 -0.000978 -0.000978 0.999999 0.000000
240.70300293 157.67599487 151.25000000 0.227195 -0.452885 0.862136 0.000000
116.54299927 164.53100586 161.25000000 0.118964 0.407276 0.905524 0.000000
102.45099640 117.30500031 95.00000000 -0.500712 -0.750247 -0.431761 0.000000
85.31250000 217.85200500 33.75000000 0.828209 0.413313 -0.378474 0.000000
244.51199341 123.39800262 118.75000000 0.523283 0.212059 -0.825352 0.000000
114.25800323 155.39100647 158.75000000 -0.287130 -0.269816 0.919106 0.000000
176.71899414 175.95700073 111.25000000 0.691378 0.691378 -0.209744 0.000000
86.83599854 208.71099854 151.25000000 -0.509158 0.407654 0.758008 0.000000
97.88089752 246.79699707 140.00000000 -0.467409 0.641640 0.608134 0.000000
140.15600586 239.17999268 143.75000000 0.534678 0.645999 0.544798 0.000000
119.58999634 188.14500427 163.75000000 0.089016 0.138866 0.986302 0.000000
208.71099854 100.16600037 122.50000000 0.013323 -0.999192 0.037918 0.000000
87.59770203 250.60600281 126.25000000 -0.391276 0.825323 0.407117 0.000000
73.12500000 160.34199524 92.50000000 -0.593771 -0.593771 -0.543021 0.000000
108.16400146 175.19500732 18.75000000 0.729986 -0.052856 -0.681415 0.000000
164.53100586 180.90800476 115.00000000 0.194710 0.971003 0.138715 0.000000
166.05499268 104.73600006 90.00000000 0.047195 -0.988800 -0.141586 0.000000
198.80900574 134.82400513 73.75000000 0.494727 0.736300 -0.461635 0.000000
197.28500366 164.53100586 153.75000000 -0.171772 0.370516 0.912804 0.000000
84.55079651 252.89100647 121.25000000 -0.626077 0.710201 0.321936 0.000000
