142.64300537 240.97700500 85.00000000 0.596244 0.452611 -0.663050 0.000000
181.12100220 190.44900513 173.75000000 0.646739 0.439515 0.623342 0.000000
178.01199341 184.23100281 111.25000000 -0.475794 -0.366858 -0.799397 0.000000
165.57400513 154.30299377 107.50000000 -0.031794 0.980892 0.191939 0.000000
246.41799927 152.74800110 102.50000000 -0.296327 -0.732008 0.613477 0.000000
168.68400574 218.43400574 171.25000000 0.405070 0.246630 0.880393 0.000000
181.89799500 136.03500366 156.25000000 0.069045 -0.849674 0.522768 0.000000
152.35899353 177.23399353 131.25000000 0.111776 -0.050807 -0.992434 0.000000
301.22100830 160.13299561 105.00000000 -0.998489 0.019865 0.051231 0.000000
146.14100647 161.68800354 88.75000000 0.001373 0.627537 -0.778585 0.000000
280.62100220 199.00000000 151.25000000 -0.121978 0.266254 0.956154 0.000000
240.19900513 126.31800079 145.00000000 0.310679 -0.415784 0.854753 0.000000
176.45700073 131.37100220 148.75000000 -0.368175 -0.795837 0.480718 0.000000
135.25799561 210.66000366 68.75000000 0.133315 0.042159 -0.990177 0.000000
132.14799500 141.08799744 137.50000000 -0.326770 -0.916970 0.228883 0.000000
267.40600586 157.02299500 113.75000000 -0.112584 -0.577543 0.808560 0.000000
143.03100586 229.31599426 81.25000000 0.502438 0.388617 -0.772356 0.000000
116.60199738 168.68400574 36.25000000 0.852630 -0.040075 -0.520975 0.000000
144.58599854 145.75199890 72.50000000 0.479294 0.627286 -0.613832 0.000000
212.21499634 125.54100037 150.00000000 -0.035321 -0.724794 0.688060 0.000000
98.72270203 169.46099854 36.25000000 -0.869292 -0.454638 -0.193999 0.000000
118.15599823 234.75799561 176.25000000 0.000978 0.000978 0.999999 0.000000
88.61720276 238.25599670 95.00000000 -0.855976 0.431830 -0.284301 0.000000
124.37500000 274.40200806 158.75000000 0.152856 0.658339 0.737037 0.000000
149.25000000 272.07000732 153.75000000 0.322453 0.656249 0.682174 0.000000
182.28700256 207.55099487 135.00000000 0.929586 -0.206731 0.305174 0.000000
153.91400146 255.74600220 96.25000000 0.610191 -0.029323 -0.791712 0.000000
178.78900146 217.65600586 166.25000000 0.479871 0.493155 0.725618 0.000000
241.75399780 128.26199341 146.25000000 0.221749 -0.427127 0.876578 0.000000
88.22850037 230.87100220 85.00000000 -0.861678 0.431602 -0.266891 0.000000
137.58999634 168.68400574 123.75000000 0.273691 0.314671 -0.908887 0.000000
261.96499634 193.94700623 150.00000000 0.275753 -0.960808 0.028441 0.000000
288.78298950 208.32800293 147.50000000 0.477986 0.524619 0.704488 0.000000
120.48799896 251.85899353 171.25000000 -0.123294 0.285034 0.950555 0.000000
138.36700439 165.57400513 176.25000000 -0.014694 -0.474208 0.880290 0.000000
152.35899353 182.67599487 123.75000000 0.530256 -0.530256 -0.661557 0.000000
252.63699341 132.14799500 143.75000000 0.271860 -0.330641 0.903752 0.000000
189.67199707 158.57800293 131.25000000 0.336435 -0.625737 -0.703751 0.000000
165.57400513 195.89100647 178.75000000 0.000978 0.000978 0.999999 0.000000
263.51998901 184.23100281 136.25000000 -0.101928 -0.050404 0.993514 0.000000
111.93800354 146.52900696 110.00000000 -0.706734 -0.706734 -0.032445 0.000000
86.28520203 248.36099243 152.50000000 -0.837839 0.168163 0.519371 0.000000
117.76799774 172.57000732 37.50000000 0.500118 0.126117 -0.856724 0.000000
130.59399414 226.59599304 72.50000000 0.737583 0.547027 -0.395896 0.000000
85.89649963 189.67199707 105.00000000 -0.894688 -0.446689 -0.001310 0.000000
150.80499268 216.10200500 78.75000000 0.465237 0.362917 -0.807370 0.000000
295.77899170 178.78900146 115.00000000 0.807917 -0.058215 0.586414 0.000000
132.14799500 240.97700500 78.75000000 0.589196 0.164251 -0.791119 0.000000
200.55499268 146.91799927 131.25000000 0.083158 0.704658 -0.704658 0.000000
152.35899353 140.31100464 152.50000000 -0.152078 -0.775445 0.612827 0.000000
132.14799500 225.42999268 73.75000000 0.473380 0.238973 -0.847822 0.000000
213.77000427 117.37899780 133.75000000 -0.195353 -0.963652 0.182242 0.000000
112.71499634 186.56300354 176.25000000 -0.454020 -0.025447 0.890628 0.000000
167.12899780 226.98399353 168.75000000 0.581314 0.291453 0.759690 0.000000
156.24600220 272.07000732 123.75000000 0.583894 0.764284 -0.273750 0.000000
105.33000183 153.13699341 70.00000000 -0.708486 -0.705724 0.001381 0.000000
119.71099854 141.47700500 58.75000000 -0.693064 -0.720842 0.006945 0.000000
171.01600647 244.08599854 156.25000000 0.702101 0.423252 0.572636 0.000000
139.14500427 233.98100281 81.25000000 0.539071 0.339534 -0.770791 0.000000
158.57800293 262.74200439 156.25000000 0.421454 0.556981 0.715646 0.000000
222.32000732 127.48400116 73.75000000 -0.000978 -0.000978 0.999999 0.000000
146.14100647 147.30700684 75.00000000 0.432801 0.704753 -0.562144 0.000000
167.90600586 138.36700439 156.25000000 -0.238917 -0.769844 0.591827 0.000000
94.83599854 176.06799316 37.50000000 -0.583388 -0.194463 -0.788570 0.000000
159.35600281 216.10200500 88.75000000 0.480003 0.233144 0.845719 0.000000
246.41799927 127.48400116 143.75000000 0.438156 -0.601424 0.668063 0.000000
176.06799316 205.21899414 170.00000000 0.639712 -0.079783 0.764463 0.000000
121.26599884 224.65199280 63.75000000 0.446987 0.058778 -0.892607 0.000000
205.99600220 116.98999786 100.00000000 0.069751 -0.991379 -0.110916 0.000000
85.50779724 193.16999817 82.50000000 -0.964557 -0.251569 -0.079642 0.000000
183.84199524 212.21499634 145.00000000 0.989527 -0.113056 0.089745 0.000000
132.14799500 144.58599854 148.75000000 -0.265376 -0.851352 0.452521 0.000000
122.04299927 139.92199707 121.25000000 -0.313951 -0.944502 0.096702 0.000000
192.00399780 182.67599487 111.25000000 0.001120 0.160219 -0.987081 0.000000
205.21899414 168.68400574 166.25000000 0.517177 0.389922 0.761898 0.000000
151.58200073 221.54299927 178.75000000 0.243110 0.336278 0.909843 0.000000
130.59399414 182.67599487 53.75000000 0.530256 0.530256 -0.661557 0.000000
88.61720276 182.67599487 103.75000000 -0.000978 -0.000978 -0.999999 0.000000
247.58399963 179.56599426 130.00000000 -0.207689 -0.915263 0.345193 0.000000
211.43800354 148.08399963 125.00000000 -0.827180 -0.455343 -0.329296 0.000000
102.22100067 263.51998901 107.50000000 -0.614387 0.647869 -0.450327 0.000000
133.70300293 182.67599487 181.25000000 0.000978 0.000978 0.999999 0.000000
112.71499634 219.98800659 53.75000000 0.627308 0.233090 -0.743071 0.000000
151.58200073 179.56599426 181.25000000 0.341736 -0.574959 0.743397 0.000000
142.25399780 246.41799927 171.25000000 0.311914 0.508246 0.802743 0.000000
216.87899780 187.72900391 142.50000000 0.000978 0.000978 0.999999 0.000000
182.28700256 202.88699341 120.00000000 0.932572 0.035020 -0.359280 0.000000
183.84199524 157.02299500 120.00000000 0.017165 0.901822 -0.431766 0.000000
237.08999634 167.90600586 153.75000000 0.106238 -0.281989 0.953517 0.000000
129.03900146 171.79299927 176.25000000 -0.294620 -0.398424 0.868595 0.000000
249.52699280 150.41600037 100.00000000 -0.239952 -0.806549 0.540279 0.000000
90.17189789 227.37300110 162.50000000 -0.830209 -0.029009 0.556696 0.000000
140.69900513 275.95700073 151.25000000 0.264728 0.746627 0.610301 0.000000
134.48100281 182.67599487 181.25000000 0.000978 0.000978 0.999999 0.000000
196.66799927 165.18600464 112.50000000 -0.415826 -0.707401 -0.571553 0.000000
286.83999634 158.57800293 136.25000000 0.484227 -0.444832 0.753424 0.000000
162.46499634 223.48599243 95.00000000 0.907492 -0.227962 0.352833 0.000000
178.01199341 126.70700073 68.75000000 0.520859 0.554571 -0.648966 0.000000
80.45510101 224.65199280 147.50000000 -0.000978 -0.000978 0.999999 0.000000
258.85598755 178.01199341 128.75000000 -0.098497 -0.739460 0.665955 0.000000
92.89260101 181.89799500 37.50000000 -0.960579 -0.137226 -0.241778 0.000000
105.71900177 180.34399414 168.75000000 -0.559893 -0.373806 0.739451 0.000000
278.28900146 153.13699341 141.25000000 0.627537 -0.001373 0.778585 0.000000
185.78500366 196.66799927 131.25000000 0.900215 0.365666 0.236435 0.000000
124.37500000 245.64100647 71.25000000 0.708633 0.110955 -0.696798 0.000000
253.41400146 193.94700623 152.50000000 0.154950 0.964854 0.212242 0.000000
199.77699280 147.69500732 163.75000000 0.553364 -0.370542 0.745981 0.000000
301.22100830 157.80099487 102.50000000 -0.824655 0.146572 0.546315 0.000000
181.89799500 132.92599487 78.75000000 0.734167 0.367901 -0.570655 0.000000
216.49000549 185.00799561 152.50000000 0.861678 0.431602 0.266891 0.000000
154.69099426 188.11700439 181.25000000 0.049445 -0.028405 0.998373 0.000000
160.91000366 153.91400146 168.75000000 0.038963 -0.442031 0.896153 0.000000
151.58200073 241.75399780 91.25000000 0.372047 -0.001270 -0.928213 0.000000
263.90798950 122.81999969 110.00000000 0.283579 -0.955956 0.075707 0.000000
210.66000366 185.39700317 120.00000000 0.293841 0.869342 -0.397370 0.000000
301.22100830 197.44500732 130.00000000 0.945803 0.250480 0.206680 0.000000
188.89500427 174.90199280 173.75000000 0.454115 -0.361698 0.814220 0.000000
151.19299316 218.43400574 80.00000000 0.464287 0.524195 -0.713903 0.000000
236.31300354 154.69099426 151.25000000 0.271427 -0.088761 0.958357 0.000000
227.76199341 173.34800720 156.25000000 0.546431 -0.307467 0.779023 0.000000
261.96499634 162.46499634 148.75000000 0.152942 -0.285581 0.946072 0.000000
228.53900146 139.14500427 83.75000000 0.135345 -0.890430 0.434530 0.000000
139.14500427 252.63699341 86.25000000 0.648872 0.113811 -0.752337 0.000000
146.14100647 165.57400513 121.25000000 0.479953 0.849381 -0.219537 0.000000
164.79699707 218.43400574 98.75000000 0.906778 0.001297 -0.421606 0.000000
151.58200073 165.96299744 100.00000000 0.690783 -0.690783 -0.213628 0.000000
95.61329651 181.12100220 158.75000000 -0.768544 -0.294370 0.568054 0.000000
134.48100281 230.87100220 178.75000000 -0.166977 0.192865 0.966914 0.000000
205.21899414 138.75599670 112.50000000 0.095156 0.952868 0.288076 0.000000
289.94900513 138.75599670 105.00000000 0.712432 -0.694805 -0.098418 0.000000
146.91799927 177.23399353 131.25000000 -0.004159 -0.702929 -0.711248 0.000000
92.11530304 187.33999634 37.50000000 -0.960579 -0.137226 -0.241778 0.000000
203.66400146 155.46899414 133.75000000 -0.296859 -0.248100 -0.922128 0.000000
93.66999817 247.19500732 95.00000000 -0.309512 0.931337 -0.191869 0.000000
149.25000000 229.31599426 83.75000000 0.401880 0.613570 -0.679723 0.000000
206.77299500 150.41600037 122.50000000 -0.449492 -0.636641 0.626615 0.000000
290.72698975 200.55499268 128.75000000 0.000978 0.000978 0.999999 0.000000
153.91400146 183.45300293 106.25000000 0.681618 0.578292 0.448302 0.000000
185.78500366 194.33599854 161.25000000 0.495211 0.793299 0.354180 0.000000
89.39459991 217.65600586 58.75000000 -0.911817 0.350034 -0.214630 0.000000
244.08599854 183.45300293 136.25000000 -0.244532 -0.855103 0.457169 0.000000
141.47700500 279.06600952 146.25000000 0.228817 0.850106 0.474302 0.000000
204.44099426 176.45700073 166.25000000 0.293795 0.106715 0.949893 0.000000
230.87100220 143.03100586 88.75000000 0.091213 -0.800643 0.592158 0.000000
80.45510101 208.32800293 142.50000000 -0.972215 -0.062843 0.225495 0.000000
201.33200073 181.89799500 108.75000000 0.256756 0.521292 -0.813838 0.000000
107.27300262 212.99200439 176.25000000 -0.284913 0.041419 0.957658 0.000000
122.04299927 284.11898804 142.50000000 -0.179808 0.901917 0.392701 0.000000
150.80499268 217.65600586 78.75000000 0.466423 0.506260 -0.725362 0.000000
95.22460175 227.76199341 167.50000000 -0.690305 -0.004150 0.723506 0.000000
136.81300354 247.19500732 83.75000000 0.640367 0.088980 -0.762897 0.000000
275.95700073 174.12500000 128.75000000 -0.098475 -0.742234 0.662866 0.000000
112.32599640 189.67199707 37.50000000 0.804823 0.376011 -0.459213 0.000000
142.25399780 181.89799500 73.75000000 0.846613 -0.424083 -0.321558 0.000000
140.69900513 178.01199341 181.25000000 0.144773 -0.196021 0.969854 0.000000
206.77299500 194.72500610 155.00000000 0.334360 0.847563 0.412118 0.000000
90.94920349 181.12100220 48.75000000 -0.955747 -0.262336 -0.133145 0.000000
92.11530304 215.32400513 165.00000000 -0.801353 0.034963 0.597169 0.000000
297.72299194 151.58200073 101.25000000 0.292619 -0.144287 0.945281 0.000000
85.11920166 198.22300720 75.00000000 -0.914230 -0.367109 -0.171507 0.000000
92.11530304 173.34800720 70.00000000 -0.849497 -0.526274 -0.037295 0.000000
111.16000366 191.22700500 36.25000000 0.773215 0.421606 -0.473696 0.000000
111.16000366 202.10899353 176.25000000 -0.559122 -0.258418 0.787783 0.000000
227.76199341 126.70700073 68.75000000 0.482531 -0.103908 0.869694 0.000000
303.16400146 195.11300659 128.75000000 0.961873 0.263022 0.074968 0.000000
87.06250000 180.73199463 132.50000000 -0.938023 -0.335672 -0.086240 0.000000
118.93399811 279.84399414 121.25000000 -0.276381 0.844583 -0.458576 0.000000
144.58599854 246.41799927 88.75000000 0.580395 0.135079 -0.803053 0.000000
239.42199707 188.11700439 141.25000000 0.005389 -0.994730 0.102383 0.000000
154.30299377 266.62899780 107.50000000 0.585284 0.681997 -0.438546 0.000000
90.17189789 178.01199341 103.75000000 -0.932837 -0.350982 -0.081406 0.000000
173.34800720 178.78900146 116.25000000 -0.297952 -0.274697 -0.914203 0.000000
265.85198975 130.59399414 131.25000000 0.512360 -0.705955 0.488995 0.000000
161.68800354 160.13299561 113.75000000 -0.084124 0.842661 -0.531832 0.000000
176.06799316 233.20300293 130.00000000 0.820487 0.372949 -0.433255 0.000000
101.44300079 160.13299561 55.00000000 -0.747203 -0.647576 -0.149441 0.000000
88.61720276 233.20300293 161.25000000 -0.773712 0.001374 0.633537 0.000000
149.25000000 188.11700439 118.75000000 0.313836 0.272964 -0.909394 0.000000
212.21499634 173.34800720 163.75000000 0.000978 0.000978 0.999999 0.000000
205.21899414 151.19299316 122.50000000 -0.449492 -0.636641 0.626615 0.000000
250.30499268 122.81999969 133.75000000 0.000978 0.000978 0.999999 0.000000
155.46899414 157.02299500 173.75000000 0.003934 -0.444585 0.895728 0.000000
139.92199707 143.80900574 66.25000000 0.489305 0.703063 -0.516025 0.000000
128.26199341 198.22300720 181.25000000 0.000978 0.000978 0.999999 0.000000
237.86700439 165.18600464 152.50000000 0.098503 -0.354881 0.929708 0.000000
301.60900879 195.89100647 121.25000000 0.751308 -0.429084 -0.501420 0.000000
184.23100281 212.60400391 132.50000000 0.970005 -0.207767 0.126190 0.000000
90.94920349 195.89100647 36.25000000 -0.385390 0.385390 -0.838420 0.000000
100.66600037 265.07400513 112.50000000 -0.569787 0.696037 -0.436892 0.000000
185.00799561 194.33599854 163.75000000 0.633174 0.731071 0.254217 0.000000
202.88699341 190.44900513 161.25000000 0.258038 0.552046 0.792882 0.000000
233.98100281 142.25399780 153.75000000 0.516774 -0.145757 0.843623 0.000000
166.74000549 204.44099426 177.50000000 0.356941 0.215321 0.908972 0.000000
146.91799927 169.07200623 177.50000000 0.083887 -0.280054 0.956312 0.000000
165.96299744 243.30900574 160.00000000 0.606508 0.250480 0.754591 0.000000
272.07000732 132.92599487 128.75000000 0.524625 -0.711158 0.467999 0.000000
206.77299500 190.06100464 125.00000000 0.362541 0.697195 -0.618453 0.000000
101.83200073 246.02900696 167.50000000 -0.419441 0.311098 0.852811 0.000000
141.47700500 230.87100220 81.25000000 0.406648 0.413027 -0.814891 0.000000
145.36300659 255.74600220 91.25000000 0.588169 0.070122 -0.805692 0.000000
87.83989716 237.08999634 96.25000000 -0.855976 0.431830 -0.284301 0.000000
115.82399750 179.17799377 175.00000000 -0.409850 -0.011710 0.912078 0.000000
155.46899414 244.86300659 166.25000000 0.608369 0.390741 0.690803 0.000000
192.00399780 156.24600220 166.25000000 0.000978 0.000978 0.999999 0.000000
111.93800354 251.08200073 171.25000000 -0.192203 0.312856 0.930150 0.000000
107.66200256 198.22300720 37.50000000 0.911615 0.160206 -0.378540 0.000000
160.13299561 137.58999634 66.25000000 0.543353 0.513073 -0.664472 0.000000
91.33789825 199.00000000 37.50000000 -0.941626 0.208789 -0.264098 0.000000
282.56500244 132.92599487 105.00000000 0.507146 -0.847215 0.158206 0.000000
261.96499634 162.46499634 118.75000000 -0.101733 -0.688540 0.718027 0.000000
224.65199280 167.90600586 113.75000000 -0.213585 -0.163792 0.963096 0.000000
144.58599854 206.38499451 107.50000000 -0.135051 0.495186 0.858226 0.000000
258.07800293 122.04299927 116.25000000 0.218212 -0.963009 0.158106 0.000000
156.24600220 265.07400513 156.25000000 0.366388 0.558538 0.744174 0.000000
181.50999451 217.65600586 165.00000000 0.682323 0.262432 0.682323 0.000000
143.03100586 168.68400574 116.25000000 0.196807 0.133321 0.971336 0.000000
181.12100220 126.70700073 71.25000000 0.530015 0.526650 -0.664623 0.000000
277.51199341 165.96299744 122.50000000 0.059527 -0.483135 0.873520 0.000000
288.39498901 142.25399780 98.75000000 0.999852 -0.016913 -0.002985 0.000000
85.50779724 212.21499634 78.75000000 -0.993622 0.091148 -0.066391 0.000000
89.39459991 240.19900513 96.25000000 -0.855976 0.431830 -0.284301 0.000000
133.70300293 208.32800293 181.25000000 0.000978 0.000978 0.999999 0.000000
215.32400513 156.24600220 101.25000000 0.669340 0.478100 -0.568687 0.000000
143.80900574 157.02299500 171.25000000 0.083147 -0.716231 0.692892 0.000000
151.58200073 143.41999817 157.50000000 -0.040566 -0.821112 0.569323 0.000000
149.25000000 164.79699707 91.25000000 0.783230 -0.023734 -0.621279 0.000000
140.69900513 165.57400513 123.75000000 -0.278588 0.600158 -0.749799 0.000000
301.99798584 195.11300659 130.00000000 0.962691 0.242292 0.120498 0.000000
196.27900696 146.91799927 130.00000000 0.407296 0.754071 -0.515254 0.000000
119.71099854 190.44900513 48.75000000 0.954848 -0.001223 0.297091 0.000000
252.63699341 123.59799957 133.75000000 0.000978 0.000978 0.999999 0.000000
102.99800110 157.80099487 57.50000000 -0.742891 -0.660184 -0.110769 0.000000
163.24200439 258.85598755 111.25000000 0.860973 0.431249 -0.269721 0.000000
215.32400513 130.20500183 75.00000000 0.334738 -0.239099 0.911473 0.000000
212.99200439 188.11700439 128.75000000 0.431602 0.861678 -0.266891 0.000000
202.10899353 142.25399780 161.25000000 0.363292 -0.382002 0.849761 0.000000
146.91799927 189.67199707 103.75000000 -0.706549 0.638952 0.304186 0.000000
99.11139679 164.02000427 107.50000000 -0.765970 -0.641376 -0.043891 0.000000
222.32000732 147.69500732 96.25000000 -0.237895 -0.859151 0.453062 0.000000
257.30099487 121.26599884 111.25000000 0.144499 -0.985223 0.091954 0.000000
151.58200073 140.31100464 152.50000000 -0.152078 -0.775445 0.612827 0.000000
182.28700256 204.44099426 127.50000000 0.931337 0.309512 -0.191869 0.000000
182.67599487 148.47300720 163.75000000 -0.042997 -0.360916 0.931607 0.000000
141.47700500 244.08599854 86.25000000 0.631320 0.286092 -0.720824 0.000000
142.25399780 138.36700439 143.75000000 -0.302627 -0.883793 0.356829 0.000000
165.57400513 199.00000000 108.75000000 0.493038 0.160421 -0.855090 0.000000
285.67401123 172.57000732 125.00000000 0.826012 0.375748 0.420140 0.000000
155.08000183 133.70300293 142.50000000 -0.297332 -0.870650 0.391869 0.000000
195.11300659 123.98600006 142.50000000 -0.102031 -0.959610 0.262181 0.000000
301.60900879 181.12100220 113.75000000 0.290332 -0.180254 0.939796 0.000000
170.23800659 207.55099487 108.75000000 0.523845 -0.239516 -0.817446 0.000000
160.91000366 137.58999634 68.75000000 0.505577 0.505577 -0.699131 0.000000
118.15599823 219.21099854 61.25000000 0.712849 0.248154 -0.655947 0.000000
261.18798828 135.64700317 77.50000000 0.001223 -0.954848 0.297091 0.000000
192.78100586 137.58999634 86.25000000 0.393922 0.239326 -0.887439 0.000000
138.75599670 137.58999634 55.00000000 0.327344 0.814406 -0.479155 0.000000
140.31100464 173.34800720 125.00000000 0.644111 0.082877 -0.760429 0.000000
154.30299377 180.34399414 97.50000000 0.834678 0.015027 -0.550533 0.000000
200.55499268 195.11300659 133.75000000 -0.313909 0.897096 -0.310934 0.000000
260.41000366 182.67599487 136.25000000 -0.171643 -0.330726 0.927987 0.000000
106.49600220 153.52499390 60.00000000 -0.785075 -0.615717 -0.067456 0.000000
154.69099426 233.98100281 91.25000000 0.582983 0.270163 -0.766252 0.000000
183.45300293 223.48599243 145.00000000 0.821658 0.565335 -0.072625 0.000000
150.02699280 267.01800537 157.50000000 0.251069 0.715310 0.652148 0.000000
90.56060028 185.78500366 45.00000000 -0.969606 -0.149860 -0.193409 0.000000
190.44900513 149.25000000 91.25000000 0.647355 0.647355 -0.402321 0.000000
272.07000732 153.13699341 143.75000000 0.091814 -0.481672 0.871529 0.000000
183.45300293 199.77699280 153.75000000 0.677368 0.674150 0.294438 0.000000
137.97900391 141.47700500 60.00000000 0.451856 0.733232 -0.508131 0.000000
264.68600464 170.23800659 150.00000000 -0.001257 -0.350710 0.936483 0.000000
205.99600220 184.23100281 166.25000000 0.547173 -0.836610 -0.026187 0.000000
225.42999268 157.80099487 153.75000000 0.070911 -0.295248 0.952786 0.000000
119.71099854 220.76600647 63.75000000 0.564786 0.193336 -0.802270 0.000000
294.22500610 179.56599426 117.50000000 0.871485 -0.115912 0.476527 0.000000
104.55300140 209.10600281 37.50000000 0.790643 0.271931 -0.548577 0.000000
113.49199677 208.32800293 178.75000000 -0.309073 -0.041973 0.950112 0.000000
136.03500366 162.46499634 116.25000000 -0.626479 0.340088 0.701330 0.000000
115.82399750 245.64100647 173.75000000 -0.120678 0.177907 0.976620 0.000000
293.44699097 180.34399414 120.00000000 0.869289 -0.239544 0.432384 0.000000
170.23800659 158.57800293 118.75000000 0.088506 0.036058 -0.995423 0.000000
118.93399811 212.21499634 178.75000000 0.000978 0.000978 0.999999 0.000000
268.96099854 147.69500732 108.75000000 0.081330 -0.353319 0.931961 0.000000
144.58599854 174.12500000 178.75000000 -0.006268 -0.337203 0.941411 0.000000
236.31300354 163.63099670 110.00000000 -0.150997 -0.572592 0.805815 0.000000
280.62100220 157.02299500 113.75000000 -0.141144 -0.577946 0.803776 0.000000
202.10899353 158.57800293 163.75000000 0.000978 0.000978 0.999999 0.000000
225.42999268 167.90600586 158.75000000 0.694569 -0.001381 0.719425 0.000000
104.94100189 219.21099854 173.75000000 -0.444275 0.033556 0.895262 0.000000
125.93000031 239.42199707 176.25000000 0.115063 0.334360 0.935395 0.000000
195.11300659 136.81300354 86.25000000 0.311887 0.207454 -0.927194 0.000000
89.39459991 226.20700073 73.75000000 -0.915502 0.349919 -0.198525 0.000000
109.60500336 217.65600586 176.25000000 -0.375689 0.175702 0.909938 0.000000
160.13299561 123.20899963 85.00000000 -0.242649 -0.969377 -0.037800 0.000000
286.06298828 150.02699280 108.75000000 0.079298 -0.598341 0.797308 0.000000
167.51800537 253.41400146 155.00000000 0.694030 0.258871 0.671795 0.000000
158.96699524 197.44500732 102.50000000 0.460257 -0.165108 -0.872297 0.000000
183.84199524 214.54699707 162.50000000 0.294344 -0.462541 0.836312 0.000000
202.10899353 171.79299927 166.25000000 0.309837 0.122057 0.942923 0.000000
196.66799927 173.34800720 168.75000000 0.761929 -0.344567 0.548395 0.000000
151.58200073 143.80900574 158.75000000 -0.040566 -0.821112 0.569323 0.000000
260.79901123 147.69500732 102.50000000 -0.356963 -0.770459 0.528176 0.000000
179.56599426 126.31800079 70.00000000 0.530015 0.526650 -0.664623 0.000000
169.46099854 229.70500183 165.00000000 0.707533 0.369362 0.602470 0.000000
160.13299561 258.07800293 106.25000000 0.709463 0.362105 -0.604600 0.000000
199.00000000 125.93000031 148.75000000 -0.170014 -0.807941 0.564205 0.000000
170.23800659 201.33200073 173.75000000 -0.007061 -0.027234 0.999604 0.000000
125.93000031 148.47300720 151.25000000 -0.320151 -0.821670 0.471553 0.000000
179.56599426 117.76799774 77.50000000 -0.159150 -0.638117 -0.753311 0.000000
192.78100586 152.35899353 111.25000000 0.554788 0.268750 0.787390 0.000000
178.01199341 155.08000183 115.00000000 0.001223 0.954848 -0.297091 0.000000
144.58599854 250.30499268 168.75000000 0.262413 0.363227 0.893983 0.000000
107.27300262 153.52499390 142.50000000 -0.708486 -0.705724 -0.001381 0.000000
114.65799713 277.51199341 120.00000000 -0.292209 0.848797 -0.440633 0.000000
134.48100281 233.20300293 76.25000000 0.545331 0.192917 -0.815719 0.000000
97.94529724 226.20700073 48.75000000 -0.000978 -0.000978 -0.999999 0.000000
89.00589752 181.12100220 82.50000000 -0.950901 -0.239416 0.196132 0.000000
106.10700226 254.19099426 82.50000000 -0.820182 0.469352 -0.327124 0.000000
219.21099854 116.21299744 122.50000000 0.054882 -0.986706 0.152969 0.000000
94.05860138 264.68600464 132.50000000 -0.705724 0.708486 -0.001381 0.000000
147.69500732 175.67999268 128.75000000 0.393950 -0.038209 -0.918338 0.000000
117.76799774 219.98800659 60.00000000 0.710156 0.254644 -0.656380 0.000000
149.25000000 208.32800293 181.25000000 0.261117 0.272532 0.926037 0.000000
226.98399353 144.58599854 91.25000000 0.038300 -0.722019 0.690812 0.000000
101.83200073 214.54699707 36.25000000 0.166651 0.386003 -0.907320 0.000000
213.77000427 119.71099854 141.25000000 -0.094618 -0.939520 0.329165 0.000000
109.60500336 199.00000000 41.25000000 0.792734 0.289562 -0.536401 0.000000
136.81300354 133.70300293 123.75000000 -0.404302 -0.881706 0.243178 0.000000
261.96499634 188.11700439 153.75000000 0.364074 0.014052 0.931264 0.000000
131.75999451 164.02000427 67.50000000 0.888315 -0.210662 -0.408065 0.000000
107.66200256 150.80499268 75.00000000 -0.707106 -0.707106 0.001384 0.000000
207.55099487 136.03500366 156.25000000 -0.039802 -0.063467 0.997190 0.000000
104.16400146 250.30499268 166.25000000 -0.506519 0.244792 0.826750 0.000000
85.89649963 242.53100586 110.00000000 -0.001278 0.924094 0.382163 0.000000
105.71900177 164.40800476 157.50000000 -0.522954 -0.546495 0.654112 0.000000
217.65600586 117.76799774 77.50000000 0.015043 -0.999826 -0.011031 0.000000
119.71099854 167.12899780 41.25000000 0.770319 0.164960 -0.615952 0.000000
192.78100586 153.91400146 166.25000000 0.000978 0.000978 0.999999 0.000000
82.39849854 201.33200073 146.25000000 -0.754885 -0.209260 0.621578 0.000000
186.56300354 195.11300659 131.25000000 0.900215 0.365666 0.236435 0.000000
193.55900574 155.46899414 111.25000000 0.024812 -0.395688 0.918050 0.000000
176.45700073 188.11700439 178.75000000 0.500959 0.311321 0.807539 0.000000
91.72660065 171.40400696 135.00000000 -0.805308 -0.592585 -0.017957 0.000000
185.78500366 162.46499634 168.75000000 0.053142 -0.330519 0.942302 0.000000
126.70700073 137.20100403 55.00000000 0.034983 -0.799006 -0.600304 0.000000
278.28900146 173.34800720 148.75000000 -0.895137 0.123028 0.428478 0.000000
88.22850037 199.00000000 157.50000000 -0.822653 -0.105915 0.558591 0.000000
144.97500610 193.55900574 115.00000000 0.696498 -0.386943 -0.604290 0.000000
164.40800476 149.25000000 77.50000000 0.359197 0.384076 -0.850566 0.000000
141.47700500 156.24600220 78.75000000 0.703624 0.408930 -0.581111 0.000000
168.29499817 186.56300354 117.50000000 -0.558768 -0.294507 -0.775270 0.000000
99.11139679 160.91000366 125.00000000 -0.812307 -0.580623 -0.055096 0.000000
96.39070129 261.18798828 113.75000000 -0.694041 0.594655 -0.405823 0.000000
143.03100586 256.52398682 166.25000000 0.401136 0.519020 0.754790 0.000000
164.02000427 188.89500427 118.75000000 -0.392526 -0.437386 -0.809084 0.000000
254.19099426 127.48400116 138.75000000 0.462573 -0.721216 0.515628 0.000000
268.57199097 126.70700073 82.50000000 0.384650 -0.901388 -0.198857 0.000000
150.80499268 166.35200500 176.25000000 0.180062 -0.043544 0.982691 0.000000
144.58599854 212.21499634 181.25000000 0.000978 0.000978 0.999999 0.000000
277.51199341 181.89799500 151.25000000 0.376219 -0.333222 0.864536 0.000000
81.23239899 235.53500366 127.50000000 -0.980693 0.182146 -0.071170 0.000000
129.81599426 203.66400146 63.75000000 0.520730 0.320082 -0.791446 0.000000
101.44300079 217.65600586 37.50000000 0.782766 0.314063 -0.537255 0.000000
103.38700104 240.19900513 171.25000000 -0.418568 0.244540 0.874643 0.000000
125.93000031 192.00399780 53.75000000 0.647892 0.421379 -0.634567 0.000000
257.30099487 122.43199921 85.00000000 0.178152 -0.980443 -0.083622 0.000000
99.88870239 195.11300659 170.00000000 -0.513641 0.014908 0.857876 0.000000
153.13699341 183.84199524 107.50000000 0.690783 0.690783 0.213628 0.000000
148.47300720 202.10899353 116.25000000 0.730182 -0.001380 -0.683251 0.000000
293.05899048 166.35200500 136.25000000 0.695622 -0.305041 0.650431 0.000000
137.58999634 182.67599487 181.25000000 0.000978 0.000978 0.999999 0.000000
262.74200439 122.81999969 113.75000000 0.245378 -0.959206 0.140404 0.000000
174.90199280 201.72099304 160.00000000 0.271131 0.746800 0.607271 0.000000
155.46899414 153.52499390 85.00000000 0.131282 0.818670 -0.559056 0.000000
171.01600647 236.31300354 158.75000000 0.774674 0.401142 0.488841 0.000000
190.44900513 168.29499817 125.00000000 0.296937 -0.818540 -0.491753 0.000000
204.44099426 156.63499451 132.50000000 -0.227764 -0.794850 -0.562438 0.000000
206.77299500 178.78900146 163.75000000 0.280030 0.011006 0.959928 0.000000
131.37100220 136.81300354 126.25000000 -0.414377 -0.858021 0.303465 0.000000
123.98600006 138.36700439 67.50000000 -0.512514 -0.856968 -0.054168 0.000000
82.00980377 195.89100647 135.00000000 -0.962656 -0.269248 0.028277 0.000000
113.10399628 198.22300720 45.00000000 0.668137 0.460496 -0.584411 0.000000
146.14100647 222.32000732 78.75000000 0.476621 0.309882 -0.822682 0.000000
261.96499634 145.75199890 100.00000000 -0.273419 -0.874639 0.400310 0.000000
166.35200500 192.00399780 111.25000000 -0.302512 -0.910458 -0.282052 0.000000
156.63499451 183.45300293 102.50000000 0.715529 0.522951 0.463185 0.000000
128.64999390 192.78100586 57.50000000 0.571830 0.425972 -0.701113 0.000000
224.65199280 140.69900513 113.75000000 0.654085 0.708194 -0.265772 0.000000
178.01199341 144.58599854 83.75000000 0.249509 0.764218 -0.594741 0.000000
289.17199707 138.36700439 113.75000000 0.642901 -0.751306 0.149057 0.000000
189.67199707 154.30299377 120.00000000 -0.000978 -0.000978 -0.999999 0.000000
81.62110138 204.44099426 146.25000000 -0.960376 -0.137571 0.242387 0.000000
189.67199707 184.23100281 108.75000000 0.250936 0.323461 -0.912362 0.000000
194.72500610 160.13299561 115.00000000 -0.951885 0.292988 0.089850 0.000000
81.23239899 198.22300720 127.50000000 -0.845288 -0.484106 -0.226118 0.000000
136.03500366 233.98100281 78.75000000 0.534857 0.216088 -0.816844 0.000000
121.65399933 139.14500427 115.00000000 -0.637826 -0.759741 0.126376 0.000000
131.37100220 148.47300720 61.25000000 0.689560 0.373580 -0.620439 0.000000
113.49199677 195.11300659 43.75000000 0.736147 0.370522 -0.566393 0.000000
157.80099487 154.69099426 88.75000000 0.178524 0.770552 -0.611864 0.000000
120.48799896 269.73800659 98.75000000 -0.226709 0.809673 -0.541324 0.000000
152.35899353 268.57199097 107.50000000 0.619945 0.650023 -0.439476 0.000000
137.20100403 188.89500427 62.50000000 0.459905 0.106132 -0.881603 0.000000
281.39898682 193.55900574 151.25000000 0.000978 0.000978 0.999999 0.000000
101.83200073 180.34399414 166.25000000 -0.610140 -0.361504 0.705014 0.000000
87.45120239 190.44900513 62.50000000 -0.955600 -0.223822 -0.191656 0.000000
174.90199280 210.66000366 171.25000000 0.375477 0.029882 0.926350 0.000000
79.67780304 219.21099854 137.50000000 -0.954848 -0.001223 0.297091 0.000000
164.02000427 244.08599854 103.75000000 0.901392 -0.063900 -0.428263 0.000000
215.32400513 189.28300476 142.50000000 0.641925 0.766706 -0.009705 0.000000
272.07000732 134.86900330 132.50000000 0.498880 -0.699100 0.512228 0.000000
223.87500000 175.67999268 121.25000000 0.541234 -0.001350 -0.840871 0.000000
130.59399414 249.52699280 78.75000000 0.992361 0.123363 -0.001092 0.000000
199.77699280 156.24600220 133.75000000 -0.157906 -0.597034 -0.786521 0.000000
183.45300293 220.76600647 131.25000000 0.944502 0.313951 -0.096702 0.000000
81.23239899 236.31300354 145.00000000 -0.946784 0.112870 0.301431 0.000000
141.47700500 174.12500000 126.25000000 0.344751 -0.439203 -0.829607 0.000000
192.00399780 141.47700500 86.25000000 0.394393 0.245565 -0.885524 0.000000
120.48799896 146.52900696 142.50000000 -0.429039 -0.888414 0.163237 0.000000
180.34399414 186.95100403 110.00000000 -0.262762 -0.104846 -0.959147 0.000000
107.66200256 209.88299561 42.50000000 0.865227 0.298618 -0.402752 0.000000
118.54499817 142.25399780 52.50000000 0.000978 0.000978 -0.999999 0.000000
129.03900146 172.57000732 53.75000000 0.889441 -0.213172 -0.404292 0.000000
225.42999268 170.23800659 113.75000000 -0.218671 -0.161057 0.962415 0.000000
144.97500610 129.03900146 115.00000000 -0.442309 -0.886050 0.138848 0.000000
119.71099854 151.97099304 40.00000000 0.912306 0.066227 -0.404118 0.000000
139.14500427 148.08399963 70.00000000 0.619245 0.545003 -0.565251 0.000000
185.78500366 171.40400696 115.00000000 -0.503678 -0.849311 -0.158046 0.000000
133.70300293 181.89799500 58.75000000 0.477148 -0.477148 -0.738011 0.000000
271.29299927 137.58999634 136.25000000 0.421169 -0.617604 0.664215 0.000000
195.89100647 169.46099854 168.75000000 0.292705 -0.283967 0.913064 0.000000
152.35899353 226.20700073 83.75000000 0.591733 0.306290 -0.745680 0.000000
81.62110138 232.03700256 147.50000000 -0.967983 0.058252 0.244165 0.000000
251.08200073 142.64300537 87.50000000 -0.114763 -0.838207 0.533140 0.000000
217.65600586 182.28700256 122.50000000 0.576210 0.708292 -0.407805 0.000000
287.22900391 181.12100220 127.50000000 0.550838 -0.311343 0.774366 0.000000
111.16000366 271.29299927 108.75000000 -0.375080 0.881213 -0.287712 0.000000
249.52699280 136.03500366 78.75000000 -0.094079 -0.880414 0.464780 0.000000
174.90199280 230.09399414 123.75000000 0.850032 0.343432 -0.399375 0.000000
188.89500427 155.46899414 111.25000000 0.336973 0.200478 0.919923 0.000000
185.00799561 149.25000000 163.75000000 -0.049788 -0.421182 0.905609 0.000000
157.02299500 133.70300293 143.75000000 -0.310305 -0.869771 0.383678 0.000000
162.46499634 225.42999268 96.25000000 0.629833 0.420443 -0.653099 0.000000
98.72270203 267.01800537 117.50000000 -0.637920 0.644582 -0.421393 0.000000
118.15599823 202.10899353 53.75000000 0.700459 0.384017 -0.601571 0.000000
82.78710175 194.33599854 130.00000000 -0.956210 -0.292617 -0.006122 0.000000
88.22850037 210.66000366 57.50000000 -0.940098 0.200757 -0.275522 0.000000
189.67199707 185.78500366 168.75000000 0.419524 0.518236 0.745272 0.000000
153.91400146 160.91000366 173.75000000 -0.039412 -0.204225 0.978130 0.000000
156.24600220 270.90399170 120.00000000 0.603623 0.746964 -0.278718 0.000000
211.04899597 178.78900146 112.50000000 0.417664 0.627328 -0.657280 0.000000
212.21499634 150.80499268 158.75000000 0.508301 -0.366299 0.779394 0.000000
135.25799561 229.31599426 76.25000000 0.470136 0.235829 -0.850504 0.000000
150.02699280 275.17999268 148.75000000 0.529882 0.697037 0.483078 0.000000
106.49600220 156.63499451 40.00000000 -0.757612 -0.629565 -0.172254 0.000000
111.54900360 197.44500732 42.50000000 0.727977 0.374622 -0.574202 0.000000
136.03500366 141.47700500 143.75000000 -0.252770 -0.923966 0.287044 0.000000
182.67599487 146.91799927 163.75000000 -0.037996 -0.381265 0.923684 0.000000
114.26999664 221.54299927 176.25000000 -0.234436 0.180851 0.955161 0.000000
144.19700623 179.56599426 120.00000000 0.809171 -0.023595 0.587100 0.000000
182.67599487 202.88699341 148.75000000 0.905044 0.394799 0.158205 0.000000
254.19099426 185.00799561 136.25000000 0.279310 -0.500886 0.819206 0.000000
126.70700073 252.63699341 171.25000000 -0.001350 0.541234 0.840871 0.000000
139.14500427 164.02000427 121.25000000 -0.986896 -0.156191 0.040494 0.000000
135.25799561 195.89100647 181.25000000 0.000978 0.000978 0.999999 0.000000
119.32199860 158.57800293 40.00000000 0.730182 0.001380 -0.683251 0.000000
80.84380341 217.65600586 108.75000000 -0.994569 -0.001073 -0.104070 0.000000
202.10899353 128.64999390 152.50000000 -0.107921 -0.734748 0.669700 0.000000
113.10399628 229.31599426 55.00000000 0.807688 0.055166 -0.587024 0.000000
290.33801270 157.02299500 132.50000000 0.633451 -0.398594 0.663221 0.000000
99.88870239 264.29699707 157.50000000 -0.499865 0.373685 0.781342 0.000000
285.67401123 167.90600586 120.00000000 0.351638 -0.176525 0.919342 0.000000
247.97300720 120.09999847 85.00000000 0.000978 0.000978 -0.999999 0.000000
87.83989716 229.31599426 158.75000000 -0.772748 -0.104108 0.626117 0.000000
83.17579651 219.98800659 153.75000000 -0.551551 -0.551551 0.625766 0.000000
118.93399811 228.53900146 63.75000000 0.740272 0.222861 -0.634296 0.000000
103.77500153 154.69099426 125.00000000 -0.789375 -0.613337 -0.026545 0.000000
177.23399353 226.98399353 158.75000000 0.696920 0.479655 0.533136 0.000000
212.21499634 126.70700073 151.25000000 -0.041138 -0.696509 0.716368 0.000000
103.38700104 161.68800354 38.75000000 -0.784821 -0.607460 -0.122674 0.000000
86.28520203 246.80700684 120.00000000 -0.705176 0.705176 -0.073848 0.000000
275.17999268 127.87300110 97.50000000 0.505178 -0.859787 0.074581 0.000000
214.54699707 174.90199280 111.25000000 0.626931 0.392039 -0.673248 0.000000
183.06500244 203.66400146 130.00000000 0.937358 0.316102 -0.146419 0.000000
83.56449890 245.64100647 137.50000000 -0.925754 0.375306 -0.046090 0.000000
230.87100220 148.47300720 96.25000000 -0.017409 -0.882479 0.470030 0.000000
83.95310211 220.76600647 96.25000000 -0.982599 0.093063 -0.160745 0.000000
285.28500366 195.11300659 138.75000000 0.749750 -0.365930 0.551335 0.000000
93.28130341 244.08599854 161.25000000 -0.627288 0.046728 0.777384 0.000000
110.38300323 259.63299561 88.75000000 -0.506102 0.766476 -0.395443 0.000000
110.38300323 256.91198730 167.50000000 -0.440294 0.476303 0.761102 0.000000
181.89799500 129.03900146 73.75000000 0.503407 0.510097 -0.697411 0.000000
259.63299561 133.70300293 71.25000000 -0.001223 -0.954848 0.297091 0.000000
119.32199860 163.24200439 40.00000000 0.802073 0.061260 -0.594076 0.000000
230.09399414 156.24600220 103.75000000 -0.220783 -0.560450 0.798217 0.000000
269.73800659 195.11300659 153.75000000 0.568190 -0.023502 0.822562 0.000000
118.15599823 164.02000427 38.75000000 0.846328 0.034516 -0.531543 0.000000
291.11499023 139.14500427 110.00000000 0.692816 -0.720809 0.020994 0.000000
232.42599487 186.95100403 145.00000000 0.397948 -0.883832 0.245923 0.000000
261.96499634 171.79299927 123.75000000 0.273591 -0.580392 0.767003 0.000000
149.25000000 195.11300659 106.25000000 -0.460894 -0.231203 0.856809 0.000000
284.50799561 146.14100647 128.75000000 -0.477148 -0.477148 0.738011 0.000000
123.59799957 195.50199890 55.00000000 0.670291 0.498938 -0.549336 0.000000
235.53500366 141.47700500 151.25000000 0.526119 -0.306770 0.793152 0.000000
132.14799500 212.99200439 68.75000000 0.395713 0.022202 -0.918106 0.000000
94.05860138 253.41400146 106.25000000 -0.758260 0.586579 -0.284546 0.000000
250.30499268 146.14100647 93.75000000 -0.142932 -0.681559 0.717668 0.000000
118.15599823 181.12100220 176.25000000 -0.392527 -0.324797 0.860482 0.000000
292.28100586 187.72900391 125.00000000 0.952732 -0.111700 0.282534 0.000000
191.22700500 189.67199707 163.75000000 0.175605 0.866220 0.467788 0.000000
119.71099854 258.07800293 168.75000000 -0.115621 0.344143 0.931771 0.000000
150.02699280 149.63900757 80.00000000 0.117007 0.765729 -0.632430 0.000000
274.40200806 191.22700500 151.25000000 0.296835 0.090227 0.950657 0.000000
141.47700500 146.91799927 158.75000000 -0.162473 -0.751628 0.639263 0.000000
199.38900757 154.69099426 135.00000000 -0.119697 -0.604398 -0.787639 0.000000
272.07000732 194.33599854 153.75000000 0.465731 -0.017348 0.884756 0.000000
104.94100189 165.18600464 157.50000000 -0.566135 -0.539095 0.623593 0.000000
290.72698975 178.78900146 123.75000000 0.752726 -0.178639 0.633634 0.000000
109.21700287 150.80499268 92.50000000 -0.756401 -0.654072 -0.006914 0.000000
236.31300354 137.58999634 148.75000000 0.517133 -0.396414 0.758570 0.000000
196.66799927 191.61500549 125.00000000 -0.423066 0.705110 -0.569065 0.000000
99.11139679 167.12899780 40.00000000 -0.870994 -0.453982 -0.187803 0.000000
204.44099426 170.23800659 166.25000000 0.517177 0.389922 0.761898 0.000000
113.88099670 146.14100647 62.50000000 -0.705724 -0.708486 -0.001381 0.000000
135.25799561 209.10600281 181.25000000 0.000978 0.000978 0.999999 0.000000
167.12899780 215.32400513 103.75000000 0.918045 -0.030207 -0.395324 0.000000
179.56599426 222.70899963 160.00000000 0.538726 0.555614 0.633299 0.000000
196.66799927 162.46499634 128.75000000 -0.339784 -0.153943 -0.927819 0.000000
275.95700073 170.23800659 123.75000000 -0.119793 -0.429844 0.894921 0.000000
178.78900146 231.64900208 133.75000000 0.820487 0.372949 -0.433255 0.000000
157.02299500 190.06100464 105.00000000 0.340298 -0.929965 0.139150 0.000000
119.71099854 277.89999390 117.50000000 -0.311177 0.875849 -0.368859 0.000000
116.60199738 142.64300537 72.50000000 -0.627778 -0.777316 -0.040911 0.000000
183.84199524 190.44900513 170.00000000 0.652256 0.541018 0.530906 0.000000
160.13299561 139.53300476 155.00000000 -0.288696 -0.757628 0.585367 0.000000
270.51599121 167.12899780 148.75000000 0.333548 -0.216162 0.917616 0.000000
205.21899414 132.14799500 156.25000000 0.635314 -0.381189 0.671618 0.000000
174.90199280 185.00799561 113.75000000 -0.412773 -0.338007 -0.845795 0.000000
192.78100586 139.14500427 86.25000000 0.393922 0.239326 -0.887439 0.000000
168.29499817 239.42199707 112.50000000 0.919309 0.185562 -0.347043 0.000000
112.71499634 230.87100220 53.75000000 0.807688 0.055166 -0.587024 0.000000
272.07000732 170.23800659 148.75000000 0.460759 -0.244826 0.853089 0.000000
280.62100220 155.46899414 113.75000000 -0.128628 -0.578087 0.805773 0.000000
254.19099426 120.87699890 100.00000000 -0.001048 -0.997066 0.076536 0.000000
87.83989716 184.23100281 103.75000000 -0.903226 -0.358655 -0.235688 0.000000
199.00000000 118.93399811 131.25000000 -0.233369 -0.948488 0.214263 0.000000
90.94920349 211.43800354 163.75000000 -0.774477 0.145308 0.615687 0.000000
110.38300323 277.12298584 125.00000000 -0.418933 0.878120 -0.231084 0.000000
129.03900146 154.69099426 163.75000000 -0.212993 -0.813664 0.540911 0.000000
126.70700073 160.91000366 56.25000000 0.913071 -0.106364 -0.393684 0.000000
134.48100281 137.58999634 131.25000000 -0.544033 -0.766813 0.340626 0.000000
90.94920349 201.33200073 161.25000000 -0.682709 -0.276601 0.676314 0.000000
125.15200043 186.56300354 178.75000000 0.000978 0.000978 0.999999 0.000000
179.56599426 127.48400116 146.25000000 -0.305231 -0.771866 0.557725 0.000000
184.23100281 149.25000000 163.75000000 -0.042311 -0.140654 0.989154 0.000000
133.70300293 274.40200806 156.25000000 0.220240 0.799333 0.559071 0.000000
95.22460175 266.62899780 140.00000000 -0.690783 0.690783 -0.213628 0.000000
138.36700439 193.16999817 105.00000000 -0.074567 0.254034 0.964317 0.000000
279.06600952 138.36700439 128.75000000 0.524450 -0.645867 0.554804 0.000000
185.78500366 177.23399353 111.25000000 -0.058877 -0.261813 -0.963321 0.000000
139.14500427 206.77299500 68.75000000 0.253050 0.030562 -0.966970 0.000000
85.89649963 202.10899353 62.50000000 -0.964963 0.191948 -0.178890 0.000000
153.13699341 269.35000610 110.00000000 0.650218 0.719491 -0.244029 0.000000
90.94920349 261.18798828 148.75000000 -0.690783 0.690783 0.213628 0.000000
178.78900146 206.77299500 158.75000000 0.923434 -0.376611 0.073714 0.000000
147.69500732 274.40200806 151.25000000 0.307580 0.713393 0.629654 0.000000
121.65399933 200.55499268 180.00000000 -0.290290 -0.214562 0.932574 0.000000
161.68800354 162.46499634 118.75000000 0.025006 0.912055 -0.409306 0.000000
113.10399628 200.55499268 47.50000000 0.647121 0.392245 -0.653741 0.000000
134.48100281 143.80900574 148.75000000 -0.255114 -0.898059 0.358339 0.000000
174.90199280 164.79699707 173.75000000 0.000978 0.000978 0.999999 0.000000
119.71099854 173.34800720 38.75000000 0.869476 -0.020283 -0.493559 0.000000
86.67389679 188.11700439 102.50000000 -0.947359 -0.316641 -0.047432 0.000000
218.43400574 149.25000000 153.75000000 0.421538 -0.182326 0.888292 0.000000
186.17399597 198.22300720 152.50000000 0.590104 0.663658 0.459713 0.000000
136.81300354 229.31599426 78.75000000 0.474747 0.284848 -0.832753 0.000000
185.00799561 145.36300659 86.25000000 0.999999 -0.000978 -0.000978 0.000000
121.26599884 140.31100464 122.50000000 -0.313951 -0.944502 0.096702 0.000000
130.59399414 282.56500244 122.50000000 0.065295 0.953822 -0.293188 0.000000
238.64500427 132.14799500 148.75000000 0.360916 0.042997 0.931607 0.000000
276.73400879 138.36700439 131.25000000 0.592293 -0.645985 0.481552 0.000000
112.71499634 160.91000366 161.25000000 -0.711727 -0.498376 0.495042 0.000000
238.64500427 143.03100586 88.75000000 -0.004095 -0.820314 0.571899 0.000000
174.90199280 238.64500427 153.75000000 0.645644 0.304306 0.700387 0.000000
91.33789825 261.96499634 147.50000000 -0.725173 0.681045 0.101495 0.000000
223.87500000 116.98999786 97.50000000 0.075441 -0.996041 -0.047014 0.000000
113.10399628 146.91799927 60.00000000 -0.705724 -0.708486 -0.001381 0.000000
142.25399780 244.08599854 173.75000000 0.459742 0.333352 0.823112 0.000000
125.54100037 155.46899414 55.00000000 0.931200 -0.095680 -0.351727 0.000000
228.53900146 140.31100464 85.00000000 0.012419 -0.793434 0.608529 0.000000
145.36300659 209.10600281 73.75000000 0.415299 0.241383 -0.877075 0.000000
111.16000366 150.80499268 46.25000000 -0.679646 -0.718828 -0.146177 0.000000
295.39099121 162.46499634 113.75000000 -0.367495 -0.386261 0.846020 0.000000
185.78500366 119.32199860 120.00000000 -0.312831 -0.938494 0.146170 0.000000
226.20700073 170.62699890 115.00000000 -0.218671 -0.161057 0.962415 0.000000
179.56599426 228.14999390 155.00000000 0.781390 0.259415 0.567569 0.000000
140.69900513 181.12100220 181.25000000 0.000978 0.000978 0.999999 0.000000
278.28900146 192.00399780 151.25000000 0.000978 0.000978 0.999999 0.000000
157.80099487 255.74600220 161.25000000 0.340465 0.377438 0.861176 0.000000
130.98199463 212.21499634 67.50000000 0.524878 0.221887 -0.821748 0.000000
263.51998901 188.89500427 136.25000000 -0.730182 0.001380 0.683251 0.000000
273.62500000 127.48400116 88.75000000 0.543011 -0.776874 -0.318758 0.000000
226.98399353 162.07600403 107.50000000 -0.567036 -0.473367 0.674087 0.000000
104.16400146 263.90798950 160.00000000 -0.377983 0.554702 0.741239 0.000000
118.93399811 226.20700073 178.75000000 -0.086386 0.508401 0.856776 0.000000
151.58200073 193.55900574 118.75000000 0.000978 0.000978 -0.999999 0.000000
188.11700439 166.35200500 171.25000000 0.367860 -0.415224 0.832027 0.000000
283.73098755 154.69099426 113.75000000 -0.340456 -0.646704 0.682542 0.000000
268.18399048 174.90199280 151.25000000 0.000978 0.000978 0.999999 0.000000
96.39070129 244.08599854 163.75000000 -0.638784 0.142787 0.756020 0.000000
111.93800354 246.41799927 171.25000000 -0.361248 0.171416 0.916579 0.000000
252.63699341 172.57000732 123.75000000 -0.994614 0.047679 -0.092032 0.000000
82.39849854 202.10899353 146.25000000 -0.754885 -0.209260 0.621578 0.000000
260.41000366 136.42399597 80.00000000 -0.027599 -0.913409 0.406106 0.000000
194.33599854 189.67199707 116.25000000 0.550613 0.093446 -0.829514 0.000000
213.77000427 117.76799774 135.00000000 -0.165394 -0.914613 0.368955 0.000000
147.69500732 245.64100647 171.25000000 0.239244 0.476964 0.845735 0.000000
274.40200806 158.57800293 143.75000000 0.385308 -0.300022 0.872654 0.000000
121.65399933 276.73400879 110.00000000 -0.442309 0.886050 -0.138848 0.000000
198.22300720 148.08399963 132.50000000 0.326634 0.757855 -0.564771 0.000000
163.24200439 181.89799500 178.75000000 0.000978 0.000978 0.999999 0.000000
109.60500336 274.01400757 117.50000000 -0.453316 0.853210 -0.257947 0.000000
182.67599487 158.57800293 168.75000000 0.249833 -0.371054 0.894373 0.000000
145.36300659 230.09399414 176.25000000 0.150564 0.226501 0.962303 0.000000
99.50000000 164.40800476 45.00000000 -0.808191 0.476626 0.345912 0.000000
154.69099426 205.99600220 181.25000000 0.299191 0.331938 0.894596 0.000000
189.67199707 135.25799561 83.75000000 0.518028 0.197848 -0.832168 0.000000
158.57800293 186.56300354 181.25000000 0.305910 -0.242717 0.920602 0.000000
150.80499268 199.00000000 118.75000000 0.359753 -0.081580 -0.929474 0.000000
178.01199341 224.65199280 158.75000000 0.542624 0.566290 0.620383 0.000000
217.26800537 142.25399780 110.00000000 -0.248098 0.934923 0.253705 0.000000
118.15599823 204.44099426 178.75000000 -0.265549 0.130793 0.955184 0.000000
289.17199707 137.58999634 108.75000000 0.692816 -0.720809 0.020994 0.000000
