117.97100067 275.12899780 339.00000000 0.444511 0.887602 -0.120714 0.000000
208.18400574 177.16000366 370.50000000 0.234322 0.671514 0.702967 0.000000
174.71099854 79.59960175 309.00000000 -0.242118 -0.969690 0.032850 0.000000
142.05499268 242.47300720 334.50000000 -0.027989 0.441164 -0.896990 0.000000
90.62110138 161.64799500 385.50000000 -0.655829 -0.107586 0.747203 0.000000
92.66210175 130.62500000 281.00000000 -0.887273 -0.417972 0.195053 0.000000
72.66020203 191.03900146 364.50000000 -0.357162 -0.212562 0.909534 0.000000
175.52699280 199.20300293 388.50000000 0.310364 0.747767 0.586957 0.000000
144.50399780 194.30499268 400.50000000 0.306812 0.389239 0.868538 0.000000
221.24600220 77.15039825 366.00000000 -0.119476 -0.898178 0.423086 0.000000
111.84799957 124.09400177 253.50000000 0.690653 0.380766 -0.614830 0.000000
147.77000427 197.57000732 400.50000000 0.108667 0.453013 0.884857 0.000000
234.30900574 71.84380341 340.50000000 0.190068 0.266642 -0.944869 0.000000
110.21499634 124.91000366 253.50000000 0.654127 0.362311 -0.663964 0.000000
83.68160248 222.06199646 369.00000000 -0.617985 0.463907 0.634732 0.000000
160.83200073 236.75799561 331.50000000 0.043023 0.537097 -0.842423 0.000000
160.01600647 127.35900116 385.50000000 0.336706 -0.609974 0.717329 0.000000
203.28500366 104.09200287 387.00000000 -0.242348 -0.282031 0.928292 0.000000
120.01200104 103.27500153 363.00000000 -0.462612 -0.784005 0.413916 0.000000
110.21499634 125.72699738 253.50000000 0.690653 0.380766 -0.614830 0.000000
189.40600586 212.26600647 373.50000000 0.339056 0.728402 0.595375 0.000000
187.77299500 227.36900330 352.00000000 0.707106 0.707106 -0.001384 0.000000
122.46099854 225.32800293 385.50000000 -0.256718 0.372463 0.891834 0.000000
78.37500000 244.10499573 310.50000000 -0.841874 0.469418 -0.266260 0.000000
157.97500610 261.25000000 345.00000000 0.602286 0.795929 0.061225 0.000000
219.61300659 128.17599487 385.50000000 0.000978 0.000978 0.999999 0.000000
173.07800293 137.97300720 388.50000000 -0.027411 -0.215713 0.976072 0.000000
176.34399414 240.43200684 360.00000000 0.547747 0.716539 0.431909 0.000000
238.39100647 146.95300293 379.50000000 0.428804 0.362348 0.827545 0.000000
193.48800659 166.54699707 328.50000000 -0.120297 -0.663860 -0.738118 0.000000
186.14100647 184.50799561 319.50000000 0.722319 0.101507 -0.684070 0.000000
93.88670349 244.10499573 364.50000000 -0.180768 0.360113 0.915228 0.000000
160.83200073 130.62500000 388.50000000 0.107512 -0.506022 0.855794 0.000000
180.42599487 179.60899353 313.50000000 0.433608 0.559869 -0.706067 0.000000
87.35549927 248.59599304 300.00000000 -0.096038 0.531794 -0.841410 0.000000
109.80699921 151.85200500 264.00000000 0.569215 0.342178 -0.747602 0.000000
192.67199707 167.36300659 328.50000000 -0.066799 -0.564238 -0.822906 0.000000
73.47660065 190.22300720 307.50000000 -0.964929 -0.001199 -0.262509 0.000000
101.23400116 111.84799957 346.50000000 -0.705614 -0.705614 0.064934 0.000000
116.74600220 135.52299500 262.50000000 0.803324 -0.070166 -0.591395 0.000000
101.23400116 238.39100647 373.50000000 -0.509556 0.509556 0.693330 0.000000
210.63299561 66.94529724 337.50000000 -0.393116 -0.906863 0.151853 0.000000
217.97999573 123.27700043 322.50000000 0.559377 0.054951 -0.827090 0.000000
250.63699341 159.19900513 379.50000000 0.315639 0.764263 0.562382 0.000000
168.99600220 209.81599426 325.50000000 -0.168447 0.262777 -0.950039 0.000000
136.33999634 221.24600220 388.50000000 -0.082635 0.203503 0.975581 0.000000
183.69099426 113.48000336 382.50000000 -0.473784 -0.355737 0.805593 0.000000
235.12500000 106.13300323 388.50000000 0.241342 0.131760 0.961454 0.000000
165.72999573 209.81599426 325.50000000 0.208237 0.238179 -0.948635 0.000000
69.39450073 202.46899414 358.50000000 -0.918410 0.307098 0.249427 0.000000
151.85200500 160.83200073 289.50000000 0.259793 -0.400952 -0.878490 0.000000
90.62110138 252.27000427 355.50000000 -0.616369 0.592727 0.518425 0.000000
163.28100586 130.62500000 388.50000000 0.107512 -0.506022 0.855794 0.000000
264.51599121 108.58200073 385.50000000 0.000978 0.000978 0.999999 0.000000
80.00779724 231.85899353 292.50000000 -0.861339 0.371347 -0.346693 0.000000
170.62899780 160.83200073 397.50000000 0.170509 -0.170509 0.970491 0.000000
127.35900116 101.23400116 367.50000000 -0.443393 -0.888203 0.120410 0.000000
94.29489899 202.46899414 281.00000000 0.841347 0.332480 -0.426137 0.000000
110.21499634 131.44099426 253.50000000 0.599012 0.357449 -0.716530 0.000000
175.52699280 164.91400146 397.50000000 0.304040 -0.255048 0.917884 0.000000
252.27000427 158.79100037 378.00000000 0.704461 0.701507 0.107811 0.000000
66.94529724 229.41000366 331.50000000 -0.945474 0.314281 -0.085474 0.000000
185.32400513 149.40199280 388.50000000 0.480805 -0.296000 0.825355 0.000000
103.68399811 204.91799927 295.50000000 0.717561 0.429211 -0.548528 0.000000
165.72999573 254.71899414 340.50000000 0.642864 0.710196 -0.286964 0.000000
123.27700043 215.53100586 391.50000000 -0.533133 0.105471 0.839431 0.000000
156.75000000 160.83200073 292.50000000 0.609970 -0.243047 -0.754231 0.000000
168.99600220 228.59399414 373.50000000 0.459150 0.397930 0.794250 0.000000
168.99600220 96.33589935 280.50000000 0.713026 0.425169 -0.557517 0.000000
82.45700073 244.92199707 301.50000000 -0.773679 0.510920 -0.374675 0.000000
153.48399353 224.51199341 325.50000000 -0.052195 0.408191 -0.911403 0.000000
150.21899414 173.07800293 298.50000000 -0.095082 0.767968 -0.633391 0.000000
89.39649963 148.58599854 300.00000000 -0.932909 -0.358413 0.034936 0.000000
82.45700073 241.65600586 298.50000000 -0.780479 0.394296 -0.485163 0.000000
195.12100220 194.30499268 361.50000000 0.728957 -0.684525 -0.006942 0.000000
97.15229797 215.53100586 382.50000000 -0.378392 0.305449 0.873797 0.000000
83.27339935 160.83200073 295.50000000 -0.887602 -0.444511 0.120714 0.000000
235.94099426 69.39450073 340.50000000 0.190068 0.266642 -0.944869 0.000000
241.65600586 71.84380341 343.50000000 0.580215 0.147664 -0.800965 0.000000
156.75000000 122.46099854 385.50000000 0.198756 -0.476715 0.856294 0.000000
107.76599884 134.70700073 253.50000000 0.639790 0.410463 -0.649761 0.000000
139.60499573 200.83599854 319.50000000 -0.000978 -0.000978 -0.999999 0.000000
158.38299561 139.60499573 295.50000000 -0.178082 0.513297 -0.839532 0.000000
78.78320313 176.34399414 369.00000000 -0.878249 -0.001325 0.478202 0.000000
96.33589935 160.01600647 391.50000000 -0.598522 0.116175 0.792638 0.000000
182.87500000 142.87100220 304.50000000 0.543881 0.703552 -0.457392 0.000000
115.11299896 222.06199646 385.50000000 -0.064689 0.461080 0.884998 0.000000
101.23400116 263.69900513 310.50000000 -0.166884 0.924175 -0.343585 0.000000
124.09400177 140.42199707 271.50000000 0.677534 0.001380 -0.735490 0.000000
77.55860138 223.69500732 292.50000000 -0.991504 0.088466 -0.095359 0.000000
168.17999268 97.15229797 280.50000000 0.796062 0.434362 -0.421444 0.000000
121.64499664 137.97300720 397.50000000 -0.557631 -0.166838 0.813150 0.000000
213.89799500 85.31449890 375.00000000 -0.223382 -0.802634 0.553063 0.000000
135.52299500 263.69900513 358.50000000 0.358628 0.673041 0.646840 0.000000
155.11700439 118.37899780 382.50000000 0.111289 -0.377832 0.919162 0.000000
64.08789825 202.46899414 336.00000000 -0.970072 -0.242814 -0.001184 0.000000
152.66799927 83.68160248 324.00000000 -0.001061 -0.995927 0.090153 0.000000
135.52299500 216.34800720 391.50000000 -0.001365 0.591008 0.806665 0.000000
164.91400146 167.36300659 403.50000000 0.584988 -0.157902 0.795523 0.000000
151.03500366 171.03700256 297.00000000 -0.101723 0.720907 -0.685525 0.000000
93.07029724 210.22500610 382.00000000 -0.606538 0.281778 0.743447 0.000000
123.68599701 140.42199707 399.00000000 -0.179050 -0.249055 0.951794 0.000000
176.75199890 226.14500427 330.00000000 0.711711 0.491697 -0.501698 0.000000
148.99400330 96.33589935 267.00000000 0.584826 0.291616 -0.756927 0.000000
159.19900513 173.89500427 301.50000000 0.000000 0.000000 0.000000 0.000000
151.03500366 130.62500000 286.50000000 0.245249 0.576414 -0.779487 0.000000
242.47300720 160.01600647 367.50000000 0.447371 0.734613 -0.510102 0.000000
78.37500000 244.10499573 349.50000000 -0.838443 0.293999 0.458888 0.000000
81.64060211 253.90199280 319.50000000 -0.650307 0.689228 -0.319477 0.000000
136.33999634 115.11299896 274.50000000 0.000978 0.000978 -0.999999 0.000000
262.88299561 141.23800659 376.50000000 0.108091 0.227627 0.967731 0.000000
190.63099670 188.58999634 327.00000000 0.888085 -0.017309 -0.459354 0.000000
137.15600586 216.34800720 391.50000000 0.192452 0.481875 0.854844 0.000000
102.05100250 212.26600647 301.50000000 -0.407166 0.812735 -0.416746 0.000000
228.59399414 135.52299500 337.50000000 0.600702 0.325448 -0.730233 0.000000
175.52699280 97.96880341 370.50000000 -0.420780 -0.839995 -0.342568 0.000000
155.93400574 167.36300659 406.50000000 0.000978 0.000978 0.999999 0.000000
261.25000000 106.13300323 364.50000000 0.642689 -0.082694 -0.761651 0.000000
245.73800659 103.68399811 388.50000000 -0.000978 -0.000978 0.999999 0.000000
78.78320313 249.82000732 339.00000000 -0.803072 0.571040 0.170257 0.000000
124.09400177 186.14100647 307.50000000 0.695430 0.451946 -0.558679 0.000000
146.13699341 88.58010101 341.00000000 -0.645070 -0.645070 0.409595 0.000000
101.23400116 197.57000732 388.50000000 0.000978 0.000978 0.999999 0.000000
127.35900116 264.51599121 328.50000000 0.723133 -0.049920 -0.688902 0.000000
64.90429688 191.03900146 341.00000000 -0.995618 0.090116 -0.024972 0.000000
250.63699341 107.76599884 385.50000000 0.670157 -0.133432 0.730127 0.000000
91.43750000 199.20300293 382.50000000 -0.550079 0.212983 0.807497 0.000000
107.76599884 107.76599884 292.50000000 -0.788518 -0.556509 0.261794 0.000000
67.76170349 174.71099854 340.50000000 -0.768711 -0.621287 -0.151937 0.000000
259.61700439 102.86699677 388.50000000 0.251363 0.326918 0.911011 0.000000
115.11299896 204.91799927 310.50000000 0.629272 0.372963 -0.681848 0.000000
106.94899750 195.93800354 391.50000000 -0.397931 0.226333 0.889058 0.000000
152.66799927 195.12100220 400.50000000 0.000978 0.000978 0.999999 0.000000
163.28100586 83.68160248 336.00000000 -0.184869 -0.963679 0.192736 0.000000
129.80900574 273.90399170 345.00000000 0.098719 0.985998 0.134400 0.000000
129.80900574 274.72100830 339.00000000 0.324279 0.927914 -0.183898 0.000000
66.94529724 186.14100647 334.50000000 -0.982665 -0.110262 0.149036 0.000000
166.54699707 145.72900391 300.00000000 -0.113502 0.857728 -0.501419 0.000000
83.27339935 217.97999573 274.50000000 0.107083 0.300096 -0.947880 0.000000
172.26199341 85.31449890 345.00000000 -0.076568 -0.922851 0.377469 0.000000
132.25799561 244.92199707 373.50000000 -0.307098 0.918410 0.249427 0.000000
86.94730377 187.77299500 382.00000000 -0.817341 -0.075865 0.571137 0.000000
222.06199646 138.78900146 382.50000000 0.000978 0.000978 0.999999 0.000000
70.21089935 235.12500000 325.50000000 -0.909522 0.349593 -0.224842 0.000000
106.13300323 140.83000183 255.00000000 0.557942 0.537715 -0.632110 0.000000
132.25799561 178.79299927 301.50000000 0.117509 0.688693 -0.715467 0.000000
141.23800659 220.42999268 388.50000000 0.052895 0.234953 0.970566 0.000000
191.85499573 160.01600647 388.50000000 0.404593 -0.240367 0.882342 0.000000
97.15229797 128.58399963 294.00000000 -0.812743 -0.269874 -0.516349 0.000000
179.60899353 182.05900574 313.50000000 0.454161 0.550650 -0.700373 0.000000
249.41200256 160.83200073 375.00000000 0.484433 0.838145 0.250675 0.000000
175.93600464 208.18400574 384.00000000 0.086954 0.531702 0.842456 0.000000
183.69099426 125.72699738 298.50000000 0.758223 0.043934 -0.650513 0.000000
87.35549927 232.26800537 288.00000000 0.685941 0.391730 -0.613215 0.000000
211.44900513 117.97100067 387.00000000 -0.140785 0.285593 0.947954 0.000000
249.82000732 118.37899780 349.50000000 -0.001251 0.939829 -0.341642 0.000000
90.62110138 123.27700043 343.50000000 -0.694314 -0.694314 0.189358 0.000000
98.78520203 176.34399414 265.50000000 0.697079 0.061803 -0.714326 0.000000
209.00000000 103.68399811 319.50000000 0.710633 0.079928 -0.699008 0.000000
96.33589935 182.87500000 268.50000000 0.796404 0.531462 -0.288598 0.000000
86.53910065 231.85899353 367.50000000 -0.603881 0.364947 0.708619 0.000000
177.97700500 242.06399536 348.00000000 0.707106 0.707106 0.001384 0.000000
100.41799927 143.68800354 253.50000000 0.669324 0.322507 -0.669324 0.000000
168.99600220 247.77900696 357.00000000 0.612056 0.612056 0.500773 0.000000
102.05100250 268.59799194 319.50000000 -0.001374 0.773712 -0.633537 0.000000
233.08399963 135.52299500 341.00000000 0.389922 0.517177 -0.761898 0.000000
168.17999268 172.26199341 400.50000000 0.684429 -0.223967 0.693827 0.000000
94.70310211 232.67599487 301.50000000 0.878249 0.001325 -0.478202 0.000000
213.08200073 113.48000336 319.50000000 0.555442 -0.124571 -0.822172 0.000000
166.13900757 161.64799500 300.00000000 0.762676 -0.232390 -0.603590 0.000000
230.22700500 171.03700256 369.00000000 0.955838 0.136171 0.260443 0.000000
171.44500732 220.42999268 325.50000000 0.000978 0.000978 0.999999 0.000000
102.05100250 144.50399780 253.50000000 0.571369 0.527547 -0.628674 0.000000
142.87100220 117.56199646 277.50000000 0.568988 0.283702 -0.771859 0.000000
180.83399963 97.96880341 292.00000000 0.545634 0.442809 -0.711480 0.000000
107.76599884 264.92401123 352.00000000 0.610843 0.664105 0.431086 0.000000
79.19139862 197.57000732 370.50000000 -0.812743 -0.269874 0.516349 0.000000
91.02929688 207.36700439 279.00000000 0.886593 0.233158 -0.399487 0.000000
106.94899750 202.46899414 298.50000000 0.697037 0.483078 -0.529882 0.000000
93.47850037 127.35900116 273.00000000 -0.948187 -0.317711 0.001236 0.000000
111.84799957 168.99600220 400.50000000 -0.526609 0.158725 0.835158 0.000000
235.94099426 114.29699707 385.50000000 0.642472 0.126706 0.755762 0.000000
102.05100250 144.91200256 255.00000000 0.647167 0.502605 -0.573205 0.000000
123.27700043 182.05900574 403.50000000 0.000978 0.000978 0.999999 0.000000
163.28100586 91.43750000 274.50000000 0.775087 0.155017 -0.612544 0.000000
156.75000000 261.65798950 345.00000000 0.559697 0.811786 0.166559 0.000000
107.76599884 266.14801025 313.50000000 0.006641 0.468854 -0.883251 0.000000
218.79699707 88.17189789 322.50000000 0.603682 0.015196 -0.797081 0.000000
116.74600220 183.69099426 400.50000000 0.000978 0.000978 0.999999 0.000000
135.52299500 161.64799500 406.50000000 0.000978 0.000978 0.999999 0.000000
124.09400177 263.69900513 325.50000000 0.758011 -0.110820 -0.642758 0.000000
270.23001099 101.23400116 388.50000000 -0.000978 -0.000978 0.999999 0.000000
199.20300293 92.25389862 376.50000000 -0.152354 -0.764788 0.626010 0.000000
144.50399780 257.16799927 334.50000000 -0.000978 -0.000978 -0.999999 0.000000
223.69500732 173.07800293 367.50000000 0.219707 0.968996 -0.113028 0.000000
137.15600586 138.78900146 286.50000000 0.631551 0.009674 -0.775274 0.000000
140.42199707 160.01600647 406.50000000 0.000978 0.000978 0.999999 0.000000
136.74800110 127.35900116 393.00000000 0.083158 -0.701734 0.707569 0.000000
175.11900330 147.77000427 393.00000000 0.304017 -0.336964 0.891083 0.000000
150.21899414 187.36500549 311.00000000 0.126785 0.723417 -0.678670 0.000000
108.58200073 245.73800659 370.50000000 -0.371138 0.473964 0.798508 0.000000
97.96880341 148.58599854 253.50000000 0.765892 0.388637 -0.512221 0.000000
222.06199646 117.56199646 325.50000000 0.300166 0.601937 -0.739981 0.000000
114.29699707 268.59799194 316.50000000 0.656558 0.166044 -0.735772 0.000000
213.89799500 182.05900574 346.50000000 -0.191738 0.079382 -0.978231 0.000000
227.77699280 69.39450073 334.50000000 0.773712 0.001374 -0.633537 0.000000
139.60499573 158.38299561 406.50000000 0.000978 0.000978 0.999999 0.000000
84.08979797 233.49200439 286.50000000 0.289999 0.919052 -0.266915 0.000000
184.50799561 132.66600037 384.00000000 -0.195075 -0.036650 0.980103 0.000000
238.39100647 165.72999573 376.50000000 0.084829 0.925037 0.370284 0.000000
131.44099426 168.17999268 292.50000000 0.132027 0.790677 -0.597829 0.000000
74.70120239 212.26600647 306.00000000 -0.949885 -0.057841 -0.307202 0.000000
201.24400330 80.00779724 360.00000000 -0.422738 -0.785548 0.451893 0.000000
246.55499268 84.90619659 349.50000000 0.693114 0.255358 -0.674081 0.000000
231.85899353 167.77099609 363.00000000 0.609408 0.759032 -0.229112 0.000000
257.16799927 138.78900146 364.50000000 0.622904 0.435866 -0.649624 0.000000
142.87100220 114.29699707 271.50000000 0.052921 0.667948 -0.742324 0.000000
122.46099854 116.74600220 382.50000000 -0.106770 -0.598207 0.794197 0.000000
102.86699677 221.24600220 382.50000000 -0.548034 0.293873 0.783133 0.000000
87.76370239 217.97999573 375.00000000 -0.093773 0.373734 0.922783 0.000000
73.06839752 223.69500732 309.00000000 -0.773712 -0.001374 -0.633537 0.000000
150.21899414 266.55700684 345.00000000 0.463655 0.885648 -0.025535 0.000000
64.08789825 204.10200500 327.00000000 -0.950897 -0.305053 -0.052331 0.000000
173.07800293 164.91400146 322.50000000 0.903401 -0.399773 0.155072 0.000000
151.85200500 206.55099487 394.50000000 0.390558 0.484551 0.782736 0.000000
200.02000427 117.56199646 385.50000000 -0.477722 0.399991 0.782169 0.000000
265.33200073 137.97300720 370.50000000 0.578136 0.049233 -0.814454 0.000000
142.05499268 230.22700500 382.50000000 0.000978 0.000978 0.999999 0.000000
186.14100647 214.71499634 373.50000000 0.401964 0.676556 0.617006 0.000000
142.87100220 264.51599121 334.50000000 0.464786 0.544750 -0.698013 0.000000
162.46499634 204.10200500 391.50000000 0.003818 0.372924 0.927854 0.000000
137.15600586 129.80900574 394.50000000 0.212802 -0.625979 0.750243 0.000000
225.32800293 115.93000031 325.50000000 0.316753 0.583662 -0.747667 0.000000
226.14500427 137.15600586 337.50000000 0.676677 0.241332 -0.695605 0.000000
100.41799927 170.62899780 394.50000000 -0.550283 -0.072518 0.831823 0.000000
213.08200073 177.56799316 341.00000000 0.189798 0.806262 -0.560284 0.000000
118.37899780 103.68399811 361.50000000 -0.463164 -0.781690 0.417660 0.000000
93.88670349 239.20700073 367.50000000 -0.110646 0.647645 0.753865 0.000000
100.41799927 112.25599670 341.00000000 -0.705614 -0.705614 0.064934 0.000000
158.38299561 79.59960175 292.00000000 0.000978 0.999999 0.000978 0.000000
97.15229797 154.30099487 253.50000000 0.640186 0.198998 -0.741999 0.000000
137.15600586 122.05300140 387.00000000 -0.252240 -0.506028 0.824810 0.000000
73.06839752 196.75399780 366.00000000 -0.693485 0.044144 0.719117 0.000000
160.01600647 94.70310211 271.50000000 0.550422 0.374026 -0.746418 0.000000
82.04879761 155.11700439 281.00000000 -0.939530 -0.285584 0.189010 0.000000
175.52699280 147.36099243 306.00000000 0.243455 0.944935 -0.218697 0.000000
116.74600220 184.10000610 300.00000000 0.434376 0.574175 -0.694003 0.000000
137.15600586 227.77699280 325.50000000 0.020841 0.270935 -0.962372 0.000000
189.40600586 181.24200439 382.50000000 0.690097 0.661142 0.294377 0.000000
73.47660065 177.16000366 358.50000000 -0.873352 -0.177606 0.453556 0.000000
193.48800659 86.13089752 363.00000000 -0.444721 -0.824554 0.349763 0.000000
148.58599854 266.55700684 339.00000000 0.146508 0.714418 -0.684210 0.000000
82.45700073 142.05499268 361.50000000 -0.839995 -0.420780 0.342568 0.000000
221.24600220 144.50399780 382.50000000 0.000978 0.000978 0.999999 0.000000
277.57800293 104.50000000 376.50000000 0.691610 -0.080081 -0.717818 0.000000
122.46099854 115.11299896 379.50000000 -0.189357 -0.697386 0.691228 0.000000
177.16000366 165.32200623 396.00000000 0.195586 -0.424995 0.883813 0.000000
88.58010101 175.52699280 384.00000000 -0.637826 0.126376 0.759741 0.000000
248.18800354 91.43750000 385.50000000 0.112365 -0.558909 0.821581 0.000000
81.64060211 151.85200500 370.50000000 -0.839271 -0.194373 0.507782 0.000000
201.65199280 152.66799927 340.50000000 -0.936322 -0.264521 0.230931 0.000000
193.48800659 156.75000000 337.50000000 0.477670 0.036744 -0.877770 0.000000
185.32400513 194.71299744 324.00000000 0.393330 0.451126 -0.801110 0.000000
80.00779724 155.93400574 328.50000000 -0.807867 -0.568941 -0.153808 0.000000
100.01000214 112.66400146 341.00000000 -0.705614 -0.705614 0.064934 0.000000
198.38699341 80.82420349 358.50000000 -0.420852 -0.794943 0.436977 0.000000
222.87899780 65.72070313 348.00000000 -0.694314 -0.694314 0.189358 0.000000
132.25799561 106.13300323 265.50000000 -0.001374 0.773712 -0.633537 0.000000
160.01600647 240.02299500 373.50000000 0.223121 0.647519 0.728654 0.000000
174.71099854 217.16400146 379.50000000 0.446729 0.647506 0.617389 0.000000
178.79299927 146.13699341 391.50000000 0.420931 -0.283172 0.861760 0.000000
217.97999573 63.27149963 333.00000000 -0.001199 -0.964929 0.262509 0.000000
244.10499573 126.54299927 382.50000000 0.000978 0.000978 0.999999 0.000000
182.87500000 226.14500427 367.50000000 0.482597 0.644023 0.593578 0.000000
84.90619659 231.85899353 286.50000000 -0.562639 -0.626844 -0.538984 0.000000
172.66999817 248.18800354 345.00000000 0.645070 0.645070 -0.409595 0.000000
268.59799194 107.76599884 385.50000000 0.000978 0.000978 0.999999 0.000000
171.44500732 108.58200073 286.50000000 0.464634 0.435288 -0.771129 0.000000
194.30499268 138.78900146 334.50000000 -0.001321 0.463513 -0.886089 0.000000
173.07800293 155.93400574 325.50000000 0.702062 0.436507 -0.562646 0.000000
88.98829651 152.66799927 382.50000000 -0.581372 -0.350126 0.734451 0.000000
253.90199280 118.37899780 358.50000000 0.862199 0.211426 -0.460339 0.000000
121.23600006 217.16400146 390.00000000 -0.389797 0.286660 0.875148 0.000000
243.28900146 74.29299927 364.50000000 0.100513 -0.796822 0.595795 0.000000
173.07800293 192.26400757 393.00000000 0.341911 0.445903 0.827205 0.000000
159.19900513 122.46099854 283.50000000 0.348485 0.466237 -0.813131 0.000000
67.35350037 176.34399414 348.00000000 -0.748326 -0.560027 0.355496 0.000000
210.63299561 95.11129761 384.00000000 -0.202334 -0.540063 0.816941 0.000000
231.04299927 112.66400146 388.50000000 0.032190 0.213408 0.976433 0.000000
148.58599854 95.92769623 369.00000000 -0.175157 -0.866954 0.466595 0.000000
105.31600189 167.36300659 268.50000000 0.655351 0.527314 -0.540791 0.000000
227.77699280 106.13300323 391.50000000 0.157025 0.264393 0.951546 0.000000
93.07029724 203.28500366 280.50000000 0.851987 0.313890 -0.419035 0.000000
97.15229797 236.35000610 371.00000000 -0.484294 0.335036 0.808214 0.000000
146.95300293 80.41600037 300.00000000 -0.694314 -0.694314 0.189358 0.000000
100.01000214 116.74600220 279.00000000 -0.818186 -0.572306 0.055111 0.000000
116.74600220 264.92401123 318.00000000 0.481544 -0.179282 -0.857889 0.000000
76.74220276 212.26600647 367.50000000 -0.610761 0.314244 0.726789 0.000000
173.48599243 241.65600586 336.00000000 0.459179 0.676246 -0.576061 0.000000
206.55099487 71.84380341 349.50000000 -0.445654 -0.878157 0.173878 0.000000
199.20300293 82.86519623 363.00000000 -0.472795 -0.792295 0.385659 0.000000
240.02299500 91.43750000 385.50000000 0.149495 -0.696134 0.702174 0.000000
199.20300293 166.54699707 328.50000000 0.478730 0.302934 -0.824044 0.000000
100.82599640 253.90199280 309.00000000 0.569085 0.407432 -0.714242 0.000000
256.76000977 95.51950073 363.00000000 0.290150 0.144400 -0.946024 0.000000
80.41600037 220.42999268 281.00000000 -0.374557 -0.267114 -0.887895 0.000000
173.48599243 117.56199646 292.00000000 0.451981 0.578736 -0.678806 0.000000
119.19499969 259.61700439 361.50000000 -0.046769 0.783734 0.619334 0.000000
105.31600189 115.93000031 313.50000000 -0.801649 -0.547354 -0.240340 0.000000
151.85200500 148.58599854 403.50000000 0.308552 -0.511089 0.802236 0.000000
110.21499634 146.13699341 394.50000000 -0.498938 -0.286224 0.818008 0.000000
106.13300323 251.45300293 364.50000000 0.213137 0.848014 0.485227 0.000000
142.05499268 240.83999634 376.50000000 0.323714 0.511882 0.795730 0.000000
216.34800720 85.72270203 376.50000000 -0.150556 -0.815388 0.558995 0.000000
200.02000427 181.24200439 370.50000000 0.183968 0.507034 0.842065 0.000000
100.01000214 196.75399780 288.00000000 0.704238 0.471157 -0.531092 0.000000
173.89500427 177.16000366 397.50000000 0.000978 0.000978 0.999999 0.000000
92.25389862 164.91400146 253.50000000 0.630666 0.195830 -0.750940 0.000000
244.10499573 142.05499268 379.50000000 0.207306 0.575851 0.790835 0.000000
71.43550110 222.87899780 354.00000000 -0.786895 0.272811 0.553507 0.000000
134.70700073 212.26600647 394.50000000 -0.137340 0.475631 0.868857 0.000000
262.88299561 133.89100647 376.50000000 0.392301 0.408184 0.824309 0.000000
187.36500549 227.77699280 352.00000000 0.707106 0.707106 -0.001384 0.000000
251.45300293 123.27700043 382.50000000 0.099859 0.223736 0.969521 0.000000
88.98829651 138.38099670 281.00000000 -0.896744 -0.383061 0.221618 0.000000
136.74800110 151.03500366 405.00000000 -0.302316 -0.302316 0.903997 0.000000
107.76599884 158.38299561 265.50000000 0.585068 0.317516 -0.746243 0.000000
73.88480377 205.73399353 306.00000000 -0.987547 0.068953 -0.141412 0.000000
132.66600037 148.58599854 279.00000000 0.544394 -0.118220 -0.830457 0.000000
93.07029724 166.54699707 253.50000000 -0.000978 -0.000978 -0.999999 0.000000
75.92579651 167.36300659 361.50000000 -0.767178 -0.287493 0.573398 0.000000
135.52299500 86.13089752 279.00000000 -0.884242 -0.454147 0.108939 0.000000
223.69500732 98.78520203 388.50000000 -0.594744 -0.371920 0.712710 0.000000
115.11299896 101.64299774 264.00000000 -0.259850 -0.844129 -0.468961 0.000000
79.19139862 237.57400513 355.50000000 -0.715782 0.469991 0.516492 0.000000
133.89100647 243.28900146 331.50000000 -0.010802 0.248447 -0.968585 0.000000
91.84570313 144.50399780 382.00000000 -0.662804 -0.301568 0.685381 0.000000
102.86699677 162.87300110 264.00000000 0.624544 0.285917 -0.726771 0.000000
92.25389862 168.17999268 253.50000000 0.278023 0.134356 -0.951132 0.000000
138.78900146 195.12100220 400.50000000 -0.033097 0.414374 0.909505 0.000000
197.57000732 155.93400574 343.50000000 0.334938 -0.919297 -0.206664 0.000000
211.44900513 92.25389862 382.50000000 -0.304909 -0.510288 0.804138 0.000000
179.60899353 149.40199280 391.50000000 0.411208 -0.324311 0.851898 0.000000
91.43750000 168.99600220 253.50000000 0.701663 0.213144 -0.679882 0.000000
124.91000366 112.66400146 271.50000000 0.298979 0.896937 -0.325753 0.000000
125.72699738 184.10000610 306.00000000 0.362105 0.709463 -0.604600 0.000000
170.62899780 220.42999268 379.50000000 0.469991 0.516492 0.715782 0.000000
223.69500732 134.70700073 331.50000000 0.723713 0.346407 -0.596860 0.000000
133.89100647 130.62500000 397.50000000 0.104411 -0.651463 0.751462 0.000000
253.08599854 146.95300293 379.50000000 0.000978 0.000978 0.999999 0.000000
93.07029724 134.70700073 310.50000000 -0.871978 -0.488362 -0.034009 0.000000
90.62110138 170.62899780 253.50000000 0.689558 0.265950 -0.673633 0.000000
97.96880341 255.53500366 307.50000000 0.132310 -0.103702 -0.985769 0.000000
92.25389862 170.62899780 253.50000000 0.730383 0.282884 -0.621705 0.000000
254.71899414 122.46099854 382.50000000 0.000978 0.000978 0.999999 0.000000
165.72999573 216.34800720 325.50000000 -0.000978 -0.000978 -0.999999 0.000000
92.25389862 241.65600586 364.50000000 -0.298117 0.506325 0.809173 0.000000
128.58399963 89.80470276 281.00000000 -0.001100 -0.990809 -0.135260 0.000000
153.48399353 240.02299500 373.50000000 0.211661 0.516210 0.829895 0.000000
116.74600220 258.39300537 363.00000000 -0.206433 0.650343 0.731054 0.000000
129.80900574 173.48599243 297.00000000 0.430171 0.689271 -0.582974 0.000000
94.29489899 133.89100647 297.00000000 -0.870651 -0.488617 0.056751 0.000000
142.05499268 211.85699463 393.00000000 0.175964 0.480574 0.859119 0.000000
115.93000031 194.30499268 397.50000000 -0.364873 0.266581 0.892078 0.000000
109.80699921 221.24600220 311.00000000 0.536156 0.361217 -0.762928 0.000000
166.54699707 172.26199341 403.50000000 0.672312 -0.179181 0.718256 0.000000
68.57810211 205.73399353 352.50000000 -0.702227 -0.117285 0.702227 0.000000
91.43750000 173.07800293 253.50000000 0.738360 0.254552 -0.624523 0.000000
173.89500427 229.41000366 328.50000000 0.728346 0.584958 -0.356841 0.000000
89.80470276 222.87899780 373.50000000 -0.422581 0.422581 0.801779 0.000000
71.84380341 224.10400391 354.00000000 -0.812743 0.269874 0.516349 0.000000
142.05499268 247.37100220 334.50000000 -0.000978 -0.000978 -0.999999 0.000000
189.81399536 141.23800659 336.00000000 0.455505 0.575638 -0.679085 0.000000
91.02929688 173.89500427 255.00000000 0.772639 0.218321 -0.596125 0.000000
91.43750000 173.48599243 255.00000000 0.766280 0.235658 -0.597729 0.000000
83.27339935 248.59599304 352.00000000 -0.499186 0.696189 0.515881 0.000000
243.28900146 159.19900513 364.50000000 0.636508 0.666267 -0.388518 0.000000
193.89599609 193.48800659 375.00000000 0.469281 -0.870277 0.149647 0.000000
250.63699341 82.45700073 352.50000000 0.694857 0.397768 -0.599128 0.000000
115.93000031 189.40600586 304.50000000 0.707710 0.351403 -0.612913 0.000000
262.88299561 141.23800659 370.50000000 0.650978 0.523137 -0.550051 0.000000
82.86519623 175.52699280 255.00000000 -0.891323 0.319079 -0.322075 0.000000
179.60899353 168.99600220 328.50000000 0.331500 -0.574062 -0.748706 0.000000
131.44099426 107.35700226 267.00000000 0.120461 0.697482 -0.706405 0.000000
120.82800293 167.36300659 403.50000000 0.000978 0.000978 0.999999 0.000000
133.89100647 160.01600647 283.50000000 0.213576 0.706205 -0.675026 0.000000
82.86519623 176.34399414 255.00000000 -0.873103 0.396313 -0.283948 0.000000
183.69099426 149.40199280 334.50000000 0.126845 -0.705858 -0.696904 0.000000
71.02729797 218.79699707 355.50000000 -0.811014 0.294485 0.505506 0.000000
115.11299896 131.44099426 388.50000000 -0.147566 -0.576847 0.803412 0.000000
259.61700439 147.77000427 376.50000000 0.859796 -0.292729 0.418403 0.000000
114.29699707 213.08200073 388.50000000 0.089324 0.506170 0.857795 0.000000
153.48399353 110.62300110 276.00000000 0.951658 -0.238927 0.193031 0.000000
133.89100647 253.08599854 367.50000000 0.132020 0.585930 0.799535 0.000000
66.12889862 220.42999268 343.50000000 -0.913331 0.303476 0.271531 0.000000
93.88670349 202.87699890 384.00000000 -0.651911 0.064759 0.755526 0.000000
87.35549927 231.04299927 286.50000000 0.460094 0.149494 -0.875194 0.000000
219.61300659 168.99600220 376.50000000 0.096519 0.543102 0.834101 0.000000
252.27000427 136.33999634 361.50000000 0.927117 0.093117 -0.363020 0.000000
106.94899750 110.62300110 294.00000000 -0.772394 -0.455598 0.442535 0.000000
93.07029724 133.48199463 288.00000000 -0.790643 -0.548577 0.271931 0.000000
135.52299500 157.15800476 281.00000000 0.436962 0.373404 -0.818311 0.000000
72.25199890 209.81599426 311.00000000 -0.926712 0.040634 -0.373569 0.000000
115.11299896 190.22300720 301.50000000 0.704652 0.351509 -0.616366 0.000000
231.04299927 107.35700226 390.00000000 0.275914 0.310951 0.909495 0.000000
120.01200104 223.69500732 385.50000000 -0.222328 0.598575 0.769596 0.000000
183.69099426 207.77499390 382.00000000 0.360404 0.515556 0.777374 0.000000
164.91400146 132.25799561 289.50000000 0.115362 0.146934 -0.982396 0.000000
86.13089752 164.91400146 382.00000000 -0.798969 -0.116240 0.590031 0.000000
228.59399414 125.72699738 331.50000000 0.625926 0.315389 -0.713265 0.000000
100.41799927 198.38699341 388.50000000 0.000978 0.000978 0.999999 0.000000
88.98829651 180.42599487 253.50000000 0.430583 0.351721 -0.831198 0.000000
83.27339935 141.64599609 363.00000000 -0.839995 -0.420780 0.342568 0.000000
123.27700043 131.44099426 274.50000000 0.911293 0.199480 -0.360212 0.000000
157.56599426 227.77699280 382.50000000 0.203145 0.301215 0.931666 0.000000
94.70310211 229.41000366 301.50000000 0.909576 0.072059 -0.409241 0.000000
107.76599884 264.51599121 352.50000000 0.610843 0.664105 0.431086 0.000000
184.10000610 125.72699738 300.00000000 0.758223 0.043934 -0.650513 0.000000
231.85899353 153.07600403 345.00000000 0.639871 0.388552 -0.663018 0.000000
220.42999268 149.40199280 337.50000000 0.295236 0.479564 -0.826350 0.000000
236.75799561 131.44099426 340.50000000 0.563114 0.392374 -0.727287 0.000000
82.86519623 182.05900574 255.00000000 -0.884857 0.108667 -0.453013 0.000000
228.18600464 122.46099854 330.00000000 0.604025 0.229436 -0.763225 0.000000
145.32000732 138.78900146 292.50000000 0.422581 0.422581 -0.801779 0.000000
191.85499573 112.66400146 328.50000000 0.547033 -0.819801 -0.169356 0.000000
173.89500427 159.19900513 328.50000000 0.857073 -0.095547 -0.506258 0.000000
210.63299561 79.19139862 364.50000000 -0.338899 -0.844905 0.413863 0.000000
196.75399780 180.42599487 352.50000000 -0.000978 -0.000978 -0.999999 0.000000
242.47300720 151.03500366 379.50000000 0.000978 0.000978 0.999999 0.000000
232.67599487 115.93000031 388.50000000 0.251597 0.504738 0.825795 0.000000
115.11299896 209.00000000 391.50000000 -0.023397 0.557404 0.829912 0.000000
195.12100220 216.34800720 361.50000000 0.683917 0.664607 0.300924 0.000000
196.75399780 139.60499573 334.50000000 -0.485535 0.360546 -0.796406 0.000000
151.85200500 237.57400513 376.50000000 0.277924 0.598727 0.751188 0.000000
213.08200073 143.68800354 382.50000000 0.000978 0.000978 0.999999 0.000000
124.09400177 135.52299500 397.50000000 -0.398221 -0.312119 0.862556 0.000000
228.59399414 103.68399811 391.50000000 0.104588 0.027523 0.994135 0.000000
137.97300720 130.62500000 286.50000000 0.217597 0.509755 -0.832347 0.000000
164.91400146 199.20300293 319.50000000 -0.528099 0.299732 -0.794527 0.000000
180.42599487 237.98199463 341.00000000 0.755678 0.565550 -0.330307 0.000000
271.86300659 111.84799957 382.50000000 0.306510 0.532026 0.789304 0.000000
247.37100220 107.76599884 388.50000000 0.653159 -0.262217 0.710370 0.000000
159.19900513 191.85499573 319.50000000 -0.213369 0.488782 -0.845911 0.000000
98.78520203 125.72699738 370.50000000 -0.612056 -0.612056 0.500773 0.000000
88.17189789 184.50799561 253.50000000 0.411432 0.306648 -0.858307 0.000000
102.05100250 209.00000000 385.50000000 -0.385070 0.475295 0.791085 0.000000
154.30099487 183.69099426 307.50000000 0.142792 0.662857 -0.735004 0.000000
112.66400146 167.36300659 277.50000000 0.743183 0.529908 -0.408505 0.000000
78.37500000 183.28300476 276.00000000 -0.995462 -0.029439 -0.090497 0.000000
84.08979797 185.32400513 253.50000000 -0.128539 -0.023472 -0.991427 0.000000
231.85899353 136.33999634 382.50000000 0.000978 0.000978 0.999999 0.000000
119.19499969 108.58200073 370.50000000 -0.418946 -0.713698 0.561354 0.000000
173.07800293 137.97300720 292.50000000 0.595488 0.350767 -0.722743 0.000000
87.35549927 185.32400513 253.50000000 0.411432 0.306648 -0.858307 0.000000
75.10939789 242.47300720 316.50000000 -0.586197 0.669701 -0.455931 0.000000
112.25599670 105.31600189 300.00000000 -0.811545 -0.541542 0.219378 0.000000
84.08979797 186.14100647 253.50000000 -0.304620 0.258422 -0.916747 0.000000
257.16799927 87.35549927 382.50000000 0.020926 -0.645926 0.763113 0.000000
85.72270203 231.04299927 286.50000000 -0.562639 -0.626844 -0.538984 0.000000
97.96880341 259.61700439 307.50000000 -0.000978 -0.000978 -0.999999 0.000000
114.29699707 120.82800293 379.50000000 -0.461685 -0.461685 0.757426 0.000000
130.21699524 89.80470276 273.00000000 -0.484846 -0.859166 -0.163580 0.000000
226.14500427 120.82800293 328.50000000 0.755638 0.029550 -0.654323 0.000000
164.09800720 209.81599426 388.50000000 0.351679 0.436839 0.827945 0.000000
93.88670349 127.35900116 325.50000000 -0.783136 -0.530098 -0.325106 0.000000
202.87699890 159.19900513 336.00000000 0.514387 -0.844539 -0.148863 0.000000
74.29299927 187.77299500 304.50000000 -0.964929 0.001199 -0.262509 0.000000
111.84799957 185.32400513 397.50000000 -0.283928 0.428195 0.857924 0.000000
149.40199280 183.69099426 307.50000000 0.137709 0.570084 -0.809963 0.000000
85.31449890 155.11700439 294.00000000 -0.906660 -0.298301 0.298301 0.000000
194.30499268 128.99200439 307.50000000 0.660777 -0.192534 -0.725468 0.000000
93.88670349 120.01200104 343.50000000 -0.694314 -0.694314 0.189358 0.000000
140.42199707 255.53500366 364.50000000 -0.026670 0.672364 0.739740 0.000000
110.62300110 175.52699280 288.00000000 0.746387 0.564262 -0.352867 0.000000
167.36300659 83.27339935 337.50000000 -0.158505 -0.962818 0.218763 0.000000
162.46499634 79.59960175 306.00000000 -0.000978 -0.999999 -0.000978 0.000000
128.99200439 178.79299927 301.50000000 0.155299 0.625719 -0.764433 0.000000
209.00000000 176.34399414 373.50000000 0.553449 0.829462 0.075406 0.000000
76.74220276 227.77699280 298.50000000 -0.966338 0.092697 -0.239997 0.000000
237.57400513 147.77000427 349.50000000 0.857801 0.122956 -0.499058 0.000000
142.05499268 217.57200623 390.00000000 0.183331 0.396977 0.899333 0.000000
84.90619659 188.58999634 253.50000000 0.258963 0.387695 -0.884664 0.000000
140.42199707 222.87899780 388.50000000 0.000978 0.000978 0.999999 0.000000
149.40199280 86.53910065 337.50000000 -0.194706 -0.968373 0.156023 0.000000
95.51950073 200.02000427 385.50000000 -0.657909 0.101556 0.746219 0.000000
235.94099426 83.27339935 340.50000000 0.591008 -0.001365 -0.806665 0.000000
72.25199890 229.41000366 352.00000000 -0.773712 -0.001374 0.633537 0.000000
187.77299500 164.09800720 391.50000000 0.489623 -0.042516 0.870897 0.000000
136.33999634 269.41400146 334.50000000 -0.284213 0.566839 -0.773251 0.000000
180.42599487 143.68800354 304.50000000 0.490133 0.755690 -0.434399 0.000000
66.53710175 196.75399780 324.00000000 -0.777840 -0.520171 -0.352685 0.000000
129.80900574 99.60160065 364.50000000 -0.443393 -0.888203 0.120410 0.000000
193.08000183 82.45700073 357.00000000 -0.349791 -0.800206 0.487151 0.000000
102.86699677 218.79699707 382.50000000 -0.449393 0.200225 0.870607 0.000000
115.11299896 118.37899780 262.50000000 0.704753 0.432801 -0.562144 0.000000
173.48599243 246.55499268 352.00000000 0.680775 0.722486 0.120663 0.000000
143.68800354 110.21499634 382.50000000 0.000978 0.000978 0.999999 0.000000
272.67999268 105.31600189 370.50000000 0.660054 -0.660054 -0.358689 0.000000
131.44099426 258.80099487 364.50000000 -0.029603 0.678041 0.734427 0.000000
123.27700043 155.11700439 274.50000000 0.575722 -0.012366 -0.817552 0.000000
266.96499634 113.48000336 370.50000000 0.363680 0.360585 -0.858904 0.000000
160.01600647 119.19499969 382.50000000 0.101975 -0.217799 0.970652 0.000000
195.12100220 104.50000000 307.50000000 0.888949 -0.251646 -0.382680 0.000000
66.12889862 194.30499268 328.50000000 -0.897169 -0.348487 -0.271375 0.000000
98.78520203 233.49200439 307.50000000 0.694034 0.108027 -0.711792 0.000000
211.44900513 104.50000000 388.50000000 0.000978 0.000978 0.999999 0.000000
217.16400146 110.21499634 322.50000000 0.347265 -0.233932 -0.908120 0.000000
104.50000000 111.84799957 331.50000000 -0.634480 -0.723530 -0.271920 0.000000
231.85899353 147.77000427 343.50000000 0.838305 0.139473 -0.527060 0.000000
235.94099426 120.82800293 337.50000000 0.651693 0.244582 -0.717967 0.000000
217.97999573 96.33589935 388.50000000 -0.530609 -0.130094 0.837573 0.000000
185.32400513 196.75399780 388.50000000 0.148918 0.523426 0.838957 0.000000
130.62500000 151.03500366 277.50000000 0.635567 0.058558 -0.769822 0.000000
279.21099854 107.76599884 382.50000000 0.429129 0.841093 0.329259 0.000000
233.49200439 145.32000732 382.50000000 -0.088959 0.221771 0.971032 0.000000
211.04100037 179.60899353 369.00000000 0.113843 0.511575 0.851664 0.000000
151.85200500 174.71099854 301.50000000 0.086230 0.708844 -0.700075 0.000000
66.94529724 226.14500427 325.50000000 -0.915502 0.198525 -0.349919 0.000000
214.71499634 65.72070313 341.00000000 -0.217537 -0.961120 0.170075 0.000000
185.73199463 229.41000366 360.00000000 0.617158 0.546142 0.566432 0.000000
182.87500000 111.03099823 298.50000000 0.392159 -0.049186 -0.918582 0.000000
148.17799377 241.65600586 375.00000000 0.179081 0.478043 0.859886 0.000000
135.52299500 261.25000000 361.50000000 0.289783 0.613188 0.734865 0.000000
172.26199341 131.44099426 292.50000000 0.425216 0.025169 -0.904742 0.000000
84.08979797 138.78900146 361.50000000 -0.839995 -0.420780 0.342568 0.000000
75.51760101 213.89799500 303.00000000 -0.803757 -0.402681 -0.437975 0.000000
168.17999268 223.69500732 379.50000000 0.396869 0.474623 0.785639 0.000000
108.98999786 206.55099487 390.00000000 -0.366881 0.407820 0.836111 0.000000
174.71099854 85.72270203 346.50000000 -0.166924 -0.945905 0.278207 0.000000
195.12100220 142.05499268 337.50000000 -0.264021 0.343670 -0.901212 0.000000
65.31250000 200.42799377 345.00000000 -0.972375 -0.088625 0.215945 0.000000
122.46099854 150.21899414 271.50000000 0.666807 0.392142 -0.633714 0.000000
265.33200073 116.74600220 382.50000000 0.183064 0.393516 0.900907 0.000000
238.39100647 115.93000031 337.50000000 0.577401 0.231894 -0.782837 0.000000
199.20300293 199.61099243 357.00000000 0.520171 -0.777840 -0.352685 0.000000
196.75399780 112.66400146 310.50000000 0.694314 0.694314 0.189358 0.000000
226.14500427 143.68800354 337.50000000 0.780531 0.294090 -0.551618 0.000000
112.66400146 142.05499268 394.50000000 -0.466397 -0.330430 0.820542 0.000000
239.61500549 165.72999573 371.00000000 0.242886 0.967806 0.066015 0.000000
153.48399353 156.75000000 406.50000000 0.254142 -0.297217 0.920366 0.000000
140.42199707 250.63699341 334.50000000 0.335170 0.050470 -0.940805 0.000000
153.48399353 155.11700439 295.50000000 0.435018 -0.635026 -0.638359 0.000000
166.54699707 109.39800262 283.50000000 0.634310 0.322833 -0.702446 0.000000
99.60160065 136.33999634 382.50000000 -0.479912 -0.536766 0.693950 0.000000
213.89799500 97.15229797 319.50000000 0.535448 0.339278 -0.773425 0.000000
191.03900146 205.73399353 379.50000000 0.418483 0.001296 0.908224 0.000000
89.39649963 161.64799500 384.00000000 -0.738415 -0.152515 0.656873 0.000000
191.44700623 192.67199707 378.00000000 0.443393 -0.888203 0.120410 0.000000
99.19339752 164.91400146 262.00000000 0.709360 0.166280 -0.684952 0.000000
164.09800720 224.51199341 379.50000000 0.400915 0.445998 0.800220 0.000000
224.51199341 171.03700256 360.00000000 0.957603 0.286908 0.026083 0.000000
142.87100220 167.36300659 292.50000000 0.186210 0.724836 -0.663279 0.000000
259.61700439 144.50399780 370.50000000 0.571408 0.235102 -0.786270 0.000000
166.54699707 103.68399811 280.50000000 0.806549 0.239952 -0.540279 0.000000
226.14500427 91.43750000 385.50000000 -0.176006 -0.653517 0.736164 0.000000
207.36700439 106.94899750 388.50000000 -0.105930 -0.067203 0.992100 0.000000
92.25389862 237.57400513 367.50000000 -0.110646 0.647645 0.753865 0.000000
102.05100250 117.15399933 366.00000000 0.001365 0.591008 0.806665 0.000000
132.25799561 136.74800110 399.00000000 0.486326 -0.157211 0.859518 0.000000
237.57400513 159.19900513 355.50000000 0.514942 0.612865 -0.599359 0.000000
175.52699280 152.66799927 394.50000000 0.239051 -0.190430 0.952151 0.000000
176.34399414 153.48399353 394.50000000 0.236282 -0.073760 0.968881 0.000000
88.98829651 253.90199280 304.50000000 -0.375592 0.807122 -0.455505 0.000000
129.80900574 213.08200073 319.50000000 0.918410 -0.307098 -0.249427 0.000000
186.14100647 164.91400146 394.50000000 0.561217 -0.118691 0.819114 0.000000
134.70700073 245.73800659 373.50000000 0.000978 0.000978 0.999999 0.000000
128.99200439 264.51599121 331.50000000 0.477261 -0.088694 -0.874274 0.000000
158.38299561 250.63699341 334.50000000 -0.000978 -0.000978 -0.999999 0.000000
242.47300720 142.87100220 379.50000000 0.315337 0.401478 0.859871 0.000000
137.15600586 85.31449890 288.00000000 -0.001199 -0.964929 -0.262509 0.000000
226.14500427 148.58599854 340.50000000 0.463515 0.201204 -0.862943 0.000000
79.19139862 247.77900696 315.00000000 -0.862513 0.425913 -0.273256 0.000000
92.25389862 180.42599487 259.50000000 0.827827 0.282178 -0.484848 0.000000
234.30900574 161.64799500 379.50000000 0.000978 0.000978 0.999999 0.000000
243.28900146 149.81100464 357.00000000 0.700282 0.318604 -0.638825 0.000000
247.37100220 162.05700684 375.00000000 0.556125 0.656933 0.509081 0.000000
263.69900513 92.25389862 370.50000000 0.686778 -0.029615 -0.726264 0.000000
181.24200439 188.58999634 319.50000000 0.691807 0.217068 -0.688683 0.000000
163.28100586 201.24400330 393.00000000 0.083025 0.398792 0.913275 0.000000
93.88670349 259.20901489 348.00000000 -0.505388 0.803234 0.315273 0.000000
74.29299927 231.85899353 310.50000000 -0.887260 0.267824 -0.375552 0.000000
73.88480377 162.46499634 339.00000000 -0.879167 -0.429979 -0.205385 0.000000
124.09400177 93.88670349 310.50000000 -0.694314 -0.694314 0.189358 0.000000
148.58599854 173.07800293 406.50000000 0.000978 0.000978 0.999999 0.000000
256.35198975 124.09400177 382.50000000 0.291753 0.237672 0.926494 0.000000
175.11900330 164.91400146 315.00000000 0.860467 -0.344496 0.375392 0.000000
151.03500366 266.14801025 340.50000000 0.382697 0.883955 -0.268638 0.000000
202.46899414 84.08979797 367.50000000 -0.311354 -0.637227 0.704983 0.000000
263.69900513 113.48000336 367.50000000 0.730346 -0.129939 -0.670604 0.000000
180.42599487 81.23239899 333.00000000 -0.114295 -0.979495 0.165912 0.000000
180.83399963 235.94099426 357.00000000 0.799801 0.514723 0.308834 0.000000
200.83599854 174.71099854 340.50000000 -0.033900 0.877339 -0.478672 0.000000
227.77699280 146.13699341 382.50000000 0.062999 0.172355 0.983018 0.000000
124.91000366 207.36700439 319.50000000 0.526046 -0.826210 -0.201626 0.000000
251.45300293 108.58200073 355.50000000 0.807233 -0.144202 -0.572347 0.000000
119.19499969 164.09800720 280.50000000 0.602751 0.682454 -0.413458 0.000000
95.51950073 151.44299316 387.00000000 -0.672495 -0.315991 0.669254 0.000000
97.15229797 203.28500366 289.50000000 0.711474 0.185936 -0.677667 0.000000
71.43550110 185.32400513 318.00000000 -0.000978 -0.000978 -0.999999 0.000000
125.72699738 210.63299561 394.50000000 -0.240652 0.838449 0.488968 0.000000
176.34399414 127.35900116 292.50000000 0.358133 0.098656 -0.928444 0.000000
70.61910248 172.26199341 352.00000000 -0.817050 -0.464846 0.341098 0.000000
235.12500000 122.05300140 336.00000000 0.644657 0.255012 -0.720685 0.000000
144.50399780 195.12100220 400.50000000 0.306812 0.389239 0.868538 0.000000
102.86699677 204.91799927 295.50000000 0.699754 0.430490 -0.570108 0.000000
102.05100250 197.57000732 289.50000000 0.340205 0.396129 -0.852843 0.000000
188.58999634 217.16400146 337.50000000 0.594097 0.281918 -0.753373 0.000000
161.64799500 168.99600220 406.50000000 0.564371 0.121670 0.816506 0.000000
188.99800110 107.76599884 324.00000000 -0.153349 -0.817367 -0.555333 0.000000
165.72999573 247.37100220 334.50000000 0.283130 0.558352 -0.779795 0.000000
191.85499573 175.52699280 322.50000000 0.677534 0.001380 -0.735490 0.000000
160.01600647 120.82800293 382.50000000 0.117155 -0.324534 0.938591 0.000000
142.05499268 137.97300720 400.50000000 0.276708 -0.462211 0.842492 0.000000
137.97300720 200.83599854 397.50000000 0.000978 0.000978 0.999999 0.000000
71.43550110 214.71499634 315.00000000 -0.904835 -0.104244 -0.412805 0.000000
183.69099426 169.40400696 330.00000000 0.139618 -0.644046 -0.752138 0.000000
93.47850037 246.55499268 363.00000000 -0.551335 0.365930 0.749750 0.000000
116.74600220 195.12100220 307.50000000 0.606508 0.250480 -0.754591 0.000000
143.27900696 146.13699341 292.00000000 0.681045 -0.101495 -0.725173 0.000000
196.75399780 149.40199280 385.50000000 0.000978 0.000978 0.999999 0.000000
156.75000000 107.76599884 382.50000000 0.101603 -0.074204 0.992054 0.000000
253.08599854 128.17599487 382.50000000 0.253293 0.267444 0.929686 0.000000
192.67199707 191.03900146 337.50000000 0.970524 -0.215812 -0.107275 0.000000
258.39300537 122.46099854 363.00000000 0.483880 0.131442 -0.865207 0.000000
70.21089935 202.46899414 361.50000000 -0.918410 0.307098 0.249427 0.000000
109.39800262 177.56799316 288.00000000 0.834506 0.501924 -0.227315 0.000000
210.63299561 186.54899597 354.00000000 -0.340224 0.940324 -0.006277 0.000000
64.90429688 217.97999573 341.00000000 -0.905834 0.240681 0.348622 0.000000
146.13699341 159.19900513 286.50000000 0.180276 0.901379 -0.393722 0.000000
145.32000732 257.16799927 334.50000000 -0.000978 -0.000978 -0.999999 0.000000
235.94099426 132.66600037 341.00000000 0.531778 0.413239 -0.739220 0.000000
180.42599487 79.59960175 311.00000000 0.162432 -0.983015 -0.085427 0.000000
