64.58789825 222.96099854 317.50000000 0.741327 0.593383 -0.313577 0.000000
176.95300293 196.41799927 412.50000000 0.000978 0.000978 0.999999 0.000000
69.89649963 284.01000977 367.50000000 -0.572130 0.291643 0.766558 0.000000
92.01560211 201.72700500 332.50000000 0.000978 0.000978 -0.999999 0.000000
263.21798706 198.18800354 375.00000000 0.501896 0.333004 -0.798254 0.000000
164.56599426 215.88299561 412.50000000 0.000978 0.000978 0.999999 0.000000
116.78900146 287.54901123 382.50000000 -0.000978 -0.000978 0.999999 0.000000
165.45100403 236.23199463 402.50000000 0.482728 0.539519 0.689850 0.000000
168.99000549 207.91999817 412.50000000 0.000978 0.000978 0.999999 0.000000
184.03100586 119.88600159 385.00000000 -0.111090 -0.940921 0.319886 0.000000
219.42199707 185.80099487 342.50000000 -0.000978 -0.000978 -0.999999 0.000000
238.88699341 231.80900574 372.50000000 -0.000978 -0.000978 -0.999999 0.000000
184.91600037 154.83399963 412.50000000 0.000978 0.000978 0.999999 0.000000
118.55899811 223.84599304 332.50000000 -0.000978 -0.000978 -0.999999 0.000000
144.21699524 246.85000610 407.50000000 -0.179598 0.713786 0.676945 0.000000
134.48399353 234.46299744 412.50000000 0.000978 0.000978 0.999999 0.000000
137.13900757 179.60699463 407.50000000 -0.023580 -0.583960 0.811440 0.000000
222.96099854 176.06799316 347.50000000 0.787556 0.067423 -0.612544 0.000000
214.99800110 166.33599854 407.50000000 0.000978 0.000978 0.999999 0.000000
138.02299500 227.38499451 412.50000000 0.000978 0.000978 0.999999 0.000000
245.08000183 210.57400513 362.50000000 0.807966 -0.001367 -0.589227 0.000000
166.33599854 136.25399780 337.50000000 -0.331077 0.513409 -0.791706 0.000000
117.67400360 269.85400391 347.50000000 0.000978 0.000978 -0.999999 0.000000
156.60400391 141.56199646 337.50000000 -0.000978 -0.000978 -0.999999 0.000000
145.98599243 264.98699951 395.00000000 0.216255 0.488465 0.845361 0.000000
123.86699677 174.29899597 407.50000000 0.000978 0.000978 0.999999 0.000000
110.59600067 296.39599609 357.50000000 -0.000978 -0.000978 -0.999999 0.000000
180.49200439 203.93800354 410.00000000 0.673620 0.535873 0.508995 0.000000
110.59600067 207.91999817 412.50000000 0.000978 0.000978 0.999999 0.000000
49.98929977 246.85000610 340.00000000 -0.967682 -0.244716 0.060868 0.000000
207.03500366 205.26600647 337.50000000 -0.000978 -0.000978 -0.999999 0.000000
165.45100403 135.36900330 337.50000000 -0.256964 0.013270 -0.966330 0.000000
126.52100372 149.52499390 397.50000000 0.000978 0.000978 0.999999 0.000000
144.21699524 241.54100037 332.50000000 -0.000978 -0.000978 -0.999999 0.000000
140.67799377 214.55599976 415.00000000 0.577837 0.444618 0.684412 0.000000
99.09380341 257.46701050 397.50000000 0.000978 0.000978 0.999999 0.000000
235.34800720 161.91200256 357.50000000 -0.000978 -0.000978 -0.999999 0.000000
128.29100037 284.45199585 355.00000000 -0.076536 0.619511 -0.781248 0.000000
221.19099426 141.56199646 342.50000000 -0.000978 -0.000978 -0.999999 0.000000
225.61500549 210.57400513 392.50000000 -0.701680 0.701680 0.123651 0.000000
85.82230377 215.88299561 402.50000000 -0.750767 0.387651 0.534860 0.000000
252.15800476 154.83399963 372.50000000 -0.000978 -0.000978 -0.999999 0.000000
88.47660065 284.89498901 352.50000000 -0.000978 -0.000978 -0.999999 0.000000
265.42999268 146.87100220 397.50000000 0.000978 0.000978 0.999999 0.000000
198.18800354 134.48399353 402.50000000 -0.000978 -0.000978 0.999999 0.000000
106.17199707 236.23199463 332.50000000 0.141986 0.230565 -0.962642 0.000000
210.57400513 230.92399597 347.50000000 0.728905 -0.318391 -0.606074 0.000000
53.97069931 264.54501343 357.50000000 -0.812992 0.442434 0.378545 0.000000
259.23599243 178.72300720 372.50000000 0.187739 0.219694 -0.957334 0.000000
161.02699280 166.33599854 412.50000000 0.000978 0.000978 0.999999 0.000000
94.66989899 285.77899170 352.50000000 0.366230 0.462186 -0.807626 0.000000
122.98200226 259.23599243 342.50000000 0.000978 0.000978 -0.999999 0.000000
211.45899963 188.45500183 402.50000000 0.000978 0.000978 0.999999 0.000000
151.29499817 219.42199707 412.50000000 0.000978 0.000978 0.999999 0.000000
117.67400360 159.25799561 397.50000000 -0.206958 -0.201618 0.957350 0.000000
235.34800720 213.22900391 392.50000000 -0.140284 0.279231 0.949921 0.000000
253.92799377 127.40599823 372.50000000 0.601823 -0.168268 -0.780702 0.000000
202.61099243 229.15400696 382.50000000 -0.215485 0.770474 0.599947 0.000000
113.25000000 169.87500000 352.50000000 -0.000978 -0.000978 -0.999999 0.000000
96.43949890 219.42199707 332.50000000 -0.000978 -0.000978 -0.999999 0.000000
185.80099487 167.22099304 412.50000000 0.000978 0.000978 0.999999 0.000000
68.12699890 241.54100037 327.50000000 -0.000978 -0.000978 -0.999999 0.000000
150.41000366 279.58599854 357.50000000 0.834322 0.171640 -0.523876 0.000000
251.27299500 228.71200562 385.00000000 0.326404 0.703149 0.631697 0.000000
230.03900146 207.03500366 347.50000000 0.486566 0.119130 -0.865484 0.000000
246.85000610 168.10499573 397.50000000 0.000978 0.000978 0.999999 0.000000
66.35739899 245.08000183 327.50000000 -0.498545 0.416816 -0.760077 0.000000
117.23100281 190.22500610 350.00000000 0.608321 -0.412730 -0.677938 0.000000
267.19900513 180.49200439 377.50000000 -0.025016 -0.975629 -0.217998 0.000000
253.92799377 182.26199341 367.50000000 0.616887 -0.020888 -0.786775 0.000000
157.48800659 131.83000183 402.50000000 0.001320 -0.883337 0.468736 0.000000
162.79699707 125.63700104 397.50000000 0.026574 -0.325213 0.945267 0.000000
97.32420349 239.77099609 332.50000000 0.017811 0.222048 -0.974873 0.000000
117.67400360 209.24699402 415.00000000 -0.471618 0.232018 0.850732 0.000000
145.98599243 142.44700623 402.50000000 0.000978 0.000978 0.999999 0.000000
177.83799744 193.76400757 352.50000000 0.914966 -0.105943 0.389376 0.000000
138.02299500 231.80900574 337.50000000 -0.247207 -0.924524 -0.290075 0.000000
120.32800293 207.03500366 337.50000000 0.577837 -0.684412 -0.444618 0.000000
76.97460175 192.87899780 387.50000000 -0.558883 -0.160323 0.813601 0.000000
247.73399353 137.13900757 372.50000000 0.668888 -0.001379 -0.743362 0.000000
115.90399933 221.19099426 412.50000000 0.000978 0.000978 0.999999 0.000000
217.65199280 206.14999390 337.50000000 0.000978 0.000978 -0.999999 0.000000
216.76800537 127.40599823 392.50000000 0.103993 -0.789468 0.604917 0.000000
168.99000549 165.45100403 337.50000000 0.000978 0.000978 -0.999999 0.000000
126.52100372 288.43399048 382.50000000 0.258814 0.425303 0.867256 0.000000
102.63300323 190.22500610 402.50000000 -0.434866 -0.722573 0.537382 0.000000
168.99000549 268.08401489 357.50000000 -0.000978 -0.000978 -0.999999 0.000000
206.14999390 240.65600586 337.50000000 0.080207 -0.499533 -0.862574 0.000000
214.99800110 161.91200256 407.50000000 0.000978 0.000978 0.999999 0.000000
141.56199646 182.26199341 412.50000000 0.000978 0.000978 0.999999 0.000000
92.01560211 298.16598511 367.50000000 -0.962442 -0.131183 0.237688 0.000000
71.66600037 248.61900330 387.50000000 -0.565044 -0.217088 0.795989 0.000000
62.81840134 204.38099670 362.50000000 -0.943586 -0.037129 0.329039 0.000000
62.81840134 276.93200684 362.50000000 -0.665727 0.272996 0.694464 0.000000
121.21299744 251.27299500 402.50000000 0.000978 0.000978 0.999999 0.000000
244.19500732 191.99400330 397.50000000 0.000978 0.000978 0.999999 0.000000
124.75199890 221.19099426 332.50000000 -0.000978 -0.000978 -0.999999 0.000000
75.20510101 193.76400757 387.50000000 -0.397337 -0.009060 0.917628 0.000000
237.11700439 116.78900146 372.50000000 -0.235216 -0.939471 -0.249134 0.000000
239.77099609 159.25799561 362.50000000 0.750363 -0.038154 -0.659924 0.000000
122.98200226 288.43399048 382.50000000 0.056691 0.485331 0.872490 0.000000
176.06799316 212.34399414 352.50000000 0.339875 -0.349019 -0.873310 0.000000
61.93360138 269.85400391 367.50000000 -0.984919 -0.001131 -0.173011 0.000000
264.54501343 182.26199341 387.50000000 0.276857 -0.072723 0.958155 0.000000
204.38099670 166.33599854 407.50000000 0.387792 -0.812288 0.435667 0.000000
135.36900330 170.75999451 407.50000000 0.000978 0.000978 0.999999 0.000000
275.60400391 157.48800659 390.00000000 0.984919 -0.001131 0.173011 0.000000
184.03100586 199.51499939 340.00000000 -0.469695 0.792510 -0.388992 0.000000
85.82230377 271.62298584 347.50000000 -0.000978 -0.000978 -0.999999 0.000000
234.90499878 131.83000183 345.00000000 0.584887 0.444914 -0.678202 0.000000
122.98200226 203.93800354 415.00000000 -0.255371 -0.677287 0.689977 0.000000
95.55470276 265.42999268 397.50000000 -0.260334 0.186732 0.947289 0.000000
196.41799927 118.11599731 355.00000000 -0.055766 -0.991267 -0.119498 0.000000
122.09799957 209.68899536 417.50000000 -0.223580 0.070409 0.972139 0.000000
159.25799561 171.64500427 337.50000000 -0.000978 -0.000978 -0.999999 0.000000
176.06799316 258.35198975 387.50000000 0.627265 0.496094 0.600358 0.000000
202.16900635 192.87899780 405.00000000 0.662850 0.410336 0.626302 0.000000
97.32420349 197.30299377 332.50000000 -0.000978 -0.000978 -0.999999 0.000000
122.98200226 257.46701050 402.50000000 -0.193664 0.172867 0.965718 0.000000
209.68899536 203.49600220 397.50000000 0.941400 -0.305649 0.142636 0.000000
146.87100220 171.64500427 407.50000000 0.000978 0.000978 0.999999 0.000000
69.01170349 266.31399536 342.50000000 0.000978 0.000978 -0.999999 0.000000
179.60699463 174.29899597 337.50000000 -0.000978 -0.000978 -0.999999 0.000000
126.52100372 207.91999817 337.50000000 0.393517 -0.722819 -0.568047 0.000000
263.66000366 167.22099304 372.50000000 0.848813 -0.479632 -0.222416 0.000000
242.42599487 204.38099670 392.50000000 -0.301386 0.200457 0.932193 0.000000
225.61500549 130.94500732 337.50000000 0.720300 0.568658 -0.397236 0.000000
227.38499451 165.45100403 402.50000000 0.000978 0.000978 0.999999 0.000000
264.54501343 162.79699707 377.50000000 0.631916 -0.567882 -0.527439 0.000000
169.87500000 261.89099121 387.50000000 0.064057 0.429315 0.900880 0.000000
138.90800476 233.13600159 335.00000000 0.024804 -0.920341 -0.390329 0.000000
151.29499817 270.73800659 352.50000000 0.267511 0.323060 -0.907783 0.000000
234.46299744 145.10200500 402.50000000 0.000978 0.000978 0.999999 0.000000
135.36900330 220.30700684 337.50000000 0.167869 0.001127 -0.985809 0.000000
193.76400757 174.29899597 337.50000000 -0.000978 -0.000978 -0.999999 0.000000
217.65199280 175.18400574 342.50000000 0.097488 -0.003214 -0.995232 0.000000
169.87500000 191.10899353 412.50000000 0.000978 0.000978 0.999999 0.000000
108.82599640 198.18800354 407.50000000 -0.511882 -0.323714 0.795730 0.000000
197.30299377 189.33999634 337.50000000 -0.000978 -0.000978 -0.999999 0.000000
248.61900330 162.79699707 397.50000000 0.000978 0.000978 0.999999 0.000000
164.56599426 129.17599487 397.50000000 0.710472 -0.400568 0.578598 0.000000
257.46701050 182.26199341 392.50000000 0.240769 0.148671 0.959128 0.000000
107.05699921 146.87100220 342.50000000 0.410146 -0.616049 -0.672506 0.000000
137.13900757 190.22500610 412.50000000 0.000978 0.000978 0.999999 0.000000
166.33599854 217.65199280 347.50000000 -0.000978 -0.000978 -0.999999 0.000000
95.55470276 208.80499268 332.50000000 -0.000978 -0.000978 -0.999999 0.000000
97.32420349 146.87100220 342.50000000 -0.768247 0.360672 -0.528878 0.000000
145.54400635 284.89498901 360.00000000 0.355275 0.556435 -0.751106 0.000000
224.72999573 145.98599243 402.50000000 0.000978 0.000978 0.999999 0.000000
191.10899353 161.91200256 412.50000000 0.000978 0.000978 0.999999 0.000000
80.51370239 161.02699280 322.50000000 0.633593 -0.198865 -0.747671 0.000000
94.66989899 256.58200073 397.50000000 0.000978 0.000978 0.999999 0.000000
154.83399963 187.57000732 412.50000000 0.000978 0.000978 0.999999 0.000000
132.71499634 268.96899414 397.50000000 0.206243 0.711770 0.671452 0.000000
268.96899414 187.57000732 387.50000000 0.000978 0.000978 0.999999 0.000000
66.35739899 247.73399353 382.50000000 -0.816308 0.276265 0.507266 0.000000
110.59600067 184.91600037 352.50000000 0.195222 -0.757831 -0.622559 0.000000
86.70700073 146.87100220 377.50000000 0.000978 0.000978 0.999999 0.000000
181.37699890 147.75599670 337.50000000 -0.000978 -0.000978 -0.999999 0.000000
257.90899658 130.06100464 380.00000000 0.456129 -0.001314 -0.889912 0.000000
164.56599426 278.70098877 377.50000000 0.713854 0.572072 0.403913 0.000000
81.39839935 161.91200256 322.50000000 0.633593 -0.198865 -0.747671 0.000000
106.17199707 197.30299377 332.50000000 -0.000978 -0.000978 -0.999999 0.000000
151.29499817 281.35501099 362.50000000 0.355643 0.637534 -0.683424 0.000000
156.60400391 255.69700623 397.50000000 0.137312 0.239315 0.961183 0.000000
178.72300720 259.23599243 382.50000000 0.782736 0.390558 0.484551 0.000000
94.66989899 161.91200256 337.50000000 0.807145 -0.540679 -0.237031 0.000000
182.26199341 210.57400513 357.50000000 -0.000978 -0.000978 -0.999999 0.000000
171.20199585 270.73800659 380.00000000 0.531771 0.747752 0.397601 0.000000
151.29499817 172.52900696 337.50000000 -0.000978 -0.000978 -0.999999 0.000000
141.56199646 257.46701050 342.50000000 0.073597 0.627741 -0.774935 0.000000
207.03500366 191.10899353 402.50000000 0.186519 0.034019 0.981862 0.000000
84.05269623 224.72999573 327.50000000 -0.000978 -0.000978 -0.999999 0.000000
196.41799927 149.52499390 407.50000000 0.000978 0.000978 0.999999 0.000000
110.59600067 259.23599243 342.50000000 -0.000978 -0.000978 -0.999999 0.000000
252.15800476 145.10200500 397.50000000 -0.001320 0.883337 0.468736 0.000000
137.13900757 215.88299561 417.50000000 0.321248 -0.091219 0.942592 0.000000
149.52499390 277.81600952 357.50000000 -0.000978 -0.000978 -0.999999 0.000000
76.97460175 163.68200684 322.50000000 -0.000978 -0.000978 -0.999999 0.000000
256.14001465 187.57000732 370.00000000 0.611423 0.282563 -0.739135 0.000000
76.08979797 250.38900757 392.50000000 0.000978 0.000978 0.999999 0.000000
87.59179688 138.46600342 365.00000000 -0.662002 -0.662002 0.351433 0.000000
114.13500214 202.61099243 332.50000000 0.515897 -0.263404 -0.815149 0.000000
243.31100464 168.99000549 362.50000000 0.688494 -0.497525 -0.527678 0.000000
82.28320313 273.39300537 377.50000000 -0.706744 0.209693 0.675678 0.000000
214.11300659 209.68899536 397.50000000 0.000978 0.000978 0.999999 0.000000
230.92399597 232.25100708 370.00000000 0.869590 0.437048 -0.229788 0.000000
193.76400757 227.38499451 397.50000000 0.572306 0.548671 0.609447 0.000000
230.03900146 196.41799927 347.50000000 0.482826 -0.195821 -0.853541 0.000000
147.75599670 154.83399963 407.50000000 0.000978 0.000978 0.999999 0.000000
134.48399353 290.20300293 382.50000000 0.503288 0.614381 0.607648 0.000000
264.54501343 180.49200439 387.50000000 -0.244019 0.625003 0.741502 0.000000
222.07600403 127.84899902 395.00000000 0.104245 -0.863952 0.492667 0.000000
207.91999817 207.91999817 337.50000000 -0.000978 -0.000978 -0.999999 0.000000
117.67400360 243.31100464 407.50000000 -0.248568 0.385504 0.888595 0.000000
257.46701050 208.80499268 372.50000000 0.740648 0.159035 -0.652800 0.000000
248.61900330 194.64799500 362.50000000 0.678421 0.020982 -0.734374 0.000000
91.13089752 152.17999268 382.50000000 -0.360672 -0.003797 0.932685 0.000000
214.99800110 226.50000000 387.50000000 -0.222989 0.847964 0.480867 0.000000
160.14300537 196.41799927 337.50000000 -0.000978 -0.000978 -0.999999 0.000000
94.66989899 267.64199829 395.00000000 -0.461530 0.362517 0.809674 0.000000
73.43550110 200.84199524 387.50000000 0.000978 0.000978 0.999999 0.000000
82.72560120 164.56599426 325.00000000 0.863286 -0.279613 -0.420183 0.000000
96.43949890 292.85699463 357.50000000 -0.000978 -0.000978 -0.999999 0.000000
205.26600647 234.46299744 377.50000000 0.084218 0.145899 0.985708 0.000000
230.92399597 161.02699280 352.50000000 -0.000978 -0.000978 -0.999999 0.000000
93.78520203 163.68200684 387.50000000 -0.163240 -0.558612 0.813207 0.000000
165.45100403 119.44300079 387.50000000 0.109161 -0.936631 0.332875 0.000000
227.38499451 171.64500427 402.50000000 0.000978 0.000978 0.999999 0.000000
130.06100464 304.35900879 372.50000000 0.057598 0.996549 0.059771 0.000000
115.01999664 214.99800110 332.50000000 -0.000978 -0.000978 -0.999999 0.000000
108.38400269 264.54501343 345.00000000 -0.321785 0.732505 -0.599910 0.000000
118.55899811 158.37300110 337.50000000 -0.000978 -0.000978 -0.999999 0.000000
131.83000183 149.52499390 342.50000000 -0.075854 -0.176992 -0.981285 0.000000
253.92799377 179.60699463 367.50000000 0.637581 0.006915 -0.770352 0.000000
146.87100220 233.57800293 412.50000000 0.538763 -0.121185 0.833696 0.000000
199.07200623 142.44700623 402.50000000 -0.164296 -0.879640 0.446363 0.000000
82.72560120 165.45100403 325.00000000 0.750371 -0.052883 -0.658898 0.000000
121.21299744 243.31100464 337.50000000 -0.000978 -0.000978 -0.999999 0.000000
224.72999573 159.25799561 352.50000000 -0.000978 -0.000978 -0.999999 0.000000
241.98300171 156.60400391 365.00000000 0.311098 -0.419441 -0.852811 0.000000
123.86699677 230.03900146 412.50000000 0.000978 0.000978 0.999999 0.000000
267.19900513 139.35099792 385.00000000 0.491882 -0.375766 -0.785399 0.000000
271.62298584 188.45500183 377.50000000 -0.009317 -0.475190 -0.879834 0.000000
162.79699707 236.23199463 407.50000000 0.516853 0.570727 0.638070 0.000000
233.57800293 221.19099426 387.50000000 -0.026983 0.355919 0.934127 0.000000
182.26199341 149.96800232 410.00000000 -0.729760 -0.562489 0.388659 0.000000
93.78520203 162.79699707 332.50000000 0.830317 -0.308046 -0.464415 0.000000
144.65899658 247.73399353 335.00000000 -0.283702 0.568988 -0.771859 0.000000
129.17599487 179.60699463 407.50000000 -0.152817 -0.191342 0.969554 0.000000
118.11599731 200.84199524 340.00000000 0.632633 -0.609140 -0.478251 0.000000
174.29899597 169.87500000 337.50000000 -0.000978 -0.000978 -0.999999 0.000000
126.52100372 223.84599304 332.50000000 0.835989 -0.477487 -0.270422 0.000000
124.75199890 288.43399048 382.50000000 0.056691 0.485331 0.872490 0.000000
134.48399353 285.77899170 357.50000000 0.481712 0.353682 -0.801787 0.000000
64.58789825 257.90899658 370.00000000 -0.792152 0.344066 0.504097 0.000000
153.94900513 271.62298584 387.50000000 0.000978 0.000978 0.999999 0.000000
211.45899963 199.07200623 402.50000000 0.000978 0.000978 0.999999 0.000000
199.07200623 134.48399353 402.50000000 0.001320 -0.883337 0.468736 0.000000
246.85000610 215.88299561 362.50000000 0.692206 0.070810 -0.718218 0.000000
233.57800293 127.40599823 337.50000000 0.943059 -0.001246 -0.332624 0.000000
106.17199707 129.17599487 362.50000000 -0.150237 -0.933124 -0.326662 0.000000
168.99000549 220.30700684 347.50000000 -0.000978 -0.000978 -0.999999 0.000000
77.41699982 222.96099854 385.00000000 -0.733281 -0.176049 0.656738 0.000000
255.69700623 161.91200256 397.50000000 0.000978 0.000978 0.999999 0.000000
219.42199707 187.57000732 342.50000000 -0.000978 -0.000978 -0.999999 0.000000
98.20899963 184.03100586 332.50000000 -0.117147 -0.851844 0.510528 0.000000
101.30599976 176.06799316 345.00000000 0.717687 -0.617243 -0.322392 0.000000
64.58789825 280.02801514 365.00000000 -0.713998 0.009743 0.700080 0.000000
87.59179688 271.62298584 387.50000000 -0.620384 0.610296 0.492608 0.000000
239.77099609 117.23100281 360.00000000 0.031493 -0.995815 -0.085790 0.000000
112.36499786 253.92799377 342.50000000 0.169379 0.272362 -0.947169 0.000000
159.69999695 258.35198975 395.00000000 0.046991 0.713410 0.699170 0.000000
138.46600342 219.42199707 340.00000000 0.866829 -0.107104 -0.486966 0.000000
145.10200500 245.08000183 332.50000000 -0.082651 0.258126 -0.962569 0.000000
63.70309830 235.34800720 377.50000000 -0.835606 0.057580 0.546304 0.000000
95.55470276 181.37699890 332.50000000 -0.000978 -0.000978 -0.999999 0.000000
148.64100647 280.47100830 357.50000000 0.280360 0.433562 -0.856401 0.000000
96.43949890 204.38099670 332.50000000 -0.000978 -0.000978 -0.999999 0.000000
136.69599915 281.35501099 355.00000000 0.297822 0.648770 -0.700285 0.000000
178.72300720 166.33599854 337.50000000 -0.000978 -0.000978 -0.999999 0.000000
117.67400360 294.62701416 357.50000000 -0.000978 -0.000978 -0.999999 0.000000
74.32029724 221.19099426 382.50000000 -0.634974 -0.135959 0.760475 0.000000
165.45100403 257.46701050 392.50000000 0.279835 0.314998 0.906901 0.000000
243.31100464 156.60400391 402.50000000 0.068534 0.391046 0.917816 0.000000
120.32800293 251.27299500 402.50000000 0.000978 0.000978 0.999999 0.000000
245.08000183 153.06399536 367.50000000 0.650495 -0.064619 -0.756757 0.000000
131.83000183 233.57800293 337.50000000 -0.465498 -0.156139 -0.871167 0.000000
158.37300110 214.99800110 412.50000000 0.000978 0.000978 0.999999 0.000000
111.03800201 144.21699524 390.00000000 -0.664397 -0.509651 0.546656 0.000000
96.43949890 258.35198975 342.50000000 -0.058769 0.190700 -0.979888 0.000000
149.52499390 177.83799744 337.50000000 -0.000978 -0.000978 -0.999999 0.000000
258.35198975 173.41400146 392.50000000 0.000978 0.000978 0.999999 0.000000
260.56298828 145.10200500 380.00000000 0.581367 -0.444771 -0.681316 0.000000
109.71099854 198.18800354 412.50000000 -0.130766 -0.964564 0.229165 0.000000
129.17599487 298.16598511 362.50000000 -0.000978 -0.000978 -0.999999 0.000000
79.62889862 168.99000549 322.50000000 0.175857 -0.276736 -0.944718 0.000000
157.48800659 282.23999023 362.50000000 0.503407 0.510097 -0.697411 0.000000
98.20899963 224.72999573 407.50000000 0.000978 0.000978 0.999999 0.000000
137.13900757 133.60000610 352.50000000 0.351679 -0.436839 -0.827945 0.000000
83.16799927 168.99000549 322.50000000 0.026427 -0.310827 -0.950099 0.000000
127.40599823 130.94500732 397.50000000 0.000978 0.000978 0.999999 0.000000
122.98200226 245.96499634 407.50000000 0.000978 0.000978 0.999999 0.000000
74.76270294 168.10499573 375.00000000 -0.738702 -0.391463 0.548703 0.000000
253.92799377 184.91600037 367.50000000 0.497051 0.173597 -0.850179 0.000000
101.74800110 238.00199890 332.50000000 0.117034 0.200090 -0.972763 0.000000
209.68899536 156.60400391 347.50000000 0.784468 -0.436898 -0.440147 0.000000
109.71099854 146.87100220 342.50000000 0.117524 -0.529583 -0.840078 0.000000
236.67500305 178.72300720 355.00000000 0.464741 -0.381120 -0.799227 0.000000
122.09799957 181.81900024 350.00000000 -0.827468 0.345172 -0.442892 0.000000
76.08979797 269.85400391 377.50000000 -0.513492 0.634710 0.577468 0.000000
115.01999664 253.92799377 342.50000000 0.181737 0.274655 -0.944212 0.000000
86.70700073 157.48800659 382.50000000 0.000978 0.000978 0.999999 0.000000
225.61500549 146.87100220 402.50000000 0.000978 0.000978 0.999999 0.000000
81.39839935 226.50000000 327.50000000 -0.000978 -0.000978 -0.999999 0.000000
166.33599854 263.66000366 387.50000000 0.510984 0.527737 0.678520 0.000000
65.47270203 238.88699341 327.50000000 0.386357 0.139088 -0.911802 0.000000
199.95700073 145.10200500 407.50000000 0.323953 -0.568932 0.755890 0.000000
67.24220276 221.19099426 377.50000000 -0.704652 -0.351509 0.616366 0.000000
92.01560211 298.16598511 362.50000000 -0.851667 0.523998 0.009478 0.000000
134.48399353 221.19099426 417.50000000 0.057668 0.544329 0.836888 0.000000
128.29100037 290.20300293 382.50000000 -0.028925 0.172392 0.984604 0.000000
175.18400574 214.11300659 352.50000000 0.339875 -0.349019 -0.873310 0.000000
132.71499634 252.15800476 337.50000000 -0.000978 -0.000978 -0.999999 0.000000
69.89649963 252.15800476 387.50000000 -0.820079 -0.235407 0.521588 0.000000
264.54501343 154.83399963 392.50000000 -0.980430 0.046348 -0.191332 0.000000
76.08979797 171.64500427 322.50000000 0.632504 -0.104194 -0.767517 0.000000
83.16799927 261.00601196 392.50000000 0.000978 0.000978 0.999999 0.000000
244.63800049 143.33200073 370.00000000 0.500144 -0.476882 -0.722800 0.000000
127.40599823 275.60400391 350.00000000 -0.311088 0.733395 -0.604447 0.000000
79.62889862 171.64500427 322.50000000 0.217180 -0.034797 -0.975511 0.000000
102.63300323 239.77099609 332.50000000 0.146004 0.243340 -0.958889 0.000000
144.21699524 227.82699585 345.00000000 0.739351 -0.352613 -0.573606 0.000000
183.58900452 199.07200623 345.00000000 -0.367006 0.927525 0.070732 0.000000
151.29499817 257.46701050 397.50000000 0.000978 0.000978 0.999999 0.000000
121.21299744 235.34800720 412.50000000 -0.145378 0.150348 0.977886 0.000000
245.08000183 117.23100281 375.00000000 -0.001133 -0.984851 0.173397 0.000000
153.94900513 244.19500732 402.50000000 0.214056 0.450565 0.866701 0.000000
245.96499634 118.11599731 380.00000000 0.001251 -0.939829 0.341642 0.000000
187.57000732 140.67799377 407.50000000 -0.177109 -0.255524 0.950442 0.000000
103.51799774 169.87500000 352.50000000 0.235609 0.208371 -0.949247 0.000000
213.22900391 228.71200562 385.00000000 -0.176253 0.884179 0.432622 0.000000
149.52499390 283.12500000 382.50000000 -0.860717 0.086213 0.501731 0.000000
176.06799316 232.69299316 332.50000000 -0.000978 -0.000978 -0.999999 0.000000
107.05699921 286.66400146 352.50000000 -0.049982 0.738304 -0.672614 0.000000
122.98200226 138.90800476 392.50000000 -0.710357 0.307660 0.633039 0.000000
188.45500183 167.22099304 412.50000000 0.000978 0.000978 0.999999 0.000000
244.63800049 178.72300720 360.00000000 0.594066 -0.211395 -0.776143 0.000000
87.59179688 148.64100647 377.50000000 -0.785650 0.286122 0.548532 0.000000
135.36900330 236.23199463 412.50000000 0.000978 0.000978 0.999999 0.000000
181.37699890 222.07600403 347.50000000 -0.143727 -0.477639 -0.866720 0.000000
66.35739899 261.89099121 337.50000000 -0.000978 -0.000978 -0.999999 0.000000
202.61099243 142.44700623 402.50000000 0.000978 0.000978 0.999999 0.000000
214.99800110 229.15400696 352.50000000 0.589068 -0.538431 -0.602570 0.000000
261.00601196 141.56199646 382.50000000 0.532509 -0.263912 -0.804229 0.000000
80.51370239 173.41400146 322.50000000 0.203252 0.008130 -0.979093 0.000000
245.96499634 231.80900574 382.50000000 0.222027 0.765451 0.603977 0.000000
176.06799316 213.22900391 352.50000000 0.339875 -0.349019 -0.873310 0.000000
236.23199463 184.91600037 397.50000000 0.000978 0.000978 0.999999 0.000000
254.81199646 191.99400330 392.50000000 0.325650 0.069315 0.942946 0.000000
183.14599609 193.76400757 357.50000000 -0.773663 0.387642 -0.501178 0.000000
139.79299927 204.38099670 412.50000000 0.000978 0.000978 0.999999 0.000000
222.07600403 157.48800659 352.50000000 0.404541 -0.011707 -0.914445 0.000000
225.61500549 171.64500427 347.50000000 0.800345 0.340266 -0.493626 0.000000
246.85000610 148.64100647 402.50000000 0.000978 0.000978 0.999999 0.000000
234.46299744 230.03900146 382.50000000 -0.000978 -0.000978 -0.999999 0.000000
190.22500610 193.76400757 407.50000000 0.696337 0.566709 0.440404 0.000000
119.44300079 296.39599609 377.50000000 0.000978 0.000978 0.999999 0.000000
192.43699646 232.69299316 335.00000000 0.405180 -0.523289 -0.749665 0.000000
125.63700104 214.11300659 332.50000000 -0.083406 -0.501852 -0.860923 0.000000
230.92399597 230.92399597 367.50000000 0.684995 0.727541 -0.038292 0.000000
117.67400360 300.82000732 372.50000000 0.000978 0.000978 0.999999 0.000000
95.55470276 166.33599854 392.50000000 0.779116 -0.594710 -0.198237 0.000000
89.36129761 268.08401489 347.50000000 0.287200 0.694736 -0.659438 0.000000
53.08589935 267.19900513 352.50000000 -0.931823 0.075769 0.354917 0.000000
197.74499512 242.42599487 360.00000000 -0.701680 0.701680 0.123651 0.000000
253.04299927 216.76800537 372.50000000 -0.000978 -0.000978 -0.999999 0.000000
266.31399536 147.75599670 397.50000000 0.000978 0.000978 0.999999 0.000000
265.42999268 200.84199524 377.50000000 0.226191 0.097300 -0.969211 0.000000
255.69700623 157.48800659 397.50000000 0.000978 0.000978 0.999999 0.000000
198.18800354 194.64799500 337.50000000 -0.000978 -0.000978 -0.999999 0.000000
234.02099609 201.72700500 350.00000000 0.740873 -0.004154 -0.671632 0.000000
112.36499786 255.69700623 402.50000000 0.000978 0.000978 0.999999 0.000000
261.00601196 142.44700623 397.50000000 0.000978 0.000978 0.999999 0.000000
99.09380341 149.52499390 342.50000000 -0.769053 0.367526 -0.522956 0.000000
147.75599670 229.59700012 335.00000000 -0.324291 -0.528771 -0.784370 0.000000
215.88299561 123.86699677 392.50000000 0.276533 -0.695329 0.663360 0.000000
250.38900757 184.91600037 362.50000000 0.809017 -0.087968 -0.581165 0.000000
223.84599304 157.48800659 402.50000000 0.000978 0.000978 0.999999 0.000000
163.68200684 130.06100464 402.50000000 0.297711 -0.706461 0.642091 0.000000
80.51370239 181.37699890 387.50000000 0.000978 0.000978 0.999999 0.000000
236.23199463 116.34700012 375.00000000 0.116446 -0.990366 0.074940 0.000000
207.03500366 141.56199646 402.50000000 -0.052675 -0.430857 0.900882 0.000000
242.42599487 161.91200256 362.50000000 0.121637 -0.189352 -0.974346 0.000000
245.96499634 182.26199341 397.50000000 0.000978 0.000978 0.999999 0.000000
240.65600586 170.75999451 397.50000000 0.000978 0.000978 0.999999 0.000000
175.18400574 173.41400146 337.50000000 -0.000978 -0.000978 -0.999999 0.000000
160.58500671 285.77899170 370.00000000 0.724334 0.607663 -0.325707 0.000000
144.21699524 152.17999268 337.50000000 -0.022871 -0.472210 -0.881189 0.000000
64.58789825 240.65600586 377.50000000 0.000978 0.000978 0.999999 0.000000
64.14550018 201.72700500 335.00000000 -0.967056 -0.156645 -0.200661 0.000000
79.62889862 221.19099426 387.50000000 -0.816721 0.236216 0.526468 0.000000
137.13900757 243.31100464 407.50000000 0.000978 0.000978 0.999999 0.000000
186.68600464 211.45899963 357.50000000 -0.000978 -0.000978 -0.999999 0.000000
168.10499573 158.37300110 412.50000000 0.000978 0.000978 0.999999 0.000000
262.77499390 182.26199341 372.50000000 -0.000978 -0.000978 -0.999999 0.000000
151.29499817 146.87100220 337.50000000 -0.000978 -0.000978 -0.999999 0.000000
197.74499512 203.49600220 405.00000000 0.681731 0.179242 0.709306 0.000000
206.59300232 238.00199890 340.00000000 0.663360 -0.276533 -0.695329 0.000000
155.71899414 253.92799377 397.50000000 0.606700 0.636951 0.475613 0.000000
61.04880142 206.14999390 342.50000000 -0.904811 -0.362798 -0.222924 0.000000
130.06100464 202.61099243 347.50000000 -0.000978 -0.000978 -0.999999 0.000000
205.26600647 246.85000610 342.50000000 0.876828 -0.311525 0.366231 0.000000
194.64799500 222.96099854 397.50000000 0.522334 0.535770 0.663414 0.000000
166.33599854 127.40599823 397.50000000 0.386237 -0.252024 0.887302 0.000000
173.41400146 261.89099121 357.50000000 0.761995 0.365563 -0.534534 0.000000
153.06399536 191.99400330 337.50000000 -0.000978 -0.000978 -0.999999 0.000000
187.12800598 199.95700073 355.00000000 -0.917514 0.357675 -0.173889 0.000000
201.72700500 175.18400574 337.50000000 0.709022 -0.082986 -0.700287 0.000000
178.72300720 144.21699524 407.50000000 0.000978 0.000978 0.999999 0.000000
112.36499786 243.31100464 337.50000000 -0.000978 -0.000978 -0.999999 0.000000
78.74410248 178.72300720 322.50000000 0.000978 0.000978 0.999999 0.000000
131.38800049 184.91600037 340.00000000 -0.634086 0.362101 -0.683240 0.000000
198.18800354 182.26199341 337.50000000 -0.000978 -0.000978 -0.999999 0.000000
59.27930069 277.81600952 362.50000000 -0.458015 0.248028 0.853642 0.000000
82.28320313 178.72300720 322.50000000 0.732388 0.067894 -0.677495 0.000000
114.13500214 256.58200073 402.50000000 0.000978 0.000978 0.999999 0.000000
122.09799957 183.14599609 352.50000000 -0.715200 0.569848 -0.404675 0.000000
75.20510101 179.60699463 322.50000000 0.000978 0.000978 0.999999 0.000000
76.08979797 179.60699463 322.50000000 0.000978 0.000978 0.999999 0.000000
107.05699921 190.66700745 340.00000000 0.751878 -0.577996 -0.317174 0.000000
203.49600220 233.13600159 380.00000000 0.371687 0.487537 0.790036 0.000000
143.77400208 266.31399536 395.00000000 0.172703 0.473827 0.863517 0.000000
106.17199707 287.99099731 355.00000000 0.073727 0.744497 -0.663542 0.000000
72.99320221 283.12500000 370.00000000 -0.411396 0.509738 0.755593 0.000000
191.99400330 187.57000732 337.50000000 0.103370 -0.161743 -0.981404 0.000000
84.05269623 278.70098877 352.50000000 0.035627 0.397170 -0.917053 0.000000
61.93360138 256.58200073 367.50000000 -0.782100 0.356380 0.511187 0.000000
106.17199707 158.37300110 392.50000000 -0.306927 -0.093527 0.947127 0.000000
114.13500214 215.88299561 332.50000000 -0.000978 -0.000978 -0.999999 0.000000
138.90800476 199.07200623 342.50000000 -0.393173 0.328415 -0.858813 0.000000
235.34800720 167.22099304 402.50000000 0.000978 0.000978 0.999999 0.000000
115.90399933 204.82299805 415.00000000 -0.019196 -0.359599 0.932909 0.000000
229.15400696 179.60699463 397.50000000 0.000978 0.000978 0.999999 0.000000
259.23599243 181.37699890 372.50000000 0.360726 0.029737 -0.932198 0.000000
192.87899780 196.41799927 332.50000000 0.700768 -0.354468 -0.619093 0.000000
157.48800659 280.47100830 362.50000000 0.434011 0.567041 -0.700071 0.000000
129.17599487 162.79699707 337.50000000 -0.000978 -0.000978 -0.999999 0.000000
127.40599823 161.91200256 402.50000000 -0.120972 -0.178340 0.976504 0.000000
202.61099243 190.22500610 407.50000000 0.816986 0.052208 0.574289 0.000000
76.97460175 181.37699890 322.50000000 0.000978 0.000978 0.999999 0.000000
162.79699707 246.85000610 337.50000000 0.041380 0.906359 -0.420476 0.000000
153.94900513 228.27000427 412.50000000 0.238829 0.361906 0.901102 0.000000
79.62889862 181.37699890 322.50000000 0.000978 0.000978 0.999999 0.000000
123.86699677 207.91999817 337.50000000 0.213511 -0.551442 -0.806427 0.000000
118.55899811 163.23899841 400.00000000 -0.480324 -0.463818 0.744420 0.000000
121.21299744 189.33999634 407.50000000 0.000978 0.000978 0.999999 0.000000
137.13900757 277.81600952 352.50000000 0.623475 0.208856 -0.753430 0.000000
64.58789825 247.73399353 332.50000000 0.222610 0.891912 -0.393621 0.000000
93.78520203 177.83799744 397.50000000 0.000978 0.000978 0.999999 0.000000
243.31100464 170.75999451 362.50000000 0.730157 -0.349630 -0.587052 0.000000
119.44300079 196.41799927 347.50000000 0.000978 0.000978 -0.999999 0.000000
159.25799561 166.33599854 412.50000000 0.000978 0.000978 0.999999 0.000000
256.58200073 157.48800659 397.50000000 0.000978 0.000978 0.999999 0.000000
112.36499786 137.13900757 387.50000000 -0.349264 -0.364650 0.863160 0.000000
153.06399536 156.60400391 337.50000000 -0.000978 -0.000978 -0.999999 0.000000
153.06399536 243.31100464 402.50000000 0.267302 0.599453 0.754457 0.000000
143.33200073 230.03900146 342.50000000 -0.090745 -0.886509 -0.453725 0.000000
128.29100037 126.52100372 392.50000000 0.000978 0.000978 0.999999 0.000000
169.87500000 154.83399963 412.50000000 -0.835882 -0.537456 0.111547 0.000000
156.60400391 264.10299683 350.00000000 0.870319 -0.435909 -0.229189 0.000000
107.05699921 171.64500427 352.50000000 -0.000978 -0.000978 -0.999999 0.000000
269.41101074 173.41400146 390.00000000 0.458852 0.568976 0.682438 0.000000
115.01999664 282.23999023 387.50000000 -0.000978 -0.000978 0.999999 0.000000
208.80499268 238.00199890 377.50000000 0.474623 0.396869 0.785639 0.000000
82.28320313 245.96499634 392.50000000 0.000978 0.000978 0.999999 0.000000
108.82599640 218.53700256 412.50000000 0.000978 0.000978 0.999999 0.000000
212.34399414 198.18800354 402.50000000 0.721880 0.567309 0.396294 0.000000
233.57800293 169.87500000 402.50000000 0.383289 0.238261 0.892368 0.000000
92.90039825 165.45100403 332.50000000 0.754231 -0.348731 -0.556347 0.000000
203.49600220 218.53700256 397.50000000 -0.197599 0.414227 0.888465 0.000000
104.40200043 158.37300110 342.50000000 0.000978 0.000978 -0.999999 0.000000
179.60699463 189.78199768 360.00000000 0.171152 -0.513455 -0.840875 0.000000
200.84199524 147.31300354 340.00000000 0.362444 0.700287 -0.615006 0.000000
219.42199707 214.55599976 395.00000000 0.376802 0.502942 0.777862 0.000000
157.48800659 178.72300720 412.50000000 0.000978 0.000978 0.999999 0.000000
150.41000366 211.45899963 412.50000000 0.000978 0.000978 0.999999 0.000000
98.20899963 173.41400146 397.50000000 0.004134 -0.624185 0.781265 0.000000
269.85400391 197.30299377 387.50000000 0.000978 0.000978 0.999999 0.000000
105.28700256 199.07200623 407.50000000 0.000978 0.000978 0.999999 0.000000
135.36900330 248.61900330 407.50000000 0.052380 0.601665 0.797029 0.000000
75.20510101 235.34800720 387.50000000 -0.857792 0.513033 0.031466 0.000000
135.36900330 155.71899414 402.50000000 0.000978 0.000978 0.999999 0.000000
57.50979996 226.05799866 365.00000000 -0.899865 -0.189827 0.392695 0.000000
80.95610046 174.29899597 385.00000000 -0.184917 -0.600598 0.777874 0.000000
201.72700500 161.91200256 412.50000000 0.485411 -0.606344 0.629859 0.000000
57.06740189 268.08401489 360.00000000 -0.677139 0.049894 0.734161 0.000000
126.52100372 292.85699463 357.50000000 -0.000978 -0.000978 -0.999999 0.000000
172.52900696 132.71499634 402.50000000 0.003641 -0.280324 0.959898 0.000000
145.54400635 265.42999268 395.00000000 0.216255 0.488465 0.845361 0.000000
198.18800354 173.41400146 337.50000000 0.165306 -0.870416 -0.463734 0.000000
73.43550110 259.23599243 387.50000000 -0.609542 0.725953 0.318514 0.000000
152.17999268 258.35198975 397.50000000 0.000978 0.000978 0.999999 0.000000
173.41400146 227.38499451 332.50000000 -0.154002 -0.888033 -0.433222 0.000000
69.45410156 169.87500000 350.00000000 -0.977641 -0.179214 -0.110000 0.000000
160.14300537 197.30299377 337.50000000 -0.000978 -0.000978 -0.999999 0.000000
220.30700684 183.14599609 342.50000000 -0.000978 -0.000978 -0.999999 0.000000
138.02299500 243.31100464 407.50000000 0.000000 0.000000 0.000000 0.000000
95.99710083 149.52499390 385.00000000 0.106132 -0.881603 0.459905 0.000000
168.99000549 256.58200073 352.50000000 0.323375 0.865910 -0.381613 0.000000
66.79979706 202.61099243 375.00000000 -0.894158 0.003939 0.447735 0.000000
77.85939789 186.68600464 322.50000000 0.000978 0.000978 0.999999 0.000000
135.36900330 166.33599854 337.50000000 -0.000978 -0.000978 -0.999999 0.000000
232.69299316 218.53700256 352.50000000 0.147896 0.499331 -0.853695 0.000000
93.78520203 238.00199890 397.50000000 -0.533063 0.045930 0.844828 0.000000
189.33999634 158.37300110 342.50000000 0.789761 -0.228084 -0.569435 0.000000
153.50700378 119.44300079 365.00000000 0.865641 0.490388 -0.100920 0.000000
157.48800659 263.66000366 392.50000000 -0.172657 0.479602 0.860332 0.000000
92.90039825 272.50799561 392.50000000 -0.188564 0.532505 0.825156 0.000000
188.45500183 235.34800720 332.50000000 0.214564 0.008207 -0.976676 0.000000
223.84599304 229.59700012 385.00000000 0.263980 0.876414 0.402758 0.000000
191.99400330 161.91200256 412.50000000 0.000978 0.000978 0.999999 0.000000
62.81840134 250.38900757 377.50000000 -0.809058 -0.075894 0.582808 0.000000
176.95300293 118.55899811 382.50000000 -0.001133 -0.984851 0.173397 0.000000
257.46701050 223.40299988 385.00000000 0.182604 0.646019 0.741158 0.000000
62.81840134 281.35501099 352.50000000 -0.407863 -0.243523 -0.879968 0.000000
251.27299500 135.36900330 397.50000000 0.138097 -0.215535 0.966682 0.000000
78.30180359 238.88699341 330.00000000 0.513277 0.546934 -0.661370 0.000000
104.40200043 177.39599609 400.00000000 -0.420499 -0.489219 0.764098 0.000000
128.29100037 305.24398804 372.50000000 -0.177271 0.941322 0.287206 0.000000
153.06399536 291.52999878 375.00000000 0.565486 0.708101 0.422870 0.000000
276.04699707 149.52499390 387.50000000 0.961751 -0.273924 0.001207 0.000000
220.30700684 209.68899536 397.50000000 -0.041487 0.193211 0.980280 0.000000
70.78119659 245.96499634 332.50000000 0.146071 0.532644 -0.833639 0.000000
65.91500092 188.45500183 325.00000000 -0.458219 -0.704825 -0.541532 0.000000
168.10499573 274.27700806 377.50000000 0.630712 0.654010 0.417701 0.000000
76.08979797 188.45500183 322.50000000 0.000978 0.000978 0.999999 0.000000
147.75599670 143.33200073 342.50000000 -0.435128 -0.719699 -0.541015 0.000000
223.84599304 132.71499634 337.50000000 0.679926 0.686266 -0.258340 0.000000
66.35739899 218.53700256 372.50000000 -0.794472 -0.381927 0.472171 0.000000
225.61500549 184.91600037 347.50000000 0.626297 0.757988 -0.182223 0.000000
64.14550018 192.87899780 340.00000000 -0.963652 -0.182242 -0.195353 0.000000
176.95300293 205.26600647 412.50000000 0.286363 0.286363 0.914326 0.000000
94.66989899 188.45500183 402.50000000 -0.620811 -0.279285 0.732525 0.000000
137.13900757 259.23599243 342.50000000 -0.000978 -0.000978 -0.999999 0.000000
208.80499268 141.56199646 337.50000000 0.230653 0.720201 -0.654301 0.000000
185.80099487 145.98599243 337.50000000 -0.000978 -0.000978 -0.999999 0.000000
172.52900696 235.34800720 402.50000000 0.093319 0.254389 0.962589 0.000000
106.17199707 157.48800659 392.50000000 -0.306927 -0.093527 0.947127 0.000000
197.30299377 186.68600464 337.50000000 -0.000978 -0.000978 -0.999999 0.000000
221.19099426 220.30700684 392.50000000 0.000978 0.000978 0.999999 0.000000
88.47660065 158.37300110 332.50000000 0.104469 -0.637115 -0.763656 0.000000
204.38099670 190.22500610 337.50000000 0.799053 0.488399 -0.350687 0.000000
102.63300323 238.88699341 402.50000000 0.000978 0.000978 0.999999 0.000000
80.51370239 286.66400146 372.50000000 -0.657290 0.536254 0.529530 0.000000
105.28700256 252.15800476 337.50000000 0.206442 0.812004 -0.545923 0.000000
209.68899536 161.91200256 342.50000000 0.894786 -0.323076 -0.308188 0.000000
271.62298584 197.30299377 377.50000000 0.197394 0.246402 -0.948853 0.000000
57.06740189 273.39300537 360.00000000 -0.761664 0.009712 0.647900 0.000000
137.13900757 200.84199524 412.50000000 0.000978 0.000978 0.999999 0.000000
168.10499573 271.62298584 382.50000000 0.489755 0.590736 0.641226 0.000000
93.78520203 172.52900696 332.50000000 0.815569 0.001362 -0.578659 0.000000
240.21400452 196.41799927 355.00000000 0.949882 -0.120894 -0.288286 0.000000
105.28700256 218.53700256 412.50000000 0.283125 -0.926202 0.248979 0.000000
82.28320313 256.58200073 392.50000000 0.000978 0.000978 0.999999 0.000000
125.63700104 249.50399780 402.50000000 -0.116362 0.128358 0.984878 0.000000
213.22900391 171.64500427 342.50000000 -0.000978 -0.000978 -0.999999 0.000000
165.45100403 216.76800537 347.50000000 -0.000978 -0.000978 -0.999999 0.000000
102.63300323 154.39199829 390.00000000 -0.121208 -0.397060 0.909754 0.000000
171.64500427 217.65199280 347.50000000 0.201337 -0.313973 -0.927839 0.000000
83.16799927 190.22500610 322.50000000 0.390558 0.782736 -0.484551 0.000000
85.82230377 290.20300293 372.50000000 -0.353470 0.902009 0.247869 0.000000
64.58789825 191.10899353 322.50000000 -0.458219 -0.704825 -0.541532 0.000000
245.96499634 168.10499573 367.50000000 0.229659 -0.902546 -0.364236 0.000000
88.47660065 199.07200623 402.50000000 -0.189487 -0.321425 0.927783 0.000000
76.08979797 191.10899353 322.50000000 0.000978 0.000978 0.999999 0.000000
76.08979797 230.92399597 327.50000000 0.442838 0.404190 -0.800328 0.000000
146.42900085 269.85400391 350.00000000 0.158453 0.605139 -0.780192 0.000000
51.31639862 268.96899414 352.50000000 -0.000978 -0.000978 -0.999999 0.000000
273.39300537 190.22500610 387.50000000 0.618120 -0.004130 0.786073 0.000000
132.71499634 185.80099487 412.50000000 0.083045 -0.127492 0.988357 0.000000
259.23599243 138.90800476 382.50000000 0.000978 0.000978 -0.999999 0.000000
135.36900330 257.46701050 402.50000000 -0.000978 -0.000978 0.999999 0.000000
234.46299744 192.87899780 397.50000000 0.000978 0.000978 0.999999 0.000000
116.78900146 297.28100586 357.50000000 -0.000978 -0.000978 -0.999999 0.000000
122.09799957 156.60400391 337.50000000 -0.000978 -0.000978 -0.999999 0.000000
132.71499634 264.54501343 342.50000000 0.519173 0.724851 -0.452825 0.000000
265.42999268 211.45899963 377.50000000 0.557861 -0.118600 -0.821417 0.000000
210.57400513 220.74899292 350.00000000 -0.659173 0.605772 -0.445568 0.000000
224.72999573 192.87899780 397.50000000 0.000978 0.000978 0.999999 0.000000
168.10499573 222.96099854 347.50000000 -0.000978 -0.000978 -0.999999 0.000000
219.42199707 117.67400360 352.50000000 -0.001133 -0.984851 -0.173397 0.000000
79.62889862 191.99400330 322.50000000 0.000978 0.000978 0.999999 0.000000
236.23199463 205.26600647 392.50000000 0.000978 0.000978 0.999999 0.000000
275.16198730 173.41400146 377.50000000 -0.000978 -0.000978 -0.999999 0.000000
95.55470276 288.43399048 357.50000000 0.159286 0.540383 -0.826205 0.000000
76.97460175 266.75698853 380.00000000 -0.619788 0.358136 0.698284 0.000000
191.99400330 223.84599304 342.50000000 -0.080081 -0.717818 -0.691610 0.000000
241.54100037 179.60699463 397.50000000 0.000978 0.000978 0.999999 0.000000
235.34800720 127.40599823 342.50000000 0.809591 0.378448 -0.448708 0.000000
208.80499268 135.36900330 402.50000000 0.581502 -0.097159 0.807722 0.000000
143.33200073 261.89099121 397.50000000 0.099163 0.434363 0.895263 0.000000
207.91999817 197.30299377 337.50000000 0.627537 0.001373 -0.778585 0.000000
199.07200623 150.41000366 342.50000000 -0.023410 0.279687 -0.959806 0.000000
252.15800476 184.91600037 367.50000000 0.718076 0.193031 -0.668660 0.000000
163.68200684 181.37699890 337.50000000 -0.000978 -0.000978 -0.999999 0.000000
182.26199341 122.09799957 392.50000000 0.314746 -0.949175 0.001234 0.000000
73.43550110 277.37399292 350.00000000 -0.041050 0.638391 -0.768617 0.000000
114.13500214 229.15400696 412.50000000 0.000978 0.000978 0.999999 0.000000
153.06399536 154.83399963 337.50000000 -0.000978 -0.000978 -0.999999 0.000000
267.19900513 200.84199524 387.50000000 0.000978 0.000978 0.999999 0.000000
122.98200226 285.33700562 385.00000000 0.130223 0.672069 0.728948 0.000000
261.89099121 208.80499268 377.50000000 -0.000978 -0.000978 -0.999999 0.000000
139.79299927 247.73399353 337.50000000 -0.070122 0.588169 -0.805692 0.000000
150.41000366 130.94500732 397.50000000 -0.302735 -0.052372 0.951635 0.000000
167.22099304 118.11599731 360.00000000 0.110730 -0.989576 -0.092081 0.000000
82.72560120 146.87100220 370.00000000 -0.833292 -0.426885 0.351274 0.000000
228.27000427 172.52900696 352.50000000 0.679987 -0.095462 -0.726984 0.000000
102.19000244 129.17599487 375.00000000 0.565870 -0.565870 0.599653 0.000000
189.33999634 166.33599854 412.50000000 0.000978 0.000978 0.999999 0.000000
222.96099854 217.65199280 392.50000000 0.206860 0.332403 0.920172 0.000000
130.06100464 152.17999268 342.50000000 0.114092 -0.432422 -0.894424 0.000000
164.56599426 190.22500610 337.50000000 -0.000978 -0.000978 -0.999999 0.000000
147.75599670 240.65600586 332.50000000 -0.000978 -0.000978 -0.999999 0.000000
238.00199890 169.87500000 397.50000000 0.514051 0.470797 0.717009 0.000000
227.38499451 191.99400330 347.50000000 0.784357 -0.293143 -0.546673 0.000000
226.50000000 220.30700684 352.50000000 -0.000978 -0.000978 -0.999999 0.000000
69.89649963 274.27700806 347.50000000 0.809034 -0.069917 -0.583589 0.000000
249.50399780 153.06399536 397.50000000 0.000978 0.000978 0.999999 0.000000
75.20510101 219.42199707 382.50000000 -0.647874 0.038110 0.760793 0.000000
57.95209885 216.76800537 355.00000000 -0.953037 -0.299960 0.041767 0.000000
233.57800293 210.57400513 392.50000000 0.000978 0.000978 0.999999 0.000000
113.25000000 299.05099487 357.50000000 -0.000978 -0.000978 -0.999999 0.000000
191.99400330 181.37699890 412.50000000 0.194700 0.199998 0.960256 0.000000
115.01999664 200.84199524 412.50000000 0.272681 -0.506408 0.818044 0.000000
219.42199707 170.75999451 342.50000000 0.000978 0.000978 -0.999999 0.000000
196.41799927 171.64500427 342.50000000 0.428675 -0.638842 -0.638842 0.000000
55.74020004 251.27299500 327.50000000 -0.136580 -0.908185 -0.395659 0.000000
82.28320313 264.54501343 342.50000000 -0.000978 -0.000978 -0.999999 0.000000
207.91999817 179.60699463 342.50000000 -0.000978 -0.000978 -0.999999 0.000000
126.52100372 179.60699463 342.50000000 -0.736030 0.628857 -0.250597 0.000000
160.14300537 168.99000549 412.50000000 0.000978 0.000978 0.999999 0.000000
137.13900757 203.49600220 412.50000000 0.000978 0.000978 0.999999 0.000000
115.01999664 141.56199646 392.50000000 -0.532930 -0.099116 0.840334 0.000000
176.95300293 199.07200623 412.50000000 0.000978 0.000978 0.999999 0.000000
221.19099426 142.44700623 402.50000000 0.000978 0.000978 0.999999 0.000000
210.57400513 120.32800293 382.50000000 0.315742 -0.947226 0.055416 0.000000
50.87400055 257.46701050 335.00000000 -0.567755 0.160290 -0.807441 0.000000
122.09799957 186.68600464 407.50000000 0.000978 0.000978 0.999999 0.000000
63.70309830 214.99800110 367.50000000 -0.731036 -0.472438 0.492330 0.000000
