135.46299744 150.26800537 127.50000000 -0.000978 -0.000978 -0.999999 0.000000
145.08599854 172.47500610 222.50000000 0.752617 0.278452 0.596684 0.000000
116.21700287 159.89100647 247.50000000 0.000978 0.000978 0.999999 0.000000
86.97750092 182.09800720 115.00000000 0.674325 0.674325 -0.300952 0.000000
128.05999756 56.62789917 170.00000000 -0.474476 -0.821269 0.316843 0.000000
92.52929688 188.75999451 127.50000000 -0.000978 -0.000978 -0.999999 0.000000
43.30369949 185.79899597 175.00000000 -0.910165 0.391273 0.136034 0.000000
115.47699738 86.60739899 187.50000000 -0.702805 0.525852 0.479109 0.000000
124.35900116 55.51760101 127.50000000 -0.246531 -0.943427 -0.221740 0.000000
104.37300110 195.42199707 242.50000000 0.346695 -0.195462 0.917386 0.000000
68.10150146 114.73600006 227.50000000 -0.557562 -0.530611 0.638417 0.000000
169.51400757 62.91989899 142.50000000 0.000978 0.000978 0.999999 0.000000
131.02099609 181.35699463 152.50000000 0.858836 0.260854 -0.440859 0.000000
143.97599792 136.20300293 210.00000000 0.894688 -0.446689 -0.001310 0.000000
85.86710358 159.14999390 252.50000000 0.000978 0.000978 0.999999 0.000000
129.54100037 108.07399750 222.50000000 0.000978 0.000978 0.999999 0.000000
51.44630051 139.90400696 220.00000000 -0.780859 -0.520036 0.346154 0.000000
71.80269623 208.74600220 107.50000000 0.444771 0.581367 -0.681316 0.000000
219.85000610 105.85299683 172.50000000 0.000978 0.000978 0.999999 0.000000
41.82320023 184.31799316 160.00000000 -0.989041 0.001110 0.147635 0.000000
76.61419678 101.41200256 95.00000000 -0.517434 -0.608449 -0.601707 0.000000
99.93160248 165.81199646 117.50000000 -0.000978 -0.000978 -0.999999 0.000000
133.98199463 153.22799683 122.50000000 -0.000978 -0.000978 -0.999999 0.000000
128.05999756 54.77730179 162.50000000 -0.364125 -0.872986 0.324513 0.000000
51.44630051 116.95700073 180.00000000 -0.000978 -0.000978 0.999999 0.000000
57.36809921 202.08399963 105.00000000 -0.708552 0.647773 -0.279902 0.000000
242.05700684 89.56829834 192.50000000 -0.000978 -0.000978 0.999999 0.000000
200.60299683 53.66699982 190.00000000 -0.620454 -0.559592 0.549448 0.000000
87.34760284 152.48800659 252.50000000 0.000978 0.000978 0.999999 0.000000
99.93160248 84.01660156 205.00000000 -0.104385 -0.947390 0.302583 0.000000
153.22799683 81.42569733 142.50000000 -0.556090 0.623700 0.549329 0.000000
101.41200256 94.75000000 222.50000000 0.051226 -0.508108 0.859769 0.000000
154.70899963 191.72099304 182.50000000 0.849635 0.242535 -0.468291 0.000000
195.42199707 107.33399963 147.50000000 0.000978 0.000978 0.999999 0.000000
128.05999756 93.26950073 192.50000000 -0.000978 -0.000978 0.999999 0.000000
121.39800262 102.89299774 227.50000000 0.476222 -0.696788 0.536376 0.000000
226.51199341 77.72460175 202.50000000 0.000978 0.000978 0.999999 0.000000
125.09999847 89.56829834 142.50000000 0.254756 -0.327544 0.909843 0.000000
155.44900513 143.97599792 145.00000000 0.411419 0.909947 0.052265 0.000000
142.12500000 99.19139862 197.50000000 0.000978 0.000978 0.999999 0.000000
108.81400299 234.65400696 182.50000000 -0.110940 0.517240 0.848620 0.000000
131.02099609 138.42399597 147.50000000 0.000978 0.000978 0.999999 0.000000
100.67199707 133.98199463 247.50000000 0.000978 0.000978 0.999999 0.000000
198.38299561 117.69699860 202.50000000 -0.105224 0.186927 0.976722 0.000000
55.88769913 108.07399750 185.00000000 -0.947621 -0.315874 0.047317 0.000000
132.50199890 136.20300293 232.50000000 0.612906 -0.357937 0.704434 0.000000
184.31799316 94.75000000 142.50000000 0.000978 0.000978 0.999999 0.000000
149.15699768 179.87699890 210.00000000 0.934712 0.202591 0.292010 0.000000
122.13899994 219.85000610 147.50000000 -0.000978 -0.000978 -0.999999 0.000000
84.38670349 170.62399292 250.00000000 -0.413089 0.691799 0.592260 0.000000
211.70700073 55.51760101 192.50000000 -0.107782 -0.686559 0.719041 0.000000
109.18499756 121.39800262 145.00000000 -0.465635 0.442761 0.766255 0.000000
104.74299622 98.45110321 140.00000000 -0.674325 -0.674325 0.300952 0.000000
102.89299774 123.61900330 242.50000000 0.000978 0.000978 0.999999 0.000000
116.21700287 81.79589844 140.00000000 -0.351193 -0.687685 0.635415 0.000000
117.69699860 84.38670349 142.50000000 -0.375467 -0.591893 0.713223 0.000000
108.07399750 175.43499756 127.50000000 0.589567 0.738170 -0.327896 0.000000
60.69919968 136.20300293 237.50000000 -0.293304 0.006136 0.955999 0.000000
148.04699707 127.31999969 152.50000000 -0.487299 -0.822610 0.293006 0.000000
193.94099426 111.77500153 142.50000000 -0.923993 -0.306099 0.229218 0.000000
101.41200256 62.91989899 122.50000000 -0.605786 -0.782287 -0.145089 0.000000
142.86500549 95.49019623 137.50000000 0.000978 0.000978 0.999999 0.000000
140.64399719 109.55500031 137.50000000 0.000978 0.000978 0.999999 0.000000
72.54290009 136.94299316 242.50000000 -0.286592 -0.266429 0.920261 0.000000
112.51599884 91.04879761 197.50000000 0.439957 -0.875469 -0.199980 0.000000
175.43499756 125.09999847 147.50000000 0.000978 0.000978 0.999999 0.000000
128.80099487 102.15200043 192.50000000 0.000978 0.000978 0.999999 0.000000
76.24410248 205.78500366 232.50000000 0.000978 0.000978 0.999999 0.000000
79.20500183 156.92999268 77.50000000 0.970383 0.202748 -0.131340 0.000000
240.20599365 110.29499817 190.00000000 -0.758216 -0.600583 0.253790 0.000000
58.47850037 125.47000122 105.00000000 -0.912489 -0.352063 -0.208364 0.000000
65.51069641 105.11299896 110.00000000 -0.824909 -0.422746 -0.375247 0.000000
162.85099792 50.33589935 167.50000000 -0.000978 -0.999999 -0.000978 0.000000
108.81400299 91.04879761 192.50000000 0.312702 -0.841652 -0.440272 0.000000
207.26600647 108.81400299 202.50000000 0.000978 0.000978 0.999999 0.000000
175.43499756 47.74509811 170.00000000 -0.254596 -0.919133 0.300624 0.000000
60.69919968 117.32700348 220.00000000 -0.770474 -0.599947 0.215485 0.000000
85.86710358 212.44700623 122.50000000 -0.000978 -0.000978 -0.999999 0.000000
70.32219696 229.47300720 157.50000000 -0.703222 0.703222 0.104673 0.000000
108.81400299 145.08599854 122.50000000 0.418336 -0.418336 -0.806219 0.000000
180.61700439 102.89299774 202.50000000 0.000978 0.000978 0.999999 0.000000
205.04499817 109.55500031 152.50000000 0.000978 0.000978 0.999999 0.000000
199.12300110 76.24410248 157.50000000 -0.858739 0.375988 0.348137 0.000000
99.19139862 123.61900330 242.50000000 0.000978 0.000978 0.999999 0.000000
75.50389862 96.97070313 102.50000000 -0.769041 -0.215084 -0.601926 0.000000
235.39399719 119.54799652 205.00000000 -0.252240 0.506028 0.824810 0.000000
174.69500732 128.80099487 147.50000000 0.000978 0.000978 0.999999 0.000000
115.47699738 111.77500153 237.50000000 0.626041 0.626041 0.464915 0.000000
118.43699646 129.54100037 142.50000000 0.000978 0.000978 0.999999 0.000000
98.45110321 218.36900330 227.50000000 -0.033370 0.962786 0.268196 0.000000
64.40039825 222.07000732 142.50000000 -0.809250 0.587425 -0.006846 0.000000
83.64640045 197.64199829 242.50000000 -0.417121 0.011768 0.908775 0.000000
246.49800110 102.15200043 192.50000000 0.001110 0.989041 0.147635 0.000000
150.26800537 81.42569733 197.50000000 0.000978 0.000978 0.999999 0.000000
236.87500000 86.60739899 192.50000000 -0.000978 -0.000978 0.999999 0.000000
60.69919968 151.74800110 237.50000000 -0.873822 -0.395265 0.283197 0.000000
188.75999451 98.45110321 142.50000000 0.000978 0.000978 0.999999 0.000000
131.76199341 182.46800232 240.00000000 0.645448 -0.001376 0.763803 0.000000
151.00799561 178.76699829 205.00000000 0.939319 0.217833 0.265007 0.000000
183.57800293 101.41200256 142.50000000 -0.281264 0.408974 0.868119 0.000000
103.63300323 177.65600586 247.50000000 0.000978 0.000978 0.999999 0.000000
92.52929688 183.57800293 247.50000000 0.000978 0.000978 0.999999 0.000000
90.30850220 150.26800537 252.50000000 0.000978 0.000978 0.999999 0.000000
64.03019714 216.14799500 170.00000000 -0.810930 0.574226 0.112507 0.000000
91.78900146 139.16400146 102.50000000 0.828847 0.185024 -0.527995 0.000000
161.37100220 117.69699860 197.50000000 0.000978 0.000978 0.999999 0.000000
136.94299316 123.61900330 222.50000000 0.740898 -0.617150 0.264946 0.000000
185.79899597 79.94529724 147.50000000 -0.164742 -0.787434 0.593976 0.000000
148.78700256 54.03710175 177.50000000 0.001289 -0.913864 0.406019 0.000000
82.16600037 148.04699707 252.50000000 -0.340970 -0.381084 0.859368 0.000000
193.94099426 130.28100586 152.50000000 -0.575748 -0.606140 0.548734 0.000000
144.34599304 144.34599304 222.50000000 0.885941 -0.179523 0.427645 0.000000
180.61700439 59.95899963 197.50000000 -0.310622 -0.122366 0.942624 0.000000
129.91099548 74.02339935 190.00000000 -0.771129 -0.464634 0.435288 0.000000
74.02339935 159.14999390 247.50000000 0.000978 0.000978 0.999999 0.000000
81.42569733 85.86710358 187.50000000 -0.330783 -0.935177 0.126596 0.000000
45.15430069 145.08599854 197.50000000 -0.959527 -0.129595 0.250027 0.000000
115.47699738 55.14739990 135.00000000 -0.264752 -0.923055 -0.279063 0.000000
185.05900574 121.39800262 197.50000000 0.000978 0.000978 0.999999 0.000000
61.43939972 162.85099792 77.50000000 -0.705724 -0.708486 0.001381 0.000000
68.10150146 198.38299561 97.50000000 0.550193 0.450460 -0.703117 0.000000
102.89299774 173.95500183 247.50000000 0.000978 0.000978 0.999999 0.000000
56.25780106 106.96399689 165.00000000 -0.948682 -0.188651 -0.253796 0.000000
176.17599487 133.24200439 147.50000000 0.000978 0.000978 0.999999 0.000000
100.67199707 82.16600037 172.50000000 0.001366 -0.804402 0.594083 0.000000
159.14999390 128.05999756 167.50000000 0.000978 0.000978 0.999999 0.000000
76.61419678 218.36900330 115.00000000 0.089073 0.040687 -0.995194 0.000000
219.10899353 75.50389862 202.50000000 0.000978 0.000978 0.999999 0.000000
118.43699646 192.46099854 242.50000000 0.000978 0.000978 0.999999 0.000000
172.47500610 131.76199341 147.50000000 0.000978 0.000978 0.999999 0.000000
185.05900574 101.41200256 142.50000000 -0.159485 0.203570 0.965983 0.000000
62.91989899 168.03300476 242.50000000 0.000978 0.000978 0.999999 0.000000
142.12500000 58.47850037 187.50000000 0.000978 0.000978 0.999999 0.000000
94.00969696 242.42700195 170.00000000 -0.324466 0.882849 0.339557 0.000000
89.56829834 116.21700287 112.50000000 0.479558 -0.274698 -0.833406 0.000000
135.83299255 219.85000610 185.00000000 0.537422 0.550899 0.638504 0.000000
113.25599670 163.59199524 122.50000000 0.240741 0.634110 -0.734812 0.000000
159.14999390 133.24200439 167.50000000 0.000978 0.000978 0.999999 0.000000
142.86500549 156.18899536 127.50000000 -0.000978 -0.000978 -0.999999 0.000000
164.33200073 83.64640045 202.50000000 0.201440 0.522534 0.828481 0.000000
118.80799866 184.31799316 145.00000000 0.626041 0.626041 -0.464915 0.000000
217.62899780 136.94299316 192.50000000 -0.391913 0.742832 0.542775 0.000000
146.56599426 172.47500610 222.50000000 0.752617 0.278452 0.596684 0.000000
104.37300110 130.28100586 127.50000000 0.850693 -0.474629 -0.225942 0.000000
47.37500000 136.20300293 127.50000000 -0.900992 -0.161863 -0.402510 0.000000
90.30850220 196.16200256 127.50000000 -0.000978 -0.000978 -0.999999 0.000000
119.91799927 146.19599915 145.00000000 -0.409343 -0.764868 -0.497409 0.000000
104.37300110 115.47699738 137.50000000 -0.674325 0.674325 0.300952 0.000000
73.28320313 232.06300354 160.00000000 -0.703222 0.703222 0.104673 0.000000
101.41200256 113.25599670 132.50000000 -0.926906 0.136757 0.349489 0.000000
111.03500366 56.25780106 137.50000000 -0.291285 -0.944307 -0.153094 0.000000
100.67199707 205.04499817 237.50000000 0.000978 0.000978 0.999999 0.000000
59.95899963 123.61900330 222.50000000 -0.733723 -0.067750 0.676063 0.000000
229.47300720 95.49019623 202.50000000 0.000978 0.000978 0.999999 0.000000
54.77730179 132.50199890 222.50000000 -0.831178 -0.172226 0.528659 0.000000
114.73600006 124.35900116 147.50000000 0.931229 0.059272 0.359583 0.000000
215.40800476 68.10150146 202.50000000 0.000978 0.000978 0.999999 0.000000
165.81199646 46.26459885 155.00000000 -0.315874 -0.947621 -0.047317 0.000000
45.52439880 135.46299744 190.00000000 -0.982961 -0.179681 0.038755 0.000000
243.53700256 82.16600037 202.50000000 0.000978 0.000978 0.999999 0.000000
42.19329834 174.69500732 177.50000000 -0.776114 -0.259754 0.574608 0.000000
102.15200043 105.11299896 137.50000000 -0.775502 0.012486 0.631222 0.000000
147.30700684 185.05900574 212.50000000 0.888350 0.326179 0.323173 0.000000
78.46479797 102.89299774 222.50000000 0.000978 0.000978 0.999999 0.000000
148.41700745 182.09800720 210.00000000 0.920802 0.334449 0.200669 0.000000
107.33399963 107.33399963 232.50000000 0.000978 0.000978 0.999999 0.000000
120.65799713 69.58200073 127.50000000 -0.160926 -0.907165 0.388785 0.000000
232.43299866 58.10839844 195.00000000 -0.005994 -0.967460 -0.252954 0.000000
233.91400146 131.02099609 202.50000000 -0.050231 -0.891936 0.449362 0.000000
125.83999634 181.35699463 147.50000000 -0.000978 -0.000978 -0.999999 0.000000
153.22799683 136.94299316 197.50000000 0.000978 0.000978 0.999999 0.000000
104.37300110 87.34760284 212.50000000 -0.239735 -0.883001 0.403530 0.000000
115.47699738 70.32219696 177.50000000 -0.635387 -0.658612 0.403130 0.000000
109.55500031 189.50000000 247.50000000 0.000978 0.000978 0.999999 0.000000
46.26459885 194.68200684 180.00000000 -0.957538 0.286889 0.028565 0.000000
52.55659866 153.96899414 227.50000000 0.000978 0.000978 0.999999 0.000000
193.20100403 132.50199890 192.50000000 0.000978 0.000978 0.999999 0.000000
50.33589935 177.65600586 102.50000000 -0.959249 -0.001213 -0.282560 0.000000
116.21700287 98.08100128 225.00000000 0.346441 -0.799847 0.490126 0.000000
239.09599304 88.82810211 192.50000000 -0.000978 -0.000978 0.999999 0.000000
150.26800537 66.62110138 137.50000000 -0.695329 -0.276533 0.663360 0.000000
150.63800049 153.96899414 170.00000000 0.995516 -0.076069 -0.056225 0.000000
95.49019623 145.08599854 112.50000000 0.872483 -0.094743 -0.479371 0.000000
136.94299316 168.03300476 142.50000000 0.514693 0.514693 -0.685698 0.000000
126.58000183 224.29100037 147.50000000 -0.000978 -0.000978 -0.999999 0.000000
116.95700073 56.62789917 130.00000000 -0.229435 -0.913410 -0.336216 0.000000
115.47699738 148.78700256 247.50000000 0.000978 0.000978 0.999999 0.000000
66.25090027 197.64199829 95.00000000 0.383896 0.677172 -0.627744 0.000000
72.17279816 168.77299500 80.00000000 0.886561 -0.443995 -0.129915 0.000000
62.17969894 216.88900757 122.50000000 -0.740729 0.571420 -0.353271 0.000000
224.29100037 94.75000000 177.50000000 -0.602938 -0.171617 0.779111 0.000000
145.08599854 170.99400330 222.50000000 0.722289 -0.615642 0.315093 0.000000
133.98199463 185.79899597 232.50000000 0.859287 0.319340 0.399561 0.000000
59.58879852 217.62899780 160.00000000 -0.775681 0.489476 0.398411 0.000000
230.21299744 59.95899963 197.50000000 0.090714 -0.369626 0.924742 0.000000
44.41400146 130.65100098 160.00000000 -0.939071 -0.313930 0.139977 0.000000
89.56829834 168.03300476 252.50000000 0.000978 0.000978 0.999999 0.000000
139.16400146 191.72099304 222.50000000 0.798466 0.599205 -0.058355 0.000000
113.99600220 85.86710358 182.50000000 -0.821728 0.529016 0.211911 0.000000
140.64399719 128.80099487 197.50000000 0.405006 -0.811614 0.421015 0.000000
112.51599884 140.64399719 132.50000000 0.729764 -0.617492 -0.293509 0.000000
65.14060211 222.80999756 162.50000000 -0.724227 0.652274 0.223681 0.000000
242.05700684 110.29499817 207.50000000 0.000978 0.000978 0.999999 0.000000
197.64199829 88.08779907 202.50000000 0.000978 0.000978 0.999999 0.000000
127.31999969 153.96899414 122.50000000 -0.006305 -0.349319 -0.936983 0.000000
94.75000000 100.67199707 117.50000000 -0.858056 -0.092494 0.505158 0.000000
139.90400696 99.93160248 137.50000000 0.000978 0.000978 0.999999 0.000000
142.12500000 145.08599854 227.50000000 0.215855 -0.392063 0.894256 0.000000
110.29499817 233.91400146 182.50000000 -0.110940 0.517240 0.848620 0.000000
61.43939972 170.99400330 77.50000000 -0.866786 0.089082 -0.490660 0.000000
120.65799713 193.20100403 242.50000000 0.000978 0.000978 0.999999 0.000000
216.14799500 131.76199341 202.50000000 0.000978 0.000978 0.999999 0.000000
54.77730179 170.25399780 232.50000000 -0.889197 -0.295399 0.349381 0.000000
135.46299744 60.69919968 187.50000000 -0.085757 -0.774720 0.626462 0.000000
136.94299316 223.55099487 167.50000000 0.901972 0.189053 -0.388209 0.000000
161.37100220 118.43699646 157.50000000 -0.082930 0.319873 0.943824 0.000000
125.83999634 190.24000549 237.50000000 0.617279 0.610552 0.496178 0.000000
61.43939972 168.03300476 242.50000000 0.000978 0.000978 0.999999 0.000000
203.56399536 132.50199890 172.50000000 -0.399800 -0.850937 0.340686 0.000000
62.17969894 171.73399353 77.50000000 -0.823106 0.313189 -0.473719 0.000000
241.31599426 74.02339935 202.50000000 0.472945 -0.185323 0.861382 0.000000
118.43699646 65.14060211 172.50000000 -0.538384 -0.717294 0.442303 0.000000
204.30499268 111.77500153 202.50000000 0.000978 0.000978 0.999999 0.000000
126.58000183 131.39199829 145.00000000 -0.195518 -0.746664 0.635819 0.000000
92.52929688 111.77500153 117.50000000 0.723452 -0.172833 -0.668390 0.000000
178.39599609 94.75000000 142.50000000 0.000978 0.000978 0.999999 0.000000
116.21700287 71.43260193 180.00000000 -0.612913 -0.707710 0.351403 0.000000
213.92799377 116.21700287 202.50000000 0.000978 0.000978 0.999999 0.000000
112.51599884 166.55299377 122.50000000 -0.000978 -0.000978 -0.999999 0.000000
236.13499451 71.06250000 197.50000000 -0.618159 0.785606 -0.026512 0.000000
49.22560120 122.87899780 190.00000000 -0.963938 -0.265113 0.023213 0.000000
112.51599884 74.02339935 132.50000000 0.359355 -0.902055 0.239081 0.000000
126.58000183 235.39399719 147.50000000 0.937501 0.224276 -0.266067 0.000000
96.23040009 83.64640045 117.50000000 -0.804402 -0.001366 0.594083 0.000000
58.10839844 105.11299896 135.00000000 -0.810365 -0.270122 -0.519945 0.000000
116.95700073 226.51199341 142.50000000 -0.000978 -0.000978 -0.999999 0.000000
148.04699707 172.47500610 157.50000000 0.825786 0.165755 -0.539076 0.000000
85.12689972 189.86999512 245.00000000 -0.507599 0.585172 0.632390 0.000000
118.43699646 230.21299744 187.50000000 0.556973 0.370771 0.743175 0.000000
80.68550110 141.38499451 247.50000000 0.000978 0.000978 0.999999 0.000000
89.56829834 121.39800262 242.50000000 0.000978 0.000978 0.999999 0.000000
148.04699707 87.34760284 197.50000000 0.000978 0.000978 0.999999 0.000000
123.24900055 145.08599854 145.00000000 -0.292558 -0.874641 -0.386540 0.000000
86.60739899 201.71400452 240.00000000 -0.405219 0.706239 0.580538 0.000000
62.91989899 197.27200317 230.00000000 -0.635107 0.387663 0.668099 0.000000
120.65799713 70.69239807 185.00000000 -0.336581 -0.840670 0.424249 0.000000
187.27900696 74.02339935 202.50000000 0.000978 0.000978 0.999999 0.000000
121.39800262 102.89299774 187.50000000 -0.000978 -0.000978 -0.999999 0.000000
165.81199646 150.26800537 177.50000000 -0.043842 0.997664 -0.052396 0.000000
104.37300110 207.26600647 237.50000000 0.000978 0.000978 0.999999 0.000000
222.07000732 77.72460175 202.50000000 0.000978 0.000978 0.999999 0.000000
49.22560120 193.94099426 125.00000000 -0.850157 0.487303 -0.199420 0.000000
68.10150146 148.04699707 242.50000000 0.000978 0.000978 0.999999 0.000000
116.95700073 54.40719986 150.00000000 -0.150626 -0.953077 0.262596 0.000000
122.13899994 90.30850220 192.50000000 -0.968064 -0.161129 0.192066 0.000000
81.42569733 156.92999268 252.50000000 0.000978 0.000978 0.999999 0.000000
128.80099487 187.27900696 237.50000000 0.662488 0.672254 0.330430 0.000000
51.81639862 178.39599609 97.50000000 -0.959249 -0.001213 -0.282560 0.000000
57.36809921 123.61900330 220.00000000 -0.405006 0.811614 0.421015 0.000000
136.20300293 182.83799744 157.50000000 -0.000978 -0.000978 -0.999999 0.000000
213.18699646 79.94529724 202.50000000 0.000978 0.000978 0.999999 0.000000
210.96699524 86.60739899 202.50000000 -0.000978 -0.000978 0.999999 0.000000
126.58000183 133.98199463 152.50000000 -0.429052 -0.744676 0.511246 0.000000
79.20500183 217.62899780 117.50000000 0.319980 -0.108445 -0.941197 0.000000
73.28320313 122.87899780 237.50000000 0.000978 0.000978 0.999999 0.000000
133.24200439 222.07000732 157.50000000 -0.000978 -0.000978 -0.999999 0.000000
68.10150146 181.35699463 242.50000000 0.000978 0.000978 0.999999 0.000000
136.94299316 218.73899841 185.00000000 0.608750 0.665456 0.431963 0.000000
111.77500153 141.38499451 247.50000000 0.000978 0.000978 0.999999 0.000000
177.65600586 58.47850037 192.50000000 -0.021890 -0.364409 0.930982 0.000000
87.34760284 182.83799744 117.50000000 0.834065 0.311405 -0.455371 0.000000
202.08399963 62.17969894 172.50000000 -0.553282 0.832013 0.040416 0.000000
100.67199707 76.24410248 122.50000000 -0.884940 -0.463540 -0.044859 0.000000
108.07399750 173.95500183 247.50000000 0.000978 0.000978 0.999999 0.000000
158.41000366 128.80099487 197.50000000 -0.000978 -0.000978 0.999999 0.000000
76.24410248 165.07200623 247.50000000 0.000978 0.000978 0.999999 0.000000
196.16200256 133.24200439 192.50000000 0.000978 0.000978 0.999999 0.000000
201.34399414 114.73600006 202.50000000 0.000978 0.000978 0.999999 0.000000
82.16600037 189.50000000 242.50000000 -0.320438 0.267763 0.908638 0.000000
48.85540009 134.72300720 122.50000000 -0.874781 -0.216087 -0.433665 0.000000
215.40800476 65.88079834 202.50000000 0.000978 0.000978 0.999999 0.000000
147.30700684 198.38299561 177.50000000 -0.000978 -0.000978 -0.999999 0.000000
204.30499268 63.66009903 172.50000000 0.000978 0.000978 0.999999 0.000000
155.44900513 139.90400696 197.50000000 0.000978 0.000978 0.999999 0.000000
173.95500183 48.48529816 170.00000000 -0.254998 -0.910708 0.324941 0.000000
196.16200256 128.05999756 197.50000000 0.000978 0.000978 0.999999 0.000000
131.02099609 196.90199280 227.50000000 0.669260 0.646239 0.366695 0.000000
63.29000092 212.44700623 210.00000000 -0.723348 0.541270 0.428712 0.000000
186.16900635 141.38499451 160.00000000 0.483774 0.199201 0.852221 0.000000
208.74600220 65.14060211 202.50000000 -0.313124 -0.352453 0.881890 0.000000
220.58999634 80.31539917 180.00000000 -0.568450 0.639296 0.517846 0.000000
202.82400513 82.90619659 202.50000000 0.000978 0.000978 0.999999 0.000000
56.25780106 171.73399353 237.50000000 -0.924818 0.243673 0.292123 0.000000
128.05999756 177.65600586 147.50000000 0.677879 0.587939 -0.441371 0.000000
95.12010193 102.89299774 120.00000000 -0.829099 0.049101 0.556941 0.000000
59.58879852 111.03500366 120.00000000 0.506028 -0.252240 -0.824810 0.000000
143.60499573 71.80269623 192.50000000 0.000978 0.000978 0.999999 0.000000
44.41400146 142.86500549 132.50000000 -0.939071 -0.313930 -0.139977 0.000000
134.72300720 202.82400513 212.50000000 0.674325 0.674325 0.300952 0.000000
109.18499756 213.18699646 140.00000000 0.814634 -0.287241 -0.503849 0.000000
229.47300720 88.82810211 202.50000000 0.000978 0.000978 0.999999 0.000000
112.51599884 161.37100220 117.50000000 -0.000978 -0.000978 -0.999999 0.000000
56.25780106 143.60499573 92.50000000 -0.846322 -0.183594 -0.500032 0.000000
139.53399658 190.97999573 220.00000000 0.798466 0.599205 -0.058355 0.000000
104.37300110 198.38299561 137.50000000 0.153575 0.420538 -0.894182 0.000000
179.87699890 101.41200256 202.50000000 0.000978 0.000978 0.999999 0.000000
133.98199463 217.62899780 157.50000000 0.720605 0.038225 -0.692291 0.000000
181.35699463 89.56829834 142.50000000 0.000978 0.000978 0.999999 0.000000
231.32299805 106.59400177 180.00000000 -0.862386 -0.028610 0.505443 0.000000
133.98199463 137.68400574 147.50000000 -0.173330 0.391067 0.903894 0.000000
133.98199463 159.89100647 242.50000000 0.000978 0.000978 0.999999 0.000000
111.03500366 159.14999390 117.50000000 -0.000978 -0.000978 -0.999999 0.000000
158.77999878 165.81199646 190.00000000 -0.747416 -0.534803 0.394151 0.000000
190.24000549 94.75000000 202.50000000 0.000978 0.000978 0.999999 0.000000
143.60499573 64.40039825 132.50000000 -0.598755 -0.464580 0.652425 0.000000
92.52929688 221.33000183 217.50000000 0.106744 0.933672 0.341851 0.000000
151.74800110 103.63300323 137.50000000 0.000978 0.000978 0.999999 0.000000
214.66799927 119.17800140 202.50000000 0.000978 0.000978 0.999999 0.000000
76.98429871 153.22799683 247.50000000 0.000978 0.000978 0.999999 0.000000
103.63300323 220.58999634 217.50000000 0.227347 0.899122 0.374023 0.000000
103.63300323 84.01660156 175.00000000 -0.107455 -0.758072 0.643257 0.000000
150.26800537 125.09999847 197.50000000 0.000978 0.000978 0.999999 0.000000
102.15200043 106.59400177 137.50000000 -0.913864 -0.001289 0.406019 0.000000
57.73830032 187.64900208 230.00000000 -0.817585 0.209363 0.536397 0.000000
89.56829834 186.53900146 247.50000000 0.000978 0.000978 0.999999 0.000000
130.65100098 102.15200043 215.00000000 0.813695 -0.580815 0.023565 0.000000
173.95500183 61.06930161 195.00000000 -0.146520 -0.711455 0.687287 0.000000
135.46299744 82.90619659 137.50000000 0.000978 0.000978 0.999999 0.000000
71.06250000 225.03100586 122.50000000 -0.637927 0.637927 -0.431392 0.000000
123.61900330 154.70899963 122.50000000 -0.090123 -0.242445 -0.965970 0.000000
151.74800110 114.73600006 197.50000000 0.000978 0.000978 0.999999 0.000000
225.03100586 81.42569733 202.50000000 0.000978 0.000978 0.999999 0.000000
66.62110138 180.98699951 80.00000000 0.137892 -0.972833 -0.185964 0.000000
75.50389862 110.29499817 82.50000000 -0.000978 0.999999 -0.000978 0.000000
195.42199707 76.24410248 152.50000000 -0.592079 0.507737 0.625816 0.000000
49.96580124 142.86500549 115.00000000 -0.919926 -0.254815 -0.298004 0.000000
91.04879761 242.05700684 167.50000000 -0.324744 0.923180 0.205624 0.000000
76.98429871 110.29499817 82.50000000 -0.000978 0.999999 -0.000978 0.000000
181.35699463 92.52929688 142.50000000 0.000978 0.000978 0.999999 0.000000
174.69500732 74.02339935 142.50000000 0.000978 0.000978 0.999999 0.000000
68.10150146 112.51599884 97.50000000 0.001338 -0.860313 -0.509765 0.000000
168.77299500 95.49019623 202.50000000 0.000978 0.000978 0.999999 0.000000
130.65100098 171.73399353 140.00000000 0.522373 -0.001343 -0.852716 0.000000
104.37300110 57.73830032 147.50000000 0.000978 0.000978 0.999999 0.000000
128.80099487 227.25199890 152.50000000 0.000978 0.000978 -0.999999 0.000000
79.57520294 110.29499817 85.00000000 -0.751855 0.158843 0.639909 0.000000
48.11520004 139.16400146 207.50000000 -0.945980 -0.036922 0.322117 0.000000
102.15200043 106.59400177 232.50000000 0.000978 0.000978 0.999999 0.000000
158.77999878 171.73399353 190.00000000 0.858822 0.098273 0.502760 0.000000
108.07399750 198.38299561 242.50000000 0.133338 0.063770 0.989017 0.000000
229.47300720 136.57299805 195.00000000 -0.576173 -0.197152 0.793193 0.000000
56.99800110 136.94299316 232.50000000 -0.820443 -0.266216 0.505966 0.000000
85.12689972 227.25199890 202.50000000 -0.313814 0.785332 0.533643 0.000000
74.76360321 112.14499664 230.00000000 -0.564123 -0.754858 0.334595 0.000000
125.09999847 188.01899719 242.50000000 0.305363 0.400501 0.863917 0.000000
148.78700256 106.59400177 197.50000000 0.000978 0.000978 0.999999 0.000000
194.68200684 69.58200073 202.50000000 0.000978 0.000978 0.999999 0.000000
216.14799500 116.95700073 202.50000000 0.000978 0.000978 0.999999 0.000000
41.08300018 142.86500549 150.00000000 -0.976572 -0.208834 -0.051907 0.000000
180.61700439 134.72300720 147.50000000 0.000978 0.000978 0.999999 0.000000
42.56349945 185.05900574 165.00000000 -0.977150 0.180034 0.112987 0.000000
119.91799927 89.56829834 142.50000000 0.000978 0.000978 0.999999 0.000000
43.67380142 176.91600037 187.50000000 -0.979973 0.196938 0.029482 0.000000
119.17800140 81.42569733 187.50000000 0.000978 0.000978 0.999999 0.000000
220.58999634 60.69919968 197.50000000 0.000978 0.000978 0.999999 0.000000
50.33589935 202.82400513 192.50000000 -0.912840 0.368838 0.175163 0.000000
225.03100586 71.80269623 187.50000000 -0.536082 0.264134 0.801779 0.000000
49.59569931 169.51400757 102.50000000 -0.892252 0.353028 -0.281528 0.000000
133.24200439 129.17100525 145.00000000 -0.425953 -0.555230 0.714341 0.000000
86.60739899 77.72460175 152.50000000 -0.279958 -0.842968 0.459379 0.000000
117.69699860 164.33200073 122.50000000 -0.000978 -0.000978 -0.999999 0.000000
54.77730179 145.08599854 92.50000000 -0.870564 -0.287149 -0.399578 0.000000
105.85299683 87.34760284 137.50000000 -0.307135 0.364628 0.879042 0.000000
196.90199280 97.71089935 202.50000000 0.000978 0.000978 0.999999 0.000000
184.31799316 122.87899780 197.50000000 0.000978 0.000978 0.999999 0.000000
69.58200073 211.70700073 107.50000000 0.299947 0.729816 -0.614329 0.000000
56.99800110 216.88900757 187.50000000 -0.841923 0.536533 0.057436 0.000000
102.89299774 113.99600220 137.50000000 -0.841609 0.491573 0.223719 0.000000
163.59199524 148.78700256 172.50000000 -0.211794 0.922513 -0.322666 0.000000
100.67199707 161.37100220 117.50000000 0.199272 0.262489 -0.944135 0.000000
91.78900146 113.25599670 117.50000000 0.767229 -0.040975 -0.640064 0.000000
100.67199707 133.24200439 247.50000000 0.000978 0.000978 0.999999 0.000000
162.11099243 149.89700317 175.00000000 -0.128931 0.984452 -0.119291 0.000000
119.17800140 200.60299683 152.50000000 0.142903 0.351014 -0.925401 0.000000
183.57800293 136.94299316 162.50000000 0.797067 -0.132102 0.589265 0.000000
131.02099609 196.16200256 157.50000000 -0.000978 -0.000978 -0.999999 0.000000
114.73600006 209.48599243 232.50000000 -0.000978 -0.000978 0.999999 0.000000
127.31999969 221.33000183 147.50000000 0.543844 -0.490296 -0.681060 0.000000
115.47699738 239.83599854 177.50000000 0.000978 0.000978 0.999999 0.000000
100.67199707 165.81199646 117.50000000 -0.000978 -0.000978 -0.999999 0.000000
111.77500153 150.26800537 247.50000000 0.000978 0.000978 0.999999 0.000000
186.53900146 102.89299774 142.50000000 -0.221040 0.013002 0.975178 0.000000
93.26950073 137.68400574 107.50000000 0.691027 -0.655590 -0.304439 0.000000
81.42569733 225.77099609 117.50000000 -0.000978 -0.000978 -0.999999 0.000000
100.67199707 162.85099792 117.50000000 0.128011 0.196452 -0.972121 0.000000
54.03710175 150.26800537 232.50000000 -0.959249 0.001213 0.282560 0.000000
138.42399597 206.52499390 197.50000000 0.415224 0.832027 0.367860 0.000000
131.76199341 115.10600281 200.00000000 0.703747 -0.460846 -0.540704 0.000000
108.81400299 228.73199463 132.50000000 0.474628 0.487858 -0.732614 0.000000
178.39599609 115.47699738 142.50000000 -0.040396 -0.360955 0.931708 0.000000
139.90400696 156.18899536 127.50000000 -0.062318 0.281067 -0.957663 0.000000
130.28100586 241.31599426 167.50000000 0.517240 0.848620 0.110940 0.000000
106.59400177 105.11299896 142.50000000 -0.596525 -0.215369 0.773158 0.000000
128.80099487 89.19819641 140.00000000 0.515261 -0.521975 0.679742 0.000000
116.21700287 185.05900574 142.50000000 0.690835 0.567650 -0.447794 0.000000
221.33000183 55.88769913 195.00000000 0.535277 -0.839510 0.093279 0.000000
73.28320313 121.39800262 237.50000000 0.000978 0.000978 0.999999 0.000000
148.41700745 114.73600006 140.00000000 -0.179171 -0.641646 0.745780 0.000000
73.28320313 116.21700287 82.50000000 0.865711 0.294678 0.404609 0.000000
74.76360321 168.03300476 247.50000000 0.000978 0.000978 0.999999 0.000000
113.99600220 235.39399719 182.50000000 0.000978 0.000978 0.999999 0.000000
138.42399597 74.02339935 137.50000000 -0.000978 -0.000978 0.999999 0.000000
55.88769913 106.59400177 150.00000000 -0.871459 -0.482892 0.085879 0.000000
79.57520294 75.50389862 135.00000000 -0.609750 -0.783965 -0.116635 0.000000
64.40039825 207.26600647 102.50000000 -0.000978 -0.000978 -0.999999 0.000000
105.11299896 124.35900116 137.50000000 0.930417 -0.259157 -0.259157 0.000000
68.84179688 152.48800659 247.50000000 -0.000978 -0.000978 0.999999 0.000000
136.20300293 170.99400330 147.50000000 0.670556 0.627508 -0.395711 0.000000
151.74800110 125.47000122 160.00000000 0.468658 0.073706 0.880299 0.000000
127.31999969 52.55659866 137.50000000 -0.184993 -0.944148 -0.272693 0.000000
140.27400208 160.63099670 130.00000000 0.086232 0.705933 -0.703010 0.000000
200.60299683 116.95700073 202.50000000 -0.094683 0.188136 0.977569 0.000000
136.94299316 80.68550110 137.50000000 0.000978 0.000978 0.999999 0.000000
78.46479797 92.15910339 205.00000000 -0.512598 -0.827807 0.227991 0.000000
114.73600006 170.99400330 247.50000000 0.000978 0.000978 0.999999 0.000000
116.21700287 94.75000000 182.50000000 0.969048 -0.120972 -0.215202 0.000000
49.22560120 170.99400330 215.00000000 -0.913864 -0.001289 0.406019 0.000000
190.24000549 125.83999634 197.50000000 0.000978 0.000978 0.999999 0.000000
49.22560120 176.17599487 215.00000000 -0.959318 0.043776 0.278915 0.000000
59.95899963 118.43699646 112.50000000 -0.805789 -0.459764 -0.373258 0.000000
131.76199341 73.28320313 192.50000000 -0.445968 0.055917 0.893300 0.000000
110.29499817 59.21870041 127.50000000 -0.140758 -0.989813 -0.021395 0.000000
91.78900146 182.09800720 247.50000000 0.000978 0.000978 0.999999 0.000000
111.03500366 105.85299683 232.50000000 0.000978 0.000978 0.999999 0.000000
70.32219696 208.74600220 227.50000000 0.404959 0.456588 0.792171 0.000000
54.77730179 201.34399414 112.50000000 -0.849704 0.405434 -0.337085 0.000000
72.54290009 119.17800140 82.50000000 0.890875 0.222351 0.396108 0.000000
79.94529724 160.63099670 252.50000000 0.000978 0.000978 0.999999 0.000000
74.02339935 170.99400330 247.50000000 0.000978 0.000978 0.999999 0.000000
75.50389862 221.33000183 207.50000000 -0.431343 0.527196 0.732125 0.000000
113.99600220 242.05700684 137.50000000 0.557256 0.251311 -0.791397 0.000000
133.98199463 61.06930161 185.00000000 -0.409979 -0.782686 0.468316 0.000000
208.00599670 122.87899780 202.50000000 0.000978 0.000978 0.999999 0.000000
136.57299805 236.13499451 175.00000000 0.970221 0.198135 -0.139333 0.000000
123.98899841 105.85299683 225.00000000 0.701151 -0.643124 0.307862 0.000000
141.38499451 75.50389862 137.50000000 0.000978 0.000978 0.999999 0.000000
220.58999634 137.68400574 202.50000000 0.000978 0.000978 0.999999 0.000000
105.85299683 76.98429871 167.50000000 0.000978 0.000978 0.999999 0.000000
110.66500092 104.37300110 145.00000000 -0.498112 -0.391026 0.773940 0.000000
104.37300110 205.04499817 237.50000000 0.000978 0.000978 0.999999 0.000000
85.86710358 113.99600220 237.50000000 -0.000978 -0.000978 0.999999 0.000000
145.82600403 190.24000549 172.50000000 -0.000978 -0.000978 -0.999999 0.000000
71.06250000 223.55099487 182.50000000 -0.674325 0.674325 -0.300952 0.000000
87.34760284 170.25399780 252.50000000 -0.125419 0.576928 0.807109 0.000000
151.74800110 112.51599884 137.50000000 -0.226051 -0.432641 0.872767 0.000000
85.86710358 200.60299683 242.50000000 -0.297162 0.273969 0.914678 0.000000
159.14999390 119.91799927 197.50000000 0.000978 0.000978 0.999999 0.000000
95.49019623 234.65400696 182.50000000 0.152061 0.355739 0.922132 0.000000
184.31799316 81.42569733 147.50000000 -0.767362 0.466307 0.440129 0.000000
86.60739899 102.15200043 102.50000000 -0.838823 -0.359048 0.409220 0.000000
118.43699646 99.93160248 142.50000000 0.000978 0.000978 0.999999 0.000000
135.46299744 111.77500153 202.50000000 0.896678 -0.399654 -0.190381 0.000000
116.21700287 99.19139862 187.50000000 -0.000978 -0.000978 -0.999999 0.000000
109.55500031 91.04879761 177.50000000 0.515181 -0.458859 0.723904 0.000000
69.58200073 215.40800476 217.50000000 -0.511050 0.729362 0.454818 0.000000
141.38499451 133.24200439 222.50000000 0.864500 -0.004021 0.502616 0.000000
70.69239807 122.13899994 85.00000000 0.684509 0.009719 0.728940 0.000000
235.39399719 68.84179688 192.50000000 -0.919410 0.381152 0.096996 0.000000
142.12500000 63.66009903 187.50000000 0.000978 0.000978 0.999999 0.000000
43.67380142 156.92999268 132.50000000 -0.959412 0.069891 -0.273210 0.000000
71.06250000 92.15910339 190.00000000 -0.590543 -0.787896 0.174582 0.000000
74.76360321 133.24200439 242.50000000 -0.668952 -0.384854 0.635917 0.000000
48.48529816 130.28100586 205.00000000 -0.940762 -0.234151 0.245235 0.000000
179.13699341 119.17800140 197.50000000 0.000978 0.000978 0.999999 0.000000
158.41000366 150.63800049 185.00000000 0.176484 0.882420 0.436105 0.000000
142.12500000 189.50000000 167.50000000 0.714513 0.488001 -0.501325 0.000000
88.82810211 176.17599487 247.50000000 0.000978 0.000978 0.999999 0.000000
50.33589935 189.50000000 212.50000000 -0.959249 0.001213 0.282560 0.000000
62.17969894 193.94099426 87.50000000 0.298213 0.370874 -0.879501 0.000000
134.72300720 181.35699463 237.50000000 0.786622 0.420072 0.452510 0.000000
75.50389862 93.26950073 202.50000000 -0.547994 -0.804239 0.230003 0.000000
89.93840027 112.51599884 115.00000000 0.598116 -0.335529 -0.727789 0.000000
88.82810211 151.74800110 102.50000000 -0.000978 -0.000978 -0.999999 0.000000
41.82320023 148.04699707 140.00000000 -0.985386 -0.103913 -0.134968 0.000000
60.32910156 199.12300110 95.00000000 -0.384269 -0.057175 -0.921449 0.000000
80.68550110 203.56399536 237.50000000 -0.594110 0.296254 0.747842 0.000000
116.21700287 202.08399963 147.50000000 0.737854 -0.230286 -0.634460 0.000000
128.80099487 56.62789917 170.00000000 0.000978 0.000978 0.999999 0.000000
68.84179688 123.98899841 85.00000000 0.458265 0.785367 0.416163 0.000000
54.03710175 212.44700623 152.50000000 -0.959249 0.001213 0.282560 0.000000
109.55500031 187.27900696 137.50000000 0.431706 0.864926 -0.255994 0.000000
65.88079834 98.08100128 195.00000000 -0.691826 -0.691826 0.206770 0.000000
151.00799561 151.74800110 202.50000000 0.863145 -0.025826 0.504294 0.000000
91.78900146 238.35499573 177.50000000 0.000978 0.000978 0.999999 0.000000
185.05900574 66.62110138 147.50000000 0.000978 0.000978 0.999999 0.000000
119.91799927 144.34599304 147.50000000 -0.117269 -0.690252 -0.714003 0.000000
234.65400696 78.46479797 202.50000000 0.000978 0.000978 0.999999 0.000000
103.63300323 167.29299927 252.50000000 0.000978 0.000978 0.999999 0.000000
96.97070313 208.74600220 237.50000000 0.000978 0.000978 0.999999 0.000000
158.41000366 131.76199341 167.50000000 0.000978 0.000978 0.999999 0.000000
43.67380142 155.44900513 132.50000000 -0.882130 0.380203 -0.278014 0.000000
81.79589844 90.30850220 205.00000000 -0.000978 -0.000978 0.999999 0.000000
129.54100037 200.60299683 227.50000000 0.827081 0.502432 0.251989 0.000000
100.67199707 217.99899292 225.00000000 0.260864 0.889920 0.374154 0.000000
76.24410248 88.08779907 107.50000000 -0.811457 -0.524877 -0.256987 0.000000
102.89299774 225.03100586 132.50000000 0.332329 -0.222992 -0.916423 0.000000
139.90400696 223.55099487 177.50000000 0.725950 0.578465 0.371988 0.000000
205.04499817 71.80269623 202.50000000 0.000978 0.000978 0.999999 0.000000
247.23800659 109.55500031 202.50000000 0.866725 0.454993 -0.204374 0.000000
50.33589935 169.51400757 222.50000000 -0.919766 0.091026 0.381764 0.000000
122.87899780 221.33000183 147.50000000 -0.000978 -0.000978 -0.999999 0.000000
156.92999268 166.55299377 187.50000000 -0.009369 -0.485849 0.873993 0.000000
85.49700165 127.31999969 85.00000000 -0.989147 -0.035367 0.142611 0.000000
105.11299896 72.91300201 130.00000000 -0.455342 -0.682179 0.572097 0.000000
146.56599426 130.28100586 162.50000000 0.000978 0.000978 0.999999 0.000000
112.51599884 165.81199646 247.50000000 0.000978 0.000978 0.999999 0.000000
247.97799683 119.17800140 197.50000000 0.000978 0.000978 0.999999 0.000000
119.91799927 205.04499817 232.50000000 0.626916 0.555944 0.545805 0.000000
180.61700439 141.38499451 147.50000000 -0.000978 -0.000978 0.999999 0.000000
94.00969696 189.50000000 127.50000000 -0.000978 -0.000978 -0.999999 0.000000
149.52699280 166.92300415 170.00000000 0.338690 0.135750 0.931054 0.000000
71.06250000 196.16200256 97.50000000 0.693675 0.234371 -0.681091 0.000000
243.53700256 82.16600037 192.50000000 0.000978 0.000978 0.999999 0.000000
85.12689972 143.60499573 247.50000000 0.000978 0.000978 0.999999 0.000000
92.52929688 156.92999268 107.50000000 -0.000978 -0.000978 -0.999999 0.000000
163.96200562 87.34760284 200.00000000 -0.841486 0.111522 0.528644 0.000000
50.33589935 162.85099792 97.50000000 -0.913864 -0.001289 -0.406019 0.000000
85.12689972 130.65100098 85.00000000 -0.989147 -0.035367 0.142611 0.000000
152.48800659 108.07399750 137.50000000 -0.310083 -0.093685 0.946082 0.000000
122.13899994 99.93160248 222.50000000 0.000978 0.000978 0.999999 0.000000
196.90199280 49.59569931 177.50000000 -0.003886 -0.910626 0.413214 0.000000
66.25090027 131.76199341 85.00000000 0.304496 0.684712 0.662157 0.000000
85.12689972 131.76199341 82.50000000 -0.992612 -0.111289 -0.048338 0.000000
75.50389862 196.16200256 237.50000000 -0.418497 0.516967 0.746730 0.000000
107.33399963 88.82810211 177.50000000 0.420338 -0.462534 0.780627 0.000000
110.29499817 129.54100037 242.50000000 0.430626 -0.798351 0.420949 0.000000
93.26950073 79.57520294 160.00000000 0.012153 -0.857430 0.514458 0.000000
94.00969696 168.77299500 112.50000000 -0.000978 -0.000978 -0.999999 0.000000
61.80950165 195.42199707 230.00000000 -0.635107 0.387663 0.668099 0.000000
85.12689972 228.73199463 122.50000000 -0.000978 -0.000978 -0.999999 0.000000
49.59569931 132.13200378 210.00000000 -0.935787 -0.261573 0.236395 0.000000
221.33000183 119.17800140 202.50000000 0.000978 0.000978 0.999999 0.000000
216.14799500 70.32219696 202.50000000 0.000978 0.000978 0.999999 0.000000
41.45309830 168.77299500 142.50000000 -0.874641 -0.292558 -0.386540 0.000000
57.73830032 202.45399475 215.00000000 -0.570499 0.570499 0.590814 0.000000
91.78900146 108.81400299 232.50000000 -0.001379 -0.748548 0.663079 0.000000
64.77050018 133.98199463 85.00000000 0.304496 0.684712 0.662157 0.000000
153.22799683 177.65600586 167.50000000 0.674325 0.674325 -0.300952 0.000000
95.49019623 165.07200623 252.50000000 0.000978 0.000978 0.999999 0.000000
153.22799683 185.79899597 192.50000000 0.960277 -0.239742 0.142797 0.000000
188.01899719 62.91989899 152.50000000 0.000978 0.000978 0.999999 0.000000
179.87699890 50.70600128 180.00000000 -0.200357 -0.845114 0.495620 0.000000
39.60250092 159.14999390 150.00000000 -0.989041 -0.001110 -0.147635 0.000000
158.41000366 126.58000183 157.50000000 0.000978 0.000978 0.999999 0.000000
154.70899963 87.34760284 197.50000000 0.000978 0.000978 0.999999 0.000000
145.45599365 211.70700073 180.00000000 0.903409 0.336391 0.265881 0.000000
113.99600220 188.01899719 142.50000000 0.749665 0.523289 -0.405180 0.000000
125.09999847 121.76799774 235.00000000 0.713678 -0.268623 0.646920 0.000000
64.40039825 135.46299744 82.50000000 0.869345 -0.048220 -0.491848 0.000000
217.62899780 111.03500366 167.50000000 -0.760771 -0.205238 0.615715 0.000000
153.22799683 88.82810211 197.50000000 0.000978 0.000978 0.999999 0.000000
116.21700287 61.43939972 167.50000000 -0.536952 -0.827115 0.166021 0.000000
173.21499634 65.88079834 197.50000000 -0.135076 -0.185571 0.973303 0.000000
102.15200043 91.41889954 220.00000000 0.275970 -0.668389 0.690722 0.000000
86.60739899 113.99600220 112.50000000 0.369615 -0.495510 -0.786037 0.000000
41.82320023 156.18899536 180.00000000 -0.997486 -0.039557 0.058801 0.000000
51.07609940 207.26600647 137.50000000 -0.746498 0.628056 -0.219742 0.000000
108.07399750 137.31300354 125.00000000 0.837737 -0.479809 -0.260732 0.000000
79.20500183 93.26950073 97.50000000 0.000978 0.000978 -0.999999 0.000000
74.76360321 181.35699463 242.50000000 -0.196744 0.800704 0.565831 0.000000
116.21700287 98.45110321 142.50000000 0.000978 0.000978 0.999999 0.000000
74.02339935 207.26600647 232.50000000 -0.319205 -0.003726 0.947678 0.000000
138.42399597 225.77099609 167.50000000 0.928900 0.212844 -0.303055 0.000000
67.36129761 192.46099854 237.50000000 -0.268904 0.105223 0.957402 0.000000
141.38499451 179.13699341 157.50000000 0.864160 0.432839 -0.256666 0.000000
54.03710175 209.85600281 135.00000000 -0.746498 0.628056 -0.219742 0.000000
197.64199829 136.20300293 182.50000000 -0.195213 -0.978491 0.066688 0.000000
151.00799561 149.89700317 155.00000000 0.055784 0.670842 -0.739499 0.000000
127.31999969 234.28399658 150.00000000 0.901208 0.297443 -0.315201 0.000000
94.75000000 191.72099304 247.50000000 -0.184151 0.839908 0.510532 0.000000
91.04879761 124.35900116 242.50000000 0.000978 0.000978 0.999999 0.000000
85.12689972 240.94599915 155.00000000 -0.401800 0.914395 0.049391 0.000000
74.76360321 81.79589844 145.00000000 -0.703222 -0.703222 0.104673 0.000000
205.04499817 84.38670349 202.50000000 0.000978 0.000978 0.999999 0.000000
188.75999451 131.76199341 192.50000000 0.000978 0.000978 0.999999 0.000000
39.97259903 166.55299377 147.50000000 -0.874641 -0.292558 -0.386540 0.000000
159.14999390 176.17599487 187.50000000 0.919519 0.131756 0.370304 0.000000
80.68550110 187.27900696 247.50000000 0.000978 0.000978 0.999999 0.000000
119.91799927 229.47300720 142.50000000 -0.000978 -0.000978 -0.999999 0.000000
102.15200043 127.31999969 247.50000000 0.000978 0.000978 0.999999 0.000000
111.77500153 171.36399841 125.00000000 0.059990 0.514800 -0.855209 0.000000
130.28100586 82.90619659 137.50000000 0.000978 0.000978 0.999999 0.000000
82.90619659 120.28800201 240.00000000 -0.660152 -0.442887 0.606672 0.000000
193.20100403 127.31999969 152.50000000 0.032786 -0.392124 0.919328 0.000000
101.78199768 89.56829834 135.00000000 -0.645977 0.272746 0.712968 0.000000
131.02099609 98.45110321 192.50000000 0.000978 0.000978 0.999999 0.000000
76.98429871 209.48599243 112.50000000 0.261673 0.654976 -0.708896 0.000000
51.81639862 176.91600037 97.50000000 -0.959249 -0.001213 -0.282560 0.000000
74.76360321 208.74600220 107.50000000 0.853541 0.195821 -0.482826 0.000000
65.14060211 139.90400696 82.50000000 -0.000978 -0.000978 -0.999999 0.000000
119.91799927 227.99200439 187.50000000 0.556973 0.370771 0.743175 0.000000
195.42199707 124.72899628 150.00000000 -0.589068 -0.602570 0.538431 0.000000
179.87699890 136.94299316 167.50000000 0.133140 -0.668692 0.731522 0.000000
54.03710175 208.00599670 197.50000000 -0.886561 0.443995 0.129915 0.000000
172.47500610 95.49019623 137.50000000 0.682292 -0.149771 0.715574 0.000000
163.59199524 73.28320313 197.50000000 0.000978 0.000978 0.999999 0.000000
135.46299744 225.77099609 162.50000000 0.900329 -0.011829 -0.435049 0.000000
55.14739990 181.35699463 230.00000000 -0.789415 0.364964 0.493585 0.000000
64.40039825 140.64399719 82.50000000 -0.000978 -0.000978 -0.999999 0.000000
125.83999634 176.17599487 142.50000000 0.572850 0.695723 -0.433374 0.000000
116.95700073 86.60739899 187.50000000 -0.419891 0.698712 0.579217 0.000000
99.19139862 139.90400696 247.50000000 0.000978 0.000978 0.999999 0.000000
62.17969894 141.38499451 82.50000000 -0.238069 0.354913 -0.904079 0.000000
147.30700684 51.44630051 160.00000000 -0.171624 -0.950011 0.260814 0.000000
59.58879852 211.70700073 120.00000000 -0.708486 0.705724 -0.001381 0.000000
64.40039825 141.38499451 82.50000000 -0.238069 0.354913 -0.904079 0.000000
122.13899994 145.82600403 142.50000000 -0.290075 -0.924524 -0.247207 0.000000
222.07000732 97.71089935 202.50000000 -0.136188 -0.091187 0.986477 0.000000
85.86710358 228.73199463 122.50000000 -0.000978 -0.000978 -0.999999 0.000000
81.42569733 216.88900757 222.50000000 0.000978 0.000978 0.999999 0.000000
179.13699341 151.00799561 167.50000000 -0.391673 0.900414 0.189333 0.000000
185.05900574 136.94299316 192.50000000 0.000978 0.000978 0.999999 0.000000
191.72099304 119.91799927 197.50000000 -0.025749 0.494660 0.868705 0.000000
151.00799561 68.84179688 192.50000000 0.039425 -0.469022 0.882306 0.000000
159.89100647 147.67700195 170.00000000 -0.281265 0.952077 0.120165 0.000000
64.40039825 142.12500000 82.50000000 -0.238069 0.354913 -0.904079 0.000000
131.76199341 85.12689972 192.50000000 -0.000978 -0.000978 0.999999 0.000000
140.64399719 103.63300323 137.50000000 0.000978 0.000978 0.999999 0.000000
124.35900116 69.21189880 185.00000000 -0.296968 -0.637277 0.711118 0.000000
180.61700439 148.04699707 152.50000000 0.820252 0.548329 -0.162855 0.000000
94.75000000 115.47699738 237.50000000 0.000978 0.000978 0.999999 0.000000
106.59400177 76.24410248 167.50000000 0.000978 0.000978 0.999999 0.000000
145.45599365 162.11099243 155.00000000 0.997577 -0.048115 0.050253 0.000000
143.60499573 147.67700195 130.00000000 0.696449 -0.172964 -0.696449 0.000000
193.94099426 111.77500153 202.50000000 0.000978 0.000978 0.999999 0.000000
