109.21700287 235.53500366 160.00000000 0.462884 0.519293 -0.718383 0.000000
84.73049927 195.11300659 103.75000000 0.512845 0.392367 -0.763569 0.000000
67.24030304 266.62899780 205.00000000 -0.246672 0.243884 0.937909 0.000000
100.27700043 162.46499634 111.25000000 0.798904 -0.203943 -0.565826 0.000000
32.25979996 240.19900513 165.00000000 -0.894688 0.446689 -0.001310 0.000000
203.66400146 181.89799500 198.75000000 0.695802 0.532280 -0.482222 0.000000
145.36300659 202.10899353 206.25000000 0.000978 0.000978 0.999999 0.000000
62.18750000 270.51599121 196.25000000 -0.967407 -0.242165 0.074030 0.000000
60.63280106 236.31300354 108.75000000 0.770557 0.290746 -0.567194 0.000000
42.36520004 254.19099426 145.00000000 -0.935448 0.067289 -0.347000 0.000000
33.42580032 223.09800720 201.25000000 -0.869205 0.216927 0.444327 0.000000
34.59180069 247.97300720 175.00000000 -0.801461 0.571173 -0.177261 0.000000
70.73829651 164.79699707 246.25000000 0.000978 0.000978 0.999999 0.000000
109.21700287 181.89799500 147.50000000 0.915099 0.352620 0.195583 0.000000
137.20100403 233.98100281 185.00000000 0.718572 0.443092 -0.536025 0.000000
156.24600220 155.85699463 177.50000000 -0.835104 0.539851 -0.105654 0.000000
62.18750000 180.34399414 71.25000000 0.705581 0.365068 -0.607356 0.000000
49.36130142 186.56300354 235.00000000 -0.799483 0.432718 0.416632 0.000000
30.70509911 207.55099487 137.50000000 -0.954848 -0.001223 -0.297091 0.000000
110.38300323 174.90199280 246.25000000 0.703519 0.383887 0.598073 0.000000
47.41799927 154.69099426 223.75000000 -0.477148 -0.477148 0.738011 0.000000
127.48400116 190.44900513 161.25000000 -0.316332 -0.839915 -0.440995 0.000000
79.28910065 204.83000183 107.50000000 0.537843 0.628889 -0.561448 0.000000
91.72660065 266.62899780 161.25000000 0.689074 0.391632 -0.609756 0.000000
171.01600647 164.79699707 176.25000000 -0.193059 0.715090 -0.671844 0.000000
116.98999786 95.61329651 212.50000000 -0.373008 -0.757418 0.535894 0.000000
87.06250000 111.93800354 208.75000000 -0.480885 -0.056494 0.874962 0.000000
130.59399414 187.72900391 165.00000000 -0.276488 -0.209798 -0.937837 0.000000
34.20309830 169.46099854 138.75000000 -0.953359 -0.300201 -0.031402 0.000000
104.55300140 162.46499634 135.00000000 0.804815 -0.575718 -0.144301 0.000000
89.78320313 90.94920349 192.50000000 -0.403520 -0.840013 0.362697 0.000000
172.57000732 186.95100403 212.50000000 0.033268 0.903562 0.427163 0.000000
55.19139862 126.31800079 205.00000000 -0.825207 -0.413396 0.384886 0.000000
122.04299927 116.60199738 171.25000000 0.437084 0.017166 -0.899257 0.000000
203.66400146 168.68400574 198.75000000 0.686659 0.064779 -0.724087 0.000000
101.83200073 167.90600586 158.75000000 0.691799 -0.413089 0.592260 0.000000
75.40239716 283.34201050 187.50000000 -0.284648 0.850867 0.441589 0.000000
158.57800293 129.81599426 178.75000000 0.383087 -0.274921 -0.881852 0.000000
143.03100586 153.91400146 228.75000000 -0.155948 -0.413477 0.897060 0.000000
56.35739899 277.51199341 157.50000000 -0.645378 0.759012 -0.085953 0.000000
190.44900513 126.70700073 211.25000000 0.717162 -0.343132 -0.606579 0.000000
106.49600220 166.35200500 168.75000000 -0.282725 0.640524 -0.714000 0.000000
96.39070129 188.89500427 108.75000000 0.492126 0.449332 -0.745595 0.000000
138.36700439 194.72500610 145.00000000 0.551551 0.551551 -0.625766 0.000000
74.62500000 209.88299561 246.25000000 -0.999999 -0.000978 -0.000978 0.000000
27.59569931 206.77299500 190.00000000 -0.954848 -0.001223 0.297091 0.000000
101.05500031 237.47900391 227.50000000 0.136741 0.539611 0.830736 0.000000
170.23800659 146.91799927 176.25000000 0.386187 -0.516545 -0.764226 0.000000
115.82399750 92.50389862 186.25000000 0.772631 -0.228525 -0.592299 0.000000
136.81300354 237.86700439 211.25000000 0.312490 -0.466380 0.827550 0.000000
128.26199341 187.33999634 148.75000000 -0.282676 -0.736235 0.614860 0.000000
61.02149963 184.23100281 72.50000000 0.716412 0.400202 -0.571482 0.000000
32.64839935 178.78900146 128.75000000 -0.987924 -0.059345 -0.143127 0.000000
93.28130341 190.44900513 248.75000000 0.000978 0.000978 0.999999 0.000000
151.19299316 192.00399780 217.50000000 0.690783 0.690783 0.213628 0.000000
57.91210175 249.52699280 110.00000000 0.749205 0.257096 -0.610405 0.000000
80.84380341 153.13699341 93.75000000 0.730182 0.001380 -0.683251 0.000000
44.30860138 181.89799500 231.25000000 -0.899841 -0.113355 0.421232 0.000000
101.83200073 180.34399414 111.25000000 0.732935 -0.680286 -0.004157 0.000000
30.70509911 230.87100220 155.00000000 -0.970173 0.211789 -0.117943 0.000000
121.26599884 198.22300720 133.75000000 0.228651 0.769946 -0.595736 0.000000
146.91799927 139.92199707 226.25000000 0.365335 -0.331705 0.869771 0.000000
85.50779724 204.44099426 111.25000000 0.435633 0.609218 -0.662629 0.000000
139.92199707 185.00799561 228.75000000 -0.124041 0.292096 0.948311 0.000000
103.77500153 271.29299927 175.00000000 0.685789 0.358443 -0.633413 0.000000
119.32199860 224.65199280 160.00000000 0.563460 0.433814 -0.703078 0.000000
42.36520004 152.35899353 145.00000000 -0.929325 -0.367831 -0.032494 0.000000
150.80499268 104.16400146 196.25000000 0.477148 -0.477148 -0.738011 0.000000
108.05100250 183.84199524 165.00000000 -0.148567 -0.448586 -0.881305 0.000000
41.19919968 185.00799561 226.25000000 -0.830067 -0.207896 0.517464 0.000000
30.70509911 181.12100220 170.00000000 -0.980566 -0.195178 -0.019868 0.000000
71.51560211 288.00601196 157.50000000 0.047087 -0.700592 0.712007 0.000000
125.93000031 195.89100647 233.75000000 0.556866 0.012314 0.830511 0.000000
179.56599426 112.71499634 213.75000000 0.371455 -0.451166 -0.811462 0.000000
203.27499390 141.47700500 217.50000000 0.373645 -0.131956 0.918138 0.000000
139.92199707 161.68800354 228.75000000 -0.000978 -0.000978 0.999999 0.000000
149.63900757 164.79699707 227.50000000 0.470633 0.298641 0.830252 0.000000
111.16000366 95.61329651 181.25000000 -0.000978 -0.000978 -0.999999 0.000000
97.94529724 259.63299561 163.75000000 0.001373 0.627537 -0.778585 0.000000
157.80099487 97.94529724 218.75000000 -0.100703 -0.483656 0.869446 0.000000
74.62500000 125.15200043 218.75000000 0.220541 -0.883644 0.412959 0.000000
115.82399750 188.11700439 163.75000000 0.603167 -0.452793 -0.656634 0.000000
73.07029724 190.06100464 90.00000000 0.703747 0.460846 -0.540704 0.000000
195.11300659 173.34800720 191.25000000 0.747873 0.185817 -0.637305 0.000000
58.30080032 221.93200684 97.50000000 0.739576 0.328521 -0.587453 0.000000
118.93399811 109.21700287 175.00000000 0.487026 -0.691209 -0.533888 0.000000
150.02699280 178.01199341 168.75000000 -0.423672 -0.423672 -0.800627 0.000000
101.44300079 164.79699707 167.50000000 0.057233 0.523472 -0.850119 0.000000
94.83599854 265.85198975 163.75000000 0.629833 0.420443 -0.653099 0.000000
167.90600586 169.07200623 172.50000000 -0.001310 -0.441440 -0.897290 0.000000
28.37310028 193.55900574 195.00000000 -0.997761 -0.060438 0.028629 0.000000
209.49400330 146.14100647 212.50000000 0.983852 -0.178359 -0.014959 0.000000
33.03710175 228.53900146 140.00000000 -0.932879 0.257491 -0.251863 0.000000
93.28130341 155.85699463 245.00000000 0.393803 -0.591528 0.703572 0.000000
131.37100220 158.57800293 226.25000000 -0.031616 -0.183843 0.982447 0.000000
119.71099854 129.81599426 223.75000000 0.005805 -0.205480 0.978644 0.000000
90.17189789 266.62899780 208.75000000 -0.112182 0.560910 0.820240 0.000000
203.66400146 162.46499634 201.25000000 0.727936 -0.509058 -0.459313 0.000000
99.11139679 209.88299561 245.00000000 0.431778 0.198942 0.879767 0.000000
124.37500000 266.62899780 193.75000000 0.612684 0.511414 -0.602557 0.000000
195.89100647 170.23800659 191.25000000 0.647233 0.082904 -0.757771 0.000000
69.96099854 178.01199341 248.75000000 0.107992 0.315978 0.942600 0.000000
58.68949890 189.67199707 72.50000000 0.775133 0.551383 -0.308455 0.000000
115.04699707 164.02000427 238.75000000 0.506129 -0.388954 0.769771 0.000000
202.10899353 162.07600403 197.50000000 0.725318 -0.389797 -0.567426 0.000000
73.07029724 240.97700500 128.75000000 0.694904 0.444939 -0.564922 0.000000
83.95310211 130.98199463 125.00000000 0.903047 -0.409964 -0.128202 0.000000
134.09199524 229.31599426 217.50000000 0.119053 0.357159 0.926425 0.000000
46.25199890 247.19500732 110.00000000 -0.735800 0.406583 -0.541562 0.000000
131.37100220 204.44099426 228.75000000 0.318533 0.318533 0.892790 0.000000
94.05860138 167.90600586 248.75000000 0.000978 0.000978 0.999999 0.000000
83.95310211 213.77000427 118.75000000 0.599550 0.518484 -0.609683 0.000000
103.77500153 133.70300293 220.00000000 -0.095495 0.158353 0.982754 0.000000
111.16000366 169.85000610 137.50000000 0.808560 -0.577543 -0.112584 0.000000
72.68170166 136.81300354 97.50000000 0.582236 -0.609239 -0.538358 0.000000
190.44900513 124.37500000 211.25000000 0.857113 -0.160249 -0.489569 0.000000
55.19139862 189.67199707 241.25000000 -0.663508 0.107876 0.740351 0.000000
43.91989899 263.51998901 180.00000000 -0.757365 0.633405 0.158729 0.000000
129.81599426 220.76600647 166.25000000 -0.473433 0.476732 -0.740667 0.000000
80.84380341 226.98399353 233.75000000 0.040358 0.363219 0.930829 0.000000
105.71900177 115.82399750 218.75000000 -0.259002 0.113232 0.959217 0.000000
30.70509911 194.33599854 132.50000000 -0.988087 0.052127 -0.144796 0.000000
37.31250000 188.11700439 218.75000000 -0.754595 -0.123533 0.644457 0.000000
105.71900177 228.92799377 152.50000000 0.526128 0.423871 -0.737239 0.000000
97.55670166 174.90199280 165.00000000 0.966913 -0.040544 -0.251864 0.000000
38.08990097 242.53100586 198.75000000 -0.846336 0.318346 0.427050 0.000000
81.62110138 223.09800720 236.25000000 0.967224 0.242120 0.076525 0.000000
93.66999817 200.55499268 115.00000000 0.391703 0.552317 -0.735877 0.000000
55.96879959 192.78100586 71.25000000 0.608134 0.467409 -0.641640 0.000000
113.49199677 177.62300110 167.50000000 0.343472 -0.322288 -0.882132 0.000000
56.74610138 192.39300537 72.50000000 0.728884 0.444603 -0.520631 0.000000
57.91210175 279.84399414 170.00000000 -0.708486 0.705724 -0.001381 0.000000
138.36700439 113.49199677 181.25000000 -0.054905 -0.823579 -0.564539 0.000000
92.89260101 172.57000732 102.50000000 0.408585 0.870331 -0.274921 0.000000
187.72900391 194.33599854 197.50000000 0.692677 -0.433546 0.576400 0.000000
83.95310211 290.33801270 165.00000000 0.481244 0.655632 -0.581852 0.000000
154.69099426 186.56300354 218.75000000 0.248678 0.869620 0.426521 0.000000
62.18750000 160.91000366 241.25000000 -0.404302 -0.243178 0.881706 0.000000
99.50000000 88.61720276 196.25000000 -0.150956 -0.912791 0.379507 0.000000
88.22850037 216.87899780 125.00000000 0.496102 0.693206 -0.522828 0.000000
174.90199280 105.71900177 213.75000000 0.764441 -0.281302 -0.580085 0.000000
180.34399414 117.37899780 208.75000000 0.173524 -0.904904 -0.388636 0.000000
124.76399994 181.12100220 132.50000000 0.358205 -0.933388 -0.021826 0.000000
87.45120239 140.69900513 235.00000000 0.739521 0.139504 0.658519 0.000000
125.54100037 111.93800354 187.50000000 -0.779531 0.618652 -0.097990 0.000000
40.81060028 152.35899353 205.00000000 -0.949354 -0.313098 0.026406 0.000000
134.86900330 141.47700500 192.50000000 -0.418483 0.001296 0.908224 0.000000
111.16000366 248.75000000 218.75000000 0.112987 0.180034 0.977150 0.000000
48.97269821 150.41600037 87.50000000 -0.887720 -0.448784 -0.102700 0.000000
111.16000366 244.08599854 221.25000000 0.177416 0.586836 0.790030 0.000000
149.63900757 198.22300720 170.00000000 -0.000978 -0.000978 -0.999999 0.000000
128.26199341 251.08200073 186.25000000 0.680930 0.427871 -0.594357 0.000000
85.50779724 246.80700684 222.50000000 -0.080755 0.522781 0.848633 0.000000
121.65399933 258.85598755 207.50000000 0.555516 0.775176 0.300838 0.000000
94.83599854 147.69500732 238.75000000 0.223879 -0.668505 0.709210 0.000000
40.03319931 157.80099487 120.00000000 -0.972698 -0.158938 -0.169110 0.000000
35.75780106 223.87500000 126.25000000 -0.969243 0.134439 -0.206140 0.000000
116.60199738 153.91400146 226.25000000 0.303659 0.133610 0.943366 0.000000
175.67999268 171.79299927 183.75000000 -0.868407 0.246174 -0.430428 0.000000
97.94529724 138.36700439 148.75000000 0.344007 0.686383 -0.640733 0.000000
189.28300476 168.68400574 185.00000000 0.558723 0.115246 -0.821308 0.000000
50.52740097 230.09399414 93.75000000 0.550651 0.396140 -0.734749 0.000000
104.55300140 160.91000366 152.50000000 0.908593 -0.212342 0.359681 0.000000
102.60900116 128.26199341 153.75000000 0.449340 -0.136381 -0.882889 0.000000
165.57400513 137.58999634 223.75000000 0.000978 0.000978 0.999999 0.000000
54.02539825 230.87100220 97.50000000 0.629668 0.435924 -0.643030 0.000000
164.79699707 170.23800659 186.25000000 -0.250794 0.412984 -0.875526 0.000000
81.62110138 121.26599884 136.25000000 0.832492 -0.393340 -0.390181 0.000000
59.85549927 178.78900146 243.75000000 -0.282704 -0.335989 0.898437 0.000000
39.25590134 196.66799927 102.50000000 -0.999999 0.000978 0.000978 0.000000
49.75000000 196.66799927 71.25000000 -0.260854 0.440859 -0.858836 0.000000
72.29299927 231.25999451 122.50000000 0.640372 0.251405 -0.725754 0.000000
27.59569931 205.99600220 190.00000000 -0.954848 -0.001223 0.297091 0.000000
34.98049927 172.95899963 122.50000000 -0.931337 -0.309512 -0.191869 0.000000
173.34800720 131.75999451 192.50000000 0.665939 -0.632890 -0.394937 0.000000
97.94529724 93.66999817 205.00000000 0.825207 -0.413396 0.384886 0.000000
30.70509911 176.45700073 175.00000000 -0.964963 -0.191948 -0.178890 0.000000
91.72660065 185.00799561 103.75000000 0.537337 0.250757 -0.805227 0.000000
143.03100586 112.32599640 182.50000000 0.241294 -0.670261 -0.701803 0.000000
66.07420349 207.55099487 96.25000000 0.635113 0.591312 -0.496972 0.000000
108.82800293 176.45700073 118.75000000 0.631895 -0.283153 -0.721480 0.000000
73.84770203 217.26800537 112.50000000 0.647929 0.530123 -0.546953 0.000000
135.25799561 199.77699280 148.75000000 0.545634 0.711480 -0.442809 0.000000
86.67389679 136.81300354 112.50000000 0.656401 -0.688657 -0.308041 0.000000
51.30469894 197.44500732 71.25000000 -0.211458 0.512670 -0.832139 0.000000
71.51560211 184.23100281 83.75000000 0.485736 0.342404 -0.804251 0.000000
114.65799713 182.67599487 122.50000000 0.501073 -0.265274 -0.823745 0.000000
143.80900574 185.78500366 163.75000000 0.098260 -0.743550 -0.661422 0.000000
132.14799500 237.08999634 181.25000000 0.000978 0.000978 -0.999999 0.000000
190.44900513 139.14500427 203.75000000 0.824854 -0.488051 -0.285346 0.000000
80.84380341 254.96899414 218.75000000 0.402690 0.460910 0.790824 0.000000
207.55099487 161.29899597 215.00000000 0.659557 0.495087 0.565574 0.000000
59.07809830 223.87500000 98.75000000 0.776977 0.356989 -0.518523 0.000000
112.32599640 201.33200073 242.50000000 0.377954 0.132493 0.916295 0.000000
33.42580032 169.85000610 170.00000000 -0.932373 -0.358605 -0.045641 0.000000
89.39459991 289.17199707 186.25000000 0.215812 0.107275 0.970524 0.000000
62.18750000 201.33200073 243.75000000 -0.363339 0.555599 0.747860 0.000000
139.92199707 174.90199280 228.75000000 0.000978 0.000978 0.999999 0.000000
187.72900391 181.89799500 185.00000000 -0.643244 0.756146 -0.120330 0.000000
32.25979996 178.01199341 132.50000000 -0.975280 -0.207847 -0.075022 0.000000
188.89500427 126.70700073 208.75000000 0.857113 -0.160249 -0.489569 0.000000
205.60699463 168.68400574 200.00000000 0.598526 0.263730 -0.756448 0.000000
82.39849854 201.33200073 106.25000000 0.260317 0.522193 -0.812127 0.000000
188.11700439 178.78900146 191.25000000 0.457965 0.707764 -0.537901 0.000000
113.88099670 134.48100281 155.00000000 0.439427 -0.653292 -0.616534 0.000000
57.52349854 123.59799957 161.25000000 -0.690783 -0.690783 0.213628 0.000000
171.40400696 165.57400513 182.50000000 0.159204 0.750535 -0.641366 0.000000
80.06639862 242.14300537 137.50000000 0.647895 0.384121 -0.657787 0.000000
156.24600220 196.27900696 205.00000000 0.544767 0.834930 0.078230 0.000000
114.65799713 233.98100281 162.50000000 0.590570 0.590570 -0.549958 0.000000
69.96099854 177.23399353 248.75000000 0.107992 0.315978 0.942600 0.000000
126.70700073 188.89500427 166.25000000 -0.154950 -0.212242 -0.964854 0.000000
130.98199463 136.81300354 185.00000000 0.732116 -0.185715 0.655374 0.000000
80.84380341 291.50399780 176.25000000 -0.347566 0.831955 0.432491 0.000000
30.70509911 182.67599487 140.00000000 -0.954292 -0.226829 -0.194616 0.000000
162.46499634 156.24600220 223.75000000 0.000978 0.000978 0.999999 0.000000
210.66000366 162.46499634 206.25000000 0.270694 -0.010925 -0.962603 0.000000
73.84770203 238.64500427 226.25000000 -0.187695 0.515034 0.836367 0.000000
152.35899353 197.05700684 177.50000000 0.446663 0.891952 -0.070092 0.000000
64.51959991 258.85598755 126.25000000 0.671719 0.671719 -0.312390 0.000000
139.14500427 172.57000732 228.75000000 0.000978 0.000978 0.999999 0.000000
166.35200500 146.91799927 223.75000000 0.020770 0.265128 0.963990 0.000000
136.03500366 143.80900574 168.75000000 0.828965 0.168780 -0.533226 0.000000
156.63499451 192.78100586 165.00000000 0.516247 0.775179 -0.364124 0.000000
196.66799927 143.03100586 203.75000000 0.430914 -0.603945 -0.670495 0.000000
106.10700226 263.51998901 172.50000000 0.642217 0.474536 -0.601974 0.000000
67.62889862 221.93200684 110.00000000 0.537422 0.550899 -0.638504 0.000000
205.99600220 164.79699707 213.75000000 0.376542 0.227097 0.898133 0.000000
103.38700104 244.86300659 161.25000000 0.592620 0.372645 -0.714099 0.000000
58.30080032 145.36300659 73.75000000 0.049444 -0.798173 -0.600396 0.000000
41.58789825 225.42999268 100.00000000 -0.955820 0.213149 -0.202425 0.000000
61.41019821 181.12100220 246.25000000 -0.767476 -0.152289 0.622726 0.000000
118.15599823 205.21899414 236.25000000 0.748321 0.366824 0.552681 0.000000
180.34399414 143.03100586 221.25000000 0.000978 0.000978 0.999999 0.000000
95.61329651 196.66799927 248.75000000 0.000978 0.000978 0.999999 0.000000
111.93800354 90.94920349 206.25000000 0.216087 -0.433665 -0.874781 0.000000
83.95310211 254.96899414 148.75000000 0.523979 0.302356 -0.796258 0.000000
112.32599640 178.78900146 137.50000000 0.204374 -0.866725 0.454993 0.000000
40.03319931 166.35200500 100.00000000 -0.975581 -0.082635 -0.203503 0.000000
147.69500732 214.93600464 187.50000000 0.971579 0.042667 -0.232838 0.000000
101.83200073 100.27700043 211.25000000 -0.251670 -0.564303 0.786273 0.000000
40.03319931 205.99600220 97.50000000 -0.954848 -0.001223 -0.297091 0.000000
191.22700500 171.01600647 186.25000000 0.673148 0.004147 -0.739496 0.000000
125.93000031 148.47300720 163.75000000 0.586369 0.313266 -0.747018 0.000000
84.73049927 265.85198975 211.25000000 -0.001380 0.730182 0.683251 0.000000
135.25799561 126.70700073 223.75000000 -0.178252 -0.464045 0.867691 0.000000
48.97269821 187.33999634 233.75000000 -0.799483 0.432718 0.416632 0.000000
94.83599854 161.68800354 168.75000000 -0.307400 0.837939 0.450958 0.000000
54.80270004 146.91799927 75.00000000 -0.737692 -0.613416 -0.282012 0.000000
87.45120239 231.64900208 137.50000000 0.568265 0.425784 -0.704118 0.000000
94.05860138 199.00000000 248.75000000 0.000978 0.000978 0.999999 0.000000
116.60199738 204.44099426 238.75000000 0.706440 0.318464 0.632078 0.000000
71.51560211 223.87500000 116.25000000 0.665505 0.564925 -0.487814 0.000000
144.58599854 151.58200073 191.25000000 0.259415 -0.781390 -0.567569 0.000000
106.49600220 194.33599854 121.25000000 0.624491 0.431315 -0.651136 0.000000
144.58599854 186.56300354 226.25000000 0.417749 0.345778 0.840192 0.000000
70.73829651 251.08200073 218.75000000 -0.000978 -0.000978 0.999999 0.000000
138.36700439 208.32800293 213.75000000 0.974192 -0.020221 -0.224814 0.000000
128.64999390 123.59799957 182.50000000 -0.119828 0.770748 -0.625770 0.000000
76.17970276 165.57400513 248.75000000 -0.686383 0.344007 0.640733 0.000000
86.28520203 108.05100250 208.75000000 -0.478515 -0.076730 0.874720 0.000000
101.83200073 178.78900146 248.75000000 0.000978 0.000978 0.999999 0.000000
150.02699280 218.43400574 213.75000000 0.754371 0.049911 0.654548 0.000000
62.18750000 147.30700684 75.00000000 0.511881 -0.701960 -0.495207 0.000000
122.81999969 209.88299561 148.75000000 0.001223 0.954848 -0.297091 0.000000
178.01199341 154.69099426 218.75000000 0.000978 0.000978 0.999999 0.000000
133.70300293 188.89500427 138.75000000 0.585872 -0.321180 -0.744041 0.000000
101.05500031 258.46701050 215.00000000 0.322589 0.711640 0.624103 0.000000
137.58999634 219.21099854 173.75000000 0.708619 0.364947 -0.603881 0.000000
134.48100281 125.15200043 171.25000000 0.541234 -0.001350 -0.840871 0.000000
73.84770203 200.55499268 98.75000000 0.546417 0.603935 -0.580251 0.000000
71.90429688 219.98800659 237.50000000 -0.386996 0.208832 0.898122 0.000000
102.60900116 230.87100220 231.25000000 0.036704 0.474429 0.879528 0.000000
102.60900116 95.61329651 166.25000000 0.660161 -0.001378 -0.751123 0.000000
39.25590134 256.52398682 165.00000000 -0.817009 0.273378 -0.507702 0.000000
65.29689789 254.19099426 213.75000000 -0.239525 0.608989 0.756148 0.000000
76.95709991 281.39898682 151.25000000 0.667168 0.265912 -0.695829 0.000000
78.51170349 230.09399414 233.75000000 0.095540 0.422315 0.901400 0.000000
150.80499268 115.04699707 183.75000000 0.444291 -0.833634 -0.328116 0.000000
109.60500336 164.79699707 241.25000000 0.395365 -0.379613 0.836409 0.000000
79.28910065 199.00000000 101.25000000 0.649216 0.481460 -0.588824 0.000000
146.14100647 228.53900146 211.25000000 0.535975 0.472526 0.699606 0.000000
104.16400146 244.86300659 221.25000000 0.176913 0.093947 0.979732 0.000000
58.30080032 253.41400146 211.25000000 -0.545301 0.579066 0.606077 0.000000
74.62500000 149.25000000 88.75000000 0.778054 -0.469431 -0.417453 0.000000
188.11700439 157.02299500 186.25000000 0.619280 -0.561908 -0.548409 0.000000
183.45300293 129.81599426 221.25000000 0.000978 0.000978 0.999999 0.000000
80.84380341 263.13101196 150.00000000 0.562652 0.258601 -0.785206 0.000000
87.06250000 153.13699341 98.75000000 0.575896 -0.066832 -0.814786 0.000000
193.55900574 171.01600647 188.75000000 0.683654 0.035386 -0.728948 0.000000
85.50779724 106.49600220 153.75000000 0.504017 -0.517412 -0.691558 0.000000
156.24600220 169.46099854 191.25000000 0.566251 -0.466030 -0.679835 0.000000
170.23800659 191.22700500 178.75000000 0.005763 0.980829 -0.194783 0.000000
125.93000031 187.33999634 148.75000000 -0.165268 -0.771755 0.614069 0.000000
123.98600006 167.90600586 167.50000000 0.679680 0.508502 -0.528640 0.000000
111.93800354 174.12500000 146.25000000 0.230649 -0.929671 0.287250 0.000000
126.70700073 118.15599823 173.75000000 0.690783 -0.690783 -0.213628 0.000000
77.34570313 209.88299561 110.00000000 0.725578 0.476524 -0.496448 0.000000
41.97660065 216.10200500 93.75000000 -0.933924 0.152674 -0.323228 0.000000
64.51959991 157.02299500 241.25000000 -0.404302 -0.243178 0.881706 0.000000
104.16400146 251.08200073 163.75000000 0.515225 0.305964 -0.800580 0.000000
101.44300079 181.12100220 157.50000000 0.369601 -0.407348 0.835142 0.000000
129.81599426 216.87899780 163.75000000 0.500682 0.598459 -0.625431 0.000000
55.96879959 139.92199707 86.25000000 -0.837924 -0.532960 -0.117629 0.000000
56.74610138 123.59799957 158.75000000 -0.829257 -0.545525 0.121390 0.000000
161.68800354 169.07200623 187.50000000 -0.078641 0.996479 -0.029086 0.000000
53.24810028 249.52699280 210.00000000 -0.594763 0.497040 0.631830 0.000000
52.08200073 153.13699341 73.75000000 -0.850591 -0.405858 -0.334327 0.000000
104.16400146 153.91400146 238.75000000 0.385429 -0.556001 0.736415 0.000000
99.11139679 253.41400146 162.50000000 0.602954 0.218552 -0.767256 0.000000
48.97269821 268.57199097 157.50000000 -0.761551 0.636853 -0.120245 0.000000
91.33789825 142.25399780 135.00000000 0.686383 -0.344007 -0.640733 0.000000
120.87699890 104.16400146 190.00000000 -0.597031 0.299316 -0.744288 0.000000
41.97660065 229.70500183 102.50000000 -0.947717 0.225647 -0.225647 0.000000
171.01600647 163.24200439 221.25000000 0.000978 0.000978 0.999999 0.000000
195.11300659 160.91000366 191.25000000 0.827174 -0.271586 -0.491959 0.000000
91.72660065 279.06600952 166.25000000 -0.541234 -0.001350 -0.840871 0.000000
104.16400146 270.12701416 175.00000000 0.643612 0.453036 -0.616865 0.000000
29.92770004 233.20300293 167.50000000 -0.904588 0.424983 0.033306 0.000000
109.60500336 148.47300720 226.25000000 0.861678 -0.431602 0.266891 0.000000
40.42190170 254.58000183 190.00000000 -0.859704 0.450321 0.241081 0.000000
40.81060028 180.34399414 95.00000000 -0.989885 -0.046919 -0.133892 0.000000
122.81999969 95.61329651 191.25000000 0.114150 -0.990455 -0.077253 0.000000
132.14799500 238.64500427 213.75000000 0.706424 0.418561 0.570764 0.000000
156.24600220 194.72500610 172.50000000 0.259704 0.960000 -0.104657 0.000000
93.28130341 104.16400146 211.25000000 -0.284397 -0.343956 0.894881 0.000000
176.45700073 118.15599823 221.25000000 -0.000978 -0.000978 0.999999 0.000000
127.48400116 171.01600647 231.25000000 0.451796 -0.375166 0.809401 0.000000
53.63669968 264.29699707 123.75000000 -0.628697 0.628697 -0.457691 0.000000
102.22100067 284.50799561 190.00000000 0.352620 0.915099 0.195583 0.000000
133.70300293 120.48799896 188.75000000 -0.817595 0.541524 0.195677 0.000000
66.07420349 155.46899414 73.75000000 0.643443 -0.178819 -0.744315 0.000000
137.58999634 91.72660065 196.25000000 0.639052 0.101367 -0.762455 0.000000
89.78320313 134.48100281 140.00000000 0.803906 -0.431638 -0.409174 0.000000
67.62889862 155.46899414 73.75000000 -0.083972 0.525181 -0.846837 0.000000
111.54900360 154.69099426 230.00000000 0.673823 -0.607272 0.420931 0.000000
93.28130341 143.03100586 236.25000000 -0.001248 -0.335625 0.941995 0.000000
206.77299500 155.08000183 205.00000000 0.273006 0.041138 -0.961132 0.000000
169.46099854 143.03100586 178.75000000 0.349273 -0.523104 -0.777413 0.000000
51.30469894 156.24600220 73.75000000 -0.929061 -0.233326 -0.287062 0.000000
179.56599426 188.89500427 211.25000000 0.006921 0.665807 0.746092 0.000000
153.13699341 150.02699280 171.25000000 -0.011747 0.084365 -0.996366 0.000000
67.62889862 156.24600220 73.75000000 0.668633 -0.041168 -0.742452 0.000000
169.85000610 134.48100281 182.50000000 0.311605 -0.341711 -0.886643 0.000000
117.37899780 260.41000366 181.25000000 0.666998 0.417497 -0.617098 0.000000
44.69729996 143.03100586 192.50000000 -0.958981 -0.192327 -0.208244 0.000000
88.22850037 237.08999634 142.50000000 0.711139 0.613500 -0.343365 0.000000
150.41600037 211.43800354 200.00000000 0.747064 -0.537821 -0.390697 0.000000
166.35200500 102.60900116 206.25000000 0.460894 -0.231203 -0.856809 0.000000
68.01760101 157.02299500 75.00000000 -0.083972 0.525181 -0.846837 0.000000
162.46499634 166.35200500 191.25000000 -0.564955 -0.241234 -0.789070 0.000000
33.81449890 230.87100220 140.00000000 -0.842530 0.351705 -0.407978 0.000000
158.57800293 95.61329651 203.75000000 0.342446 0.003763 -0.939530 0.000000
58.68949890 118.93399811 182.50000000 -0.000978 -0.000978 -0.999999 0.000000
126.70700073 153.91400146 226.25000000 0.000978 0.000978 0.999999 0.000000
119.71099854 167.12899780 236.25000000 0.489862 0.244163 0.836911 0.000000
148.08399963 218.43400574 190.00000000 0.922078 0.030082 -0.385834 0.000000
37.31250000 167.51800537 215.00000000 -0.690783 -0.690783 0.213628 0.000000
128.26199341 183.06500244 142.50000000 0.280345 -0.935878 0.213397 0.000000
86.28520203 143.03100586 236.25000000 0.739521 0.139504 0.658519 0.000000
102.60900116 219.60000610 237.50000000 0.123623 0.686630 0.716419 0.000000
66.85160065 272.84799194 128.75000000 0.851671 0.045699 -0.522081 0.000000
68.40630341 158.18899536 75.00000000 -0.083972 0.525181 -0.846837 0.000000
110.77200317 157.80099487 237.50000000 0.423458 -0.679193 0.599483 0.000000
69.18360138 259.63299561 211.25000000 -0.264563 0.543216 0.796821 0.000000
132.14799500 209.88299561 228.75000000 0.674949 0.312386 0.668475 0.000000
80.84380341 286.06298828 158.75000000 0.700792 0.544321 -0.461091 0.000000
41.97660065 151.19299316 175.00000000 -0.863786 -0.497417 -0.080319 0.000000
55.19139862 130.20500183 120.00000000 -0.822844 -0.568187 -0.009584 0.000000
84.73049927 113.49199677 151.25000000 0.714000 -0.282725 -0.640524 0.000000
55.19139862 271.68200684 130.00000000 -0.690783 0.690783 -0.213628 0.000000
88.61720276 142.25399780 108.75000000 0.665389 -0.363089 -0.652245 0.000000
99.11139679 156.24600220 132.50000000 0.954848 0.001223 0.297091 0.000000
105.71900177 96.77929688 210.00000000 -0.240803 -0.675194 0.697228 0.000000
108.05100250 166.74000549 145.00000000 0.908984 -0.407192 0.089116 0.000000
94.05860138 217.65600586 241.25000000 0.049404 0.911978 0.407252 0.000000
134.48100281 125.15200043 186.25000000 -0.507146 0.847215 -0.158206 0.000000
174.90199280 111.93800354 221.25000000 -0.000978 -0.000978 0.999999 0.000000
129.03900146 130.59399414 191.25000000 -0.694934 -0.669491 -0.262389 0.000000
135.25799561 105.71900177 183.75000000 0.491111 -0.668783 -0.558157 0.000000
99.50000000 171.01600647 248.75000000 0.082972 -0.167146 0.982435 0.000000
167.90600586 139.92199707 223.75000000 0.188804 0.061331 0.980098 0.000000
185.39700317 180.34399414 187.50000000 -0.703657 0.709343 0.041224 0.000000
111.16000366 105.71900177 171.25000000 0.500743 -0.738720 -0.451164 0.000000
127.48400116 92.50389862 211.25000000 -0.097940 -0.770367 0.630034 0.000000
181.89799500 145.36300659 221.25000000 0.000978 0.000978 0.999999 0.000000
105.33000183 178.78900146 115.00000000 0.671289 -0.123541 -0.730827 0.000000
129.03900146 102.60900116 218.75000000 -0.072043 -0.532552 0.843325 0.000000
160.91000366 175.67999268 223.75000000 0.315837 0.280581 0.906378 0.000000
35.36920166 216.87899780 207.50000000 -0.846060 0.209630 0.490141 0.000000
128.26199341 162.46499634 171.25000000 0.545447 -0.283000 -0.788922 0.000000
167.90600586 132.92599487 223.75000000 0.000978 0.000978 0.999999 0.000000
47.80670166 162.46499634 75.00000000 -0.752366 -0.540202 -0.376999 0.000000
137.58999634 101.05500031 191.25000000 0.266886 -0.589044 -0.762757 0.000000
27.20700073 204.44099426 153.75000000 -0.954848 -0.001223 -0.297091 0.000000
58.68949890 247.97300720 112.50000000 0.889978 0.178576 -0.419582 0.000000
68.40630341 104.55300140 172.50000000 -0.830860 -0.556195 -0.017853 0.000000
55.58010101 139.92199707 222.50000000 -0.548334 -0.487967 0.679130 0.000000
38.47850037 168.68400574 105.00000000 -0.940723 -0.168426 -0.294404 0.000000
107.27300262 186.17399597 157.50000000 0.544425 -0.811270 0.213169 0.000000
94.05860138 132.53700256 220.00000000 0.204391 -0.507192 0.837246 0.000000
85.11920166 276.73400879 160.00000000 0.801613 0.312708 -0.509540 0.000000
35.36920166 219.21099854 125.00000000 -0.967726 0.140083 -0.209481 0.000000
142.25399780 102.60900116 221.25000000 -0.111584 -0.276991 0.954372 0.000000
107.27300262 275.56799316 182.50000000 0.380427 0.666982 -0.640632 0.000000
164.79699707 153.13699341 171.25000000 0.441797 -0.481214 -0.757132 0.000000
163.24200439 143.41999817 175.00000000 0.437386 -0.392526 -0.809084 0.000000
58.30080032 234.75799561 223.75000000 -0.611464 0.344050 0.712559 0.000000
108.05100250 125.93000031 221.25000000 -0.451504 0.090860 0.887631 0.000000
128.26199341 115.82399750 221.25000000 0.000978 0.000978 0.999999 0.000000
167.12899780 128.26199341 188.75000000 -0.661781 0.591414 0.460734 0.000000
30.70509911 184.23100281 137.50000000 -0.931337 -0.309512 -0.191869 0.000000
103.38700104 219.21099854 238.75000000 0.067805 0.711226 0.699685 0.000000
86.28520203 219.21099854 126.25000000 0.409091 0.584653 -0.700589 0.000000
174.90199280 162.46499634 221.25000000 0.087214 0.436071 0.895676 0.000000
130.59399414 211.04899597 157.50000000 0.591689 0.615289 -0.520888 0.000000
111.93800354 236.31300354 226.25000000 -0.001350 0.541234 0.840871 0.000000
148.47300720 193.55900574 221.25000000 0.779741 0.328228 0.533170 0.000000
140.69900513 97.16799927 216.25000000 -0.153087 -0.704808 0.692683 0.000000
97.94529724 259.63299561 213.75000000 0.344325 0.764629 0.544778 0.000000
32.25979996 177.23399353 137.50000000 -0.963731 -0.234141 -0.128066 0.000000
71.51560211 260.41000366 211.25000000 -0.268347 0.547680 0.792488 0.000000
115.04699707 141.47700500 153.75000000 0.964963 0.191948 -0.178890 0.000000
73.07029724 125.15200043 106.25000000 0.645892 -0.213222 -0.733048 0.000000
57.52349854 273.62500000 128.75000000 -0.690783 0.690783 -0.213628 0.000000
199.00000000 188.89500427 201.25000000 0.156349 0.414541 -0.896499 0.000000
76.17970276 124.37500000 216.25000000 0.220541 -0.883644 0.412959 0.000000
119.71099854 154.69099426 161.25000000 0.399869 0.732269 -0.551259 0.000000
64.90820313 223.87500000 232.50000000 0.011628 0.388897 0.921208 0.000000
140.69900513 99.50000000 193.75000000 0.383829 -0.624340 -0.680349 0.000000
114.26999664 179.56599426 166.25000000 0.254124 -0.318017 -0.913393 0.000000
152.35899353 155.46899414 193.75000000 0.144199 0.190138 -0.971110 0.000000
157.02299500 127.48400116 223.75000000 0.000978 0.000978 0.999999 0.000000
134.48100281 139.92199707 166.25000000 0.686089 -0.223487 -0.692340 0.000000
61.02149963 245.64100647 115.00000000 0.817082 0.222283 -0.531946 0.000000
201.33200073 158.96699524 200.00000000 0.748922 -0.323728 -0.578200 0.000000
158.57800293 134.48100281 223.75000000 0.000978 0.000978 0.999999 0.000000
186.56300354 191.22700500 181.25000000 0.873015 0.048119 -0.485314 0.000000
97.94529724 229.31599426 231.25000000 0.020151 0.479602 0.877255 0.000000
75.40239716 135.25799561 103.75000000 0.756994 -0.410379 -0.508478 0.000000
127.48400116 215.32400513 158.75000000 0.541234 0.001350 -0.840871 0.000000
88.22850037 147.69500732 240.00000000 0.146508 -0.714418 0.684210 0.000000
101.05500031 268.96099854 171.25000000 0.640914 0.446799 -0.624180 0.000000
102.99800110 169.46099854 157.50000000 0.670902 0.076799 0.737558 0.000000
38.47850037 160.91000366 145.00000000 -0.888318 -0.457043 0.044755 0.000000
164.79699707 118.93399811 193.75000000 0.674087 -0.473367 -0.567036 0.000000
76.17970276 151.58200073 88.75000000 0.788572 -0.461485 -0.406430 0.000000
39.25590134 173.34800720 100.00000000 -0.942785 -0.142026 -0.301637 0.000000
32.64839935 228.14999390 140.00000000 -0.932879 0.257491 -0.251863 0.000000
126.70700073 200.55499268 233.75000000 0.446446 0.126945 0.885760 0.000000
121.26599884 90.94920349 193.75000000 -0.086007 -0.753658 -0.651615 0.000000
41.58789825 211.43800354 220.00000000 -0.705390 0.272284 0.654436 0.000000
136.81300354 191.22700500 228.75000000 0.567555 0.100157 0.817221 0.000000
116.60199738 160.91000366 163.75000000 0.808688 -0.556826 -0.189655 0.000000
30.31640053 181.50999451 142.50000000 -0.946250 -0.225950 -0.231427 0.000000
107.66200256 206.77299500 132.50000000 0.495377 0.653226 -0.572623 0.000000
169.85000610 170.23800659 185.00000000 0.216247 0.648741 -0.729639 0.000000
175.67999268 127.48400116 198.75000000 0.106770 -0.598207 -0.794197 0.000000
174.51400757 140.69900513 185.00000000 0.901917 -0.179808 -0.392701 0.000000
113.49199677 185.00799561 163.75000000 0.172967 -0.425878 -0.888094 0.000000
31.87109947 197.44500732 206.25000000 -0.918690 0.094190 0.383584 0.000000
82.39849854 232.42599487 231.25000000 -0.128952 0.603258 0.787052 0.000000
217.26800537 178.78900146 207.50000000 0.633855 -0.311283 -0.708047 0.000000
131.37100220 153.13699341 171.25000000 0.924117 0.281377 -0.258524 0.000000
153.13699341 146.91799927 226.25000000 0.000978 0.000978 0.999999 0.000000
202.88699341 162.07600403 200.00000000 0.715571 -0.311750 -0.625115 0.000000
33.81449890 243.30900574 165.00000000 -0.886050 0.442309 -0.138848 0.000000
128.64999390 124.37500000 190.00000000 -0.873086 -0.020242 0.487147 0.000000
176.45700073 138.36700439 221.25000000 0.530256 -0.530256 0.661557 0.000000
48.97269821 259.63299561 196.25000000 -0.590341 0.686791 0.424048 0.000000
153.91400146 150.80499268 171.25000000 -0.369700 0.436341 -0.820322 0.000000
89.00589752 194.33599854 107.50000000 -0.000978 0.999999 -0.000978 0.000000
62.96490097 137.58999634 228.75000000 -0.848828 -0.001345 -0.528668 0.000000
91.72660065 224.65199280 136.25000000 0.549952 0.593948 -0.587179 0.000000
41.19919968 258.07800293 186.25000000 -0.746505 0.557846 0.362681 0.000000
54.02539825 271.29299927 132.50000000 -0.748467 0.634737 -0.192112 0.000000
136.03500366 136.03500366 178.75000000 0.413769 0.223939 0.882410 0.000000
210.27200317 153.13699341 212.50000000 0.935987 -0.312915 0.161282 0.000000
203.66400146 186.56300354 201.25000000 0.301421 0.255270 -0.918685 0.000000
112.71499634 216.10200500 236.25000000 0.523297 0.437456 0.731295 0.000000
51.30469894 245.64100647 211.25000000 -0.603548 0.532542 0.593404 0.000000
111.93800354 104.16400146 216.25000000 0.334278 -0.939910 -0.069477 0.000000
43.91989899 148.47300720 122.50000000 -0.886050 -0.442309 -0.138848 0.000000
45.86330032 174.12500000 73.75000000 -0.918515 0.022149 -0.394766 0.000000
139.92199707 175.67999268 228.75000000 0.000978 0.000978 0.999999 0.000000
28.37310028 192.78100586 175.00000000 -0.994304 -0.090189 0.056786 0.000000
104.94100189 114.26999664 218.75000000 -0.382583 -0.166402 0.908813 0.000000
111.93800354 267.40600586 181.25000000 0.731560 0.001383 -0.681775 0.000000
45.47460175 261.96499634 150.00000000 -0.858893 0.464795 -0.215099 0.000000
150.02699280 220.76600647 193.75000000 0.828693 0.248454 -0.501537 0.000000
122.81999969 181.12100220 236.25000000 -0.000978 -0.000978 0.999999 0.000000
98.72270203 150.80499268 138.75000000 0.942167 -0.250414 -0.222744 0.000000
99.50000000 158.57800293 243.75000000 0.350126 -0.581372 0.734451 0.000000
83.95310211 118.15599823 146.25000000 0.747640 -0.384454 -0.541507 0.000000
163.24200439 171.01600647 171.25000000 0.042186 -0.472216 -0.880473 0.000000
150.80499268 167.12899780 186.25000000 0.531063 -0.710859 -0.461142 0.000000
101.83200073 228.92799377 150.00000000 0.485364 0.485364 -0.727217 0.000000
193.55900574 163.24200439 188.75000000 0.674240 -0.092141 -0.732742 0.000000
87.06250000 226.59599304 235.00000000 0.029291 0.592802 0.804816 0.000000
66.85160065 175.67999268 73.75000000 0.726523 0.328472 -0.603548 0.000000
89.39459991 223.48599243 237.50000000 0.230042 0.746462 0.624399 0.000000
138.36700439 155.08000183 185.00000000 0.802979 -0.200362 -0.561320 0.000000
114.26999664 180.34399414 243.75000000 0.662894 -0.209580 0.718782 0.000000
140.31100464 207.55099487 165.00000000 0.680066 0.637459 -0.362155 0.000000
92.11530304 178.01199341 102.50000000 0.773448 0.321870 -0.546057 0.000000
144.58599854 167.12899780 228.75000000 0.000978 0.000978 0.999999 0.000000
37.70119858 160.13299561 160.00000000 -0.954848 -0.001223 0.297091 0.000000
90.94920349 181.89799500 103.75000000 0.672936 0.206698 -0.710235 0.000000
69.18360138 202.10899353 246.25000000 -0.471139 0.039375 0.881180 0.000000
111.16000366 208.32800293 136.25000000 0.402122 0.696681 -0.594082 0.000000
32.25979996 240.97700500 172.50000000 -0.926702 0.371474 -0.056845 0.000000
34.98049927 240.58799744 147.50000000 -0.967407 0.242165 -0.074030 0.000000
39.64450073 158.57800293 188.75000000 -0.936985 -0.333776 -0.103216 0.000000
36.92380142 167.12899780 212.50000000 -0.961334 -0.212311 0.175387 0.000000
140.69900513 233.59199524 190.00000000 0.626930 0.549197 -0.552577 0.000000
169.46099854 107.27300262 206.25000000 0.650593 -0.311575 -0.692567 0.000000
94.05860138 170.23800659 248.75000000 0.000978 0.000978 0.999999 0.000000
85.50779724 267.40600586 156.25000000 0.572270 0.255562 -0.779228 0.000000
83.17579651 251.47099304 147.50000000 0.799866 0.227428 -0.555420 0.000000
55.58010101 127.48400116 170.00000000 -0.893653 -0.447499 0.033596 0.000000
83.17579651 254.96899414 148.75000000 0.523979 0.302356 -0.796258 0.000000
112.71499634 222.32000732 151.25000000 0.582688 0.552287 -0.596200 0.000000
127.48400116 193.55900574 233.75000000 0.553990 0.037488 0.831679 0.000000
136.03500366 212.21499634 223.75000000 0.458549 0.332487 0.824127 0.000000
209.10600281 174.12500000 201.25000000 0.590570 0.590570 -0.549958 0.000000
75.40239716 123.59799957 108.75000000 0.645892 -0.213222 -0.733048 0.000000
66.85160065 115.82399750 203.75000000 -0.516853 -0.638070 0.570727 0.000000
49.75000000 175.67999268 236.25000000 -0.549962 0.143791 0.822719 0.000000
45.47460175 180.34399414 75.00000000 -0.954848 0.001223 -0.297091 0.000000
124.76399994 116.60199738 172.50000000 0.551095 -0.697610 -0.457859 0.000000
64.51959991 180.34399414 73.75000000 0.695781 0.361806 -0.620472 0.000000
76.17970276 150.02699280 91.25000000 0.771773 -0.357572 -0.525841 0.000000
201.33200073 172.57000732 196.25000000 0.587687 -0.088081 -0.804280 0.000000
193.55900574 129.81599426 211.25000000 0.569258 -0.717760 -0.400956 0.000000
134.48100281 129.81599426 171.25000000 0.799575 -0.070088 -0.596463 0.000000
205.99600220 148.47300720 216.25000000 0.384578 0.108895 0.916647 0.000000
155.85699463 143.03100586 172.50000000 0.245672 -0.329985 -0.911458 0.000000
69.18360138 232.81500244 120.00000000 0.747495 0.412355 -0.520782 0.000000
65.29689789 180.73199463 75.00000000 0.696189 0.515881 -0.499186 0.000000
75.40239716 182.67599487 248.75000000 -0.000978 -0.000978 0.999999 0.000000
183.84199524 135.25799561 197.50000000 0.959733 0.238288 -0.148765 0.000000
132.14799500 124.37500000 223.75000000 -0.138536 -0.294556 0.945539 0.000000
102.60900116 284.89700317 187.50000000 0.809034 0.583589 0.069917 0.000000
196.66799927 136.81300354 218.75000000 -0.565886 -0.266392 0.780261 0.000000
84.34179688 195.89100647 105.00000000 0.453439 0.306967 -0.836758 0.000000
117.37899780 259.24398804 180.00000000 0.664707 0.409433 -0.624924 0.000000
185.78500366 183.45300293 196.25000000 -0.112870 0.301431 -0.946784 0.000000
195.89100647 148.47300720 218.75000000 0.000978 0.000978 0.999999 0.000000
97.16799927 262.35400391 212.50000000 0.545930 0.623678 0.559451 0.000000
115.82399750 274.40200806 191.25000000 0.575898 0.695393 -0.429849 0.000000
162.46499634 189.67199707 166.25000000 0.514597 0.771085 -0.374991 0.000000
146.14100647 159.35600281 228.75000000 0.000978 0.000978 0.999999 0.000000
34.20309830 236.70100403 145.00000000 -0.924975 0.321546 -0.202560 0.000000
93.28130341 150.80499268 241.25000000 0.285905 -0.544957 0.788213 0.000000
203.66400146 165.57400513 216.25000000 0.442309 0.886050 0.138848 0.000000
117.37899780 265.46301270 205.00000000 0.380190 0.533571 0.755485 0.000000
120.48799896 125.15200043 221.25000000 -0.541234 0.001350 0.840871 0.000000
157.02299500 152.35899353 171.25000000 -0.427733 0.630782 -0.647425 0.000000
62.96490097 279.84399414 133.75000000 -0.280906 0.896224 -0.343329 0.000000
148.47300720 147.69500732 193.75000000 0.715663 0.466593 -0.519728 0.000000
104.16400146 172.57000732 156.25000000 0.386216 0.205496 0.899227 0.000000
127.48400116 232.81500244 172.50000000 0.654955 0.409554 -0.635058 0.000000
139.92199707 209.49400330 210.00000000 0.974192 -0.020221 -0.224814 0.000000
148.47300720 157.80099487 191.25000000 0.330909 -0.563353 -0.757056 0.000000
109.60500336 258.07800293 213.75000000 0.566934 -0.020691 0.823503 0.000000
94.83599854 143.80900574 138.75000000 0.773964 -0.353858 -0.525132 0.000000
85.89649963 133.70300293 130.00000000 0.892851 -0.409284 -0.187892 0.000000
133.70300293 251.85899353 193.75000000 0.715605 0.297499 -0.631984 0.000000
149.63900757 143.03100586 190.00000000 -0.831055 0.554502 0.043299 0.000000
87.45120239 112.71499634 152.50000000 0.563060 -0.096979 -0.820706 0.000000
86.28520203 150.80499268 98.75000000 0.575896 -0.066832 -0.814786 0.000000
60.63280106 252.63699341 213.75000000 -0.365917 0.648148 0.667839 0.000000
64.51959991 239.42199707 118.75000000 0.627537 0.001373 -0.778585 0.000000
114.26999664 220.76600647 151.25000000 0.550039 0.469790 -0.690474 0.000000
98.72270203 108.05100250 213.75000000 -0.518711 -0.294830 0.802505 0.000000
134.48100281 95.22460175 215.00000000 -0.168580 -0.630275 0.757849 0.000000
140.69900513 103.38700104 221.25000000 0.150499 -0.372731 0.915653 0.000000
59.85549927 168.68400574 243.75000000 -0.912791 -0.150956 0.379507 0.000000
149.25000000 194.33599854 156.25000000 0.593615 0.004113 -0.804739 0.000000
127.48400116 90.94920349 208.75000000 0.026208 -0.834513 0.550365 0.000000
106.49600220 187.33999634 246.25000000 0.297156 0.118596 0.947435 0.000000
209.49400330 188.11700439 210.00000000 -0.380291 -0.630526 -0.676621 0.000000
104.94100189 247.19500732 163.75000000 0.613188 0.289783 -0.734865 0.000000
47.80670166 223.87500000 220.00000000 -0.474483 0.253365 0.843014 0.000000
106.88500214 90.94920349 205.00000000 -0.357449 -0.716530 0.599012 0.000000
49.75000000 230.87100220 218.75000000 -0.569865 0.287314 0.769873 0.000000
157.80099487 163.24200439 191.25000000 -0.652716 -0.004140 -0.757592 0.000000
51.30469894 134.09199524 162.50000000 -0.999999 -0.000978 -0.000978 0.000000
147.69500732 124.37500000 176.25000000 -0.000978 -0.000978 -0.999999 0.000000
60.63280106 282.56500244 165.00000000 -0.708486 0.705724 0.001381 0.000000
146.91799927 104.16400146 221.25000000 0.185192 -0.278474 0.942421 0.000000
59.07809830 173.34800720 243.75000000 -0.647274 -0.098339 0.755887 0.000000
34.20309830 169.85000610 147.50000000 -0.918783 -0.392631 0.040982 0.000000
62.96490097 263.90798950 205.00000000 -0.485368 0.602931 0.633161 0.000000
51.30469894 133.70300293 161.25000000 -0.690783 -0.690783 0.213628 0.000000
127.48400116 152.35899353 166.25000000 0.524530 0.356680 -0.773077 0.000000
54.41410065 258.85598755 203.75000000 -0.850867 0.284648 0.441589 0.000000
166.35200500 175.67999268 168.75000000 -0.380443 -0.604427 -0.699950 0.000000
126.70700073 165.57400513 168.75000000 0.460108 -0.099901 -0.882225 0.000000
179.56599426 169.46099854 218.75000000 0.000978 0.000978 0.999999 0.000000
185.00799561 162.46499634 181.25000000 0.677749 -0.216568 -0.702677 0.000000
99.50000000 250.30499268 218.75000000 0.373289 0.610089 0.698889 0.000000
173.34800720 171.79299927 188.75000000 0.070091 0.441159 -0.894688 0.000000
172.95899963 188.89500427 202.50000000 -0.585403 0.194115 0.787161 0.000000
29.92770004 232.42599487 175.00000000 -0.894688 0.446689 0.001310 0.000000
143.80900574 109.60500336 186.25000000 0.378137 -0.728445 -0.571297 0.000000
94.83599854 148.47300720 238.75000000 0.223879 -0.668505 0.709210 0.000000
97.55670166 259.63299561 215.00000000 0.344325 0.764629 0.544778 0.000000
37.70119858 242.53100586 140.00000000 -0.929620 0.324740 -0.174217 0.000000
64.90820313 209.88299561 97.50000000 0.568211 0.642399 -0.514256 0.000000
160.91000366 124.37500000 223.75000000 0.000978 0.000978 0.999999 0.000000
102.60900116 138.36700439 151.25000000 -0.000978 -0.000978 -0.999999 0.000000
72.29299927 215.32400513 108.75000000 0.641386 0.520179 -0.563948 0.000000
99.50000000 174.90199280 171.25000000 -0.000978 -0.000978 -0.999999 0.000000
132.92599487 92.50389862 211.25000000 -0.061776 -0.754246 0.653680 0.000000
66.85160065 203.27499390 245.00000000 -0.435141 0.236391 0.868776 0.000000
73.07029724 256.52398682 216.25000000 0.224104 0.557943 0.799048 0.000000
89.39459991 209.10600281 246.25000000 0.000978 0.000978 0.999999 0.000000
46.64059830 226.98399353 218.75000000 -0.555587 0.258231 0.790342 0.000000
68.40630341 217.26800537 237.50000000 -0.259451 0.150349 0.953981 0.000000
44.69729996 191.22700500 75.00000000 -0.994569 0.001073 -0.104070 0.000000
107.27300262 133.70300293 153.75000000 -0.000978 -0.000978 -0.999999 0.000000
97.94529724 236.31300354 151.25000000 0.652342 0.391405 -0.649039 0.000000
66.85160065 111.93800354 198.75000000 -0.690783 -0.690783 0.213628 0.000000
206.38499451 153.13699341 205.00000000 0.682268 -0.136454 -0.718256 0.000000
167.90600586 169.46099854 171.25000000 -0.001310 -0.441440 -0.897290 0.000000
48.19530106 137.97900391 140.00000000 -0.867668 -0.497143 -0.001333 0.000000
149.63900757 164.02000427 227.50000000 0.470633 0.298641 0.830252 0.000000
87.45120239 137.58999634 122.50000000 0.889848 -0.456163 -0.009255 0.000000
191.22700500 148.47300720 196.25000000 0.001223 -0.954848 -0.297091 0.000000
84.73049927 133.31399536 225.00000000 0.344007 -0.686383 0.640733 0.000000
130.59399414 114.26999664 221.25000000 0.000978 0.000978 0.999999 0.000000
105.71900177 139.92199707 221.25000000 -0.150971 -0.150971 0.976942 0.000000
