106.75000000 270.37500000 451.25000000 0.398000 -0.429968 -0.810385 0.000000
173.25000000 227.50000000 466.25000000 -0.489219 -0.420499 -0.764098 0.000000
187.68800354 268.62500000 432.50000000 -0.883082 -0.433513 -0.179536 0.000000
102.37500000 250.25000000 456.25000000 0.234631 -0.268351 -0.934310 0.000000
212.62500000 141.75000000 481.25000000 0.269580 -0.094160 -0.958363 0.000000
100.62500000 150.06199646 390.00000000 0.902661 0.245113 -0.353726 0.000000
125.12500000 191.62500000 483.75000000 0.684719 -0.687867 -0.240832 0.000000
201.25000000 119.00000000 418.75000000 -0.129842 0.295826 0.946376 0.000000
107.62500000 290.06201172 380.00000000 0.614252 -0.754921 0.229758 0.000000
166.25000000 199.50000000 483.75000000 -0.216336 -0.482597 -0.848704 0.000000
154.00000000 196.87500000 363.75000000 -0.491759 -0.039724 0.869825 0.000000
142.62500000 124.25000000 396.25000000 -0.177349 -0.233353 0.956082 0.000000
85.75000000 175.43800354 437.50000000 0.839004 0.541066 -0.057620 0.000000
95.37500000 184.62500000 341.25000000 -0.422412 -0.481126 0.768170 0.000000
154.00000000 282.62500000 446.25000000 -0.374403 -0.390068 -0.841231 0.000000
89.25000000 183.31199646 420.00000000 0.806908 0.372296 0.458579 0.000000
183.75000000 182.87500000 413.75000000 0.054450 0.850251 0.523554 0.000000
128.62500000 274.75000000 358.75000000 -0.718099 -0.018197 0.695703 0.000000
135.62500000 154.00000000 486.25000000 0.524507 0.184855 -0.831096 0.000000
175.87500000 151.81199646 405.00000000 -0.556541 -0.395653 0.730562 0.000000
92.75000000 185.50000000 341.25000000 -0.296859 0.248100 0.922128 0.000000
88.37500000 250.68800354 442.50000000 0.830494 -0.277866 -0.482773 0.000000
162.75000000 251.12500000 458.75000000 -0.107403 -0.502647 -0.857794 0.000000
117.25000000 132.12500000 411.25000000 0.595079 0.648720 -0.474387 0.000000
99.75000000 284.37500000 388.75000000 0.686203 -0.686203 0.241354 0.000000
217.87500000 202.56199646 450.00000000 0.565966 -0.626787 -0.535556 0.000000
98.00000000 168.87500000 346.25000000 0.001362 0.581753 0.813364 0.000000
102.81199646 145.25000000 452.50000000 0.834350 0.478320 -0.273989 0.000000
79.62500000 201.25000000 431.25000000 0.944109 0.001244 0.329630 0.000000
89.68750000 275.62500000 402.50000000 0.883935 -0.441244 0.154797 0.000000
105.00000000 293.12500000 398.75000000 0.640165 -0.656706 0.398655 0.000000
102.81199646 209.12500000 467.50000000 0.501617 -0.151515 -0.851718 0.000000
113.75000000 234.50000000 466.25000000 0.446730 -0.240780 -0.861659 0.000000
192.50000000 198.62500000 398.75000000 -0.638778 -0.632107 0.438639 0.000000
182.87500000 210.00000000 393.75000000 -0.947880 -0.107083 0.300096 0.000000
133.43800354 286.12500000 447.50000000 0.158703 -0.407481 -0.899318 0.000000
145.25000000 309.75000000 411.25000000 0.567016 -0.567016 -0.597483 0.000000
84.00000000 229.25000000 441.25000000 0.810995 -0.140849 -0.567845 0.000000
126.87500000 142.62500000 391.25000000 -0.701851 0.488462 0.518469 0.000000
218.75000000 175.00000000 436.25000000 -0.226930 -0.696440 0.680790 0.000000
257.25000000 149.62500000 473.75000000 -0.123371 -0.652526 -0.747656 0.000000
192.50000000 188.12500000 406.25000000 0.304170 0.613169 0.729043 0.000000
166.25000000 224.00000000 471.25000000 -0.248008 -0.419358 -0.873287 0.000000
203.87500000 84.43750000 435.00000000 0.110000 0.977641 -0.179214 0.000000
91.00000000 188.12500000 341.25000000 -0.107812 0.312787 0.943685 0.000000
203.00000000 84.00000000 433.75000000 0.128765 0.970200 -0.205259 0.000000
147.00000000 293.12500000 371.25000000 -0.861390 0.272900 0.428408 0.000000
238.87500000 115.06199646 452.50000000 -0.582348 -0.173948 0.794111 0.000000
134.75000000 146.56199646 395.00000000 -0.667015 0.311705 0.676706 0.000000
91.87500000 255.50000000 348.75000000 0.883935 -0.441244 0.154797 0.000000
163.62500000 175.00000000 381.25000000 -0.686203 0.686203 0.241354 0.000000
220.50000000 182.00000000 443.75000000 -0.394330 -0.899880 0.186332 0.000000
76.56250000 189.00000000 342.50000000 0.972881 -0.050048 -0.225826 0.000000
175.87500000 206.50000000 378.75000000 -0.830768 -0.075524 0.551471 0.000000
96.25000000 140.87500000 373.75000000 0.416203 0.814866 -0.403446 0.000000
114.18800354 188.12500000 480.00000000 0.928292 -0.282031 -0.242348 0.000000
161.87500000 173.25000000 381.25000000 -0.614272 0.787347 0.052490 0.000000
120.75000000 232.75000000 468.75000000 0.603114 -0.603114 -0.522023 0.000000
217.87500000 105.87500000 431.25000000 -0.614057 -0.293401 0.732700 0.000000
113.75000000 297.93798828 390.00000000 0.512750 -0.815102 0.269623 0.000000
80.50000000 200.37500000 428.75000000 0.959255 0.143428 0.243432 0.000000
77.00000000 189.43800354 342.50000000 0.972881 -0.050048 -0.225826 0.000000
196.87500000 109.37500000 418.75000000 -0.270478 -0.212221 0.939044 0.000000
105.87500000 280.43798828 445.00000000 0.500459 -0.457515 -0.734997 0.000000
97.56250000 215.25000000 462.50000000 0.618287 -0.282783 -0.733318 0.000000
125.12500000 154.43800354 370.00000000 -0.217178 0.864219 0.453827 0.000000
105.87500000 228.81199646 345.00000000 -0.286211 0.143777 0.947318 0.000000
259.00000000 153.56199646 462.50000000 -0.839004 0.522343 0.152412 0.000000
129.50000000 196.43800354 485.00000000 -0.000978 -0.000978 -0.999999 0.000000
133.87500000 308.43798828 410.00000000 0.001244 -0.944109 0.329630 0.000000
168.00000000 175.87500000 491.25000000 -0.000978 -0.000978 -0.999999 0.000000
85.75000000 192.93800354 377.50000000 0.959777 0.274402 -0.059433 0.000000
126.00000000 287.87500000 446.25000000 0.113008 -0.597330 -0.793994 0.000000
145.68800354 193.37500000 360.00000000 -0.232195 0.131015 0.963805 0.000000
208.25000000 106.31199646 422.50000000 -0.179316 -0.091488 0.979528 0.000000
154.87500000 203.00000000 486.25000000 -0.165044 -0.290532 -0.942524 0.000000
133.43800354 146.12500000 482.50000000 0.374297 0.444379 -0.813898 0.000000
96.25000000 200.37500000 463.75000000 0.725056 -0.077010 -0.684371 0.000000
236.25000000 112.00000000 448.75000000 -0.645666 -0.126747 0.753028 0.000000
208.25000000 94.93750000 465.00000000 0.063807 0.905512 -0.419495 0.000000
154.00000000 172.37500000 493.75000000 -0.000978 -0.000978 -0.999999 0.000000
178.50000000 123.37500000 476.25000000 0.543779 -0.447329 -0.710072 0.000000
154.00000000 276.50000000 448.75000000 -0.224431 -0.564946 -0.794020 0.000000
222.68800354 106.75000000 435.00000000 -0.446983 -0.702876 0.553328 0.000000
213.50000000 119.87500000 486.25000000 -0.000978 -0.000978 -0.999999 0.000000
159.25000000 231.00000000 373.75000000 -0.323896 -0.413781 0.850809 0.000000
119.00000000 242.37500000 463.75000000 0.206727 -0.441712 -0.873014 0.000000
156.62500000 248.06199646 377.50000000 -0.471075 -0.322978 0.820837 0.000000
181.12500000 105.87500000 473.75000000 0.181198 0.778086 -0.601456 0.000000
237.12500000 149.62500000 443.75000000 -0.711934 0.449730 0.539344 0.000000
142.62500000 183.75000000 491.25000000 0.665366 -0.739132 0.104747 0.000000
97.56250000 191.62500000 342.50000000 -0.538508 0.133527 0.831973 0.000000
196.87500000 210.87500000 458.75000000 -0.944109 -0.001244 0.329630 0.000000
155.75000000 154.87500000 401.25000000 0.000978 0.000978 0.999999 0.000000
148.75000000 142.62500000 486.25000000 -0.146627 0.414258 -0.898271 0.000000
211.75000000 110.25000000 426.25000000 -0.399415 -0.203365 0.893929 0.000000
122.93800354 128.62500000 420.00000000 0.804939 0.581263 -0.119196 0.000000
237.12500000 117.25000000 491.25000000 -0.300491 -0.892502 -0.336370 0.000000
236.25000000 151.37500000 441.25000000 -0.685442 0.423215 0.592501 0.000000
217.87500000 87.50000000 448.75000000 0.001244 0.944109 -0.329630 0.000000
103.68800354 153.12500000 415.00000000 0.787350 0.603486 0.126035 0.000000
217.87500000 102.37500000 428.75000000 -0.735713 -0.261059 0.624960 0.000000
222.25000000 166.25000000 473.75000000 0.186238 -0.157981 -0.969720 0.000000
215.25000000 138.25000000 481.25000000 0.072365 0.003146 -0.997373 0.000000
143.50000000 152.25000000 398.75000000 -0.656689 0.478660 0.582790 0.000000
177.62500000 169.75000000 488.75000000 -0.432384 0.239544 -0.869289 0.000000
217.43800354 106.75000000 485.00000000 0.136793 0.233199 -0.962760 0.000000
138.25000000 225.75000000 361.25000000 -0.413424 -0.341659 0.844008 0.000000
186.37500000 174.12500000 421.25000000 -0.664818 0.139567 0.733851 0.000000
160.12500000 226.62500000 471.25000000 -0.001362 -0.581753 -0.813364 0.000000
140.87500000 274.31201172 370.00000000 -0.709863 0.004151 0.704328 0.000000
154.00000000 189.00000000 363.75000000 -0.468854 -0.006641 0.883251 0.000000
238.00000000 160.12500000 473.75000000 -0.371248 -0.393178 -0.841181 0.000000
178.50000000 215.25000000 471.25000000 -0.259838 -0.436102 -0.861568 0.000000
222.25000000 125.12500000 486.25000000 0.095777 -0.126520 -0.987329 0.000000
182.87500000 256.37500000 446.25000000 -0.110448 -0.986903 -0.117573 0.000000
134.75000000 217.87500000 356.25000000 -0.391203 -0.049066 0.918995 0.000000
157.93800354 238.00000000 375.00000000 -0.505514 -0.190505 0.841524 0.000000
208.25000000 194.68800354 452.50000000 -0.000978 -0.000978 -0.999999 0.000000
123.81199646 167.12500000 357.50000000 0.000978 0.000978 0.999999 0.000000
79.18750000 221.37500000 432.50000000 0.933273 0.167795 -0.317563 0.000000
95.37500000 282.18798828 417.50000000 0.516071 -0.856545 -0.001340 0.000000
215.25000000 191.62500000 456.25000000 0.009456 -0.852408 -0.522792 0.000000
140.00000000 246.31199646 465.00000000 -0.001333 -0.497143 -0.867668 0.000000
215.25000000 202.12500000 413.75000000 0.209572 0.441439 -0.872474 0.000000
115.50000000 238.00000000 466.25000000 0.563511 -0.337461 -0.754039 0.000000
126.00000000 132.12500000 471.25000000 0.686203 0.686203 -0.241354 0.000000
127.75000000 148.31199646 480.00000000 0.502939 0.244549 -0.829004 0.000000
104.12500000 206.50000000 468.75000000 0.455302 -0.076114 -0.887078 0.000000
149.18800354 188.12500000 490.00000000 -0.049957 -0.222977 -0.973543 0.000000
125.12500000 124.25000000 441.25000000 0.698761 0.707624 0.104888 0.000000
171.50000000 197.75000000 483.75000000 -0.258166 -0.499326 -0.827057 0.000000
109.81199646 168.87500000 475.00000000 0.599507 0.181530 -0.779512 0.000000
154.00000000 141.75000000 401.25000000 0.000978 0.000978 0.999999 0.000000
82.25000000 225.75000000 378.75000000 0.995347 0.056216 0.078261 0.000000
214.37500000 119.00000000 486.25000000 -0.000978 -0.000978 -0.999999 0.000000
263.37500000 164.50000000 466.25000000 -0.418167 0.712371 -0.563616 0.000000
141.75000000 182.00000000 358.75000000 -0.371158 -0.184863 0.909982 0.000000
97.12500000 196.87500000 341.25000000 -0.573247 -0.020720 0.819121 0.000000
196.87500000 226.62500000 418.75000000 -0.858021 0.303465 0.414377 0.000000
89.25000000 270.37500000 433.75000000 0.746697 -0.446699 -0.492853 0.000000
102.37500000 281.75000000 441.25000000 0.553917 -0.424946 -0.715959 0.000000
231.00000000 139.56199646 440.00000000 -0.803711 0.318631 0.502517 0.000000
211.75000000 171.93800354 420.00000000 0.087713 -0.949133 0.302413 0.000000
222.25000000 179.81199646 470.00000000 -0.424844 -0.252487 -0.869343 0.000000
234.93800354 136.50000000 447.50000000 -0.685235 0.688385 0.237863 0.000000
150.50000000 105.00000000 401.25000000 -0.635981 0.213030 0.741719 0.000000
140.00000000 189.87500000 488.75000000 -0.000978 -0.000978 -0.999999 0.000000
147.00000000 286.12500000 446.25000000 -0.036100 -0.429186 -0.902494 0.000000
133.43800354 231.87500000 470.00000000 0.132447 -0.287638 -0.948537 0.000000
105.00000000 175.00000000 473.75000000 -0.128393 0.113994 -0.985150 0.000000
191.62500000 199.50000000 473.75000000 -0.594430 -0.390249 -0.703107 0.000000
202.56199646 195.12500000 452.50000000 -0.199600 -0.978879 0.044223 0.000000
175.87500000 189.87500000 376.25000000 -0.631608 0.209501 0.746445 0.000000
167.12500000 165.37500000 403.75000000 -0.579251 -0.088115 0.810373 0.000000
88.81250000 259.00000000 370.00000000 0.902232 -0.376293 0.210666 0.000000
200.37500000 120.75000000 418.75000000 -0.138603 0.254765 0.957018 0.000000
269.50000000 119.87500000 473.75000000 -0.649159 0.095249 0.754666 0.000000
84.43750000 172.37500000 360.00000000 0.826958 0.057760 -0.559289 0.000000
205.62500000 84.43750000 437.50000000 0.184403 0.963865 -0.192250 0.000000
120.75000000 131.25000000 426.25000000 0.645808 0.759006 0.082721 0.000000
142.18800354 159.25000000 390.00000000 -0.476356 0.829328 0.292061 0.000000
116.81199646 303.62500000 400.00000000 0.699379 -0.713566 0.041140 0.000000
186.37500000 190.75000000 481.25000000 -0.414934 -0.440766 -0.795962 0.000000
101.50000000 235.81199646 460.00000000 0.560133 -0.276122 -0.781030 0.000000
220.50000000 86.62500000 426.25000000 -0.893541 -0.222281 0.390096 0.000000
237.12500000 153.12500000 441.25000000 -0.685442 0.423215 0.592501 0.000000
127.75000000 123.37500000 396.25000000 0.000978 0.000978 0.999999 0.000000
197.75000000 162.75000000 428.75000000 -0.063723 -0.556510 0.828393 0.000000
158.37500000 268.62500000 451.25000000 -0.468073 -0.308396 -0.828130 0.000000
185.06199646 135.62500000 407.50000000 -0.450552 0.044649 0.891633 0.000000
104.56199646 151.37500000 417.50000000 0.828484 0.549905 0.105918 0.000000
221.37500000 84.00000000 441.25000000 0.059713 0.924886 -0.375527 0.000000
81.37500000 196.43800354 427.50000000 0.939366 0.160446 0.303065 0.000000
120.75000000 196.00000000 351.25000000 -0.000978 -0.000978 0.999999 0.000000
194.25000000 107.62500000 418.75000000 0.000978 0.000978 0.999999 0.000000
107.62500000 224.87500000 466.25000000 0.094510 -0.478191 -0.873156 0.000000
91.43750000 176.75000000 387.50000000 0.948187 0.317711 -0.001236 0.000000
89.68750000 273.00000000 412.50000000 0.896158 -0.382810 -0.224406 0.000000
220.93800354 191.62500000 450.00000000 0.838816 0.015003 0.544208 0.000000
259.43798828 175.00000000 465.00000000 -0.094612 -0.612798 -0.784556 0.000000
190.75000000 206.06199646 415.00000000 -0.883935 -0.441244 0.154797 0.000000
126.00000000 274.75000000 356.25000000 -0.731725 -0.018188 0.681357 0.000000
162.75000000 232.75000000 468.75000000 -0.317684 -0.317684 -0.893394 0.000000
221.81199646 158.37500000 422.50000000 -0.547999 -0.425486 0.720180 0.000000
75.68750000 240.62500000 417.50000000 0.988876 -0.143232 0.040105 0.000000
94.50000000 280.87500000 396.25000000 0.686203 -0.686203 0.241354 0.000000
175.00000000 190.75000000 486.25000000 -0.303822 -0.545607 -0.781029 0.000000
154.87500000 157.50000000 491.25000000 0.000978 0.000978 -0.999999 0.000000
240.62500000 163.62500000 443.75000000 -0.683749 0.104851 0.722145 0.000000
217.87500000 178.06199646 440.00000000 -0.631916 -0.527439 0.567882 0.000000
197.75000000 176.75000000 478.75000000 -0.000978 -0.000978 -0.999999 0.000000
150.50000000 168.87500000 493.75000000 0.520466 -0.313553 -0.794229 0.000000
175.87500000 159.25000000 488.75000000 -0.406026 0.267162 -0.873938 0.000000
111.12500000 240.62500000 346.25000000 -0.174060 0.179217 0.968289 0.000000
177.62500000 230.12500000 391.25000000 -0.600841 -0.332001 0.727163 0.000000
138.25000000 270.81201172 455.00000000 -0.120618 -0.329327 -0.936480 0.000000
188.12500000 208.68800354 410.00000000 -0.857689 -0.471505 0.205067 0.000000
212.62500000 187.25000000 411.25000000 0.090068 -0.244832 0.965373 0.000000
191.18800354 127.75000000 412.50000000 -0.668034 0.226850 0.708710 0.000000
121.62500000 279.12500000 348.75000000 -0.889398 0.096643 0.446800 0.000000
97.12500000 203.87500000 341.25000000 -0.507824 0.132413 0.851224 0.000000
136.50000000 229.25000000 361.25000000 -0.426762 -0.311924 0.848868 0.000000
116.37500000 301.00000000 433.75000000 0.534699 -0.735417 -0.416243 0.000000
140.87500000 162.31199646 490.00000000 0.601937 0.300166 -0.739981 0.000000
200.37500000 120.75000000 486.25000000 -0.000978 -0.000978 -0.999999 0.000000
133.87500000 111.56199646 425.00000000 0.784980 0.543936 -0.296548 0.000000
140.00000000 284.37500000 448.75000000 -0.000978 -0.000978 -0.999999 0.000000
195.12500000 190.75000000 403.75000000 0.073260 0.610499 0.788621 0.000000
171.50000000 220.50000000 378.75000000 -0.564566 -0.320082 0.760797 0.000000
130.37500000 154.87500000 378.75000000 -0.617243 0.717687 0.322392 0.000000
137.81199646 225.75000000 360.00000000 -0.359114 -0.272688 0.892569 0.000000
91.00000000 273.00000000 391.25000000 0.888222 -0.450386 0.090635 0.000000
209.12500000 107.62500000 483.75000000 0.144301 0.575718 -0.804815 0.000000
226.62500000 166.25000000 431.25000000 -0.944109 0.001244 0.329630 0.000000
256.37500000 163.62500000 468.75000000 -0.335737 0.150598 -0.929839 0.000000
191.62500000 106.31199646 480.00000000 0.203212 0.665479 -0.718221 0.000000
216.12500000 190.75000000 461.25000000 0.039906 -0.941021 -0.335987 0.000000
234.93800354 154.87500000 477.50000000 -0.454714 -0.207230 -0.866193 0.000000
79.62500000 255.50000000 423.75000000 0.957083 -0.237611 -0.165930 0.000000
241.50000000 175.00000000 448.75000000 -0.101108 -0.247010 0.963724 0.000000
113.75000000 152.25000000 471.25000000 0.553221 0.664201 -0.502775 0.000000
89.25000000 261.18798828 372.50000000 0.900895 -0.387341 0.195847 0.000000
242.37500000 111.12500000 453.75000000 -0.354104 -0.104467 0.929353 0.000000
129.50000000 147.00000000 388.75000000 -0.702406 0.535563 0.468827 0.000000
149.18800354 100.62500000 430.00000000 0.648993 0.747916 -0.139391 0.000000
261.62500000 112.87500000 486.25000000 -0.000978 -0.000978 -0.999999 0.000000
167.12500000 302.31201172 412.50000000 -0.705724 -0.708486 0.001381 0.000000
249.37500000 175.87500000 466.25000000 -0.114426 -0.136107 -0.984064 0.000000
165.37500000 289.62500000 436.25000000 -0.205145 -0.612349 -0.763508 0.000000
191.62500000 114.62500000 418.75000000 -0.300562 0.095812 0.948937 0.000000
128.62500000 168.87500000 486.25000000 0.666495 0.528831 -0.525473 0.000000
119.43800354 295.75000000 372.50000000 0.463643 -0.818100 0.340216 0.000000
208.25000000 144.37500000 416.25000000 -0.494850 -0.254362 0.830917 0.000000
210.87500000 196.43800354 447.50000000 0.717931 -0.627989 -0.300342 0.000000
133.00000000 253.75000000 363.75000000 -0.804946 0.163998 0.570233 0.000000
218.75000000 142.62500000 481.25000000 0.320925 -0.183586 -0.929141 0.000000
159.25000000 211.75000000 368.75000000 -0.472501 -0.235491 0.849286 0.000000
141.75000000 273.87500000 371.25000000 -0.662692 -0.009725 0.748829 0.000000
175.87500000 269.50000000 443.75000000 -0.435986 -0.341549 -0.832623 0.000000
177.62500000 292.25000000 421.25000000 -0.686203 -0.686203 0.241354 0.000000
135.62500000 290.50000000 446.25000000 -0.051980 -0.554923 -0.830276 0.000000
245.87500000 127.75000000 458.75000000 -0.698788 0.055960 0.713137 0.000000
202.12500000 141.75000000 476.25000000 -0.000978 -0.000978 -0.999999 0.000000
122.93800354 271.25000000 352.50000000 -0.686624 0.210191 0.695965 0.000000
168.00000000 175.00000000 491.25000000 -0.148219 -0.123720 -0.981185 0.000000
180.68800354 256.37500000 400.00000000 -0.758423 -0.145677 0.635273 0.000000
227.50000000 178.50000000 468.75000000 -0.360475 -0.420292 -0.832714 0.000000
83.12500000 241.06199646 380.00000000 0.987699 -0.047363 0.149021 0.000000
273.00000000 126.43800354 477.50000000 -0.663361 -0.593182 -0.456165 0.000000
203.87500000 167.12500000 431.25000000 0.190711 -0.584339 0.788782 0.000000
97.12500000 209.12500000 341.25000000 -0.504004 0.062826 0.861414 0.000000
124.25000000 273.87500000 453.75000000 -0.079722 -0.633430 -0.769682 0.000000
176.75000000 230.12500000 388.75000000 -0.733164 -0.360867 0.576407 0.000000
180.68800354 268.62500000 402.50000000 -0.845003 -0.186948 0.501019 0.000000
194.25000000 175.87500000 478.75000000 -0.342788 0.021663 -0.939163 0.000000
140.00000000 118.56199646 467.50000000 0.574986 0.737872 -0.353462 0.000000
82.25000000 204.75000000 443.75000000 0.944109 -0.001244 -0.329630 0.000000
76.12500000 241.50000000 411.25000000 0.964401 -0.033255 0.262347 0.000000
219.62500000 90.12500000 426.25000000 -0.710965 -0.282788 0.643863 0.000000
83.12500000 200.37500000 393.75000000 0.965588 0.175917 0.191554 0.000000
169.31199646 289.62500000 435.00000000 -0.302337 -0.583879 -0.753444 0.000000
114.62500000 130.37500000 406.25000000 0.778202 0.485767 -0.398036 0.000000
244.12500000 153.12500000 448.75000000 -0.601513 0.171212 0.780300 0.000000
189.00000000 134.31199646 410.00000000 -0.556826 0.189655 0.808688 0.000000
122.50000000 301.43798828 385.00000000 0.347980 -0.911101 0.220917 0.000000
173.68800354 105.00000000 422.50000000 0.885723 -0.453389 -0.099661 0.000000
109.37500000 155.75000000 468.75000000 0.659971 0.398629 -0.636814 0.000000
91.00000000 259.43798828 360.00000000 0.886325 -0.403951 0.226390 0.000000
91.87500000 178.93800354 417.50000000 0.875942 0.471226 0.103302 0.000000
219.18800354 178.50000000 472.50000000 -0.498196 -0.104207 -0.860780 0.000000
161.87500000 303.18798828 397.50000000 -0.638214 -0.680871 0.359303 0.000000
134.75000000 271.25000000 366.25000000 -0.511587 0.305685 0.803017 0.000000
177.62500000 142.62500000 403.75000000 -0.512656 -0.062860 0.856290 0.000000
216.56199646 202.12500000 415.00000000 0.161455 0.452366 -0.877096 0.000000
185.50000000 123.37500000 478.75000000 0.241653 -0.503316 -0.829625 0.000000
155.75000000 222.25000000 368.75000000 -0.417830 -0.408225 0.811647 0.000000
170.62500000 184.62500000 373.75000000 -0.735447 0.279183 0.617393 0.000000
146.12500000 144.37500000 401.25000000 0.000978 0.000978 0.999999 0.000000
143.50000000 133.00000000 398.75000000 -0.337857 -0.201003 0.919484 0.000000
231.00000000 160.12500000 433.75000000 -0.943838 0.001247 0.330406 0.000000
166.25000000 126.43800354 402.50000000 -0.348394 0.098196 0.932190 0.000000
127.75000000 293.12500000 356.25000000 -0.578927 -0.518165 0.629562 0.000000
111.12500000 147.87500000 363.75000000 -0.638381 0.587850 0.496893 0.000000
142.62500000 155.31199646 395.00000000 -0.493082 0.580592 0.647907 0.000000
136.50000000 149.62500000 486.25000000 0.662176 0.182828 -0.726703 0.000000
252.87500000 94.50000000 468.75000000 -0.001244 0.944109 -0.329630 0.000000
268.62500000 129.50000000 471.25000000 -0.456922 0.258260 0.851189 0.000000
91.87500000 150.50000000 348.75000000 -0.499322 0.556483 0.664081 0.000000
254.62500000 114.62500000 486.25000000 -0.000978 -0.000978 -0.999999 0.000000
144.37500000 269.06201172 455.00000000 -0.284862 -0.347502 -0.893362 0.000000
196.87500000 125.12500000 483.75000000 0.280360 -0.433562 -0.856401 0.000000
142.18800354 299.25000000 367.50000000 -0.378742 -0.874605 0.302689 0.000000
206.50000000 196.43800354 440.00000000 0.443662 -0.858356 -0.257659 0.000000
204.75000000 95.81250000 467.50000000 0.066684 0.902280 -0.425963 0.000000
241.50000000 127.75000000 486.25000000 -0.014991 -0.541041 -0.840863 0.000000
133.87500000 182.87500000 488.75000000 0.598704 0.504260 -0.622315 0.000000
128.62500000 150.50000000 481.25000000 0.520000 0.181326 -0.834698 0.000000
174.56199646 189.87500000 395.00000000 -0.416650 0.692203 -0.589286 0.000000
192.06199646 201.25000000 472.50000000 -0.594430 -0.390249 -0.703107 0.000000
243.25000000 157.50000000 471.25000000 -0.182021 -0.221879 -0.957934 0.000000
154.87500000 153.12500000 401.25000000 0.000978 0.000978 0.999999 0.000000
96.25000000 279.56201172 387.50000000 0.737090 -0.675550 0.018182 0.000000
98.00000000 281.75000000 386.25000000 0.768196 -0.620292 0.158469 0.000000
178.50000000 190.75000000 408.75000000 0.120294 0.511612 0.850754 0.000000
172.37500000 262.50000000 448.75000000 -0.428178 -0.533982 -0.729059 0.000000
182.43800354 126.00000000 477.50000000 0.333512 -0.184346 -0.924546 0.000000
212.62500000 173.25000000 423.75000000 0.329680 -0.839043 0.432802 0.000000
170.62500000 172.37500000 491.25000000 -0.077520 -0.161003 -0.983905 0.000000
220.50000000 99.75000000 431.25000000 -0.742137 -0.296534 0.601083 0.000000
256.37500000 184.18800354 460.00000000 -0.116409 -0.422159 -0.899016 0.000000
146.12500000 128.62500000 398.75000000 -0.124971 -0.230617 0.964986 0.000000
203.87500000 120.75000000 418.75000000 -0.258801 0.071959 0.963246 0.000000
182.43800354 280.00000000 410.00000000 -0.834433 -0.314673 0.452441 0.000000
112.87500000 261.62500000 343.75000000 -0.667572 0.189634 0.719991 0.000000
85.75000000 189.00000000 448.75000000 0.928733 0.003822 -0.370729 0.000000
98.87500000 216.12500000 341.25000000 -0.277665 0.036109 0.959999 0.000000
185.50000000 92.31250000 450.00000000 0.358607 0.898732 -0.252353 0.000000
151.37500000 185.50000000 361.25000000 -0.386924 0.108779 0.915673 0.000000
216.12500000 175.00000000 473.75000000 -0.119974 -0.238658 -0.963664 0.000000
129.93800354 186.37500000 355.00000000 -0.376383 -0.029954 0.925980 0.000000
145.25000000 208.25000000 361.25000000 0.354885 -0.354885 0.864936 0.000000
80.93750000 192.50000000 437.50000000 0.973478 0.127194 -0.190162 0.000000
112.00000000 135.62500000 456.25000000 0.699059 0.436704 -0.566221 0.000000
183.75000000 184.62500000 411.25000000 0.020659 0.822215 0.568802 0.000000
253.75000000 140.00000000 478.75000000 -0.220600 -0.454705 -0.862890 0.000000
147.00000000 135.62500000 481.25000000 0.227513 0.266595 -0.936571 0.000000
103.25000000 237.12500000 461.25000000 0.561864 -0.238131 -0.792213 0.000000
146.12500000 266.00000000 456.25000000 -0.240129 -0.481787 -0.842745 0.000000
258.12500000 181.12500000 461.25000000 -0.026062 -0.536338 -0.843601 0.000000
192.50000000 157.93800354 477.50000000 -0.383957 0.292900 -0.875664 0.000000
179.37500000 199.50000000 478.75000000 -0.489765 -0.424244 -0.761674 0.000000
99.75000000 182.00000000 468.75000000 0.616179 0.091771 -0.782241 0.000000
249.37500000 179.37500000 451.25000000 0.190209 -0.570627 0.798878 0.000000
156.62500000 178.50000000 493.75000000 -0.000978 -0.000978 -0.999999 0.000000
222.25000000 143.06199646 425.00000000 -0.811971 0.236632 0.533581 0.000000
246.75000000 182.00000000 453.75000000 -0.206770 -0.691826 0.691826 0.000000
152.25000000 225.75000000 368.75000000 -0.440563 -0.367401 0.819098 0.000000
118.12500000 291.37500000 363.75000000 0.974073 -0.001172 0.226229 0.000000
158.81199646 276.50000000 385.00000000 -0.758191 0.379911 0.529919 0.000000
77.43750000 218.75000000 427.50000000 0.908972 0.215321 -0.356941 0.000000
270.81201172 103.25000000 477.50000000 -0.758448 0.161984 0.631283 0.000000
115.50000000 124.68800354 397.50000000 0.686203 0.686203 -0.241354 0.000000
113.75000000 237.12500000 466.25000000 0.522884 -0.361001 -0.772185 0.000000
106.75000000 265.12500000 453.75000000 0.383819 -0.224997 -0.895578 0.000000
223.12500000 150.50000000 481.25000000 -0.000978 -0.000978 -0.999999 0.000000
180.25000000 189.00000000 486.25000000 -0.260866 -0.618174 -0.741492 0.000000
154.87500000 288.75000000 381.25000000 -0.692899 0.247802 0.677115 0.000000
109.37500000 265.12500000 453.75000000 0.126618 -0.251931 -0.959426 0.000000
250.25000000 132.12500000 483.75000000 -0.134684 -0.101311 -0.985696 0.000000
145.25000000 154.00000000 398.75000000 -0.607360 0.553222 0.570140 0.000000
262.06201172 119.00000000 470.00000000 -0.533520 0.215548 0.817860 0.000000
146.56199646 101.50000000 422.50000000 0.551778 0.828387 -0.096525 0.000000
131.25000000 239.75000000 361.25000000 -0.720615 -0.195970 0.665064 0.000000
178.50000000 191.18800354 485.00000000 -0.354942 -0.539707 -0.763369 0.000000
231.87500000 86.62500000 448.75000000 0.001244 0.944109 -0.329630 0.000000
77.00000000 230.12500000 406.25000000 0.969286 0.052960 0.240166 0.000000
134.75000000 147.00000000 483.75000000 0.650715 0.241064 -0.720041 0.000000
149.62500000 168.87500000 493.75000000 0.520466 -0.313553 -0.794229 0.000000
85.31250000 256.37500000 385.00000000 0.929043 -0.310618 0.200988 0.000000
99.75000000 220.50000000 341.25000000 -0.672411 0.219977 0.706734 0.000000
179.37500000 116.37500000 421.25000000 0.583039 -0.788097 0.197407 0.000000
101.50000000 220.50000000 341.25000000 -0.476483 -0.028346 0.878727 0.000000
224.00000000 104.12500000 483.75000000 0.547549 0.638526 -0.540810 0.000000
126.00000000 224.87500000 473.75000000 0.275522 -0.549469 -0.788779 0.000000
205.62500000 118.12500000 486.25000000 -0.000978 -0.000978 -0.999999 0.000000
156.62500000 95.81250000 422.50000000 0.370831 0.926414 -0.065128 0.000000
124.25000000 126.00000000 456.25000000 0.644064 0.749649 -0.152343 0.000000
170.62500000 243.25000000 458.75000000 -0.334574 -0.444528 -0.830937 0.000000
142.18800354 225.75000000 362.50000000 -0.423150 -0.293897 0.857070 0.000000
100.62500000 221.37500000 341.25000000 -0.672411 0.219977 0.706734 0.000000
252.00000000 180.25000000 451.25000000 0.253365 -0.474483 0.843014 0.000000
143.06199646 121.62500000 472.50000000 0.425953 0.555230 -0.714341 0.000000
98.87500000 222.25000000 461.25000000 0.631998 -0.132973 -0.763477 0.000000
97.56250000 165.37500000 402.50000000 0.984919 -0.001131 -0.173011 0.000000
98.00000000 142.62500000 378.75000000 0.784369 0.449835 -0.427099 0.000000
119.00000000 305.81201172 405.00000000 0.370600 -0.891524 0.260462 0.000000
262.50000000 133.00000000 476.25000000 0.132681 -0.290826 -0.947531 0.000000
92.31250000 232.75000000 452.50000000 0.757664 -0.209171 -0.618217 0.000000
203.00000000 133.00000000 478.75000000 0.271712 -0.485976 -0.830662 0.000000
135.62500000 149.62500000 393.75000000 -0.698371 0.391286 0.599311 0.000000
176.75000000 112.00000000 478.75000000 0.100366 -0.277635 -0.955429 0.000000
139.56199646 110.25000000 435.00000000 0.724990 0.604969 -0.329246 0.000000
178.50000000 104.12500000 471.25000000 0.176257 0.712692 -0.678973 0.000000
128.62500000 152.25000000 381.25000000 -0.660485 0.633999 0.402250 0.000000
172.37500000 131.25000000 401.25000000 -0.138859 0.257882 0.956146 0.000000
108.50000000 265.12500000 453.75000000 0.268680 -0.327408 -0.905878 0.000000
114.62500000 189.87500000 481.25000000 0.928292 -0.282031 -0.242348 0.000000
138.68800354 105.87500000 420.00000000 0.465163 0.877694 -0.115224 0.000000
189.00000000 256.37500000 411.25000000 -0.878704 -0.300967 0.370538 0.000000
190.75000000 88.37500000 441.25000000 0.139977 0.939071 -0.313930 0.000000
198.62500000 216.56199646 445.00000000 -0.686203 0.686203 0.241354 0.000000
82.68750000 229.25000000 347.50000000 0.973886 -0.182682 -0.134807 0.000000
112.00000000 135.62500000 446.25000000 0.682874 0.610122 0.401788 0.000000
210.87500000 175.43800354 427.50000000 0.122433 -0.865672 0.485410 0.000000
113.75000000 300.12500000 396.25000000 0.644843 -0.734966 0.209768 0.000000
220.50000000 199.50000000 453.75000000 0.416780 -0.455701 -0.786531 0.000000
152.25000000 292.25000000 376.25000000 -0.623799 0.067399 0.778673 0.000000
109.37500000 158.37500000 468.75000000 0.819933 -0.001360 -0.572458 0.000000
180.25000000 286.12500000 411.25000000 -0.839532 -0.513297 0.178082 0.000000
164.50000000 240.62500000 463.75000000 -0.193810 -0.566168 -0.801181 0.000000
191.62500000 190.75000000 478.75000000 -0.370016 -0.508974 -0.777196 0.000000
161.00000000 133.87500000 398.75000000 0.000978 0.000978 0.999999 0.000000
201.25000000 220.50000000 451.25000000 -0.978212 0.152884 -0.140455 0.000000
185.93800354 215.25000000 405.00000000 -0.956138 0.073154 0.283633 0.000000
266.00000000 172.37500000 458.75000000 -0.830934 -0.417832 0.367377 0.000000
202.12500000 129.50000000 481.25000000 0.347413 -0.547782 -0.761078 0.000000
181.12500000 97.12500000 461.25000000 -0.000978 0.999999 -0.000978 0.000000
93.62500000 161.87500000 438.75000000 0.943117 0.313483 0.110720 0.000000
147.87500000 142.62500000 486.25000000 0.016143 0.304240 -0.952459 0.000000
135.62500000 135.18800354 477.50000000 0.241278 0.505609 -0.828338 0.000000
189.87500000 257.25000000 441.25000000 -0.852256 -0.317083 -0.416074 0.000000
167.12500000 293.56201172 432.50000000 -0.208283 -0.603249 -0.769876 0.000000
147.00000000 181.12500000 361.25000000 -0.001333 0.497143 0.867668 0.000000
207.81199646 134.75000000 480.00000000 0.313483 -0.943117 0.110720 0.000000
121.62500000 269.50000000 351.25000000 -0.712708 0.199435 0.672512 0.000000
204.75000000 119.87500000 486.25000000 -0.000978 -0.000978 -0.999999 0.000000
189.00000000 259.87500000 441.25000000 -0.909472 -0.369249 -0.191090 0.000000
100.18800354 164.50000000 465.00000000 0.677968 0.326790 -0.658458 0.000000
161.00000000 259.43798828 455.00000000 -0.610551 -0.307692 -0.729762 0.000000
119.00000000 155.75000000 366.25000000 -0.805527 0.072970 0.588049 0.000000
223.12500000 189.00000000 463.75000000 -0.171714 -0.621512 -0.764354 0.000000
118.12500000 213.50000000 351.25000000 -0.124660 -0.032569 0.991665 0.000000
242.37500000 116.37500000 453.75000000 -0.328916 -0.058503 0.942545 0.000000
203.00000000 191.18800354 472.50000000 -0.641433 -0.377605 -0.667816 0.000000
162.75000000 241.06199646 380.00000000 -0.656855 -0.206529 0.725181 0.000000
150.50000000 307.56201172 387.50000000 -0.500913 -0.732357 0.461236 0.000000
155.75000000 245.00000000 376.25000000 -0.621140 -0.285820 0.729720 0.000000
98.00000000 164.06199646 462.50000000 0.712710 0.371920 -0.594744 0.000000
162.31199646 282.62500000 387.50000000 -0.518077 0.139426 0.843894 0.000000
167.56199646 195.12500000 370.00000000 -0.581356 -0.214346 0.784908 0.000000
142.62500000 289.62500000 368.75000000 -0.695219 0.333770 0.636606 0.000000
87.06250000 212.62500000 452.50000000 0.300137 -0.900412 0.314922 0.000000
130.37500000 236.25000000 358.75000000 -0.651845 -0.326735 0.684356 0.000000
218.75000000 200.37500000 453.75000000 0.416780 -0.455701 -0.786531 0.000000
104.12500000 297.93798828 417.50000000 0.506305 -0.843841 -0.177729 0.000000
185.50000000 250.68800354 405.00000000 -0.781989 -0.228534 0.579884 0.000000
167.12500000 189.00000000 396.25000000 -0.463164 0.781690 -0.417660 0.000000
98.87500000 229.25000000 341.25000000 -0.568936 0.207025 0.795897 0.000000
141.75000000 119.87500000 471.25000000 0.418918 0.577876 -0.700405 0.000000
175.00000000 204.31199646 377.50000000 -0.819933 -0.001360 0.572458 0.000000
91.00000000 147.00000000 368.75000000 0.666296 0.227324 -0.710193 0.000000
215.25000000 122.50000000 486.25000000 -0.000978 -0.000978 -0.999999 0.000000
87.50000000 190.75000000 451.25000000 0.834985 0.257749 -0.486174 0.000000
222.25000000 188.56199646 440.00000000 0.800612 -0.574450 0.170375 0.000000
211.75000000 178.93800354 435.00000000 0.735582 -0.677400 -0.006926 0.000000
175.87500000 164.50000000 411.25000000 -0.830827 -0.093594 0.548605 0.000000
119.87500000 174.12500000 483.75000000 0.266915 -0.289999 -0.919052 0.000000
174.56199646 193.37500000 400.00000000 -0.410173 0.786299 -0.462052 0.000000
218.75000000 210.87500000 426.25000000 0.871189 0.421251 0.252147 0.000000
247.62500000 125.12500000 458.75000000 -0.742401 -0.038181 0.668868 0.000000
86.62500000 173.25000000 426.25000000 0.628796 -0.064455 0.774894 0.000000
179.37500000 157.50000000 486.25000000 -0.505514 0.190505 -0.841524 0.000000
257.25000000 129.50000000 466.25000000 -0.450765 0.108805 0.885987 0.000000
115.50000000 269.50000000 343.75000000 -0.722532 0.098594 0.684271 0.000000
93.62500000 162.31199646 437.50000000 0.943117 0.313483 0.110720 0.000000
252.00000000 100.62500000 461.25000000 -0.588424 -0.368790 0.719549 0.000000
83.12500000 194.25000000 358.75000000 0.965696 -0.001197 -0.259673 0.000000
141.75000000 196.87500000 358.75000000 -0.139129 0.114933 0.983582 0.000000
165.37500000 299.25000000 396.25000000 -0.684610 -0.655478 0.318837 0.000000
115.50000000 223.12500000 471.25000000 0.489896 -0.523336 -0.697224 0.000000
220.50000000 185.50000000 468.75000000 -0.182549 -0.744002 -0.642757 0.000000
163.62500000 160.12500000 403.75000000 -0.215698 0.029793 0.976005 0.000000
205.62500000 133.87500000 478.75000000 0.354496 -0.376169 -0.856055 0.000000
190.31199646 262.50000000 435.00000000 -0.918156 -0.393496 0.046372 0.000000
99.75000000 269.50000000 351.25000000 0.863863 -0.374187 0.337230 0.000000
168.00000000 181.12500000 373.75000000 -0.596368 0.636685 0.488853 0.000000
102.81199646 291.37500000 427.50000000 0.686203 -0.686203 -0.241354 0.000000
177.62500000 122.50000000 476.25000000 0.199168 -0.649999 -0.733371 0.000000
86.18750000 192.50000000 385.00000000 0.967613 0.252369 0.005980 0.000000
178.50000000 247.62500000 396.25000000 -0.557471 -0.279525 0.781723 0.000000
199.50000000 89.25000000 418.75000000 0.000978 0.000978 0.999999 0.000000
175.87500000 124.25000000 473.75000000 0.355166 -0.506233 -0.785866 0.000000
101.50000000 207.37500000 343.75000000 -0.357330 0.095738 0.929058 0.000000
97.12500000 269.06201172 357.50000000 0.796356 -0.538758 0.274876 0.000000
146.12500000 160.12500000 393.75000000 -0.602931 0.633161 0.485368 0.000000
231.87500000 173.25000000 468.75000000 -0.212406 -0.429268 -0.877846 0.000000
114.62500000 253.75000000 346.25000000 -0.272313 0.136821 0.952431 0.000000
154.87500000 252.00000000 378.75000000 -0.472541 -0.330305 0.817070 0.000000
139.12500000 276.50000000 368.75000000 -0.709863 0.004151 0.704328 0.000000
167.56199646 154.00000000 402.50000000 0.052803 -0.318104 0.946584 0.000000
168.87500000 204.75000000 371.25000000 0.000978 0.000978 0.999999 0.000000
216.12500000 196.87500000 453.75000000 0.425264 -0.415635 -0.803989 0.000000
249.37500000 97.12500000 476.25000000 -0.077012 0.917391 -0.390465 0.000000
91.43750000 206.50000000 457.50000000 0.813021 -0.150670 -0.562402 0.000000
112.87500000 238.87500000 463.75000000 0.354374 -0.369849 -0.858854 0.000000
84.43750000 200.37500000 447.50000000 0.481787 -0.240129 0.842745 0.000000
161.87500000 295.75000000 388.75000000 -0.445127 -0.568495 0.691864 0.000000
217.87500000 181.56199646 472.50000000 -0.561999 -0.206730 -0.800887 0.000000
238.43800354 175.00000000 467.50000000 -0.197863 -0.456722 -0.867326 0.000000
266.87500000 109.37500000 473.75000000 -0.710256 0.216979 0.669669 0.000000
134.75000000 238.43800354 467.50000000 0.125226 -0.313738 -0.941215 0.000000
166.25000000 157.50000000 403.75000000 -0.444867 -0.444867 0.777295 0.000000
98.87500000 270.81201172 445.00000000 0.537199 -0.409060 -0.737622 0.000000
247.62500000 96.68750000 455.00000000 -0.831207 -0.274998 0.483188 0.000000
225.31199646 120.75000000 487.50000000 0.250027 -0.101293 -0.962926 0.000000
81.37500000 198.62500000 441.25000000 0.842338 0.145535 -0.518927 0.000000
262.50000000 109.37500000 486.25000000 -0.036569 0.103057 -0.994003 0.000000
196.87500000 205.62500000 463.75000000 -0.815363 -0.435605 -0.381354 0.000000
161.00000000 132.56199646 480.00000000 0.242890 -0.590770 0.769412 0.000000
253.75000000 138.25000000 461.25000000 -0.913092 0.135635 0.384533 0.000000
237.12500000 171.50000000 441.25000000 -0.294179 -0.564506 0.771227 0.000000
227.50000000 182.00000000 446.25000000 -0.223879 -0.668505 0.709210 0.000000
161.00000000 184.62500000 406.25000000 -0.954983 -0.161162 -0.249068 0.000000
110.68800354 241.50000000 462.50000000 0.157552 -0.493269 -0.855490 0.000000
250.25000000 148.75000000 476.25000000 -0.696503 -0.651463 -0.300799 0.000000
231.87500000 119.87500000 491.25000000 -0.446689 -0.894688 0.001310 0.000000
258.12500000 162.31199646 467.50000000 -0.354885 0.354885 -0.864936 0.000000
256.37500000 177.62500000 463.75000000 -0.043777 -0.608648 -0.792231 0.000000
145.25000000 136.93800354 482.50000000 0.273673 0.897942 -0.344679 0.000000
127.31199646 217.00000000 355.00000000 -0.394620 -0.080009 0.915355 0.000000
239.75000000 90.56250000 462.50000000 0.141804 0.855209 -0.498507 0.000000
179.81199646 225.75000000 465.00000000 -0.283467 -0.466249 -0.838009 0.000000
92.75000000 164.93800354 422.50000000 0.921549 -0.182052 0.342935 0.000000
191.62500000 142.62500000 413.75000000 0.323693 -0.088520 0.942012 0.000000
224.87500000 119.00000000 436.25000000 -0.753421 0.120369 0.646427 0.000000
116.81199646 136.50000000 417.50000000 0.776628 0.629885 0.009691 0.000000
159.25000000 171.50000000 383.75000000 -0.563777 0.825872 0.009556 0.000000
210.87500000 83.12500000 436.25000000 0.120104 0.891596 -0.436614 0.000000
213.50000000 196.00000000 413.75000000 0.430881 -0.009168 -0.902362 0.000000
249.37500000 142.62500000 478.75000000 -0.284848 -0.474747 -0.832753 0.000000
244.12500000 121.62500000 456.25000000 -0.630440 0.155720 0.760458 0.000000
174.12500000 178.50000000 411.25000000 0.000978 0.000978 0.999999 0.000000
133.87500000 300.12500000 438.75000000 -0.268840 -0.698348 -0.663351 0.000000
102.37500000 239.75000000 341.25000000 -0.611529 0.181476 0.770129 0.000000
111.56199646 287.00000000 362.50000000 0.517548 -0.799272 0.305464 0.000000
110.25000000 262.06201172 455.00000000 0.126852 -0.255011 -0.958581 0.000000
184.62500000 264.25000000 406.25000000 -0.840382 -0.213502 0.498172 0.000000
107.18800354 157.50000000 350.00000000 -0.447781 0.503960 0.738591 0.000000
187.25000000 210.00000000 471.25000000 0.000978 -0.999999 0.000978 0.000000
116.37500000 270.37500000 346.25000000 -0.779699 0.091815 0.619387 0.000000
152.25000000 250.25000000 376.25000000 -0.629744 -0.388424 0.672718 0.000000
127.75000000 304.50000000 391.25000000 0.256678 -0.935541 0.242652 0.000000
136.50000000 181.12500000 356.25000000 -0.146538 -0.364251 0.919700 0.000000
217.87500000 151.37500000 481.25000000 0.151582 -0.446083 -0.882062 0.000000
245.43800354 161.00000000 447.50000000 -0.349919 0.034863 0.936131 0.000000
147.87500000 256.81201172 460.00000000 -0.292210 -0.598792 -0.745695 0.000000
192.50000000 204.75000000 421.25000000 -0.817204 -0.544297 0.189519 0.000000
133.87500000 154.87500000 486.25000000 0.567041 0.305084 -0.765106 0.000000
149.62500000 251.12500000 373.75000000 -0.579787 -0.379408 0.721039 0.000000
75.68750000 231.00000000 415.00000000 0.973030 0.088457 0.213045 0.000000
149.62500000 193.37500000 488.75000000 -0.122496 -0.164565 -0.978730 0.000000
199.93800354 236.25000000 440.00000000 -0.876502 -0.478715 0.050752 0.000000
181.12500000 197.75000000 381.25000000 -0.801998 -0.271518 0.532050 0.000000
161.87500000 202.12500000 366.25000000 -0.286249 -0.100644 0.952855 0.000000
182.00000000 128.62500000 406.25000000 -0.476193 0.260442 0.839887 0.000000
154.00000000 295.75000000 378.75000000 -0.718125 -0.120431 0.685415 0.000000
122.06199646 301.00000000 385.00000000 0.347980 -0.911101 0.220917 0.000000
102.81199646 272.12500000 447.50000000 0.557909 -0.290875 -0.777258 0.000000
218.75000000 166.25000000 426.25000000 -0.026734 -0.679614 0.733083 0.000000
169.31199646 298.37500000 405.00000000 -0.748484 -0.598468 0.285669 0.000000
87.93750000 243.25000000 342.50000000 0.970072 -0.242814 -0.001184 0.000000
87.93750000 243.25000000 345.00000000 0.970072 -0.242814 -0.001184 0.000000
151.37500000 232.31199646 370.00000000 -0.746385 -0.029518 0.664859 0.000000
210.00000000 103.25000000 423.75000000 -0.203570 -0.159485 0.965983 0.000000
227.50000000 144.37500000 431.25000000 -0.725049 0.196335 0.660119 0.000000
151.37500000 168.87500000 493.75000000 0.520466 -0.313553 -0.794229 0.000000
115.50000000 203.00000000 478.75000000 0.177268 0.355953 -0.917537 0.000000
232.75000000 148.75000000 481.25000000 -0.264399 -0.412462 -0.871761 0.000000
80.93750000 203.00000000 350.00000000 0.944109 0.001244 -0.329630 0.000000
84.43750000 236.25000000 350.00000000 0.986561 -0.162720 0.014793 0.000000
102.37500000 146.56199646 452.50000000 0.834350 0.478320 -0.273989 0.000000
80.06250000 229.25000000 392.50000000 0.944109 -0.001244 0.329630 0.000000
112.00000000 295.31201172 385.00000000 0.593980 -0.742072 0.310672 0.000000
99.31250000 154.87500000 390.00000000 0.902661 0.245113 -0.353726 0.000000
98.87500000 277.81201172 372.50000000 0.750983 -0.634741 0.182010 0.000000
117.25000000 228.37500000 468.75000000 0.327364 -0.379620 -0.865287 0.000000
148.75000000 182.00000000 491.25000000 0.182151 -0.089242 -0.979212 0.000000
151.37500000 232.75000000 371.25000000 -0.608692 0.073388 0.790005 0.000000
189.87500000 127.75000000 411.25000000 -0.872597 0.315231 0.373100 0.000000
158.37500000 226.62500000 471.25000000 -0.231798 -0.271133 -0.934215 0.000000
88.37500000 183.75000000 453.75000000 0.750339 0.250113 -0.611911 0.000000
251.12500000 101.50000000 461.25000000 -0.676482 -0.319585 0.663504 0.000000
130.81199646 304.50000000 385.00000000 0.405895 -0.887065 0.219921 0.000000
75.68750000 217.87500000 422.50000000 0.774790 0.519222 -0.360706 0.000000
120.75000000 296.18798828 372.50000000 0.463643 -0.818100 0.340216 0.000000
122.50000000 220.06199646 475.00000000 0.117321 -0.442428 -0.889097 0.000000
120.75000000 131.25000000 466.25000000 0.660886 0.431157 -0.614274 0.000000
148.75000000 176.75000000 363.75000000 -0.343136 0.324996 0.881269 0.000000
85.31250000 175.00000000 427.50000000 0.337412 0.437851 -0.833330 0.000000
203.87500000 163.62500000 476.25000000 -0.000978 -0.000978 -0.999999 0.000000
178.50000000 186.81199646 385.00000000 -0.738078 0.672152 -0.058760 0.000000
236.68800354 158.37500000 475.00000000 -0.371112 -0.441193 -0.817083 0.000000
124.25000000 148.31199646 477.50000000 0.651463 0.300799 -0.696503 0.000000
194.25000000 106.31199646 480.00000000 -0.001381 0.688930 -0.724826 0.000000
202.12500000 92.75000000 458.75000000 0.275381 0.918418 -0.284032 0.000000
262.50000000 100.62500000 481.25000000 0.250113 0.750339 -0.611911 0.000000
115.50000000 304.50000000 426.25000000 0.492508 -0.630343 -0.600086 0.000000
100.62500000 261.62500000 451.25000000 0.608728 -0.347611 -0.713174 0.000000
145.25000000 299.25000000 371.25000000 -0.424641 -0.752549 0.503339 0.000000
128.62500000 266.87500000 456.25000000 0.160813 -0.277030 -0.947309 0.000000
260.75000000 111.12500000 486.25000000 -0.036569 0.103057 -0.994003 0.000000
105.87500000 247.62500000 341.25000000 -0.622978 0.182148 0.760737 0.000000
245.00000000 126.00000000 456.25000000 -0.635886 -0.070654 0.768542 0.000000
131.25000000 305.81201172 392.50000000 0.261299 -0.930788 0.255649 0.000000
133.00000000 128.62500000 471.25000000 0.390524 0.371704 -0.842215 0.000000
84.87500000 189.00000000 421.25000000 0.549724 0.301153 0.779173 0.000000
266.87500000 130.37500000 478.75000000 -0.076980 -0.488474 -0.869176 0.000000
119.87500000 297.93798828 377.50000000 0.352994 -0.872551 0.337712 0.000000
224.87500000 177.62500000 441.25000000 0.121588 -0.824748 0.552274 0.000000
140.87500000 214.37500000 358.75000000 0.000978 0.000978 0.999999 0.000000
87.50000000 259.00000000 376.25000000 0.942749 -0.258117 0.211187 0.000000
164.50000000 177.18800354 390.00000000 -0.662761 0.662761 -0.348563 0.000000
105.87500000 150.06199646 355.00000000 -0.155686 0.648440 0.745176 0.000000
236.25000000 98.43750000 480.00000000 -0.001371 0.615457 -0.788169 0.000000
133.87500000 301.87500000 436.25000000 -0.258757 -0.706421 -0.658797 0.000000
266.87500000 99.75000000 473.75000000 -0.565692 0.252289 0.785075 0.000000
118.12500000 181.12500000 483.75000000 0.966676 -0.119074 -0.226625 0.000000
170.62500000 190.75000000 398.75000000 -0.264324 0.742324 -0.615701 0.000000
235.37500000 155.75000000 476.25000000 -0.445386 -0.353456 -0.822618 0.000000
198.62500000 125.12500000 416.25000000 -0.156867 0.380155 0.911524 0.000000
93.62500000 165.37500000 421.25000000 0.313483 -0.943117 -0.110720 0.000000
79.62500000 245.87500000 433.75000000 0.753685 0.001378 -0.657235 0.000000
171.50000000 285.68798828 397.50000000 0.306224 -0.407785 0.860197 0.000000
130.37500000 125.12500000 396.25000000 0.000978 0.000978 0.999999 0.000000
240.62500000 122.50000000 453.75000000 -0.482654 -0.012033 0.875729 0.000000
99.75000000 222.25000000 461.25000000 0.631998 -0.132973 -0.763477 0.000000
191.62500000 257.25000000 418.75000000 -0.853514 -0.427529 0.297881 0.000000
212.62500000 90.12500000 421.25000000 -0.547173 0.026187 0.836610 0.000000
84.87500000 250.25000000 378.75000000 0.931976 -0.156020 0.327227 0.000000
118.12500000 222.25000000 473.75000000 0.094064 -0.580303 -0.808950 0.000000
81.81250000 223.12500000 352.50000000 0.999999 -0.000978 -0.000978 0.000000
133.00000000 190.75000000 356.25000000 -0.084057 -0.068366 0.994113 0.000000
135.62500000 310.18798828 417.50000000 -0.323368 -0.944131 -0.063635 0.000000
139.12500000 105.87500000 421.25000000 0.465163 0.877694 -0.115224 0.000000
105.87500000 252.00000000 341.25000000 -0.549613 0.099536 0.829469 0.000000
204.75000000 179.37500000 476.25000000 -0.444895 -0.183537 -0.876575 0.000000
