107.81199646 247.50000000 63.75000000 0.970640 0.045288 0.236234 0.000000
143.90600586 275.62500000 97.50000000 -0.936483 -0.001257 0.350710 0.000000
154.21899414 225.93800354 222.50000000 -0.225124 -0.298750 -0.927398 0.000000
198.75000000 161.25000000 188.75000000 0.264960 0.299708 -0.916500 0.000000
131.25000000 318.28100586 165.00000000 0.605972 -0.769414 -0.201991 0.000000
275.62500000 162.18800354 173.75000000 -0.667759 -0.286640 -0.686975 0.000000
202.03100586 257.81201172 142.50000000 -0.830059 -0.227769 0.509042 0.000000
112.50000000 206.25000000 126.25000000 0.823737 0.453767 0.339930 0.000000
143.43800354 211.87500000 96.25000000 -0.264793 0.323311 0.908490 0.000000
244.68800354 194.06199646 151.25000000 -0.565032 -0.291270 0.771946 0.000000
165.93800354 311.71899414 197.50000000 -0.246884 -0.621141 -0.743796 0.000000
249.37500000 200.15600586 157.50000000 -0.380527 -0.503590 0.775626 0.000000
151.87500000 232.50000000 221.25000000 0.007692 -0.124166 -0.992232 0.000000
95.62500000 253.12500000 108.75000000 0.984711 0.033715 0.170900 0.000000
269.06201172 163.12500000 178.75000000 -0.386441 -0.480221 -0.787433 0.000000
268.59399414 213.75000000 182.50000000 -0.511588 -0.768194 -0.384909 0.000000
97.50000000 284.53100586 172.50000000 0.903340 -0.422288 -0.075164 0.000000
220.31199646 144.37500000 186.25000000 -0.039245 -0.047730 -0.998089 0.000000
281.71899414 204.37500000 182.50000000 -0.501672 0.326485 -0.801082 0.000000
129.37500000 221.25000000 221.25000000 -0.000978 -0.000978 -0.999999 0.000000
184.21899414 210.93800354 215.00000000 -0.482854 0.157038 -0.861505 0.000000
136.87500000 137.34399414 155.00000000 0.505965 0.777537 -0.373412 0.000000
138.75000000 169.68800354 206.25000000 0.107730 0.754108 -0.647854 0.000000
193.12500000 170.62500000 136.25000000 0.000978 0.000978 0.999999 0.000000
107.34400177 250.31199646 65.00000000 0.948067 0.071332 0.309970 0.000000
102.18800354 277.96899414 107.50000000 0.833391 -0.465764 0.297528 0.000000
206.25000000 150.93800354 141.25000000 0.060754 0.563742 0.823713 0.000000
120.93800354 283.12500000 206.25000000 0.298618 -0.402752 -0.865227 0.000000
120.00000000 150.46899414 157.50000000 0.563220 0.817766 -0.118496 0.000000
208.12500000 165.00000000 188.75000000 -0.000978 -0.000978 -0.999999 0.000000
167.81199646 206.71899414 125.00000000 -0.611732 0.730546 0.303458 0.000000
107.34400177 251.25000000 65.00000000 0.931279 -0.078606 0.355725 0.000000
187.96899414 315.00000000 147.50000000 -0.597588 -0.721339 0.350085 0.000000
228.75000000 140.62500000 151.25000000 0.117425 0.377143 0.918681 0.000000
153.28100586 154.68800354 117.50000000 0.000978 0.000978 0.999999 0.000000
120.00000000 275.62500000 208.75000000 0.281366 -0.346869 -0.894715 0.000000
129.37500000 251.25000000 216.25000000 0.332161 -0.239330 -0.912354 0.000000
271.87500000 132.18800354 173.75000000 -0.600593 -0.546455 0.583674 0.000000
245.62500000 154.68800354 183.75000000 -0.343115 -0.154194 -0.926551 0.000000
143.43800354 326.25000000 156.25000000 0.314876 -0.941947 0.116571 0.000000
163.12500000 202.50000000 221.25000000 -0.000978 -0.000978 -0.999999 0.000000
187.50000000 310.78100586 185.00000000 -0.504186 -0.710520 -0.490874 0.000000
127.50000000 144.84399414 155.00000000 0.595903 0.788033 -0.154605 0.000000
139.68800354 147.65600586 117.50000000 0.767460 0.459822 0.446731 0.000000
242.81199646 160.31199646 148.75000000 -0.525112 0.095865 0.845616 0.000000
269.06201172 161.25000000 166.25000000 -0.451923 0.168191 0.876058 0.000000
106.87500000 180.00000000 141.25000000 0.744666 0.250321 0.618718 0.000000
103.12500000 291.56201172 138.75000000 0.829590 -0.558088 0.017826 0.000000
210.93800354 204.37500000 158.75000000 0.132684 0.776720 0.615711 0.000000
115.31199646 202.50000000 123.75000000 0.821007 0.185974 0.539778 0.000000
132.18800354 316.87500000 191.25000000 0.325540 -0.771354 -0.546843 0.000000
107.34400177 284.06201172 105.00000000 0.798169 -0.523156 0.298721 0.000000
218.43800354 203.43800354 151.25000000 0.394107 0.882620 0.256245 0.000000
150.93800354 319.21899414 195.00000000 0.300874 -0.690240 -0.658061 0.000000
98.90619659 254.06199646 92.50000000 0.973191 -0.077905 0.216402 0.000000
144.37500000 315.93798828 196.25000000 -0.239492 -0.768567 -0.593252 0.000000
108.75000000 255.93800354 63.75000000 0.957524 -0.288352 -0.001217 0.000000
149.06199646 131.71899414 120.00000000 0.701101 0.701101 0.130055 0.000000
175.31199646 167.81199646 133.75000000 -0.234487 -0.001178 0.972119 0.000000
199.68800354 172.03100586 145.00000000 -0.948354 -0.175018 -0.264562 0.000000
138.75000000 210.00000000 96.25000000 -0.256567 0.810129 0.527128 0.000000
201.56199646 264.37500000 196.25000000 -0.904380 -0.241071 -0.352109 0.000000
146.25000000 139.21899414 167.50000000 0.552716 0.552716 -0.623707 0.000000
162.18800354 186.09399414 135.00000000 -0.146697 -0.190068 0.970749 0.000000
189.37500000 264.37500000 128.75000000 -0.589070 -0.471591 0.656200 0.000000
194.06199646 300.00000000 188.75000000 -0.487309 -0.460879 -0.741701 0.000000
189.37500000 191.71899414 205.00000000 -0.294465 0.318141 -0.901153 0.000000
150.93800354 278.43798828 213.75000000 0.023055 -0.503147 -0.863893 0.000000
176.71899414 177.18800354 200.00000000 -0.632391 0.622326 -0.461293 0.000000
156.56199646 155.62500000 188.75000000 -0.343005 0.720148 -0.603104 0.000000
250.31199646 213.75000000 178.75000000 0.000000 0.000000 0.000000 0.000000
203.43800354 243.28100586 200.00000000 -0.476351 -0.364080 -0.800334 0.000000
203.43800354 197.81199646 158.75000000 -0.424183 0.427409 0.798367 0.000000
177.18800354 288.75000000 126.25000000 -0.635036 0.064507 0.769784 0.000000
169.68800354 180.93800354 213.75000000 -0.172504 0.470330 -0.865466 0.000000
198.75000000 157.50000000 151.25000000 -0.755246 0.205415 0.622421 0.000000
103.12500000 241.87500000 206.25000000 0.662386 -0.067826 -0.746086 0.000000
149.53100586 160.31199646 117.50000000 -0.832825 -0.514258 0.204793 0.000000
239.06199646 210.93800354 186.25000000 0.156796 -0.337182 -0.928290 0.000000
165.00000000 259.68798828 216.25000000 -0.371222 -0.110956 -0.921891 0.000000
257.81201172 137.81199646 166.25000000 -0.669148 -0.179154 0.721210 0.000000
186.56199646 145.31199646 141.25000000 -0.105087 0.438562 0.892536 0.000000
178.59399414 220.31199646 132.50000000 -0.933603 0.234454 -0.270955 0.000000
209.06199646 256.87500000 191.25000000 -0.648741 -0.216247 -0.729639 0.000000
131.25000000 149.06199646 173.75000000 0.369123 0.810153 -0.455412 0.000000
158.43800354 315.46899414 197.50000000 -0.189056 -0.653241 -0.733167 0.000000
186.09399414 280.31201172 202.50000000 -0.214630 -0.350034 -0.911817 0.000000
218.43800354 220.78100586 175.00000000 -0.194772 -0.973862 0.116863 0.000000
111.09400177 213.75000000 115.00000000 0.793899 0.607590 0.023636 0.000000
169.68800354 153.75000000 133.75000000 -0.581253 0.170602 0.795638 0.000000
172.50000000 187.03100586 215.00000000 -0.202374 0.324082 -0.924130 0.000000
175.78100586 212.81199646 127.50000000 -0.726930 0.505042 0.465301 0.000000
214.68800354 150.00000000 188.75000000 -0.273675 -0.128244 -0.953234 0.000000
126.09400177 149.06199646 137.50000000 0.795130 0.567510 0.213778 0.000000
200.62500000 146.71899414 185.00000000 0.241796 0.154591 -0.957933 0.000000
197.81199646 201.56199646 156.25000000 0.000978 0.000978 0.999999 0.000000
105.00000000 231.56199646 66.25000000 0.792108 0.286171 0.539139 0.000000
143.43800354 182.81199646 106.25000000 -0.884348 0.189189 0.426775 0.000000
196.87500000 227.81199646 123.75000000 -0.715262 0.223813 0.662048 0.000000
252.18800354 205.78100586 165.00000000 0.088750 -0.766738 0.635796 0.000000
179.06199646 204.37500000 216.25000000 -0.000978 -0.000978 -0.999999 0.000000
135.00000000 270.00000000 88.75000000 -0.853382 -0.039981 0.519750 0.000000
253.12500000 131.71899414 160.00000000 -0.984683 -0.007969 -0.174169 0.000000
180.46899414 225.00000000 132.50000000 -0.802850 0.426363 -0.416710 0.000000
95.62500000 255.00000000 108.75000000 0.992394 0.001089 0.123096 0.000000
122.81199646 185.62500000 118.75000000 0.745004 0.229593 0.626303 0.000000
187.50000000 244.68800354 208.75000000 -0.641614 0.015310 -0.766875 0.000000
120.00000000 292.50000000 203.75000000 0.506218 -0.549945 -0.664307 0.000000
190.31199646 158.90600586 137.50000000 0.344796 0.432962 0.832862 0.000000
122.34400177 223.12500000 220.00000000 0.777618 -0.221955 -0.588258 0.000000
191.25000000 160.31199646 136.25000000 0.344796 0.432962 0.832862 0.000000
90.00000000 225.93800354 151.25000000 0.936483 0.001257 0.350710 0.000000
100.31199646 197.81199646 141.25000000 0.791752 0.230863 0.565537 0.000000
187.03100586 305.62500000 137.50000000 -0.715258 -0.332490 0.614700 0.000000
230.62500000 168.75000000 188.75000000 -0.254679 0.254679 -0.932886 0.000000
149.53100586 197.81199646 102.50000000 -0.570981 0.213925 0.792601 0.000000
205.78100586 264.37500000 150.00000000 -0.779604 -0.148711 0.608361 0.000000
170.62500000 160.31199646 133.75000000 -0.337424 0.172212 0.925466 0.000000
183.28100586 157.50000000 185.00000000 0.187917 0.374400 -0.908027 0.000000
111.56199646 284.53100586 97.50000000 0.941644 -0.315672 0.116866 0.000000
250.78100586 207.18800354 150.00000000 -0.679733 -0.417147 0.603284 0.000000
132.65600586 169.68800354 205.00000000 0.213778 0.567510 -0.795130 0.000000
148.12500000 272.81201172 213.75000000 -0.146916 -0.322665 -0.935042 0.000000
116.25000000 262.50000000 211.25000000 0.405482 -0.112866 -0.907108 0.000000
99.37500000 228.75000000 123.75000000 0.867190 0.461019 0.188262 0.000000
202.50000000 216.56199646 146.25000000 0.479950 0.680626 0.553531 0.000000
253.12500000 154.21899414 157.50000000 -0.449871 0.379428 0.808487 0.000000
105.00000000 240.46899414 67.50000000 0.769551 -0.232582 0.594724 0.000000
187.50000000 219.37500000 213.75000000 -0.596968 -0.079116 -0.798355 0.000000
188.90600586 243.75000000 207.50000000 -0.718916 -0.086037 -0.689751 0.000000
255.93800354 136.87500000 183.75000000 -0.082902 0.122602 -0.988987 0.000000
246.56199646 210.93800354 186.25000000 -0.357781 -0.303435 -0.883131 0.000000
234.37500000 163.12500000 186.25000000 -0.120537 0.063138 -0.990699 0.000000
119.06199646 307.03100586 130.00000000 0.457255 -0.758814 0.463810 0.000000
185.15600586 264.37500000 125.00000000 -0.621007 -0.460315 0.634398 0.000000
86.71880341 221.25000000 182.50000000 0.980733 0.150976 -0.123972 0.000000
175.31199646 224.53100586 110.00000000 0.263611 0.249514 0.931800 0.000000
142.50000000 195.00000000 221.25000000 -0.181538 0.268894 -0.945907 0.000000
250.78100586 213.75000000 162.50000000 -0.946254 -0.317144 0.063429 0.000000
283.12500000 193.12500000 178.75000000 -0.975710 0.219037 -0.003514 0.000000
208.59399414 239.06199646 187.50000000 -0.499351 0.721653 -0.479443 0.000000
138.75000000 181.87500000 216.25000000 -0.009473 0.529123 -0.848492 0.000000
126.56199646 207.18800354 221.25000000 -0.000978 -0.000978 -0.999999 0.000000
163.12500000 322.96899414 187.50000000 -0.552716 -0.552716 -0.623707 0.000000
180.00000000 230.62500000 141.25000000 -0.304862 0.936657 0.172433 0.000000
189.37500000 221.71899414 125.00000000 -0.196043 0.977778 -0.074277 0.000000
122.81199646 226.87500000 218.75000000 0.502994 -0.214266 -0.837310 0.000000
198.75000000 168.75000000 138.75000000 -0.474624 -0.134164 0.869903 0.000000
114.84400177 243.75000000 67.50000000 -0.719980 0.149430 0.677717 0.000000
99.37500000 205.31199646 138.75000000 0.675051 0.391166 0.625536 0.000000
99.37500000 250.31199646 88.75000000 0.834210 -0.334627 0.438314 0.000000
270.00000000 189.37500000 166.25000000 0.000978 0.000978 0.999999 0.000000
170.62500000 199.68800354 218.75000000 -0.383697 0.132550 -0.913897 0.000000
225.00000000 143.90600586 187.50000000 0.305449 -0.378392 -0.873797 0.000000
201.09399414 223.12500000 132.50000000 0.426823 0.426823 0.797273 0.000000
202.50000000 252.18800354 196.25000000 -0.503176 -0.020344 -0.863944 0.000000
264.37500000 173.43800354 178.75000000 -0.815968 -0.160199 -0.555457 0.000000
135.00000000 168.75000000 203.75000000 0.168175 0.783302 -0.598461 0.000000
98.43750000 288.28100586 160.00000000 0.746297 -0.658324 0.098236 0.000000
238.12500000 137.81199646 153.75000000 -0.195233 0.607222 0.770172 0.000000
99.84380341 175.31199646 180.00000000 0.805815 0.572592 -0.150997 0.000000
150.93800354 193.12500000 221.25000000 0.000978 0.000978 -0.999999 0.000000
121.40599823 313.12500000 157.50000000 0.793183 -0.594517 -0.131950 0.000000
234.37500000 214.68800354 186.25000000 0.330883 0.168932 -0.928428 0.000000
195.93800354 222.18800354 208.75000000 -0.553762 -0.001354 -0.832674 0.000000
257.81201172 162.18800354 158.75000000 -0.554726 0.182893 0.811683 0.000000
179.06199646 230.62500000 108.75000000 -0.274222 0.010969 0.961604 0.000000
106.87500000 247.96899414 67.50000000 0.891902 -0.061652 0.448006 0.000000
123.75000000 308.43798828 128.75000000 0.364350 -0.886135 0.286382 0.000000
242.81199646 159.37500000 186.25000000 -0.444068 -0.044542 -0.894885 0.000000
97.96880341 240.00000000 102.50000000 0.974656 0.174809 0.139596 0.000000
243.75000000 127.50000000 178.75000000 -0.391857 0.847723 -0.357511 0.000000
112.50000000 211.40600586 100.00000000 0.000000 0.000000 0.000000 0.000000
181.87500000 306.56201172 131.25000000 -0.763045 -0.079635 0.641421 0.000000
159.37500000 179.06199646 133.75000000 0.000978 0.000978 0.999999 0.000000
205.31199646 298.12500000 168.75000000 -0.949775 -0.263451 -0.168879 0.000000
249.37500000 195.00000000 186.25000000 -0.041003 0.100846 -0.994057 0.000000
189.37500000 262.96899414 205.00000000 -0.457502 -0.133378 -0.879149 0.000000
221.25000000 193.12500000 166.25000000 0.371694 -0.371694 0.850698 0.000000
176.25000000 130.31199646 138.75000000 -0.636502 -0.552085 0.538579 0.000000
151.87500000 317.81201172 118.75000000 -0.001257 -0.936483 0.350710 0.000000
245.62500000 169.68800354 186.25000000 -0.782554 0.116425 -0.611600 0.000000
229.68800354 166.40600586 187.50000000 -0.242152 0.231082 -0.942318 0.000000
238.12500000 190.78100586 150.00000000 0.070865 -0.178964 0.981300 0.000000
279.37500000 208.12500000 176.25000000 -0.209768 -0.644843 0.734966 0.000000
232.50000000 192.18800354 188.75000000 -0.259470 0.288141 -0.921765 0.000000
111.09400177 209.06199646 125.00000000 0.743183 0.408505 0.529908 0.000000
106.87500000 192.18800354 136.25000000 0.721155 0.417511 0.552830 0.000000
95.15619659 240.00000000 127.50000000 0.933994 0.354003 0.048333 0.000000
113.43800354 252.18800354 66.25000000 -0.443339 -0.025296 0.895997 0.000000
209.06199646 223.59399414 152.50000000 -0.776877 -0.572021 0.263161 0.000000
95.62500000 250.31199646 108.75000000 0.984711 0.033715 0.170900 0.000000
168.75000000 206.25000000 221.25000000 -0.146950 0.139540 -0.979252 0.000000
146.25000000 313.12500000 108.75000000 0.164622 -0.846839 0.505730 0.000000
104.06199646 192.18800354 203.75000000 0.783302 0.168175 -0.598461 0.000000
149.06199646 187.96899414 220.00000000 0.001381 0.664449 -0.747332 0.000000
120.93800354 150.93800354 146.25000000 0.788890 0.538096 0.296826 0.000000
105.93800354 241.87500000 208.75000000 0.619647 -0.236878 -0.748282 0.000000
142.50000000 255.00000000 96.25000000 -0.559056 -0.131282 0.818670 0.000000
157.50000000 180.00000000 213.75000000 -0.329699 0.426578 -0.842217 0.000000
115.78099823 308.43798828 140.00000000 0.683659 -0.683659 0.255381 0.000000
209.06199646 122.34400177 172.50000000 0.815417 0.541071 0.205759 0.000000
166.87500000 232.50000000 221.25000000 -0.478472 -0.448875 -0.754703 0.000000
147.18800354 245.62500000 98.75000000 -0.446283 -0.129750 0.885436 0.000000
211.87500000 249.84399414 157.50000000 -0.772062 -0.385218 0.505497 0.000000
272.81201172 131.25000000 176.25000000 -0.973595 -0.224303 0.042436 0.000000
204.84399414 230.62500000 142.50000000 -0.936483 0.001257 0.350710 0.000000
170.15600586 201.56199646 140.00000000 -0.504532 0.359459 -0.785007 0.000000
120.93800354 311.71899414 142.50000000 0.613477 -0.732008 0.296327 0.000000
113.43800354 206.25000000 123.75000000 0.824026 0.450763 0.343212 0.000000
161.25000000 177.18800354 133.75000000 0.000978 0.000978 0.999999 0.000000
254.06199646 146.25000000 183.75000000 -0.321101 -0.385629 -0.864976 0.000000
264.37500000 160.31199646 178.75000000 -0.570019 0.128144 -0.811577 0.000000
134.06199646 239.06199646 218.75000000 0.001379 0.663079 -0.748548 0.000000
150.00000000 327.65600586 177.50000000 0.160236 -0.970389 -0.180746 0.000000
170.62500000 190.31199646 216.25000000 -0.154625 0.392945 -0.906469 0.000000
200.62500000 120.46900177 167.50000000 -0.001257 0.936483 -0.350710 0.000000
195.93800354 254.53100586 202.50000000 -0.708140 -0.117281 -0.696263 0.000000
197.81199646 309.37500000 156.25000000 -0.683659 -0.683659 0.255381 0.000000
111.56199646 212.34399414 95.00000000 0.708486 0.705724 -0.001381 0.000000
134.06199646 207.18800354 93.75000000 0.000978 0.000978 0.999999 0.000000
185.62500000 224.06199646 213.75000000 -0.000978 -0.000978 -0.999999 0.000000
146.25000000 250.78100586 97.50000000 -0.428867 0.150606 0.890725 0.000000
94.21880341 199.68800354 150.00000000 0.865099 0.288366 0.410426 0.000000
107.81199646 219.37500000 68.75000000 0.237600 0.551293 0.799764 0.000000
169.68800354 270.93798828 211.25000000 -0.377564 0.159793 -0.912092 0.000000
139.68800354 226.87500000 221.25000000 -0.000978 -0.000978 -0.999999 0.000000
204.37500000 216.09399414 205.00000000 -0.729953 -0.441945 -0.521395 0.000000
169.21899414 255.93800354 112.50000000 -0.403721 -0.439107 0.802617 0.000000
109.68800354 218.90600586 70.00000000 -0.312598 0.379692 0.870699 0.000000
240.93800354 199.21899414 150.00000000 -0.249331 0.868882 -0.427641 0.000000
231.56199646 171.56199646 146.25000000 -0.382000 0.138527 0.913721 0.000000
150.00000000 189.37500000 221.25000000 0.882993 -0.221119 -0.414042 0.000000
171.56199646 307.50000000 198.75000000 -0.461552 -0.551530 -0.694827 0.000000
229.68800354 188.43800354 188.75000000 -0.155311 0.072320 -0.985215 0.000000
188.90600586 191.25000000 205.00000000 -0.294465 0.318141 -0.901153 0.000000
135.93800354 147.18800354 173.75000000 0.267925 0.855830 -0.442460 0.000000
157.50000000 135.93800354 171.25000000 0.001354 0.553762 -0.832674 0.000000
162.18800354 186.56199646 136.25000000 0.125874 -0.145427 0.981329 0.000000
174.37500000 322.50000000 148.75000000 -0.243113 -0.934510 0.259976 0.000000
113.43800354 280.31201172 203.75000000 0.581952 -0.015134 -0.813082 0.000000
129.37500000 263.43798828 216.25000000 -0.086207 -0.271488 -0.958573 0.000000
178.12500000 315.00000000 188.75000000 -0.425383 -0.710075 -0.561108 0.000000
106.87500000 221.25000000 68.75000000 -0.580443 -0.287836 0.761732 0.000000
135.00000000 250.31199646 218.75000000 -0.000978 -0.000978 -0.999999 0.000000
241.87500000 126.56199646 151.25000000 0.999999 -0.000978 -0.000978 0.000000
144.37500000 270.93798828 98.75000000 -0.612421 -0.001370 0.790530 0.000000
180.93800354 280.31201172 206.25000000 0.000978 0.000978 -0.999999 0.000000
203.43800354 259.68798828 196.25000000 -0.698666 -0.179657 -0.692524 0.000000
172.50000000 130.31199646 173.75000000 0.302268 0.471412 -0.828495 0.000000
193.12500000 255.93800354 203.75000000 -0.558768 -0.294507 -0.775270 0.000000
236.25000000 135.93800354 186.25000000 0.616312 -0.181988 -0.766185 0.000000
178.12500000 270.93798828 208.75000000 -0.686383 0.344007 -0.640733 0.000000
183.28100586 300.93798828 132.50000000 -0.728661 -0.133164 0.671804 0.000000
161.71899414 246.56199646 105.00000000 -0.093987 -0.174548 0.980153 0.000000
270.93798828 173.43800354 166.25000000 -0.214591 -0.788893 0.575846 0.000000
191.25000000 220.31199646 148.75000000 0.453411 0.486386 0.746891 0.000000
223.12500000 153.75000000 186.25000000 -0.000978 -0.000978 -0.999999 0.000000
206.25000000 251.25000000 193.75000000 -0.604591 -0.004113 -0.796525 0.000000
247.50000000 214.68800354 153.75000000 -0.816889 -0.504503 0.279585 0.000000
185.15600586 261.56201172 207.50000000 -0.511288 0.362902 -0.779029 0.000000
118.12500000 164.06199646 136.25000000 0.001322 0.471891 0.881656 0.000000
215.62500000 247.50000000 163.75000000 -0.550650 0.454161 0.700373 0.000000
155.15600586 192.18800354 125.00000000 -0.930729 0.266931 0.249983 0.000000
109.68800354 167.81199646 186.25000000 0.439027 0.785713 -0.435787 0.000000
164.06199646 164.06199646 193.75000000 -0.936173 -0.001260 -0.351537 0.000000
173.43800354 291.56201172 203.75000000 -0.001354 0.553762 -0.832674 0.000000
213.75000000 157.50000000 188.75000000 -0.000978 -0.000978 -0.999999 0.000000
129.37500000 316.40600586 170.00000000 0.536327 -0.837017 -0.108422 0.000000
162.18800354 141.56199646 128.75000000 -0.734668 -0.162753 0.658615 0.000000
210.00000000 221.25000000 151.25000000 -0.747826 -0.590895 0.302653 0.000000
112.96900177 223.12500000 70.00000000 -0.485130 0.268139 0.832316 0.000000
144.37500000 138.28100586 165.00000000 0.552716 0.552716 -0.623707 0.000000
102.65599823 182.81199646 147.50000000 0.839897 0.359507 0.406604 0.000000
91.40619659 243.75000000 147.50000000 0.993030 0.115982 0.020987 0.000000
101.25000000 289.21899414 140.00000000 0.858676 -0.510228 0.048396 0.000000
231.56199646 188.43800354 151.25000000 0.346441 -0.523690 0.778284 0.000000
107.81199646 168.75000000 151.25000000 0.000978 0.999999 0.000978 0.000000
103.59400177 177.18800354 152.50000000 0.839897 0.359507 0.406604 0.000000
258.75000000 179.06199646 181.25000000 -0.094031 0.216898 -0.971655 0.000000
157.50000000 315.00000000 113.75000000 -0.463556 -0.764950 0.447176 0.000000
277.50000000 148.12500000 173.75000000 -0.349352 0.932944 0.087003 0.000000
192.18800354 155.62500000 153.75000000 -0.962487 0.166761 -0.214032 0.000000
265.31201172 198.75000000 183.75000000 -0.000978 -0.000978 -0.999999 0.000000
179.06199646 207.18800354 216.25000000 -0.370261 0.011531 -0.928856 0.000000
195.00000000 195.00000000 153.75000000 -0.719247 -0.206609 0.663323 0.000000
187.50000000 144.37500000 143.75000000 -0.185016 0.603976 0.775230 0.000000
95.15619659 240.93800354 122.50000000 0.939478 0.340577 0.037271 0.000000
137.81199646 319.68798828 141.25000000 0.223103 -0.933103 0.282036 0.000000
159.37500000 172.03100586 210.00000000 -0.025925 0.517129 -0.855515 0.000000
129.84399414 149.06199646 130.00000000 0.714259 0.514467 0.474508 0.000000
214.68800354 177.18800354 153.75000000 0.552716 -0.552716 -0.623707 0.000000
113.90599823 225.00000000 70.00000000 -0.540053 0.310650 0.782201 0.000000
127.96900177 302.81201172 202.50000000 0.126841 -0.693895 -0.708817 0.000000
195.00000000 295.31201172 143.75000000 -0.751272 -0.006918 0.659957 0.000000
136.87500000 215.62500000 223.75000000 -0.000978 -0.000978 -0.999999 0.000000
195.00000000 189.84399414 152.50000000 -0.743397 -0.341736 0.574959 0.000000
177.18800354 191.25000000 136.25000000 -0.272450 -0.686700 0.673954 0.000000
147.18800354 257.81201172 98.75000000 -0.847456 -0.424506 -0.318768 0.000000
270.00000000 207.18800354 186.25000000 -0.238450 0.227423 -0.944151 0.000000
199.68800354 187.50000000 158.75000000 -0.581328 0.160729 0.797636 0.000000
138.75000000 256.87500000 91.25000000 -0.803072 0.170257 0.571040 0.000000
203.43800354 257.81201172 196.25000000 -0.532374 -0.195659 -0.823587 0.000000
105.00000000 292.03100586 125.00000000 0.683659 -0.683659 0.255381 0.000000
139.68800354 225.00000000 221.25000000 0.317920 -0.417174 -0.851406 0.000000
89.53119659 255.93800354 167.50000000 0.999999 -0.000978 -0.000978 0.000000
105.00000000 206.25000000 133.75000000 0.642737 0.247936 0.724856 0.000000
257.34399414 174.37500000 157.50000000 -0.406123 0.103956 0.907886 0.000000
98.90619659 242.81199646 95.00000000 0.981168 0.164544 0.101164 0.000000
170.62500000 132.65600586 135.00000000 -0.756476 -0.403563 0.514665 0.000000
132.18800354 158.43800354 191.25000000 0.498713 0.656555 -0.565880 0.000000
109.21900177 275.62500000 202.50000000 0.448088 -0.261512 -0.854885 0.000000
231.56199646 201.56199646 138.75000000 -0.188714 0.750252 0.633648 0.000000
220.31199646 220.78100586 180.00000000 -0.282926 -0.958460 0.036145 0.000000
197.81199646 165.00000000 188.75000000 0.159650 0.334572 -0.928748 0.000000
202.96899414 246.56199646 197.50000000 -0.593290 -0.404891 -0.695752 0.000000
170.62500000 272.81201172 118.75000000 -0.507811 -0.259341 0.821505 0.000000
127.03099823 169.68800354 202.50000000 0.303802 0.737806 -0.602782 0.000000
184.68800354 132.18800354 146.25000000 0.000978 0.000978 0.999999 0.000000
98.43750000 190.31199646 148.75000000 0.809767 0.486494 0.328027 0.000000
244.21899414 145.31199646 185.00000000 -0.312390 0.021328 -0.949715 0.000000
208.59399414 228.75000000 165.00000000 -0.965970 -0.242445 -0.090123 0.000000
197.81199646 239.06199646 126.25000000 -0.695622 -0.305041 0.650431 0.000000
114.37500000 228.75000000 68.75000000 -0.814884 0.256107 0.519974 0.000000
94.68750000 191.71899414 157.50000000 0.850751 0.430780 0.301083 0.000000
175.31199646 230.62500000 218.75000000 -0.391213 -0.030093 -0.919808 0.000000
134.06199646 302.34399414 205.00000000 -0.048576 -0.368914 -0.928193 0.000000
172.50000000 140.62500000 138.75000000 -0.706796 0.029626 0.706796 0.000000
196.87500000 214.68800354 208.75000000 0.000978 0.000978 -0.999999 0.000000
245.62500000 218.43800354 153.75000000 -0.765598 -0.532519 0.360948 0.000000
112.03099823 286.87500000 100.00000000 0.659294 -0.652718 0.373216 0.000000
260.62500000 211.87500000 176.25000000 -0.332693 -0.709203 0.621567 0.000000
270.00000000 173.43800354 166.25000000 -0.214591 -0.788893 0.575846 0.000000
126.56199646 158.43800354 188.75000000 0.068992 0.913134 -0.401779 0.000000
92.81250000 247.50000000 133.75000000 0.995084 0.065451 0.074326 0.000000
163.12500000 300.00000000 113.75000000 -0.688511 0.322385 0.649631 0.000000
85.78119659 224.06199646 170.00000000 0.999999 -0.000978 -0.000978 0.000000
115.78099823 230.62500000 70.00000000 -0.510447 -0.270053 0.816404 0.000000
143.43800354 155.62500000 191.25000000 0.098000 0.867797 -0.487159 0.000000
127.50000000 150.46899414 172.50000000 0.424506 0.847456 -0.318768 0.000000
221.25000000 220.31199646 183.75000000 -0.397020 -0.871619 -0.287497 0.000000
112.96900177 210.93800354 110.00000000 0.707106 0.707106 0.001384 0.000000
190.31199646 221.25000000 211.25000000 -0.583522 0.349463 -0.733060 0.000000
205.31199646 261.56201172 148.75000000 -0.765332 -0.162159 0.622874 0.000000
202.50000000 185.15600586 197.50000000 -0.576776 0.389447 -0.718095 0.000000
108.75000000 283.12500000 198.75000000 0.796622 -0.200302 -0.570326 0.000000
204.84399414 295.31201172 172.50000000 -0.934603 -0.210949 -0.286388 0.000000
180.00000000 224.06199646 216.25000000 -0.402130 -0.112708 -0.908619 0.000000
227.81199646 211.87500000 188.75000000 -0.216431 -0.717805 -0.661751 0.000000
161.25000000 229.68800354 221.25000000 -0.000978 -0.000978 -0.999999 0.000000
111.56199646 243.75000000 211.25000000 0.433548 -0.192525 -0.880324 0.000000
178.59399414 313.12500000 132.50000000 -0.619958 -0.582794 0.525360 0.000000
100.31199646 182.81199646 193.75000000 0.791197 0.412587 -0.451419 0.000000
101.71900177 262.50000000 87.50000000 0.893362 -0.347502 0.284862 0.000000
153.75000000 218.43800354 101.25000000 -0.459331 0.009266 0.888217 0.000000
181.87500000 220.78100586 117.50000000 -0.001257 0.936483 0.350710 0.000000
228.75000000 192.65600586 157.50000000 0.439219 -0.751772 0.491859 0.000000
104.06199646 234.37500000 68.75000000 0.936483 0.001257 0.350710 0.000000
229.68800354 150.00000000 186.25000000 -0.000978 -0.000978 -0.999999 0.000000
200.62500000 287.81201172 148.75000000 -0.839253 -0.142570 0.524717 0.000000
172.50000000 141.56199646 178.75000000 0.106399 0.399341 -0.910608 0.000000
175.31199646 215.15600586 125.00000000 -0.986603 -0.096167 0.131784 0.000000
194.06199646 302.81201172 186.25000000 -0.681335 -0.470406 -0.560804 0.000000
205.31199646 211.87500000 206.25000000 -0.904547 -0.112894 -0.411158 0.000000
145.31199646 250.31199646 96.25000000 -0.001257 -0.936483 0.350710 0.000000
198.75000000 175.31199646 146.25000000 -0.833954 -0.364165 -0.414613 0.000000
248.90600586 148.12500000 160.00000000 -0.395875 0.727687 0.560138 0.000000
159.37500000 211.87500000 106.25000000 -0.363655 0.199795 0.909856 0.000000
183.75000000 298.12500000 196.25000000 -0.540202 -0.376999 -0.752366 0.000000
137.81199646 192.18800354 98.75000000 -0.581852 0.288535 0.760392 0.000000
213.28100586 250.31199646 160.00000000 -0.866220 -0.175605 0.467788 0.000000
172.03100586 220.31199646 220.00000000 -0.783909 0.241562 -0.571957 0.000000
85.78119659 229.68800354 182.50000000 0.986291 0.096137 -0.134117 0.000000
225.93800354 135.00000000 186.25000000 0.077759 0.213528 -0.973837 0.000000
232.50000000 136.87500000 151.25000000 0.000978 0.000978 0.999999 0.000000
124.68800354 230.62500000 218.75000000 0.256994 -0.189006 -0.947750 0.000000
159.84399414 146.25000000 177.50000000 0.090745 0.453725 -0.886509 0.000000
135.00000000 155.15600586 117.50000000 0.810506 0.463374 0.358279 0.000000
139.21899414 279.37500000 92.50000000 -0.876035 0.212688 0.432812 0.000000
193.12500000 190.31199646 151.25000000 -0.695622 -0.650431 0.305041 0.000000
123.28099823 304.68798828 120.00000000 0.357421 -0.930367 0.081658 0.000000
165.93800354 300.93798828 116.25000000 -0.603025 -0.052499 0.795993 0.000000
195.93800354 291.56201172 143.75000000 -0.633977 -0.175680 0.753134 0.000000
173.43800354 307.50000000 123.75000000 -0.691280 -0.372733 0.619033 0.000000
170.62500000 189.37500000 133.75000000 0.045011 -0.473294 0.879754 0.000000
171.09399414 129.37500000 132.50000000 -0.596504 -0.427024 0.679583 0.000000
172.50000000 204.84399414 140.00000000 -0.806807 0.576712 -0.128322 0.000000
173.43800354 232.50000000 218.75000000 -0.265664 -0.309216 -0.913131 0.000000
168.75000000 123.28099823 162.50000000 0.370771 0.743175 -0.556973 0.000000
271.40600586 133.12500000 177.50000000 -0.948752 -0.312846 0.044692 0.000000
147.18800354 258.28100586 217.50000000 -0.171294 -0.401604 -0.899651 0.000000
120.46900177 302.81201172 197.50000000 0.696298 -0.465868 -0.546018 0.000000
149.53100586 189.37500000 112.50000000 -0.781204 0.607935 0.141901 0.000000
212.34399414 240.00000000 185.00000000 -0.610296 0.620384 -0.492608 0.000000
269.06201172 151.87500000 178.75000000 -0.936483 0.001257 -0.350710 0.000000
233.43800354 154.68800354 186.25000000 -0.000978 -0.000978 -0.999999 0.000000
220.31199646 150.00000000 186.25000000 -0.067937 -0.079074 -0.994551 0.000000
121.87500000 265.31201172 213.75000000 0.429236 -0.256328 -0.866056 0.000000
137.81199646 322.03100586 185.00000000 0.358863 -0.926494 -0.113253 0.000000
244.68800354 172.50000000 151.25000000 0.000978 0.000978 0.999999 0.000000
90.46880341 206.25000000 157.50000000 0.972260 0.195969 0.127696 0.000000
237.18800354 202.96899414 167.50000000 0.612844 -0.789545 -0.032255 0.000000
132.65600586 306.56201172 107.50000000 0.521509 -0.789440 0.323750 0.000000
197.81199646 162.18800354 148.75000000 -0.500430 0.343746 0.794612 0.000000
270.93798828 150.00000000 166.25000000 -0.324956 0.187096 0.927038 0.000000
183.75000000 276.56201172 206.25000000 -0.416745 -0.128555 -0.899887 0.000000
100.78099823 230.62500000 97.50000000 0.933699 0.297276 0.199580 0.000000
192.18800354 254.06199646 206.25000000 -0.578622 -0.201060 -0.790425 0.000000
274.68798828 158.43800354 176.25000000 -0.692196 -0.276559 -0.666618 0.000000
164.06199646 181.87500000 213.75000000 -0.000978 -0.000978 -0.999999 0.000000
251.25000000 123.75000000 168.75000000 0.000000 0.000000 0.000000 0.000000
97.50000000 264.84399414 195.00000000 0.941947 -0.314876 -0.116571 0.000000
281.25000000 199.68800354 181.25000000 -0.782734 0.174785 -0.597309 0.000000
209.06199646 251.25000000 151.25000000 -0.813176 -0.122050 0.569076 0.000000
189.84399414 152.81199646 152.50000000 -0.831636 0.162162 0.531117 0.000000
226.87500000 138.75000000 151.25000000 0.133665 0.398181 0.907516 0.000000
226.87500000 200.62500000 158.75000000 0.001257 0.936483 -0.350710 0.000000
178.59399414 310.31201172 192.50000000 -0.398661 -0.546314 -0.736621 0.000000
158.43800354 291.56201172 111.25000000 -0.609614 0.181815 0.771566 0.000000
149.06199646 290.15600586 210.00000000 0.015117 -0.567572 -0.823185 0.000000
208.12500000 170.62500000 153.75000000 -0.742795 0.446336 0.499040 0.000000
163.12500000 290.62500000 208.75000000 -0.299824 -0.145164 -0.942885 0.000000
194.06199646 200.62500000 206.25000000 -0.250027 0.101293 -0.962926 0.000000
283.12500000 192.18800354 178.75000000 -0.864935 0.307703 -0.396492 0.000000
171.09399414 319.68798828 135.00000000 -0.233579 -0.935714 0.264350 0.000000
119.06199646 286.87500000 203.75000000 -0.286487 -0.622590 -0.728222 0.000000
244.68800354 160.31199646 151.25000000 -0.581344 0.150940 0.799535 0.000000
127.96900177 180.00000000 115.00000000 0.882563 0.440555 0.164299 0.000000
155.62500000 291.56201172 108.75000000 -0.706951 0.020999 0.706951 0.000000
137.81199646 229.21899414 92.50000000 -0.443988 0.180233 0.877719 0.000000
155.62500000 265.31201172 216.25000000 -0.000978 -0.000978 -0.999999 0.000000
90.46880341 255.00000000 190.00000000 0.914630 -0.322216 -0.244190 0.000000
122.34400177 294.37500000 97.50000000 0.507619 -0.781572 0.362585 0.000000
178.12500000 156.56199646 136.25000000 -0.284413 0.406087 0.868448 0.000000
215.62500000 213.75000000 193.75000000 -0.936483 0.001257 -0.350710 0.000000
120.93800354 151.87500000 143.75000000 0.788890 0.538096 0.296826 0.000000
179.06199646 307.50000000 193.75000000 -0.426823 -0.426823 -0.797273 0.000000
100.31199646 190.31199646 198.75000000 0.753083 0.222963 -0.618994 0.000000
117.18800354 296.25000000 108.75000000 0.683659 -0.683659 0.255381 0.000000
192.18800354 216.56199646 151.25000000 0.377752 0.504209 0.776580 0.000000
166.40600586 136.87500000 175.00000000 0.316994 -0.287506 -0.903801 0.000000
214.21899414 139.68800354 147.50000000 -0.257411 -0.093488 0.961769 0.000000
147.18800354 268.12500000 216.25000000 -0.131073 -0.354587 -0.925790 0.000000
154.68800354 296.25000000 106.25000000 -0.641653 0.199454 0.740607 0.000000
105.00000000 245.62500000 68.75000000 0.679558 -0.159628 0.716044 0.000000
94.21880341 187.50000000 175.00000000 0.977994 0.099645 0.183297 0.000000
105.93800354 195.46899414 207.50000000 0.805145 0.112926 -0.582227 0.000000
93.75000000 237.18800354 136.25000000 0.818414 0.222645 0.529743 0.000000
163.12500000 309.84399414 200.00000000 -0.276875 -0.394888 -0.876016 0.000000
169.21899414 140.62500000 135.00000000 -0.758770 0.001377 0.651358 0.000000
110.62500000 260.62500000 208.75000000 0.492908 -0.361252 -0.791542 0.000000
235.31199646 224.06199646 176.25000000 -0.370771 -0.743175 -0.556973 0.000000
181.87500000 173.90600586 195.00000000 -0.097943 0.615432 -0.782081 0.000000
88.59380341 209.06199646 167.50000000 0.978903 0.104400 0.175638 0.000000
101.71900177 290.62500000 132.50000000 0.701681 -0.710290 0.055962 0.000000
184.68800354 208.12500000 213.75000000 -0.516298 0.104985 -0.849950 0.000000
248.43800354 213.75000000 171.25000000 0.687150 -0.341127 -0.641449 0.000000
138.28100586 148.12500000 120.00000000 0.683659 0.683659 0.255381 0.000000
126.56199646 152.81199646 131.25000000 0.732750 0.441635 0.517722 0.000000
268.12500000 127.03099823 172.50000000 -0.685547 0.217064 0.694916 0.000000
122.81199646 300.93798828 111.25000000 0.525939 -0.797595 0.295347 0.000000
151.87500000 265.31201172 103.75000000 -0.568936 0.207025 0.795897 0.000000
92.81250000 211.87500000 146.25000000 0.790568 -0.103753 0.603521 0.000000
171.56199646 149.06199646 181.25000000 0.341259 0.335192 -0.878173 0.000000
116.71900177 307.50000000 172.50000000 0.705724 -0.708486 -0.001381 0.000000
196.87500000 124.21900177 175.00000000 0.001379 0.663079 -0.748548 0.000000
218.43800354 167.81199646 188.75000000 -0.000978 -0.000978 -0.999999 0.000000
169.68800354 327.18798828 161.25000000 -0.254374 -0.954901 0.153157 0.000000
136.87500000 318.28100586 192.50000000 0.334560 -0.745082 -0.576994 0.000000
120.46900177 197.81199646 217.50000000 0.531799 -0.123844 -0.837766 0.000000
109.68800354 291.56201172 113.75000000 0.848329 -0.423389 0.317930 0.000000
203.43800354 224.06199646 138.75000000 -0.295963 0.603124 0.740707 0.000000
214.68800354 118.59400177 162.50000000 -0.799835 0.001367 0.600218 0.000000
185.62500000 289.68798828 133.75000000 -0.693264 -0.117276 0.711078 0.000000
241.87500000 212.34399414 142.50000000 -0.753684 -0.471258 0.458122 0.000000
104.53099823 249.37500000 70.00000000 0.816059 -0.222841 0.533282 0.000000
254.06199646 137.81199646 163.75000000 -0.634460 -0.230286 0.737854 0.000000
195.93800354 150.93800354 141.25000000 -0.247309 0.493082 0.834092 0.000000
167.81199646 231.56199646 106.25000000 -0.229284 0.229284 0.945969 0.000000
235.31199646 216.56199646 186.25000000 0.213822 -0.257966 -0.942196 0.000000
91.40619659 195.93800354 165.00000000 0.942740 0.312459 0.116669 0.000000
209.06199646 231.09399414 170.00000000 -0.950746 -0.237347 0.199372 0.000000
233.43800354 121.87500000 166.25000000 -0.263290 0.964588 0.015773 0.000000
113.43800354 187.96899414 130.00000000 0.778721 0.349860 0.520760 0.000000
240.00000000 216.56199646 143.75000000 -0.753684 -0.471258 0.458122 0.000000
105.93800354 250.31199646 68.75000000 0.909861 -0.109405 0.400228 0.000000
163.12500000 191.25000000 136.25000000 0.007314 -0.065824 0.997804 0.000000
182.81199646 227.34399414 112.50000000 -0.660699 0.362319 0.657420 0.000000
216.56199646 203.43800354 196.25000000 -0.297621 -0.044327 -0.953654 0.000000
159.37500000 258.75000000 108.75000000 -0.482010 0.065287 0.873730 0.000000
140.62500000 254.06199646 218.75000000 -0.000978 -0.000978 -0.999999 0.000000
217.96899414 149.06199646 187.50000000 -0.392005 -0.014231 -0.919853 0.000000
159.37500000 247.50000000 218.75000000 -0.000978 -0.000978 -0.999999 0.000000
187.03100586 191.25000000 142.50000000 -0.618737 -0.585019 0.524325 0.000000
225.00000000 169.68800354 188.75000000 0.212122 0.425727 -0.879637 0.000000
96.09380341 249.37500000 107.50000000 0.982976 0.058101 0.174303 0.000000
93.28119659 202.50000000 150.00000000 0.865099 0.288366 0.410426 0.000000
122.81199646 148.59399414 157.50000000 0.563220 0.817766 -0.118496 0.000000
207.18800354 273.75000000 188.75000000 -0.991220 -0.123761 0.046552 0.000000
200.62500000 221.25000000 201.25000000 -0.621531 -0.680882 -0.387427 0.000000
135.00000000 308.43798828 108.75000000 0.452587 -0.824750 0.339046 0.000000
148.12500000 221.25000000 98.75000000 -0.478375 0.006663 0.878131 0.000000
164.06199646 167.81199646 203.75000000 -0.503001 0.725450 -0.469800 0.000000
191.25000000 152.81199646 138.75000000 -0.006403 0.377777 0.925874 0.000000
217.50000000 205.31199646 146.25000000 0.465672 0.853985 0.232078 0.000000
214.68800354 172.50000000 188.75000000 -0.000978 -0.000978 -0.999999 0.000000
221.25000000 201.09399414 155.00000000 0.157843 0.978127 0.135471 0.000000
132.18800354 185.62500000 216.25000000 0.129155 0.497755 -0.857647 0.000000
140.62500000 183.75000000 216.25000000 0.037193 0.516569 -0.855438 0.000000
149.06199646 247.50000000 218.75000000 -0.079429 -0.469608 -0.879295 0.000000
131.25000000 161.25000000 193.75000000 0.331359 0.810166 -0.483563 0.000000
150.00000000 202.50000000 101.25000000 -0.578283 0.211266 0.788007 0.000000
182.81199646 280.31201172 128.75000000 -0.524511 -0.208284 0.825534 0.000000
158.43800354 191.71899414 132.50000000 -0.485635 0.529025 0.695910 0.000000
211.40600586 220.31199646 195.00000000 -0.735535 -0.136321 -0.663630 0.000000
150.00000000 327.18798828 178.75000000 0.133147 -0.929283 -0.344535 0.000000
261.56201172 177.18800354 158.75000000 -0.631126 0.139417 0.763048 0.000000
96.09380341 240.00000000 115.00000000 0.936483 -0.001257 -0.350710 0.000000
255.93800354 189.37500000 156.25000000 -0.465658 -0.050526 0.883521 0.000000
130.31199646 164.06199646 118.75000000 0.852021 0.285034 0.439107 0.000000
275.62500000 147.18800354 176.25000000 -0.239606 0.954408 0.178031 0.000000
183.75000000 191.25000000 138.75000000 -0.576398 -0.401332 0.711827 0.000000
234.37500000 220.31199646 181.25000000 -0.113961 -0.738525 -0.664525 0.000000
105.00000000 293.90600586 150.00000000 0.764489 -0.644295 0.020964 0.000000
105.00000000 183.75000000 201.25000000 0.723620 0.400546 -0.562083 0.000000
203.43800354 215.62500000 206.25000000 -0.729953 -0.441945 -0.521395 0.000000
144.37500000 284.06201172 211.25000000 -0.000978 -0.000978 -0.999999 0.000000
178.12500000 181.40600586 205.00000000 -0.493290 0.697294 -0.520044 0.000000
162.18800354 168.28100586 132.50000000 -0.799835 -0.001367 0.600218 0.000000
178.59399414 282.18798828 127.50000000 -0.448776 -0.145744 0.881679 0.000000
219.37500000 121.87500000 171.25000000 -0.039381 0.884025 -0.465777 0.000000
126.56199646 148.59399414 165.00000000 0.497182 0.756438 -0.424984 0.000000
131.25000000 317.34399414 172.50000000 0.768194 -0.511588 -0.384909 0.000000
142.96899414 327.18798828 165.00000000 0.279674 -0.960094 -0.001211 0.000000
98.43750000 181.87500000 161.25000000 0.602049 0.602049 0.524474 0.000000
228.75000000 128.43800354 178.75000000 0.017889 0.818777 -0.573832 0.000000
241.87500000 149.06199646 151.25000000 -0.515255 0.378721 0.768819 0.000000
150.00000000 163.12500000 128.75000000 -0.563975 -0.681121 0.466911 0.000000
100.31199646 213.28100586 205.00000000 0.334986 0.334986 -0.880664 0.000000
108.75000000 255.93800354 68.75000000 0.912755 -0.269314 0.307163 0.000000
170.62500000 234.37500000 106.25000000 -0.331259 0.252457 0.909138 0.000000
107.34400177 183.75000000 140.00000000 0.727543 0.199263 0.656487 0.000000
151.87500000 207.18800354 101.25000000 -0.562432 0.131382 0.816339 0.000000
144.37500000 230.62500000 221.25000000 0.112763 -0.177199 -0.977694 0.000000
188.43800354 163.12500000 136.25000000 0.333243 0.465908 0.819682 0.000000
182.81199646 211.87500000 151.25000000 0.081624 -0.294106 0.952281 0.000000
180.00000000 254.06199646 116.25000000 -0.269765 -0.368133 0.889778 0.000000
161.25000000 207.18800354 108.75000000 -0.667927 0.409374 0.621520 0.000000
274.68798828 155.62500000 166.25000000 -0.172384 -0.730724 0.660550 0.000000
159.37500000 195.93800354 221.25000000 0.000978 0.000978 -0.999999 0.000000
259.68798828 208.12500000 173.75000000 -0.319595 -0.666770 0.673259 0.000000
190.31199646 313.12500000 148.75000000 -0.244339 -0.729864 -0.638434 0.000000
163.12500000 172.50000000 133.75000000 -0.160159 -0.155115 0.974827 0.000000
150.00000000 306.09399414 102.50000000 -0.457179 0.033715 0.888735 0.000000
170.62500000 306.56201172 118.75000000 -0.613378 -0.243155 0.751427 0.000000
99.84380341 230.62500000 117.50000000 0.870380 0.482601 0.097652 0.000000
267.18798828 195.00000000 183.75000000 -0.150591 0.297113 -0.942892 0.000000
131.25000000 248.43800354 218.75000000 0.308058 -0.341118 -0.888110 0.000000
144.37500000 166.87500000 123.75000000 -0.351638 0.176525 0.919342 0.000000
218.90600586 243.75000000 177.50000000 -0.285453 -0.001215 -0.958392 0.000000
128.43800354 146.25000000 136.25000000 0.795130 0.567510 0.213778 0.000000
132.18800354 267.18798828 213.75000000 -0.106055 -0.328906 -0.938389 0.000000
201.56199646 206.25000000 206.25000000 -0.356781 -0.001261 -0.934187 0.000000
109.68800354 219.37500000 213.75000000 -0.000978 -0.000978 -0.999999 0.000000
145.31199646 177.18800354 128.75000000 -0.638842 0.428675 0.638842 0.000000
208.12500000 150.93800354 141.25000000 0.060754 0.563742 0.823713 0.000000
167.81199646 166.87500000 131.25000000 -0.375580 -0.250881 0.892187 0.000000
128.43800354 303.75000000 108.75000000 0.590344 -0.735908 0.331563 0.000000
146.25000000 323.43798828 188.75000000 0.294563 -0.933947 -0.202425 0.000000
130.31199646 311.25000000 126.25000000 0.544589 -0.772706 0.326111 0.000000
269.53100586 149.06199646 177.50000000 -0.975346 -0.118640 -0.186078 0.000000
111.09400177 303.75000000 140.00000000 0.758818 -0.645214 0.088844 0.000000
255.93800354 185.62500000 183.75000000 -0.552716 0.552716 -0.623707 0.000000
195.93800354 188.43800354 153.75000000 -0.695622 -0.650431 0.305041 0.000000
150.00000000 248.43800354 98.75000000 -0.370999 0.076343 0.925490 0.000000
201.56199646 172.03100586 140.00000000 0.412630 -0.604860 0.681088 0.000000
159.37500000 186.56199646 136.25000000 -0.276558 -0.155142 0.948392 0.000000
139.68800354 322.03100586 147.50000000 0.256926 -0.940210 0.223595 0.000000
97.03119659 280.31201172 135.00000000 0.896488 -0.440829 0.044487 0.000000
116.25000000 258.75000000 68.75000000 0.001289 -0.406019 0.913864 0.000000
208.12500000 116.71900177 150.00000000 0.001089 0.992394 0.123096 0.000000
143.43800354 133.12500000 133.75000000 0.677583 0.717172 0.162925 0.000000
117.18800354 299.06201172 196.25000000 0.661291 -0.584280 -0.470437 0.000000
163.12500000 190.31199646 136.25000000 0.099720 -0.147777 0.983981 0.000000
210.93800354 181.87500000 166.25000000 0.133057 -0.338815 0.931397 0.000000
133.12500000 312.18798828 123.75000000 0.611826 -0.687685 0.390843 0.000000
186.09399414 146.25000000 182.50000000 0.078619 0.177800 -0.980921 0.000000
201.56199646 184.21899414 197.50000000 -0.519402 0.277747 -0.808133 0.000000
147.18800354 308.43798828 101.25000000 -0.362585 -0.781572 0.507619 0.000000
153.75000000 186.56199646 131.25000000 -0.591282 -0.249373 0.766941 0.000000
176.25000000 276.56201172 208.75000000 -0.425069 -0.441231 -0.790337 0.000000
244.68800354 205.31199646 188.75000000 -0.356829 0.302627 -0.883793 0.000000
244.68800354 198.28100586 155.00000000 -0.618388 -0.350800 0.703232 0.000000
158.43800354 287.81201172 208.75000000 -0.420476 -0.041380 -0.906359 0.000000
149.06199646 284.53100586 102.50000000 -0.422714 0.140905 0.895242 0.000000
189.37500000 179.53100586 135.00000000 -0.367171 -0.011514 0.930082 0.000000
164.53100586 131.25000000 170.00000000 0.731740 0.599283 -0.324679 0.000000
124.21900177 165.93800354 127.50000000 0.426823 0.426823 0.797273 0.000000
157.96899414 140.62500000 120.00000000 -0.936483 -0.001257 0.350710 0.000000
179.06199646 225.46899414 135.00000000 -0.388054 0.920470 -0.046355 0.000000
112.03099823 261.56201172 70.00000000 0.001289 -0.406019 0.913864 0.000000
115.78099823 161.25000000 182.50000000 0.638678 0.703354 -0.312063 0.000000
169.68800354 293.90600586 120.00000000 -0.965194 0.114384 0.235194 0.000000
130.78100586 142.50000000 157.50000000 0.635415 0.762794 -0.119973 0.000000
240.93800354 219.37500000 148.75000000 -0.132038 -0.893031 0.430188 0.000000
195.00000000 198.75000000 206.25000000 -0.320227 0.196086 -0.926825 0.000000
230.62500000 181.87500000 148.75000000 0.244301 -0.499358 0.831239 0.000000
262.50000000 207.18800354 173.75000000 -0.026559 -0.775797 0.630423 0.000000
118.59400177 248.43800354 215.00000000 0.376553 -0.169094 -0.910832 0.000000
139.68800354 185.62500000 101.25000000 -0.334986 0.334986 0.880664 0.000000
259.68798828 128.43800354 166.25000000 -0.799835 0.001367 0.600218 0.000000
135.00000000 308.43798828 201.25000000 0.064912 -0.470957 -0.879765 0.000000
109.21900177 184.68800354 137.50000000 0.707592 0.268726 0.653529 0.000000
191.71899414 306.56201172 185.00000000 -0.707129 -0.447571 -0.547401 0.000000
224.06199646 216.56199646 156.25000000 0.255508 -0.936863 0.238753 0.000000
159.37500000 255.00000000 216.25000000 -0.134152 -0.235744 -0.962511 0.000000
196.87500000 150.93800354 183.75000000 0.628338 0.261148 -0.732798 0.000000
190.78100586 200.62500000 207.50000000 -0.329543 0.111641 -0.937517 0.000000
97.50000000 281.71899414 135.00000000 0.839678 -0.543001 0.009526 0.000000
169.68800354 260.62500000 213.75000000 -0.337770 -0.233394 -0.911833 0.000000
203.43800354 269.06201172 193.75000000 -0.799835 0.001367 -0.600218 0.000000
89.06250000 224.06199646 191.25000000 0.852162 -0.212663 -0.478116 0.000000
124.68800354 311.25000000 193.75000000 0.506838 -0.611237 -0.607869 0.000000
212.81199646 224.06199646 176.25000000 -0.910346 -0.377530 0.169532 0.000000
261.09399414 165.93800354 160.00000000 -0.516931 0.171317 0.838709 0.000000
171.56199646 117.65599823 140.00000000 0.800096 0.397633 -0.449148 0.000000
107.34400177 215.62500000 72.50000000 0.190711 0.584339 0.788782 0.000000
97.96880341 177.18800354 175.00000000 0.708486 0.705724 0.001381 0.000000
