121.87500000 310.31201172 410.62500000 -0.001367 -0.799835 -0.600218 0.000000
113.43800354 269.06201172 335.62500000 -0.563106 -0.255672 0.785839 0.000000
130.31199646 261.56201172 444.37500000 -0.000978 -0.000978 -0.999999 0.000000
171.56199646 278.43798828 373.12500000 -0.790055 -0.214069 0.574445 0.000000
132.18800354 220.31199646 459.37500000 0.294404 0.168426 -0.940723 0.000000
159.37500000 225.00000000 384.37500000 -0.560892 0.793950 0.234612 0.000000
175.78100586 247.50000000 367.50000000 -0.424190 -0.401780 0.811564 0.000000
163.12500000 262.50000000 440.62500000 -0.362697 -0.403520 -0.840013 0.000000
259.21899414 200.62500000 412.50000000 -0.000978 0.999999 -0.000978 0.000000
142.50000000 134.06199646 403.12500000 -0.000978 -0.000978 -0.999999 0.000000
175.31199646 301.87500000 384.37500000 -0.954310 0.039080 0.296252 0.000000
169.68800354 309.84399414 390.00000000 -0.733897 -0.636463 -0.237299 0.000000
60.00000000 205.78100586 356.25000000 0.687491 0.574296 -0.444455 0.000000
120.00000000 272.81201172 440.62500000 -0.000978 -0.000978 -0.999999 0.000000
187.50000000 251.25000000 376.87500000 -0.443159 -0.643835 0.623768 0.000000
108.75000000 272.81201172 328.12500000 -0.681191 -0.182984 0.708869 0.000000
210.00000000 169.68800354 399.37500000 -0.423074 0.478613 0.769375 0.000000
170.15600586 286.87500000 375.00000000 -0.562392 0.081568 0.822838 0.000000
152.81199646 262.50000000 358.12500000 -0.213011 -0.366612 0.905661 0.000000
96.56250000 307.03100586 315.00000000 -0.852975 0.083736 0.515191 0.000000
204.37500000 178.12500000 433.12500000 -0.504237 0.480938 -0.717247 0.000000
167.81199646 165.93800354 436.87500000 -0.219571 0.752148 -0.621339 0.000000
111.56199646 209.06199646 451.87500000 0.184690 0.304114 -0.934561 0.000000
208.12500000 209.06199646 436.87500000 -0.645603 0.258559 -0.718571 0.000000
130.31199646 250.78100586 450.00000000 0.131445 -0.574517 -0.807869 0.000000
197.81199646 210.93800354 444.37500000 -0.799835 0.001367 -0.600218 0.000000
119.06199646 251.25000000 335.62500000 -0.879424 0.050762 0.473325 0.000000
249.84399414 166.87500000 412.50000000 0.186609 0.927432 -0.324110 0.000000
189.84399414 165.93800354 393.75000000 -0.118199 0.457132 0.881510 0.000000
74.06250000 181.87500000 388.12500000 0.999999 0.000978 0.000978 0.000000
154.68800354 309.37500000 403.12500000 -0.286747 -0.857174 -0.427820 0.000000
88.59380341 268.12500000 427.50000000 0.244235 -0.453579 -0.857097 0.000000
109.68800354 268.12500000 328.12500000 -0.876671 -0.133876 0.462088 0.000000
64.68750000 286.40600586 360.00000000 0.909145 -0.412020 0.060790 0.000000
178.12500000 190.31199646 399.37500000 0.031249 0.170134 0.984925 0.000000
150.93800354 144.37500000 414.37500000 -0.001333 0.497143 -0.867668 0.000000
117.18800354 231.56199646 335.62500000 -0.999999 -0.000978 -0.000978 0.000000
192.65600586 278.43798828 401.25000000 -0.705752 -0.702830 -0.089132 0.000000
150.93800354 263.43798828 444.37500000 -0.000978 -0.000978 -0.999999 0.000000
157.50000000 258.75000000 361.87500000 -0.793251 -0.324004 0.515533 0.000000
74.53119659 283.12500000 405.00000000 0.615922 -0.625991 -0.478304 0.000000
139.68800354 155.62500000 391.87500000 0.000978 0.000978 0.999999 0.000000
105.00000000 326.71899414 360.00000000 0.507034 -0.842065 -0.183968 0.000000
91.40619659 252.18800354 296.25000000 -0.858312 -0.335592 0.388173 0.000000
109.68800354 235.31199646 448.12500000 0.456024 0.139540 -0.878960 0.000000
121.87500000 225.00000000 346.87500000 -0.874782 0.001327 0.484515 0.000000
171.56199646 175.31199646 444.37500000 -0.431408 0.540500 -0.722320 0.000000
184.68800354 138.75000000 414.37500000 0.163122 0.821596 -0.546234 0.000000
150.00000000 319.68798828 391.87500000 0.237651 -0.716101 -0.656294 0.000000
112.50000000 234.37500000 328.12500000 -0.797017 0.299476 0.524479 0.000000
159.37500000 253.12500000 444.37500000 0.000978 0.000978 -0.999999 0.000000
134.06199646 157.50000000 425.62500000 0.401006 0.780907 -0.478935 0.000000
96.56250000 307.50000000 313.12500000 -0.852975 0.083736 0.515191 0.000000
169.68800354 240.00000000 361.87500000 -0.625063 0.625063 -0.467540 0.000000
67.96880341 255.00000000 296.25000000 0.970072 0.001184 0.242814 0.000000
89.06250000 255.00000000 294.37500000 -0.867680 -0.322893 0.377984 0.000000
183.75000000 221.71899414 393.75000000 -0.235832 0.528695 0.815393 0.000000
75.93750000 279.37500000 410.62500000 0.677797 -0.463580 -0.570688 0.000000
73.59380341 189.37500000 318.75000000 0.913092 0.384533 0.135635 0.000000
205.31199646 197.81199646 436.87500000 0.675093 0.642242 -0.363006 0.000000
108.28099823 297.18798828 333.75000000 -0.830933 -0.248201 0.497943 0.000000
145.31199646 307.50000000 410.62500000 -0.186609 -0.927432 -0.324110 0.000000
169.68800354 234.84399414 367.50000000 -0.553762 -0.001354 -0.832674 0.000000
126.56199646 286.87500000 350.62500000 -0.659666 -0.064673 0.748771 0.000000
65.15619659 217.50000000 307.50000000 0.937477 0.311577 0.155102 0.000000
88.12500000 290.62500000 414.37500000 -0.444867 -0.444867 -0.777295 0.000000
60.00000000 255.00000000 324.37500000 0.906629 -0.304169 0.292414 0.000000
110.62500000 265.31201172 331.87500000 -0.942774 -0.127765 0.307982 0.000000
82.50000000 180.46899414 408.75000000 0.696449 -0.696449 0.172964 0.000000
180.00000000 187.96899414 390.00000000 0.666485 -0.666485 -0.334057 0.000000
150.00000000 259.68798828 354.37500000 -0.556054 0.176310 0.812231 0.000000
100.78099823 179.06199646 348.75000000 -0.825887 0.423247 0.372521 0.000000
150.93800354 248.43800354 354.37500000 0.000978 0.000978 0.999999 0.000000
131.25000000 328.59399414 378.75000000 -0.162720 -0.912647 -0.374963 0.000000
120.00000000 209.06199646 358.12500000 -0.224861 0.424407 0.877107 0.000000
143.43800354 323.43798828 388.12500000 0.370771 -0.743175 0.556973 0.000000
70.31250000 220.31199646 410.62500000 0.956790 0.198831 -0.212175 0.000000
89.06250000 258.28100586 296.25000000 -0.906371 -0.231321 0.353528 0.000000
65.62500000 196.40600586 348.75000000 0.720100 0.644133 -0.257970 0.000000
154.68800354 150.00000000 421.87500000 -0.177828 0.779708 -0.600360 0.000000
84.37500000 229.68800354 429.37500000 0.811359 -0.069871 -0.580357 0.000000
187.50000000 275.62500000 414.37500000 -0.600758 -0.573681 -0.556759 0.000000
68.43750000 260.62500000 294.37500000 0.872268 -0.125020 0.472778 0.000000
99.37500000 313.12500000 395.62500000 0.390936 -0.615271 -0.684551 0.000000
101.71900177 221.25000000 311.25000000 -0.962880 0.241689 0.120198 0.000000
91.87500000 289.68798828 309.37500000 -0.880695 0.097229 0.463598 0.000000
166.40600586 306.56201172 375.00000000 0.001381 0.708486 0.705724 0.000000
123.75000000 183.28100586 450.00000000 0.247770 0.556313 -0.793175 0.000000
198.28100586 249.37500000 393.75000000 -0.569887 -0.750700 0.334183 0.000000
128.43800354 268.12500000 346.87500000 -0.597003 -0.103636 0.795517 0.000000
109.68800354 146.71899414 393.75000000 0.560092 0.775879 -0.290360 0.000000
148.12500000 135.00000000 403.12500000 -0.000978 -0.000978 -0.999999 0.000000
136.87500000 185.15600586 453.75000000 -0.066643 0.562920 -0.823820 0.000000
171.09399414 296.25000000 408.75000000 -0.542271 -0.630115 -0.555785 0.000000
77.81250000 195.93800354 414.37500000 0.821915 0.332868 -0.462229 0.000000
75.00000000 291.56201172 395.62500000 0.848329 -0.423389 -0.317930 0.000000
119.06199646 182.81199646 448.12500000 0.169213 0.678376 -0.714963 0.000000
191.25000000 135.00000000 410.62500000 -0.000978 -0.000978 -0.999999 0.000000
76.87500000 299.06201172 313.12500000 0.864118 -0.440382 0.243648 0.000000
96.56250000 170.62500000 346.87500000 -0.864732 0.370160 0.339442 0.000000
65.62500000 263.90600586 315.00000000 0.945659 -0.315220 0.079786 0.000000
87.65619659 263.43798828 296.25000000 -0.862318 -0.176013 0.474792 0.000000
59.06250000 230.15600586 382.50000000 0.960482 0.217991 -0.173072 0.000000
119.06199646 285.93798828 433.12500000 -0.048945 -0.543991 -0.837662 0.000000
69.84380341 200.62500000 401.25000000 0.900429 -0.220364 -0.375057 0.000000
151.87500000 188.43800354 388.12500000 0.000978 0.000978 0.999999 0.000000
61.87500000 266.25000000 328.12500000 0.789792 -0.405394 0.460308 0.000000
196.87500000 199.68800354 444.37500000 -0.443517 0.288981 -0.848400 0.000000
105.93800354 308.43798828 406.87500000 0.158578 -0.837351 -0.523159 0.000000
192.18800354 168.75000000 391.87500000 -0.787434 0.593976 0.164742 0.000000
138.75000000 226.87500000 358.12500000 -0.492365 0.509056 0.706002 0.000000
63.75000000 269.06201172 328.12500000 0.842803 -0.313130 0.437759 0.000000
191.71899414 235.31199646 442.50000000 -0.466546 -0.370351 -0.803228 0.000000
79.68750000 194.06199646 418.12500000 0.577350 -0.577350 -0.577350 0.000000
171.56199646 252.18800354 365.62500000 -0.562489 -0.388659 0.729760 0.000000
136.87500000 270.46899414 442.50000000 -0.265219 -0.706721 -0.655900 0.000000
78.75000000 248.43800354 425.62500000 0.752965 -0.101276 -0.650221 0.000000
171.56199646 295.78100586 408.75000000 -0.542271 -0.630115 -0.555785 0.000000
149.06199646 213.75000000 388.12500000 -0.758808 0.092110 0.644768 0.000000
120.93800354 320.62500000 395.62500000 0.152900 -0.872260 -0.464526 0.000000
67.50000000 209.06199646 324.37500000 0.963693 0.213137 0.160834 0.000000
108.75000000 188.43800354 444.37500000 0.424937 0.125646 -0.896461 0.000000
158.43800354 302.81201172 369.37500000 -0.711377 -0.696709 0.092406 0.000000
194.06199646 210.00000000 448.12500000 -0.000978 -0.000978 -0.999999 0.000000
160.31199646 149.06199646 418.12500000 -0.055843 0.717365 -0.694456 0.000000
107.81199646 305.62500000 410.62500000 -0.100252 -0.876850 -0.470195 0.000000
127.50000000 167.34399414 435.00000000 0.530256 0.530256 -0.661557 0.000000
188.43800354 258.75000000 425.62500000 -0.621707 -0.380940 -0.684372 0.000000
160.31199646 235.31199646 376.87500000 -0.818910 0.560152 0.124968 0.000000
150.93800354 253.12500000 354.37500000 -0.171130 -0.178850 0.968879 0.000000
72.18750000 211.87500000 414.37500000 0.840370 -0.023306 -0.541511 0.000000
167.81199646 279.37500000 425.62500000 -0.372894 -0.625871 -0.685008 0.000000
108.75000000 205.31199646 339.37500000 -0.854319 0.361264 0.373668 0.000000
177.18800354 281.25000000 418.12500000 -0.193050 -0.557870 -0.807163 0.000000
135.93800354 201.56199646 384.37500000 0.033097 0.414374 0.909505 0.000000
203.43800354 215.62500000 403.12500000 0.620257 -0.453072 0.640319 0.000000
165.93800354 215.62500000 391.87500000 0.000978 0.000978 0.999999 0.000000
195.93800354 269.06201172 391.87500000 -0.697466 0.265323 0.665691 0.000000
131.25000000 291.56201172 429.37500000 -0.152293 -0.752419 -0.640838 0.000000
128.90600586 195.00000000 457.50000000 0.532310 0.292218 -0.794516 0.000000
174.37500000 240.93800354 448.12500000 -0.148952 -0.243860 -0.958304 0.000000
183.75000000 211.87500000 451.87500000 -0.601921 0.015221 -0.798410 0.000000
234.37500000 155.62500000 421.87500000 -0.233955 0.314333 -0.920033 0.000000
112.50000000 225.93800354 451.87500000 0.319593 -0.094154 -0.942865 0.000000
149.53100586 317.81201172 393.75000000 0.004153 -0.746103 -0.665817 0.000000
156.56199646 258.75000000 358.12500000 -0.647701 -0.212794 0.731575 0.000000
68.90619659 270.93798828 296.25000000 0.850604 -0.510363 0.126500 0.000000
179.06199646 240.00000000 365.62500000 -0.666485 0.666485 0.334057 0.000000
133.12500000 247.50000000 451.87500000 0.066814 -0.198014 -0.977920 0.000000
224.06199646 150.00000000 421.87500000 -0.337586 0.169493 -0.925909 0.000000
158.43800354 292.96899414 420.00000000 -0.095475 -0.683012 -0.724140 0.000000
205.31199646 234.37500000 429.37500000 -0.488342 -0.711679 -0.505009 0.000000
90.93750000 153.28100586 367.50000000 0.663808 0.742589 -0.088994 0.000000
212.34399414 226.87500000 427.50000000 -0.480838 -0.681886 -0.551205 0.000000
180.00000000 205.31199646 395.62500000 0.000978 0.000978 0.999999 0.000000
126.56199646 324.37500000 388.12500000 0.158278 -0.841684 -0.516252 0.000000
102.18800354 326.25000000 354.37500000 0.404976 -0.872139 -0.274534 0.000000
169.68800354 291.56201172 414.37500000 -0.478536 -0.659876 -0.579281 0.000000
85.78119659 271.87500000 296.25000000 -0.905551 -0.095394 0.413374 0.000000
157.50000000 287.81201172 425.62500000 -0.000978 -0.000978 -0.999999 0.000000
68.90619659 291.56201172 345.00000000 0.806087 -0.431088 0.405447 0.000000
152.81199646 240.00000000 451.87500000 0.121262 -0.150659 -0.981120 0.000000
209.06199646 240.46899414 390.00000000 0.001184 -0.970072 0.242814 0.000000
120.00000000 333.28100586 360.00000000 0.492254 -0.856669 -0.154289 0.000000
171.56199646 251.25000000 365.62500000 -0.562810 -0.370313 0.738994 0.000000
62.81250000 247.50000000 313.12500000 0.976423 -0.210696 0.046955 0.000000
134.06199646 302.81201172 358.12500000 -0.929733 0.053917 0.364266 0.000000
75.93750000 301.87500000 384.37500000 0.625063 -0.625063 -0.467540 0.000000
116.25000000 285.93798828 433.12500000 0.731509 -0.557262 -0.392878 0.000000
133.12500000 257.81201172 448.12500000 -0.000978 -0.000978 -0.999999 0.000000
75.00000000 294.37500000 391.87500000 0.796604 -0.455432 -0.397497 0.000000
155.62500000 208.12500000 459.37500000 -0.000978 -0.000978 -0.999999 0.000000
134.06199646 148.59399414 412.50000000 0.304349 0.782384 -0.543366 0.000000
102.18800354 292.50000000 421.87500000 0.347223 -0.722159 -0.598267 0.000000
199.68800354 170.62500000 395.62500000 0.894688 -0.001310 -0.446689 0.000000
255.46899414 196.87500000 416.25000000 -0.404202 -0.100706 -0.909109 0.000000
160.31199646 234.37500000 373.12500000 -0.642758 0.758011 -0.110820 0.000000
149.53100586 311.25000000 405.00000000 0.093370 -0.547295 -0.831715 0.000000
64.21880341 275.62500000 386.25000000 0.256507 -0.772667 -0.580681 0.000000
173.43800354 267.18798828 429.37500000 -0.461153 -0.340714 -0.819299 0.000000
141.56199646 191.25000000 388.12500000 0.000978 0.000978 0.999999 0.000000
104.53099823 211.87500000 446.25000000 0.518980 0.177979 -0.836052 0.000000
132.18800354 163.12500000 388.12500000 0.000978 0.000978 0.999999 0.000000
195.00000000 270.93798828 410.62500000 -0.408938 -0.244164 -0.879291 0.000000
95.15619659 162.18800354 401.25000000 0.504303 0.837476 -0.210505 0.000000
145.31199646 225.93800354 459.37500000 -0.000978 -0.000978 -0.999999 0.000000
67.03119659 238.12500000 408.75000000 0.628739 0.500631 -0.595026 0.000000
118.59400177 292.50000000 427.50000000 -0.303631 -0.315480 -0.899044 0.000000
189.37500000 247.96899414 435.00000000 -0.490302 -0.427989 -0.759230 0.000000
101.25000000 286.87500000 324.37500000 -0.698191 -0.448242 0.558219 0.000000
97.96880341 204.37500000 307.50000000 -0.920033 0.314333 0.233955 0.000000
142.50000000 212.81199646 459.37500000 -0.000978 -0.000978 -0.999999 0.000000
141.56199646 281.25000000 436.87500000 -0.145730 -0.638507 -0.755692 0.000000
146.25000000 193.12500000 459.37500000 0.047470 0.322023 -0.945541 0.000000
127.50000000 272.81201172 346.87500000 -0.706931 -0.186359 0.682289 0.000000
220.31199646 201.56199646 391.87500000 -0.745393 -0.608711 0.271774 0.000000
97.50000000 322.03100586 378.75000000 0.271297 -0.927524 -0.257093 0.000000
58.12500000 241.87500000 380.62500000 0.951091 0.129029 -0.280672 0.000000
121.87500000 164.06199646 429.37500000 0.055815 0.941064 -0.333591 0.000000
102.18800354 222.18800354 444.37500000 -0.179128 -0.863073 -0.472248 0.000000
100.31199646 255.93800354 440.62500000 0.443356 -0.539665 -0.715679 0.000000
89.06250000 250.31199646 433.12500000 0.511885 -0.360096 -0.779939 0.000000
123.28099823 289.68798828 348.75000000 -0.485682 -0.113182 0.866777 0.000000
210.93800354 210.00000000 436.87500000 -0.636966 0.243777 -0.731332 0.000000
117.18800354 297.18798828 343.12500000 -0.762325 -0.191732 0.618142 0.000000
84.37500000 278.43798828 294.37500000 -0.970072 -0.001184 0.242814 0.000000
116.25000000 219.37500000 451.87500000 0.383961 -0.008989 -0.923305 0.000000
99.37500000 149.06199646 376.87500000 0.428867 0.890725 -0.150606 0.000000
58.12500000 230.62500000 380.62500000 0.960482 0.217991 -0.173072 0.000000
85.31250000 167.81199646 391.87500000 0.709933 0.608747 -0.354150 0.000000
126.56199646 296.25000000 425.62500000 -0.000978 -0.000978 -0.999999 0.000000
132.18800354 298.12500000 421.87500000 -0.278497 -0.415463 -0.865927 0.000000
185.62500000 231.56199646 384.37500000 0.350182 0.851332 0.390648 0.000000
83.90619659 213.75000000 427.50000000 0.830494 0.277866 -0.482773 0.000000
226.87500000 169.68800354 425.62500000 -0.479767 0.036696 -0.876628 0.000000
155.62500000 135.93800354 403.12500000 -0.000978 -0.000978 -0.999999 0.000000
78.75000000 185.62500000 410.62500000 0.661890 0.645384 -0.381288 0.000000
79.68750000 216.56199646 425.62500000 0.942656 0.236009 -0.236009 0.000000
63.28120041 255.93800354 315.00000000 0.901326 -0.089719 0.423747 0.000000
120.00000000 332.34399414 352.50000000 -0.268904 -0.957402 -0.105223 0.000000
144.37500000 211.87500000 459.37500000 0.881476 0.202282 -0.426711 0.000000
181.87500000 127.50000000 403.12500000 0.313341 0.211257 -0.925844 0.000000
99.37500000 279.37500000 320.62500000 -0.931068 0.215512 0.294392 0.000000
164.06199646 148.12500000 418.12500000 0.006926 0.677400 -0.735582 0.000000
184.68800354 150.93800354 395.62500000 0.593249 0.478969 0.647028 0.000000
153.75000000 303.28100586 412.50000000 -0.376999 -0.752366 -0.540202 0.000000
128.43800354 328.59399414 378.75000000 -0.078964 -0.888003 -0.453006 0.000000
225.00000000 159.37500000 421.87500000 -0.000978 -0.000978 -0.999999 0.000000
161.25000000 298.12500000 414.37500000 -0.275242 -0.730267 -0.625261 0.000000
63.28120041 228.75000000 307.50000000 0.951115 0.001230 0.308835 0.000000
193.12500000 247.50000000 433.12500000 -0.502687 -0.200773 -0.840831 0.000000
170.62500000 277.50000000 373.12500000 -0.562438 -0.227764 0.794850 0.000000
193.12500000 150.00000000 399.37500000 -0.530256 0.530256 0.661557 0.000000
113.43800354 142.50000000 388.12500000 0.467603 0.809129 -0.355889 0.000000
109.68800354 169.68800354 388.12500000 -0.105107 0.263416 0.958939 0.000000
75.00000000 303.75000000 358.12500000 0.315284 -0.945853 -0.077186 0.000000
177.18800354 272.81201172 376.87500000 -0.433661 -0.392055 0.811314 0.000000
160.31199646 270.00000000 436.87500000 -0.295238 -0.585689 -0.754853 0.000000
118.12500000 276.56201172 339.37500000 -0.000978 -0.000978 0.999999 0.000000
95.62500000 321.56201172 361.87500000 0.632529 -0.774326 -0.018072 0.000000
214.68800354 193.12500000 433.12500000 -0.386478 0.392788 -0.834477 0.000000
67.96880341 275.62500000 322.50000000 0.917471 -0.396211 -0.035541 0.000000
67.50000000 213.28100586 405.00000000 0.956698 0.108330 -0.270173 0.000000
192.18800354 232.50000000 444.37500000 0.666485 -0.334057 -0.666485 0.000000
183.75000000 256.87500000 376.87500000 -0.661025 -0.220342 0.717283 0.000000
58.12500000 241.87500000 339.37500000 0.973262 0.220245 0.065212 0.000000
186.56199646 192.18800354 388.12500000 0.188002 0.149634 0.970703 0.000000
69.84380341 289.68798828 337.50000000 0.824422 -0.529877 0.198894 0.000000
151.87500000 169.68800354 444.37500000 -0.080091 0.697517 -0.712079 0.000000
199.68800354 149.53100586 423.75000000 -0.073690 0.749904 -0.657430 0.000000
159.37500000 166.87500000 391.87500000 0.000978 0.000978 0.999999 0.000000
133.12500000 254.06199646 346.87500000 -0.519750 -0.039981 0.853382 0.000000
186.56199646 256.87500000 429.37500000 -0.616059 -0.555297 -0.558673 0.000000
155.62500000 321.56201172 384.37500000 -0.535323 -0.826226 -0.175442 0.000000
59.06250000 225.93800354 373.12500000 0.886261 0.267522 -0.378118 0.000000
212.81199646 185.62500000 391.87500000 -0.271989 0.184515 0.944445 0.000000
70.78119659 198.75000000 405.00000000 0.882624 -0.294208 -0.366628 0.000000
202.50000000 209.53100586 386.25000000 0.750195 -0.369402 0.548407 0.000000
180.93800354 264.37500000 425.62500000 -0.179265 -0.687949 -0.703271 0.000000
91.87500000 266.25000000 429.37500000 0.430439 -0.294673 -0.853164 0.000000
232.50000000 167.81199646 406.87500000 -0.654817 0.237116 0.717629 0.000000
110.15599823 211.87500000 337.50000000 -0.797075 0.384850 0.465363 0.000000
107.81199646 156.09399414 408.75000000 0.543559 0.814577 -0.202502 0.000000
151.87500000 215.62500000 459.37500000 -0.000978 -0.000978 -0.999999 0.000000
71.71880341 292.50000000 341.25000000 0.595064 -0.759220 0.263596 0.000000
175.31199646 163.12500000 391.87500000 0.000978 0.000978 0.999999 0.000000
215.62500000 229.68800354 421.87500000 -0.234322 -0.671514 -0.702967 0.000000
223.12500000 233.43800354 406.87500000 0.471702 -0.426001 0.772024 0.000000
95.62500000 185.62500000 429.37500000 0.696449 0.696449 -0.172964 0.000000
121.87500000 228.75000000 455.62500000 0.301428 -0.374135 -0.877020 0.000000
72.18750000 186.56199646 346.87500000 0.970072 -0.001184 0.242814 0.000000
180.00000000 211.87500000 455.62500000 -0.675026 0.213576 -0.706205 0.000000
84.37500000 285.93798828 294.37500000 -0.638144 0.767207 -0.064531 0.000000
161.25000000 193.12500000 455.62500000 -0.143604 0.249001 -0.957798 0.000000
63.75000000 245.62500000 403.12500000 0.970072 -0.001184 -0.242814 0.000000
60.46879959 253.12500000 322.50000000 0.942591 -0.227712 0.244273 0.000000
186.56199646 270.93798828 380.62500000 -0.514942 -0.599359 0.612865 0.000000
79.68750000 305.62500000 350.62500000 0.745250 -0.619203 0.247366 0.000000
116.25000000 258.75000000 335.62500000 -0.830452 -0.387544 0.400199 0.000000
149.06199646 141.09399414 412.50000000 -0.059959 0.506169 -0.860348 0.000000
189.37500000 189.37500000 444.37500000 -0.000978 -0.000978 -0.999999 0.000000
113.43800354 171.56199646 388.12500000 -0.146373 0.243955 0.958677 0.000000
69.37500000 224.06199646 410.62500000 0.840913 0.051770 -0.538688 0.000000
176.25000000 303.28100586 393.75000000 -0.882624 0.294208 0.366628 0.000000
192.18800354 217.96899414 397.50000000 -0.201759 0.829791 0.520326 0.000000
90.93750000 197.81199646 429.37500000 0.674783 0.038195 -0.737027 0.000000
150.93800354 244.68800354 451.87500000 -0.280304 -0.251847 -0.926284 0.000000
128.43800354 166.87500000 388.12500000 0.000978 0.000978 0.999999 0.000000
61.40620041 269.06201172 375.00000000 0.970487 -0.193075 -0.144486 0.000000
190.31199646 160.31199646 395.62500000 0.000978 0.000978 0.999999 0.000000
166.87500000 153.28100586 423.75000000 -0.311750 0.715571 -0.625115 0.000000
226.87500000 165.93800354 425.62500000 -0.686655 0.383671 -0.617496 0.000000
109.68800354 166.87500000 425.62500000 0.323331 0.818580 -0.474745 0.000000
148.12500000 221.25000000 384.37500000 0.778596 0.035199 0.626538 0.000000
92.34380341 205.31199646 435.00000000 0.742234 0.098475 -0.662866 0.000000
164.06199646 163.12500000 391.87500000 -0.083715 0.137953 0.986894 0.000000
120.93800354 196.87500000 455.62500000 -0.000978 -0.000978 -0.999999 0.000000
162.18800354 236.25000000 373.12500000 -0.263428 0.964267 -0.028181 0.000000
206.25000000 240.93800354 399.37500000 -0.856465 -0.514431 -0.042754 0.000000
125.62500000 209.06199646 455.62500000 -0.229468 0.401199 -0.886783 0.000000
135.93800354 149.06199646 388.12500000 -0.851229 -0.189993 0.489195 0.000000
82.50000000 313.12500000 373.12500000 0.716413 -0.626258 -0.307494 0.000000
170.62500000 221.25000000 455.62500000 -0.415676 -0.527399 -0.740988 0.000000
75.46880341 300.00000000 345.00000000 0.696449 -0.696449 0.172964 0.000000
112.50000000 304.68798828 414.37500000 0.343064 -0.863045 -0.370756 0.000000
58.12500000 257.34399414 345.00000000 0.625063 -0.625063 0.467540 0.000000
211.87500000 194.06199646 433.12500000 -0.202308 0.215706 -0.955271 0.000000
154.68800354 307.50000000 406.87500000 -0.285214 -0.802066 -0.524731 0.000000
191.25000000 216.56199646 448.12500000 -0.000978 -0.000978 -0.999999 0.000000
171.56199646 181.87500000 448.12500000 0.000978 0.000978 -0.999999 0.000000
158.43800354 147.18800354 418.12500000 -0.113653 0.155203 -0.981323 0.000000
244.21899414 207.18800354 420.00000000 -0.858528 -0.240751 -0.452734 0.000000
179.06199646 272.81201172 376.87500000 -0.143564 -0.474196 0.868635 0.000000
218.43800354 171.56199646 425.62500000 -0.000978 -0.000978 -0.999999 0.000000
80.62500000 285.00000000 410.62500000 0.970072 0.001184 -0.242814 0.000000
81.09380341 307.50000000 330.00000000 0.828226 -0.549733 0.108786 0.000000
121.87500000 165.00000000 388.12500000 -0.000978 -0.000978 0.999999 0.000000
150.00000000 244.68800354 451.87500000 -0.228339 -0.461214 -0.857405 0.000000
145.31199646 285.00000000 433.12500000 0.161773 -0.606272 -0.778629 0.000000
184.68800354 270.00000000 421.87500000 -0.625063 -0.625063 -0.467540 0.000000
109.21900177 220.31199646 330.00000000 -0.904062 0.107262 0.413723 0.000000
67.96880341 225.93800354 408.75000000 0.889090 0.039244 -0.456048 0.000000
179.06199646 195.93800354 395.62500000 0.064370 0.619379 0.782449 0.000000
193.12500000 160.31199646 395.62500000 0.000978 0.000978 0.999999 0.000000
170.62500000 208.12500000 395.62500000 -0.153728 0.260668 0.953111 0.000000
168.75000000 268.12500000 433.12500000 -0.598727 -0.277924 -0.751188 0.000000
60.00000000 240.00000000 320.62500000 0.996523 0.001055 0.083307 0.000000
124.68800354 157.50000000 384.37500000 -0.619961 0.020898 0.784355 0.000000
217.50000000 161.25000000 425.62500000 0.000978 0.000978 -0.999999 0.000000
186.09399414 221.25000000 450.00000000 -0.696078 0.696078 -0.175932 0.000000
198.75000000 159.84399414 397.50000000 -0.517221 -0.273455 0.810990 0.000000
146.25000000 150.00000000 421.87500000 0.758162 0.489612 -0.430662 0.000000
140.62500000 322.50000000 358.12500000 -0.799691 -0.061295 0.597274 0.000000
145.31199646 286.87500000 361.87500000 -0.777568 0.061575 0.625777 0.000000
77.81250000 187.96899414 300.00000000 0.754906 0.529902 0.386421 0.000000
110.62500000 277.50000000 436.87500000 -0.000978 -0.000978 -0.999999 0.000000
165.93800354 284.06201172 421.87500000 0.347980 -0.220917 -0.911101 0.000000
142.50000000 232.50000000 455.62500000 -0.113993 -0.643985 -0.756498 0.000000
211.87500000 151.87500000 421.87500000 -0.000978 -0.000978 -0.999999 0.000000
105.93800354 264.37500000 440.62500000 -0.210284 -0.226564 -0.951025 0.000000
114.37500000 215.62500000 451.87500000 0.574397 -0.121931 -0.809445 0.000000
193.12500000 273.75000000 388.12500000 -0.949488 0.307907 0.060551 0.000000
93.75000000 312.18798828 313.12500000 -0.015001 0.844128 0.535932 0.000000
64.21880341 278.43798828 382.50000000 0.999999 -0.000978 -0.000978 0.000000
180.93800354 290.62500000 384.37500000 -0.898855 -0.342068 0.273951 0.000000
68.43750000 253.12500000 410.62500000 0.603258 0.128952 -0.787052 0.000000
199.68800354 134.53100586 412.50000000 0.284848 0.474747 -0.832753 0.000000
138.75000000 162.18800354 433.12500000 0.149345 0.752761 -0.641129 0.000000
159.37500000 143.43800354 418.12500000 -0.000978 -0.000978 -0.999999 0.000000
159.37500000 259.21899414 442.50000000 -0.393395 -0.396555 -0.829448 0.000000
61.87500000 246.56199646 395.62500000 0.970072 0.001184 -0.242814 0.000000
135.00000000 262.50000000 350.62500000 -0.405709 -0.094895 0.909063 0.000000
186.56199646 162.18800354 429.37500000 -0.278766 0.331865 -0.901197 0.000000
115.31199646 207.18800354 451.87500000 0.258266 0.056145 -0.964441 0.000000
80.62500000 227.81199646 425.62500000 0.661672 0.175733 -0.728909 0.000000
240.00000000 212.81199646 421.87500000 -0.000978 -0.000978 -0.999999 0.000000
75.46880341 192.18800354 300.00000000 -0.000978 -0.000978 0.999999 0.000000
168.75000000 304.68798828 376.87500000 -0.004144 0.747327 0.664444 0.000000
129.37500000 153.75000000 418.12500000 0.035247 0.655596 -0.754288 0.000000
119.06199646 237.18800354 451.87500000 0.547936 -0.213342 -0.808858 0.000000
75.46880341 193.12500000 300.00000000 0.864793 0.419432 0.276063 0.000000
230.62500000 165.00000000 421.87500000 -0.139881 0.270436 -0.952522 0.000000
158.43800354 205.31199646 391.87500000 0.000978 0.000978 0.999999 0.000000
102.65599823 210.00000000 318.75000000 -0.696449 0.696449 -0.172964 0.000000
156.56199646 188.43800354 455.62500000 0.707106 0.707106 -0.001384 0.000000
160.31199646 196.87500000 388.12500000 0.000978 0.000978 0.999999 0.000000
137.81199646 268.12500000 444.37500000 -0.179242 -0.709306 -0.681731 0.000000
88.12500000 284.06201172 301.87500000 -0.693267 -0.661245 0.286593 0.000000
69.37500000 202.03100586 322.50000000 0.999999 -0.000978 -0.000978 0.000000
58.59379959 244.68800354 363.75000000 0.988690 -0.141570 0.049492 0.000000
180.00000000 185.62500000 448.12500000 -0.111459 0.447247 -0.887439 0.000000
242.81199646 185.62500000 406.87500000 -0.221461 0.240718 0.944992 0.000000
175.31199646 235.31199646 380.62500000 0.139023 0.887170 0.440002 0.000000
65.15619659 275.62500000 330.00000000 0.711058 -0.304739 0.633664 0.000000
113.43800354 169.68800354 433.12500000 0.247944 0.833153 -0.494348 0.000000
176.25000000 182.34399414 397.50000000 0.340205 -0.852843 0.396129 0.000000
91.40619659 285.00000000 420.00000000 0.375916 -0.375916 -0.846980 0.000000
222.18800354 221.25000000 403.12500000 -0.043788 -0.916885 0.396742 0.000000
165.93800354 260.62500000 365.62500000 0.000978 0.000978 0.999999 0.000000
68.43750000 249.37500000 410.62500000 0.441631 0.220067 -0.869789 0.000000
191.25000000 156.56199646 395.62500000 0.000978 0.000978 0.999999 0.000000
154.68800354 191.25000000 455.62500000 0.228151 0.247509 -0.941640 0.000000
165.00000000 217.50000000 459.37500000 -0.398226 -0.158434 -0.903501 0.000000
89.06250000 155.62500000 373.12500000 0.762981 0.646240 -0.015287 0.000000
135.93800354 217.50000000 365.62500000 -0.772139 0.085793 0.629635 0.000000
156.56199646 249.37500000 448.12500000 -0.227253 -0.260713 -0.938288 0.000000
141.56199646 209.53100586 382.50000000 -0.731997 0.451095 0.510581 0.000000
251.71899414 183.75000000 416.25000000 -0.656174 -0.049818 -0.752963 0.000000
118.12500000 287.81201172 429.37500000 -0.026715 -0.667871 -0.743797 0.000000
210.00000000 168.75000000 425.62500000 -0.625386 0.471135 -0.622032 0.000000
164.06199646 173.43800354 391.87500000 0.000978 0.000978 0.999999 0.000000
224.06199646 149.06199646 421.87500000 -0.337586 0.169493 -0.925909 0.000000
175.31199646 290.62500000 380.62500000 -0.745897 0.107823 0.657276 0.000000
70.31250000 281.71899414 318.75000000 0.956644 -0.291258 0.001219 0.000000
184.68800354 210.93800354 451.87500000 -0.643551 -0.009688 -0.765342 0.000000
69.84380341 294.37500000 382.50000000 0.814220 -0.454115 -0.361698 0.000000
97.03119659 153.75000000 386.25000000 0.647974 0.717683 -0.255071 0.000000
57.65620041 256.87500000 345.00000000 0.625063 -0.625063 0.467540 0.000000
146.71899414 225.93800354 363.75000000 -0.586414 0.613453 0.528956 0.000000
160.31199646 284.06201172 425.62500000 -0.000978 -0.000978 -0.999999 0.000000
192.65600586 223.12500000 446.25000000 -0.307065 0.492878 -0.814115 0.000000
228.75000000 167.34399414 423.75000000 -0.484290 0.419066 -0.768015 0.000000
75.00000000 285.00000000 403.12500000 0.671381 -0.480515 -0.564228 0.000000
152.81199646 149.06199646 421.87500000 -0.180997 0.783306 -0.594704 0.000000
72.65619659 203.43800354 300.00000000 0.947123 0.293380 0.129945 0.000000
188.43800354 189.37500000 444.37500000 -0.000978 -0.000978 -0.999999 0.000000
101.25000000 191.25000000 339.37500000 -0.882624 0.294208 0.366628 0.000000
143.43800354 224.06199646 459.37500000 -0.000978 -0.000978 -0.999999 0.000000
154.68800354 157.96899414 431.25000000 -0.290814 0.663570 -0.689277 0.000000
120.00000000 170.15600586 435.00000000 0.254255 0.746973 -0.614318 0.000000
244.68800354 176.25000000 410.62500000 -0.238543 -0.045262 0.970077 0.000000
208.12500000 193.12500000 388.12500000 -0.392230 0.382779 0.836442 0.000000
123.75000000 330.93798828 369.37500000 0.180590 -0.897171 -0.403077 0.000000
77.34380341 172.50000000 363.75000000 0.894688 0.446689 0.001310 0.000000
127.50000000 257.81201172 448.12500000 -0.095409 -0.508374 -0.855834 0.000000
63.75000000 279.37500000 335.62500000 0.612148 -0.697487 0.372540 0.000000
137.81199646 230.15600586 457.50000000 0.340374 -0.794206 -0.503370 0.000000
207.18800354 139.68800354 403.12500000 -0.510592 0.062950 0.857515 0.000000
150.93800354 273.75000000 361.87500000 -0.156254 -0.200160 0.967223 0.000000
75.93750000 290.62500000 399.37500000 0.709933 -0.608747 -0.354150 0.000000
209.06199646 159.37500000 425.62500000 -0.000978 -0.000978 -0.999999 0.000000
233.43800354 200.62500000 399.37500000 0.000978 0.000978 0.999999 0.000000
113.90599823 166.87500000 427.50000000 0.314833 0.631280 -0.708778 0.000000
195.93800354 207.65600586 393.75000000 -0.001184 -0.970072 0.242814 0.000000
138.75000000 267.18798828 350.62500000 -0.479595 0.382707 0.789636 0.000000
201.09399414 233.43800354 435.00000000 -0.655337 -0.403157 -0.638747 0.000000
164.06199646 187.96899414 453.75000000 0.131066 0.561079 -0.817320 0.000000
97.03119659 207.18800354 300.00000000 -0.936904 0.114585 0.330275 0.000000
89.06250000 241.87500000 433.12500000 0.154304 -0.064784 -0.985897 0.000000
67.96880341 295.31201172 363.75000000 0.970072 -0.001184 -0.242814 0.000000
79.68750000 287.81201172 406.87500000 0.970072 -0.001184 -0.242814 0.000000
82.96880341 315.00000000 367.50000000 0.096052 -0.948675 -0.301313 0.000000
174.37500000 209.06199646 395.62500000 0.000978 0.000978 0.999999 0.000000
74.06250000 181.40600586 337.50000000 0.894688 -0.001310 -0.446689 0.000000
97.50000000 248.43800354 305.62500000 -0.624527 -0.001373 0.781002 0.000000
150.00000000 268.12500000 358.12500000 -0.393162 -0.235897 0.888694 0.000000
96.56250000 209.06199646 298.12500000 -0.556701 0.570238 0.604080 0.000000
162.18800354 153.75000000 395.62500000 -0.413553 0.548658 0.726601 0.000000
67.50000000 282.65600586 390.00000000 0.796622 -0.570326 -0.200302 0.000000
121.87500000 140.15600586 393.75000000 0.447089 0.792493 -0.414808 0.000000
226.87500000 179.06199646 399.37500000 -0.822610 0.293006 0.487299 0.000000
165.00000000 303.28100586 405.00000000 -0.577350 -0.577350 -0.577350 0.000000
184.21899414 250.31199646 375.00000000 -0.283517 -0.565449 0.774523 0.000000
150.00000000 240.93800354 354.37500000 -0.434849 -0.773609 0.460908 0.000000
127.50000000 225.00000000 350.62500000 -0.629577 0.445881 0.636257 0.000000
133.12500000 202.50000000 376.87500000 -0.799835 -0.001367 0.600218 0.000000
94.21880341 166.87500000 345.00000000 -0.871417 0.410703 0.268245 0.000000
105.00000000 285.93798828 328.12500000 0.000978 0.000978 0.999999 0.000000
188.43800354 210.93800354 448.12500000 -0.595927 -0.164446 -0.786021 0.000000
73.12500000 179.06199646 376.87500000 0.423389 0.848329 0.317930 0.000000
192.18800354 181.87500000 440.62500000 -0.191897 0.342572 -0.919685 0.000000
165.46899414 268.12500000 435.00000000 -0.407052 -0.384878 -0.828359 0.000000
169.68800354 166.87500000 391.87500000 0.000978 0.000978 0.999999 0.000000
86.25000000 287.81201172 298.12500000 -0.912791 0.150956 0.379507 0.000000
175.78100586 147.18800354 420.00000000 -0.001310 0.894688 -0.446689 0.000000
152.81199646 304.21899414 412.50000000 -0.393294 -0.755581 -0.523848 0.000000
152.81199646 235.31199646 358.12500000 -0.197032 0.363862 0.910375 0.000000
128.43800354 287.34399414 352.50000000 -0.499287 0.230557 0.835198 0.000000
71.25000000 283.12500000 399.37500000 0.696449 -0.696449 -0.172964 0.000000
223.12500000 221.25000000 425.62500000 0.058413 -0.430623 -0.900640 0.000000
151.87500000 308.43798828 406.87500000 -0.346722 -0.775690 -0.527340 0.000000
241.87500000 207.18800354 421.87500000 -0.858528 -0.240751 -0.452734 0.000000
63.28120041 281.25000000 341.25000000 0.914513 -0.350635 0.201794 0.000000
210.00000000 155.62500000 425.62500000 -0.000978 -0.000978 -0.999999 0.000000
211.87500000 144.84399414 420.00000000 0.046943 0.672851 -0.738287 0.000000
212.81199646 231.56199646 373.12500000 -0.804229 -0.263912 0.532509 0.000000
241.40600586 173.43800354 408.75000000 -0.440143 -0.025265 0.897572 0.000000
206.25000000 167.34399414 397.50000000 -0.449025 -0.064539 0.891185 0.000000
71.25000000 190.31199646 350.62500000 0.838691 0.543979 -0.026166 0.000000
126.09400177 211.87500000 457.50000000 0.522958 0.342738 -0.780414 0.000000
147.18800354 303.75000000 365.62500000 0.000978 0.000978 0.999999 0.000000
190.31199646 229.21899414 382.50000000 0.413344 0.685586 0.599265 0.000000
209.06199646 187.50000000 433.12500000 -0.000978 -0.000978 -0.999999 0.000000
194.06199646 265.31201172 391.87500000 -0.672601 0.254797 0.694757 0.000000
99.84380341 210.00000000 311.25000000 -0.970984 0.062923 0.230717 0.000000
146.25000000 223.12500000 459.37500000 -0.000978 -0.000978 -0.999999 0.000000
213.75000000 160.31199646 403.12500000 -0.705483 0.471990 0.528695 0.000000
106.40599823 164.06199646 371.25000000 -0.666485 -0.666485 0.334057 0.000000
104.06199646 154.68800354 365.62500000 0.780241 0.390932 -0.488259 0.000000
141.56199646 171.56199646 388.12500000 0.000978 0.000978 0.999999 0.000000
98.43750000 278.43798828 316.87500000 -0.855224 0.355438 0.377168 0.000000
165.93800354 258.75000000 365.62500000 0.000978 0.000978 0.999999 0.000000
196.40600586 235.31199646 438.75000000 0.001313 -0.894164 0.447738 0.000000
173.43800354 142.96899414 416.25000000 0.382080 0.191761 -0.904015 0.000000
95.62500000 321.56201172 376.87500000 0.299683 -0.921992 -0.245195 0.000000
166.87500000 286.87500000 421.87500000 -0.521590 -0.452044 -0.723602 0.000000
171.56199646 278.90600586 423.75000000 -0.494284 -0.412719 -0.765079 0.000000
71.25000000 292.03100586 341.25000000 0.595064 -0.759220 0.263596 0.000000
249.37500000 186.56199646 418.12500000 -0.402174 0.043801 -0.914515 0.000000
116.25000000 175.31199646 440.62500000 0.208882 0.765902 -0.608080 0.000000
98.90619659 310.31201172 318.75000000 -0.910686 0.086276 0.403989 0.000000
114.37500000 186.56199646 448.12500000 0.585402 0.228260 -0.777947 0.000000
239.06199646 222.18800354 403.12500000 -0.283906 -0.506639 0.814073 0.000000
110.62500000 207.18800354 343.12500000 -0.790188 0.582324 0.191051 0.000000
124.68800354 194.06199646 384.37500000 -0.482650 0.778415 0.401396 0.000000
180.00000000 246.56199646 440.62500000 -0.496740 -0.157719 -0.853449 0.000000
113.43800354 281.71899414 337.50000000 -0.614821 -0.161636 0.771925 0.000000
197.81199646 268.12500000 410.62500000 -0.000978 -0.000978 -0.999999 0.000000
70.31250000 190.31199646 335.62500000 0.696449 0.696449 0.172964 0.000000
69.37500000 220.31199646 298.12500000 0.883541 0.176708 0.433738 0.000000
91.87500000 273.75000000 305.62500000 -0.736517 -0.335075 0.587595 0.000000
166.87500000 236.25000000 380.62500000 0.023040 0.868762 0.494693 0.000000
87.65619659 167.81199646 397.50000000 0.696270 0.677409 -0.237329 0.000000
250.31199646 212.81199646 406.87500000 -0.238609 -0.171959 0.955770 0.000000
57.18750000 247.50000000 373.12500000 0.970072 -0.001184 0.242814 0.000000
124.68800354 318.75000000 350.62500000 -0.431471 -0.111030 0.895268 0.000000
131.25000000 137.34399414 397.50000000 0.404497 0.813790 -0.417287 0.000000
158.90600586 310.31201172 371.25000000 -0.218622 -0.527445 0.820979 0.000000
98.43750000 222.18800354 298.12500000 -0.872374 -0.436933 0.219212 0.000000
98.90619659 222.18800354 300.00000000 -0.970072 -0.001184 0.242814 0.000000
67.50000000 223.12500000 298.12500000 0.786194 0.523596 0.328248 0.000000
182.81199646 191.25000000 448.12500000 -0.210880 0.003495 -0.977506 0.000000
122.81199646 195.93800354 373.12500000 -0.696449 0.696449 0.172964 0.000000
102.65599823 261.56201172 318.75000000 -0.838307 -0.310657 0.448034 0.000000
65.62500000 272.34399414 397.50000000 0.666523 -0.023855 -0.745103 0.000000
198.75000000 141.56199646 418.12500000 0.802453 0.533405 -0.267484 0.000000
193.12500000 168.75000000 433.12500000 -0.095975 0.303703 -0.947921 0.000000
235.31199646 176.25000000 421.87500000 -0.209284 0.039465 -0.977058 0.000000
223.12500000 226.87500000 421.87500000 -0.096979 -0.563060 -0.820706 0.000000
139.68800354 214.21899414 371.25000000 -0.945659 0.315220 0.079786 0.000000
180.93800354 232.50000000 448.12500000 -0.435526 -0.183302 -0.881316 0.000000
68.43750000 192.18800354 376.87500000 0.945199 0.320253 0.063532 0.000000
98.43750000 171.56199646 350.62500000 -0.878562 0.118186 0.462776 0.000000
144.37500000 271.87500000 440.62500000 -0.291102 -0.347830 -0.891220 0.000000
184.68800354 198.75000000 448.12500000 -0.106491 0.104150 -0.988844 0.000000
248.43800354 217.50000000 418.12500000 -0.000978 -0.000978 -0.999999 0.000000
173.43800354 172.50000000 440.62500000 -0.316583 0.580135 -0.750479 0.000000
244.68800354 161.25000000 418.12500000 -0.655359 0.460930 -0.598371 0.000000
120.93800354 210.00000000 358.12500000 -0.224861 0.424407 0.877107 0.000000
137.81199646 197.81199646 459.37500000 -0.000978 -0.000978 -0.999999 0.000000
110.62500000 270.00000000 331.87500000 -0.861432 0.045484 0.505833 0.000000
123.75000000 313.12500000 406.87500000 -0.004151 -0.751283 -0.659967 0.000000
137.81199646 139.68800354 403.12500000 0.000978 0.000978 -0.999999 0.000000
101.71900177 196.87500000 333.75000000 -0.898810 0.349783 0.264182 0.000000
69.37500000 193.12500000 350.62500000 0.757365 0.633405 -0.158729 0.000000
130.31199646 155.62500000 421.87500000 0.219378 0.811545 -0.541542 0.000000
226.87500000 190.31199646 425.62500000 -0.000978 -0.000978 -0.999999 0.000000
111.56199646 167.81199646 388.12500000 0.028517 -0.283931 0.958421 0.000000
98.90619659 167.81199646 352.50000000 -0.795302 0.251559 0.551555 0.000000
97.50000000 162.18800354 354.37500000 -0.856720 0.342378 0.385756 0.000000
179.06199646 189.37500000 448.12500000 -0.264350 0.233579 -0.935714 0.000000
100.31199646 263.43798828 436.87500000 0.780241 0.390932 -0.488259 0.000000
92.81250000 207.18800354 436.87500000 0.838389 0.102454 -0.535357 0.000000
127.96900177 289.68798828 352.50000000 -0.576766 -0.058102 0.814841 0.000000
146.25000000 199.68800354 459.37500000 -0.000978 -0.000978 -0.999999 0.000000
159.37500000 185.62500000 451.87500000 -0.000978 -0.000978 -0.999999 0.000000
180.46899414 188.43800354 390.00000000 0.696449 -0.696449 -0.172964 0.000000
152.81199646 183.75000000 451.87500000 -0.163389 0.379346 -0.910714 0.000000
98.43750000 228.75000000 298.12500000 -0.937672 -0.024305 0.346670 0.000000
73.12500000 284.06201172 301.87500000 0.624942 -0.434960 0.648273 0.000000
204.37500000 226.87500000 376.87500000 0.271441 0.851128 0.449334 0.000000
76.87500000 175.78100586 356.25000000 0.937669 0.274474 0.213170 0.000000
189.37500000 265.31201172 421.87500000 -0.633482 -0.722839 -0.276051 0.000000
184.68800354 271.87500000 380.62500000 -0.514942 -0.599359 0.612865 0.000000
88.59380341 315.93798828 326.25000000 0.783401 -0.590233 0.194700 0.000000
63.75000000 251.25000000 313.12500000 0.906772 -0.092191 0.411419 0.000000
67.50000000 227.81199646 406.87500000 0.932937 0.056422 -0.355592 0.000000
154.68800354 157.50000000 391.87500000 0.000978 0.000978 0.999999 0.000000
60.46879959 264.37500000 390.00000000 0.937477 -0.311577 -0.155102 0.000000
122.81199646 175.31199646 388.12500000 -0.000978 -0.000978 0.999999 0.000000
168.75000000 297.18798828 410.62500000 -0.646437 -0.488605 -0.585990 0.000000
154.68800354 255.00000000 358.12500000 -0.383538 -0.035343 0.922848 0.000000
174.37500000 148.12500000 421.87500000 -0.001310 0.894688 -0.446689 0.000000
210.93800354 183.75000000 391.87500000 0.097123 0.113505 0.988779 0.000000
115.31199646 287.81201172 339.37500000 -0.666485 0.334057 0.666485 0.000000
59.06250000 217.50000000 361.87500000 0.992394 0.123096 0.001089 0.000000
181.87500000 133.59399414 408.75000000 0.249662 0.867009 -0.431235 0.000000
227.81199646 195.93800354 425.62500000 0.000978 0.000978 -0.999999 0.000000
162.18800354 210.00000000 391.87500000 -0.144919 0.340904 0.928861 0.000000
130.31199646 249.37500000 451.87500000 -0.195970 -0.665064 -0.720615 0.000000
133.12500000 240.93800354 451.87500000 -0.000978 -0.000978 -0.999999 0.000000
234.84399414 179.06199646 405.00000000 -0.542236 0.289298 0.788851 0.000000
104.53099823 300.00000000 416.25000000 0.373075 -0.675480 -0.636036 0.000000
221.25000000 182.81199646 425.62500000 -0.000978 -0.000978 -0.999999 0.000000
194.06199646 265.31201172 418.12500000 -0.622625 -0.300855 -0.722374 0.000000
94.68750000 155.62500000 384.37500000 0.696449 0.696449 -0.172964 0.000000
220.31199646 226.87500000 421.87500000 -0.467519 -0.631737 -0.618332 0.000000
222.18800354 185.62500000 395.62500000 -0.295808 0.441389 0.847156 0.000000
190.31199646 204.37500000 399.37500000 0.026696 -0.751699 0.658966 0.000000
127.50000000 289.68798828 350.62500000 -0.620671 -0.195596 0.759282 0.000000
128.43800354 280.31201172 350.62500000 -0.625063 0.625063 0.467540 0.000000
147.18800354 216.56199646 384.37500000 -0.815522 0.166709 0.554195 0.000000
61.87500000 226.87500000 313.12500000 0.970072 -0.001184 0.242814 0.000000
119.06199646 315.93798828 343.12500000 -0.894688 -0.001310 0.446689 0.000000
115.31199646 237.18800354 448.12500000 0.505224 -0.017608 -0.862809 0.000000
146.25000000 153.28100586 423.75000000 0.172647 0.652394 -0.737953 0.000000
250.31199646 180.00000000 418.12500000 -0.848683 0.120411 -0.515013 0.000000
104.06199646 205.31199646 328.12500000 -0.863656 0.403449 0.302203 0.000000
97.50000000 273.28100586 431.25000000 0.601978 -0.753658 -0.263859 0.000000
188.43800354 223.12500000 448.12500000 -0.507264 0.151444 -0.848380 0.000000
105.46900177 182.81199646 356.25000000 -0.001384 0.707106 0.707106 0.000000
135.00000000 229.68800354 455.62500000 0.439025 -0.768702 -0.465138 0.000000
92.81250000 313.12500000 391.87500000 0.512288 -0.739605 -0.436515 0.000000
232.50000000 189.37500000 403.12500000 0.000978 0.000978 0.999999 0.000000
176.71899414 267.18798828 427.50000000 -0.520504 -0.655262 -0.547455 0.000000
72.65619659 296.25000000 386.25000000 0.778580 -0.443742 -0.443742 0.000000
146.25000000 285.93798828 361.87500000 -0.754189 -0.129930 0.643674 0.000000
109.68800354 305.62500000 410.62500000 0.244079 -0.716491 -0.653503 0.000000
152.81199646 290.62500000 425.62500000 -0.001381 -0.747332 -0.664449 0.000000
199.68800354 261.09399414 401.25000000 -0.779004 0.390312 0.490724 0.000000
239.06199646 164.06199646 421.87500000 -0.150659 -0.148169 -0.977419 0.000000
74.06250000 182.81199646 331.87500000 0.906961 0.402315 0.124760 0.000000
171.56199646 146.71899414 420.00000000 0.149662 -0.666675 0.730168 2.000000
183.75000000 169.21899414 435.00000000 0.162578 -0.645754 0.746036 2.000000
164.06199646 140.62500000 414.37500000 0.114007 -0.670715 0.732901 2.000000
161.25000000 140.62500000 414.37500000 0.110862 -0.672563 0.731689 2.000000
167.81199646 145.31199646 418.12500000 0.149662 -0.666675 0.730168 2.000000
174.37500000 151.87500000 421.87500000 0.149662 -0.666675 0.730168 2.000000
164.06199646 135.46899414 408.75000000 0.080046 -0.679662 0.729145 2.000000
177.18800354 168.75000000 436.87500000 0.162578 -0.645754 0.746036 2.000000
175.31199646 163.12500000 433.12500000 0.113776 -0.645713 0.755056 2.000000
169.68800354 150.00000000 421.87500000 0.149662 -0.666675 0.730168 2.000000
166.40600586 142.50000000 416.25000000 0.104747 -0.665366 0.739132 2.000000
160.78100586 135.93800354 408.75000000 0.080046 -0.679662 0.729145 2.000000
176.25000000 163.12500000 433.12500000 0.113776 -0.645713 0.755056 2.000000
177.18800354 166.40600586 435.00000000 0.139618 -0.644046 0.752138 2.000000
162.18800354 142.96899414 416.25000000 0.104747 -0.665366 0.739132 2.000000
179.06199646 162.65600586 431.25000000 0.113776 -0.645713 0.755056 2.000000
170.62500000 153.75000000 425.62500000 0.149662 -0.666675 0.730168 2.000000
169.68800354 147.18800354 421.87500000 0.149662 -0.666675 0.730168 2.000000
167.81199646 153.28100586 423.75000000 0.149662 -0.666675 0.730168 2.000000
179.06199646 164.06199646 433.12500000 0.136408 -0.646065 0.750995 2.000000
164.06199646 142.50000000 418.12500000 0.104747 -0.665366 0.739132 2.000000
85.31250000 161.25000000 343.12500000 -0.048779 0.845969 0.530996 1.000000
90.46880341 174.37500000 330.00000000 -0.045782 0.847654 0.528570 1.000000
207.18800354 133.12500000 406.87500000 -0.093279 0.839510 0.535277 1.000000
130.31199646 139.68800354 388.12500000 -0.102637 0.828323 0.550770 1.000000
90.93750000 192.18800354 305.62500000 -0.121588 0.824748 0.552274 1.000000
