163.12500000 300.00000000 107.50000000 -0.212663 -0.852162 -0.478116 0.000000
203.43800354 271.87500000 127.50000000 -0.049931 0.697613 0.714733 0.000000
206.25000000 265.31201172 182.50000000 -0.000978 -0.000978 -0.999999 0.000000
208.12500000 267.18798828 132.50000000 -0.871255 0.001330 0.490829 0.000000
175.31199646 299.06201172 107.50000000 -0.439417 -0.820140 0.366446 0.000000
201.56199646 237.18800354 122.50000000 0.000978 0.000978 0.999999 0.000000
160.31199646 289.68798828 87.50000000 -0.001139 -0.983039 0.183394 0.000000
212.81199646 289.21899414 165.00000000 0.001380 -0.730182 -0.683251 0.000000
147.18800354 202.03100586 155.00000000 0.656816 0.656816 -0.370385 0.000000
182.81199646 274.68798828 92.50000000 0.000978 0.000978 0.999999 0.000000
172.50000000 310.78100586 145.00000000 0.205586 -0.817774 -0.537569 0.000000
283.12500000 192.18800354 167.50000000 0.089755 0.847682 -0.522856 0.000000
265.31201172 208.12500000 107.50000000 -0.315303 -0.674264 0.667796 0.000000
150.93800354 239.06199646 187.50000000 -0.000978 -0.000978 -0.999999 0.000000
249.37500000 219.37500000 187.50000000 -0.000978 -0.000978 -0.999999 0.000000
180.00000000 297.18798828 107.50000000 -0.400477 -0.855072 0.329349 0.000000
180.93800354 189.84399414 125.00000000 0.245073 0.966469 -0.076664 0.000000
267.18798828 218.43800354 117.50000000 -0.407429 -0.901455 0.146220 0.000000
184.68800354 215.62500000 97.50000000 -0.001330 -0.871255 0.490829 0.000000
269.06201172 222.18800354 182.50000000 -0.000978 -0.000978 -0.999999 0.000000
222.18800354 203.43800354 182.50000000 0.218786 0.469258 -0.855529 0.000000
216.09399414 252.18800354 165.00000000 0.701101 0.701101 -0.130055 0.000000
184.21899414 284.06201172 100.00000000 -0.530618 -0.490445 0.691310 0.000000
167.81199646 213.28100586 180.00000000 0.690952 -0.035325 -0.722037 0.000000
155.62500000 294.37500000 102.50000000 0.292123 -0.876369 0.382938 0.000000
136.87500000 282.65600586 165.00000000 0.793176 -0.545014 -0.271722 0.000000
169.68800354 298.12500000 167.50000000 0.123633 -0.713497 -0.689664 0.000000
225.93800354 198.75000000 177.50000000 0.339588 0.805126 -0.486264 0.000000
192.18800354 189.84399414 75.00000000 0.127340 0.965980 0.225095 0.000000
174.37500000 200.62500000 172.50000000 0.001330 0.871255 -0.490829 0.000000
169.68800354 289.68798828 177.50000000 -0.136467 -0.715327 -0.685335 0.000000
217.03100586 281.25000000 150.00000000 -0.983039 0.001139 0.183394 0.000000
263.43798828 206.25000000 187.50000000 -0.000978 -0.000978 -0.999999 0.000000
214.68800354 215.62500000 187.50000000 -0.000978 -0.000978 -0.999999 0.000000
191.25000000 312.18798828 152.50000000 -0.089972 -0.846878 -0.524122 0.000000
237.18800354 219.37500000 107.50000000 -0.238261 -0.892368 0.383289 0.000000
134.06199646 255.00000000 172.50000000 0.871255 0.001330 -0.490829 0.000000
272.81201172 228.75000000 152.50000000 -0.474764 -0.768432 0.429082 0.000000
146.71899414 212.81199646 115.00000000 0.813892 0.574766 0.084991 0.000000
184.21899414 242.81199646 100.00000000 -0.823527 -0.046297 0.565385 0.000000
172.50000000 275.62500000 82.50000000 -0.603360 0.215597 0.767772 0.000000
227.81199646 196.87500000 87.50000000 -0.441207 -0.247137 0.862705 0.000000
192.18800354 294.37500000 167.50000000 -0.000978 -0.000978 -0.999999 0.000000
233.43800354 219.37500000 192.50000000 -0.052717 0.315016 -0.947621 0.000000
183.75000000 190.78100586 75.00000000 -0.001142 0.982962 0.183806 0.000000
210.93800354 202.50000000 177.50000000 0.017166 0.437084 -0.899257 0.000000
159.37500000 256.87500000 192.50000000 0.359359 -0.177549 -0.916153 0.000000
187.50000000 188.90600586 145.00000000 -0.117485 0.992469 -0.034686 0.000000
240.93800354 191.25000000 82.50000000 0.102718 -0.826088 0.554101 0.000000
151.87500000 285.00000000 82.50000000 0.130305 -0.714428 0.687469 0.000000
277.96899414 235.31199646 175.00000000 0.009691 -0.762825 -0.646532 0.000000
244.68800354 201.56199646 187.50000000 0.098426 0.703673 -0.703673 0.000000
206.25000000 234.37500000 127.50000000 -0.749018 -0.021001 0.662216 0.000000
290.62500000 211.87500000 147.50000000 -0.898045 -0.431779 0.084149 0.000000
195.93800354 202.50000000 82.50000000 -0.643790 -0.499232 0.579915 0.000000
187.50000000 223.12500000 187.50000000 -0.000978 -0.000978 -0.999999 0.000000
145.31199646 277.50000000 177.50000000 0.621697 -0.311656 -0.718585 0.000000
192.18800354 285.00000000 177.50000000 -0.571984 -0.306019 -0.761043 0.000000
142.03100586 223.12500000 175.00000000 0.305193 0.670134 -0.676593 0.000000
212.81199646 195.46899414 170.00000000 0.139594 0.730995 -0.667952 0.000000
206.25000000 252.18800354 187.50000000 -0.287250 -0.557043 -0.779225 0.000000
142.96899414 292.50000000 130.00000000 0.000978 0.000978 0.999999 0.000000
184.68800354 250.31199646 102.50000000 0.000978 0.000978 0.999999 0.000000
172.03100586 210.00000000 80.00000000 0.902671 0.263586 -0.340158 0.000000
207.65600586 195.93800354 90.00000000 -0.910551 -0.290850 0.293773 0.000000
161.25000000 224.06199646 187.50000000 0.880462 0.350063 -0.319755 0.000000
129.37500000 269.53100586 140.00000000 0.922898 -0.315240 0.221096 0.000000
265.31201172 205.31199646 187.50000000 -0.136560 0.658792 -0.739828 0.000000
303.75000000 212.81199646 167.50000000 -0.714003 0.117269 0.690252 0.000000
185.62500000 308.43798828 157.50000000 0.318105 -0.618448 -0.718562 0.000000
164.06199646 218.43800354 182.50000000 0.116260 0.492311 -0.862620 0.000000
197.81199646 290.62500000 117.50000000 -0.465991 -0.395045 0.791702 0.000000
179.06199646 242.81199646 192.50000000 -0.000978 -0.000978 -0.999999 0.000000
149.06199646 283.12500000 82.50000000 0.419798 -0.890436 -0.175763 0.000000
180.93800354 222.18800354 102.50000000 -0.791945 -0.323470 0.517871 0.000000
176.25000000 192.65600586 75.00000000 0.326727 0.944584 0.031783 0.000000
177.18800354 292.50000000 102.50000000 0.041279 -0.278945 0.959420 0.000000
182.81199646 247.50000000 97.50000000 -0.665064 0.195970 0.720615 0.000000
135.93800354 256.87500000 177.50000000 -0.260517 0.592085 -0.762605 0.000000
165.00000000 270.00000000 187.50000000 -0.000978 -0.000978 -0.999999 0.000000
192.18800354 250.31199646 192.50000000 -0.000978 -0.000978 -0.999999 0.000000
165.93800354 285.00000000 82.50000000 -0.354456 -0.596206 0.720347 0.000000
184.68800354 275.62500000 97.50000000 0.000978 0.000978 0.999999 0.000000
181.87500000 247.50000000 97.50000000 -0.665064 0.195970 0.720615 0.000000
187.50000000 215.62500000 97.50000000 -0.134973 -0.896507 0.421969 0.000000
272.81201172 222.18800354 182.50000000 -0.000978 -0.000978 -0.999999 0.000000
252.18800354 201.56199646 97.50000000 0.000978 0.000978 0.999999 0.000000
195.93800354 187.96899414 135.00000000 0.065880 0.996845 -0.044280 0.000000
201.56199646 231.56199646 192.50000000 -0.000978 -0.000978 -0.999999 0.000000
178.12500000 211.87500000 182.50000000 0.150659 0.121262 -0.981120 0.000000
211.87500000 203.43800354 87.50000000 -0.255012 -0.720685 0.644657 0.000000
132.65600586 222.18800354 155.00000000 0.000978 0.999999 0.000978 0.000000
222.18800354 211.87500000 97.50000000 0.000978 0.000978 0.999999 0.000000
154.68800354 277.50000000 72.50000000 0.245173 -0.828038 0.504225 0.000000
241.87500000 215.62500000 192.50000000 -0.287062 0.233326 -0.929061 0.000000
143.43800354 240.00000000 182.50000000 0.776260 -0.046831 -0.628671 0.000000
188.43800354 311.25000000 137.50000000 -0.051101 -0.963446 0.262985 0.000000
153.75000000 200.15600586 130.00000000 0.453457 0.816222 0.357992 0.000000
211.87500000 293.43798828 137.50000000 -0.567146 -0.584076 0.580690 0.000000
180.00000000 200.62500000 177.50000000 -0.000978 -0.000978 -0.999999 0.000000
170.62500000 195.00000000 72.50000000 0.523809 0.848543 -0.074830 0.000000
235.31199646 245.62500000 177.50000000 0.212467 0.299706 -0.930072 0.000000
261.56201172 225.93800354 122.50000000 0.000978 0.000978 0.999999 0.000000
209.06199646 276.56201172 132.50000000 0.000978 0.000978 0.999999 0.000000
207.65600586 241.87500000 130.00000000 -0.911293 -0.199480 0.360212 0.000000
290.62500000 216.56199646 177.50000000 -0.000978 -0.000978 -0.999999 0.000000
192.18800354 190.31199646 157.50000000 -0.001139 0.983039 -0.183394 0.000000
179.06199646 292.50000000 102.50000000 0.354497 -0.330154 0.874832 0.000000
139.68800354 212.81199646 142.50000000 0.656816 0.656816 0.370385 0.000000
249.37500000 196.87500000 182.50000000 -0.000978 -0.000978 -0.999999 0.000000
240.93800354 183.75000000 137.50000000 -0.440555 0.882563 -0.164299 0.000000
141.56199646 225.93800354 177.50000000 0.308726 0.657861 -0.686955 0.000000
247.50000000 232.96899414 130.00000000 -0.205559 -0.823759 0.528363 0.000000
196.87500000 263.43798828 187.50000000 -0.497128 -0.148112 -0.854943 0.000000
208.12500000 246.56199646 132.50000000 -0.558850 -0.280217 0.780490 0.000000
169.21899414 195.93800354 75.00000000 0.521813 0.852249 -0.037174 0.000000
146.25000000 221.25000000 177.50000000 0.637203 0.443199 -0.630513 0.000000
182.81199646 250.31199646 97.50000000 -0.665064 0.195970 0.720615 0.000000
191.25000000 195.93800354 72.50000000 0.312117 0.806435 -0.502240 0.000000
161.25000000 282.18798828 77.50000000 -0.206183 -0.717766 0.665057 0.000000
159.37500000 279.37500000 182.50000000 0.000978 0.000978 -0.999999 0.000000
262.03100586 209.06199646 105.00000000 -0.391268 -0.882977 0.259346 0.000000
270.00000000 195.93800354 97.50000000 -0.142822 -0.732150 0.666001 0.000000
210.93800354 250.31199646 187.50000000 -0.142309 -0.346793 -0.927083 0.000000
207.18800354 192.65600586 165.00000000 -0.001139 0.983039 -0.183394 0.000000
198.28100586 195.93800354 75.00000000 -0.393659 -0.517800 0.759549 0.000000
164.06199646 192.65600586 155.00000000 -0.001139 0.983039 -0.183394 0.000000
147.18800354 262.50000000 182.50000000 0.028474 -0.484064 -0.874569 0.000000
188.43800354 291.56201172 172.50000000 -0.000978 -0.000978 -0.999999 0.000000
198.28100586 295.31201172 120.00000000 -0.166299 -0.703337 0.691131 0.000000
288.75000000 227.81199646 177.50000000 -0.000978 -0.000978 -0.999999 0.000000
240.00000000 245.62500000 182.50000000 0.095888 -0.298172 -0.949684 0.000000
198.75000000 308.43798828 157.50000000 -0.251094 -0.737490 -0.626945 0.000000
253.12500000 247.50000000 157.50000000 -0.604391 -0.765976 0.219072 0.000000
249.84399414 248.43800354 155.00000000 -0.533362 -0.788102 0.307280 0.000000
209.06199646 216.56199646 107.50000000 0.453296 -0.453296 0.767493 0.000000
196.40600586 196.87500000 75.00000000 -0.518095 -0.484777 0.704676 0.000000
188.43800354 303.28100586 120.00000000 -0.936483 -0.001257 -0.350710 0.000000
270.93798828 221.25000000 182.50000000 -0.000978 -0.000978 -0.999999 0.000000
142.50000000 281.25000000 102.50000000 0.701101 -0.701101 0.130055 0.000000
197.81199646 207.18800354 182.50000000 0.193378 0.555771 -0.808532 0.000000
257.81201172 227.34399414 185.00000000 -0.092795 -0.901635 -0.422425 0.000000
243.75000000 230.15600586 125.00000000 0.001264 -0.933865 0.357624 0.000000
206.25000000 289.68798828 127.50000000 0.000978 0.000978 0.999999 0.000000
173.43800354 195.93800354 167.50000000 0.118463 0.874912 -0.469569 0.000000
130.31199646 257.81201172 127.50000000 0.983039 0.001139 0.183394 0.000000
276.56201172 231.56199646 162.50000000 -0.009478 -0.851667 0.523998 0.000000
249.37500000 213.75000000 187.50000000 -0.000978 -0.000978 -0.999999 0.000000
129.37500000 256.87500000 167.50000000 0.652228 0.012516 -0.757919 0.000000
153.28100586 208.12500000 80.00000000 0.652561 0.753846 0.076687 0.000000
135.46899414 254.06199646 175.00000000 0.877954 0.208755 -0.430834 0.000000
166.87500000 308.90600586 145.00000000 0.319228 -0.798865 -0.509812 0.000000
162.18800354 259.68798828 192.50000000 -0.000978 -0.000978 -0.999999 0.000000
134.53100586 270.93798828 110.00000000 0.960967 -0.209594 0.180593 0.000000
164.53100586 198.75000000 75.00000000 0.531774 0.827037 -0.182280 0.000000
193.12500000 302.81201172 122.50000000 -0.810430 -0.246383 0.531506 0.000000
187.50000000 198.75000000 72.50000000 0.682732 0.055821 -0.728534 0.000000
206.25000000 222.18800354 187.50000000 -0.000978 -0.000978 -0.999999 0.000000
126.56199646 255.93800354 137.50000000 0.852162 -0.212663 0.478116 0.000000
150.93800354 255.93800354 187.50000000 -0.000978 -0.000978 -0.999999 0.000000
134.06199646 239.06199646 172.50000000 0.826964 0.234741 -0.510907 0.000000
136.40600586 226.87500000 115.00000000 0.000978 0.000978 -0.999999 0.000000
219.37500000 203.43800354 182.50000000 0.105273 0.370505 -0.922845 0.000000
295.78100586 191.25000000 130.00000000 -0.727504 -0.518699 -0.449097 0.000000
270.00000000 184.21899414 120.00000000 0.000978 0.000978 -0.999999 0.000000
198.75000000 240.00000000 117.50000000 -0.361280 -0.450407 0.816462 0.000000
227.34399414 213.75000000 100.00000000 -0.128654 -0.590033 0.797063 0.000000
269.06201172 220.31199646 182.50000000 -0.000978 -0.000978 -0.999999 0.000000
226.40600586 207.18800354 95.00000000 0.054824 -0.827977 0.558076 0.000000
130.31199646 252.18800354 167.50000000 0.682275 -0.227425 -0.694823 0.000000
167.81199646 290.62500000 92.50000000 -0.475393 -0.733795 0.485332 0.000000
146.25000000 210.93800354 167.50000000 0.413710 0.234485 -0.879694 0.000000
170.62500000 211.87500000 77.50000000 0.902671 0.263586 -0.340158 0.000000
298.12500000 198.75000000 172.50000000 -0.799029 0.161010 -0.579334 0.000000
219.37500000 244.21899414 140.00000000 0.334165 0.833059 0.440847 0.000000
142.96899414 212.81199646 165.00000000 0.608615 0.520947 -0.598499 0.000000
272.81201172 217.03100586 125.00000000 -0.589471 -0.589471 0.552312 0.000000
135.46899414 285.00000000 160.00000000 0.717760 -0.400956 -0.569258 0.000000
186.56199646 200.62500000 72.50000000 0.605955 0.369485 -0.704485 0.000000
283.12500000 214.68800354 142.50000000 -0.475007 -0.729889 0.491558 0.000000
275.62500000 209.06199646 117.50000000 -0.861176 -0.377438 0.340465 0.000000
238.12500000 184.68800354 147.50000000 0.446689 0.894688 -0.001310 0.000000
207.18800354 305.15600586 145.00000000 -0.554142 -0.728442 0.402863 0.000000
250.31199646 181.87500000 82.50000000 0.000000 0.000000 0.000000 0.000000
161.25000000 201.09399414 75.00000000 0.636440 0.768612 -0.064650 0.000000
133.12500000 222.18800354 152.50000000 -0.502263 0.864328 0.025862 0.000000
195.93800354 205.31199646 177.50000000 0.244303 0.272546 -0.930610 0.000000
185.62500000 190.31199646 162.50000000 0.000978 0.000978 -0.999999 0.000000
180.00000000 239.06199646 92.50000000 -0.740203 0.233172 0.630659 0.000000
204.37500000 300.93798828 162.50000000 -0.000978 -0.000978 -0.999999 0.000000
210.46899414 231.56199646 130.00000000 -0.264938 -0.639342 0.721838 0.000000
187.50000000 201.56199646 72.50000000 0.605955 0.369485 -0.704485 0.000000
149.06199646 241.87500000 187.50000000 -0.000978 -0.000978 -0.999999 0.000000
296.25000000 188.90600586 155.00000000 -0.001139 0.983039 -0.183394 0.000000
132.65600586 238.12500000 120.00000000 0.966914 0.166977 0.192865 0.000000
277.03100586 193.12500000 170.00000000 0.033900 0.877339 -0.478672 0.000000
249.37500000 249.37500000 177.50000000 -0.000978 -0.000978 -0.999999 0.000000
172.50000000 255.93800354 192.50000000 -0.000978 -0.000978 -0.999999 0.000000
172.96899414 280.31201172 85.00000000 -0.779849 -0.252627 0.572726 0.000000
271.87500000 194.06199646 172.50000000 -0.320626 0.866765 -0.381990 0.000000
265.31201172 224.06199646 127.50000000 -0.946821 -0.316468 0.058127 0.000000
138.75000000 246.56199646 177.50000000 0.708486 0.705724 -0.001381 0.000000
129.84399414 271.87500000 165.00000000 0.246979 0.878645 -0.408637 0.000000
171.56199646 211.40600586 80.00000000 0.902671 0.263586 -0.340158 0.000000
150.93800354 256.87500000 187.50000000 -0.000978 -0.000978 -0.999999 0.000000
158.90600586 203.43800354 75.00000000 0.701101 0.701101 -0.130055 0.000000
240.93800354 197.81199646 182.50000000 -0.049066 0.391203 -0.918995 0.000000
226.87500000 243.75000000 182.50000000 0.000978 0.000978 -0.999999 0.000000
209.06199646 240.00000000 132.50000000 0.518624 -0.518624 -0.679749 0.000000
267.18798828 197.34399414 180.00000000 -0.128229 0.900423 -0.415688 0.000000
184.68800354 203.43800354 72.50000000 0.490989 0.494317 -0.717343 0.000000
260.62500000 209.53100586 105.00000000 -0.349976 -0.803827 0.481018 0.000000
207.18800354 244.21899414 130.00000000 -0.900992 -0.161863 0.402510 0.000000
140.62500000 250.31199646 182.50000000 0.538508 0.133527 -0.831973 0.000000
147.18800354 259.68798828 187.50000000 0.230261 0.712712 -0.662587 0.000000
235.31199646 238.12500000 132.50000000 -0.000978 -0.000978 -0.999999 0.000000
136.40600586 290.62500000 145.00000000 0.890530 -0.425780 0.160209 0.000000
299.06201172 222.18800354 177.50000000 -0.000978 -0.999999 -0.000978 0.000000
270.93798828 183.28100586 100.00000000 -0.258267 0.965105 -0.043251 0.000000
142.50000000 217.03100586 110.00000000 0.000978 0.000978 -0.999999 0.000000
192.18800354 266.25000000 107.50000000 -0.806002 0.590882 0.034922 0.000000
197.81199646 289.68798828 172.50000000 0.084179 -0.286209 -0.954462 0.000000
168.75000000 299.06201172 107.50000000 0.358127 -0.766490 0.533140 0.000000
303.28100586 199.68800354 165.00000000 -0.994811 -0.101730 0.001071 0.000000
217.50000000 245.62500000 192.50000000 -0.141348 -0.189737 -0.971607 0.000000
297.18798828 196.87500000 172.50000000 -0.799029 0.161010 -0.579334 0.000000
216.56199646 269.06201172 152.50000000 -0.869608 0.296976 0.394446 0.000000
303.28100586 204.37500000 175.00000000 -0.705683 0.411511 -0.576776 0.000000
231.56199646 225.93800354 192.50000000 -0.000978 -0.000978 -0.999999 0.000000
272.81201172 222.65600586 140.00000000 -0.773083 -0.552202 0.312114 0.000000
158.43800354 291.56201172 92.50000000 0.034113 -0.866475 0.498053 0.000000
240.93800354 193.12500000 177.50000000 -0.161317 0.791508 -0.589485 0.000000
242.81199646 186.56199646 162.50000000 0.195917 0.974592 -0.108565 0.000000
198.75000000 298.12500000 167.50000000 -0.000978 -0.000978 -0.999999 0.000000
277.50000000 194.06199646 172.50000000 0.087807 0.925355 -0.368791 0.000000
259.68798828 199.68800354 182.50000000 -0.000978 -0.000978 -0.999999 0.000000
290.62500000 220.31199646 157.50000000 -0.402696 -0.681103 0.611502 0.000000
156.56199646 205.78100586 75.00000000 0.705724 0.708486 0.001381 0.000000
206.25000000 273.75000000 182.50000000 -0.000978 -0.000978 -0.999999 0.000000
173.43800354 206.25000000 72.50000000 0.735455 0.254641 -0.627904 0.000000
148.12500000 282.18798828 177.50000000 -0.000978 -0.000978 -0.999999 0.000000
145.78100586 235.31199646 185.00000000 0.734581 0.251179 -0.630318 0.000000
186.56199646 285.93798828 102.50000000 -0.645722 -0.391397 0.655631 0.000000
145.31199646 214.21899414 120.00000000 0.878854 0.468253 -0.091401 0.000000
175.31199646 268.12500000 82.50000000 -0.880057 0.161465 0.446574 0.000000
160.31199646 228.75000000 187.50000000 -0.000978 -0.000978 -0.999999 0.000000
135.00000000 224.06199646 142.50000000 0.928365 0.160063 0.335436 0.000000
217.96899414 283.12500000 160.00000000 -0.990672 -0.074789 -0.113910 0.000000
223.12500000 246.56199646 182.50000000 -0.435124 -0.678527 0.591835 0.000000
296.25000000 189.37500000 157.50000000 -0.001139 0.983039 -0.183394 0.000000
240.00000000 220.31199646 112.50000000 -0.523336 -0.489896 0.697224 0.000000
188.43800354 261.56201172 107.50000000 0.000978 0.000978 0.999999 0.000000
188.43800354 294.37500000 112.50000000 0.000978 0.000978 0.999999 0.000000
152.81199646 207.65600586 95.00000000 0.701101 0.701101 0.130055 0.000000
131.25000000 257.81201172 167.50000000 -0.000978 -0.000978 -0.999999 0.000000
174.37500000 207.18800354 72.50000000 0.656816 -0.656816 -0.370385 0.000000
243.75000000 252.18800354 182.50000000 -0.000978 -0.000978 -0.999999 0.000000
175.31199646 206.71899414 75.00000000 0.656816 -0.656816 -0.370385 0.000000
183.75000000 226.87500000 187.50000000 -0.114498 0.324635 -0.938883 0.000000
211.40600586 255.93800354 145.00000000 -0.875503 0.133698 0.464348 0.000000
141.56199646 296.71899414 150.00000000 0.548503 -0.822012 -0.153105 0.000000
172.96899414 190.31199646 130.00000000 0.087496 0.964988 0.247270 0.000000
143.43800354 205.78100586 140.00000000 0.647052 0.760819 0.049773 0.000000
302.81201172 212.81199646 162.50000000 -0.366900 -0.780672 0.505901 0.000000
210.00000000 284.06201172 132.50000000 -0.846726 0.222663 0.483194 0.000000
148.12500000 291.09399414 115.00000000 0.656816 -0.656816 0.370385 0.000000
295.31201172 207.18800354 157.50000000 -0.665817 -0.004153 0.746103 0.000000
153.75000000 198.75000000 132.50000000 0.478203 0.848620 0.226198 0.000000
194.06199646 188.43800354 82.50000000 0.316468 0.946821 0.058127 0.000000
228.75000000 243.75000000 152.50000000 -0.267006 0.957314 -0.110710 0.000000
262.03100586 222.18800354 185.00000000 0.000978 0.999999 0.000978 0.000000
145.31199646 263.43798828 182.50000000 -0.000978 -0.000978 -0.999999 0.000000
171.56199646 305.62500000 117.50000000 0.001139 -0.983039 0.183394 0.000000
172.50000000 299.06201172 167.50000000 -0.001378 -0.770137 -0.637877 0.000000
212.81199646 187.50000000 127.50000000 0.175304 0.979494 -0.099298 0.000000
261.56201172 182.34399414 115.00000000 -0.189232 0.981420 -0.031735 0.000000
151.87500000 210.00000000 72.50000000 0.701101 0.701101 0.130055 0.000000
285.00000000 227.81199646 177.50000000 -0.000978 -0.000978 -0.999999 0.000000
142.50000000 206.71899414 155.00000000 0.658700 0.709248 -0.251159 0.000000
197.81199646 200.62500000 82.50000000 -0.000978 -0.000978 0.999999 0.000000
229.68800354 184.68800354 92.50000000 0.382241 0.923858 0.019436 0.000000
140.62500000 276.09399414 175.00000000 0.594725 -0.470754 -0.651685 0.000000
180.00000000 197.81199646 172.50000000 0.001359 0.569351 -0.822094 0.000000
186.56199646 189.84399414 80.00000000 0.316468 0.946821 0.058127 0.000000
210.00000000 198.75000000 172.50000000 0.518624 -0.518624 -0.679749 0.000000
166.87500000 193.59399414 115.00000000 0.340860 0.862175 0.374792 0.000000
245.62500000 245.62500000 182.50000000 -0.000978 -0.000978 -0.999999 0.000000
256.87500000 209.06199646 102.50000000 -0.264476 -0.214627 0.940206 0.000000
149.53100586 211.87500000 75.00000000 0.702572 0.699576 0.130328 0.000000
239.06199646 245.62500000 142.50000000 -0.642214 0.766514 0.004143 0.000000
165.46899414 198.75000000 90.00000000 0.702295 0.699300 -0.133271 0.000000
208.12500000 222.65600586 115.00000000 -0.353137 -0.800549 0.484165 0.000000
211.87500000 242.81199646 132.50000000 -0.000978 -0.000978 -0.999999 0.000000
155.62500000 224.06199646 182.50000000 -0.000978 -0.000978 -0.999999 0.000000
178.59399414 228.75000000 95.00000000 -0.704321 0.695272 0.143277 0.000000
196.87500000 213.75000000 182.50000000 0.235609 0.208371 -0.949247 0.000000
268.12500000 223.12500000 182.50000000 -0.000978 -0.000978 -0.999999 0.000000
180.00000000 288.75000000 177.50000000 -0.000978 -0.000978 -0.999999 0.000000
220.31199646 275.62500000 167.50000000 -0.813372 -0.581375 -0.020714 0.000000
153.75000000 303.75000000 142.50000000 0.434076 -0.889642 0.141827 0.000000
139.68800354 220.78100586 120.00000000 0.000978 0.000978 -0.999999 0.000000
146.71899414 214.68800354 75.00000000 0.701101 0.701101 0.130055 0.000000
271.87500000 191.25000000 92.50000000 -0.379122 -0.175970 0.908461 0.000000
163.12500000 304.21899414 125.00000000 0.438172 -0.874859 0.206461 0.000000
189.37500000 300.93798828 117.50000000 -0.936483 -0.001257 -0.350710 0.000000
190.78100586 188.43800354 125.00000000 0.215593 0.950508 0.223729 0.000000
296.25000000 189.84399414 160.00000000 0.001139 0.983039 -0.183394 0.000000
170.62500000 236.25000000 192.50000000 -0.000978 -0.000978 -0.999999 0.000000
201.56199646 307.50000000 157.50000000 -0.535141 -0.705185 -0.465122 0.000000
240.00000000 241.87500000 182.50000000 -0.000978 -0.000978 -0.999999 0.000000
223.12500000 212.81199646 187.50000000 -0.000978 -0.000978 -0.999999 0.000000
166.87500000 238.12500000 192.50000000 -0.000978 -0.000978 -0.999999 0.000000
273.75000000 217.50000000 182.50000000 -0.000978 -0.000978 -0.999999 0.000000
284.06201172 235.31199646 177.50000000 0.000978 0.000978 -0.999999 0.000000
217.03100586 287.81201172 145.00000000 -0.942308 -0.066654 0.328043 0.000000
240.00000000 238.12500000 132.50000000 -0.000978 -0.000978 -0.999999 0.000000
140.15600586 262.50000000 180.00000000 0.631830 0.497040 -0.594763 0.000000
240.00000000 182.34399414 85.00000000 0.241851 0.966139 0.089903 0.000000
245.62500000 230.62500000 187.50000000 -0.000978 -0.000978 -0.999999 0.000000
293.43798828 210.93800354 177.50000000 -0.000978 -0.000978 -0.999999 0.000000
291.56201172 232.50000000 177.50000000 -0.000978 -0.000978 -0.999999 0.000000
289.68798828 233.43800354 177.50000000 -0.000978 -0.000978 -0.999999 0.000000
226.87500000 217.50000000 102.50000000 -0.083235 -0.495177 0.864796 0.000000
196.87500000 306.09399414 160.00000000 -0.162713 -0.655416 -0.737533 0.000000
167.81199646 219.37500000 72.50000000 0.909800 0.380151 -0.166583 0.000000
152.81199646 287.81201172 172.50000000 0.361388 -0.606673 -0.708058 0.000000
168.75000000 218.90600586 75.00000000 0.936483 0.001257 -0.350710 0.000000
293.43798828 214.68800354 152.50000000 0.000978 0.000978 0.999999 0.000000
202.50000000 203.43800354 87.50000000 -0.701101 -0.701101 0.130055 0.000000
152.81199646 280.31201172 182.50000000 0.576210 -0.708292 -0.407805 0.000000
214.68800354 187.96899414 135.00000000 0.035915 0.995835 -0.083803 0.000000
200.62500000 210.00000000 182.50000000 0.242717 0.305910 -0.920602 0.000000
180.00000000 277.96899414 185.00000000 -0.377522 -0.634699 -0.674265 0.000000
134.06199646 268.59399414 110.00000000 0.960967 -0.209594 0.180593 0.000000
148.12500000 300.93798828 142.50000000 0.560779 -0.810349 0.169888 0.000000
180.93800354 212.81199646 182.50000000 -0.023108 0.254186 -0.966879 0.000000
262.50000000 221.25000000 122.50000000 0.317371 -0.597689 0.736236 0.000000
210.93800354 265.31201172 142.50000000 -0.746747 -0.168816 0.643328 0.000000
155.62500000 234.37500000 187.50000000 -0.000978 -0.000978 -0.999999 0.000000
210.00000000 207.18800354 102.50000000 0.936483 -0.001257 -0.350710 0.000000
269.06201172 215.62500000 182.50000000 -0.657756 -0.329690 -0.677245 0.000000
164.06199646 270.93798828 72.50000000 -0.983039 -0.001139 0.183394 0.000000
276.56201172 210.00000000 182.50000000 -0.000978 -0.000978 -0.999999 0.000000
224.06199646 216.56199646 102.50000000 -0.000978 -0.000978 0.999999 0.000000
145.31199646 231.56199646 182.50000000 0.383655 0.425046 -0.819844 0.000000
270.93798828 233.43800354 182.50000000 -0.000978 -0.000978 -0.999999 0.000000
166.87500000 224.06199646 72.50000000 0.983039 -0.001139 -0.183394 0.000000
132.18800354 227.81199646 162.50000000 0.881342 0.300835 -0.364328 0.000000
249.37500000 191.25000000 87.50000000 0.000978 0.000978 0.999999 0.000000
217.50000000 245.15600586 140.00000000 0.177367 0.915216 0.361830 0.000000
207.18800354 224.06199646 187.50000000 -0.000978 -0.000978 -0.999999 0.000000
131.71899414 232.50000000 140.00000000 0.911212 0.409578 -0.044026 0.000000
171.56199646 264.37500000 192.50000000 -0.000978 -0.000978 -0.999999 0.000000
250.31199646 186.56199646 162.50000000 0.936483 -0.001257 -0.350710 0.000000
165.93800354 231.56199646 77.50000000 0.589471 -0.589471 0.552312 0.000000
244.68800354 210.93800354 102.50000000 0.000978 0.000978 0.999999 0.000000
242.81199646 209.06199646 187.50000000 -0.000978 -0.000978 -0.999999 0.000000
166.87500000 225.93800354 72.50000000 0.785713 0.435787 -0.439027 0.000000
167.34399414 225.93800354 75.00000000 0.852750 0.444045 -0.275031 0.000000
282.18798828 203.43800354 122.50000000 -0.812702 -0.403956 0.419923 0.000000
189.37500000 304.68798828 162.50000000 -0.317196 -0.878740 -0.356656 0.000000
235.31199646 225.46899414 115.00000000 0.677172 -0.627744 0.383896 0.000000
239.06199646 199.68800354 92.50000000 -0.228424 -0.519702 0.823245 0.000000
133.12500000 270.93798828 122.50000000 0.949097 -0.265963 0.168758 0.000000
269.53100586 227.81199646 145.00000000 -0.699300 -0.702295 0.133271 0.000000
137.34399414 227.81199646 75.00000000 0.926615 0.369313 -0.070663 0.000000
202.50000000 291.56201172 167.50000000 -0.000978 -0.000978 -0.999999 0.000000
255.46899414 231.56199646 130.00000000 -0.613435 -0.714318 0.336820 0.000000
254.06199646 185.15600586 155.00000000 -0.169659 0.967445 -0.187791 0.000000
142.96899414 284.06201172 170.00000000 0.428656 -0.645485 -0.632142 0.000000
151.87500000 274.68798828 182.50000000 -0.000978 -0.000978 -0.999999 0.000000
191.25000000 199.68800354 172.50000000 0.001139 0.983039 -0.183394 0.000000
207.18800354 236.25000000 127.50000000 -0.747996 -0.419207 0.514556 0.000000
268.12500000 230.62500000 182.50000000 -0.000978 -0.000978 -0.999999 0.000000
165.46899414 228.75000000 75.00000000 0.835671 0.431162 -0.340226 0.000000
278.43798828 193.12500000 167.50000000 -0.034262 0.862026 -0.505704 0.000000
196.40600586 229.68800354 120.00000000 -0.630686 -0.755907 0.175615 0.000000
298.12500000 222.18800354 167.50000000 0.581314 0.291453 -0.759690 0.000000
290.62500000 216.56199646 152.50000000 -0.346632 -0.484006 0.803483 0.000000
200.62500000 302.34399414 130.00000000 -0.403721 -0.802617 0.439107 0.000000
169.68800354 307.50000000 152.50000000 -0.000978 -0.000978 -0.999999 0.000000
165.93800354 267.18798828 187.50000000 0.185884 -0.180684 -0.965816 0.000000
201.56199646 277.50000000 122.50000000 -0.740607 -0.199454 0.641653 0.000000
133.12500000 260.62500000 172.50000000 -0.000978 -0.000978 -0.999999 0.000000
153.75000000 284.06201172 82.50000000 0.210183 -0.699052 0.683483 0.000000
230.62500000 246.56199646 162.50000000 0.000978 0.000978 0.999999 0.000000
214.68800354 243.75000000 192.50000000 -0.000978 -0.000978 -0.999999 0.000000
216.09399414 270.00000000 150.00000000 -0.983039 -0.001139 0.183394 0.000000
289.68798828 211.40600586 145.00000000 -0.766646 -0.259747 0.587185 0.000000
158.43800354 279.37500000 182.50000000 0.000978 0.000978 -0.999999 0.000000
162.18800354 231.56199646 72.50000000 0.946821 0.316468 -0.058127 0.000000
304.21899414 208.12500000 175.00000000 -0.965970 0.242445 -0.090123 0.000000
127.50000000 270.93798828 157.50000000 0.933593 -0.346916 0.089743 0.000000
207.65600586 200.62500000 95.00000000 -0.212237 -0.605729 0.766843 0.000000
135.46899414 232.50000000 75.00000000 0.000978 0.000978 -0.999999 0.000000
143.90600586 216.56199646 170.00000000 0.503485 0.756048 -0.418204 0.000000
139.68800354 216.09399414 165.00000000 0.511390 0.616031 -0.599154 0.000000
199.21899414 269.06201172 120.00000000 -0.688189 0.336773 0.642635 0.000000
207.18800354 296.25000000 162.50000000 -0.000978 -0.000978 -0.999999 0.000000
140.62500000 220.78100586 80.00000000 0.811002 0.566957 0.144343 0.000000
194.06199646 218.43800354 187.50000000 -0.000978 -0.000978 -0.999999 0.000000
273.75000000 191.71899414 95.00000000 -0.054370 -0.849007 0.525576 0.000000
234.37500000 244.21899414 135.00000000 0.001139 0.983039 -0.183394 0.000000
141.56199646 246.56199646 182.50000000 0.620167 0.135988 -0.772593 0.000000
155.62500000 285.93798828 177.50000000 0.274849 -0.349133 -0.895860 0.000000
257.81201172 187.50000000 82.50000000 0.000978 0.000978 0.999999 0.000000
240.00000000 193.12500000 87.50000000 0.033993 -0.953051 0.300897 0.000000
160.31199646 227.81199646 187.50000000 0.905425 0.277351 -0.321375 0.000000
174.37500000 202.03100586 175.00000000 0.639720 0.485247 -0.596065 0.000000
211.87500000 268.12500000 142.50000000 -0.733011 0.331716 0.593852 0.000000
144.37500000 203.90600586 145.00000000 0.927679 0.372878 -0.019354 0.000000
276.09399414 195.93800354 100.00000000 -0.171857 -0.758907 0.628113 0.000000
134.53100586 235.31199646 75.00000000 0.000978 0.000978 -0.999999 0.000000
300.00000000 214.68800354 177.50000000 -0.000978 -0.000978 -0.999999 0.000000
189.37500000 295.31201172 167.50000000 -0.000978 -0.000978 -0.999999 0.000000
210.00000000 234.37500000 132.50000000 -0.382591 -0.285809 0.878599 0.000000
130.31199646 262.96899414 130.00000000 0.972945 -0.140438 0.183455 0.000000
268.12500000 209.06199646 107.50000000 -0.202822 -0.639430 0.741615 0.000000
194.06199646 241.87500000 112.50000000 -0.441748 0.428803 0.788027 0.000000
204.37500000 290.62500000 127.50000000 -0.419300 0.140714 0.896876 0.000000
143.90600586 286.87500000 115.00000000 0.701101 -0.701101 0.130055 0.000000
137.81199646 278.90600586 170.00000000 0.199454 -0.740607 -0.641653 0.000000
258.75000000 228.75000000 122.50000000 0.301770 -0.261342 0.916862 0.000000
247.03100586 246.56199646 140.00000000 0.545969 0.475845 -0.689557 0.000000
255.00000000 239.06199646 182.50000000 -0.192640 -0.355313 -0.914682 0.000000
296.71899414 203.43800354 160.00000000 -0.633647 -0.475656 0.610117 0.000000
269.06201172 188.90600586 160.00000000 -0.001139 0.983039 -0.183394 0.000000
231.56199646 228.75000000 192.50000000 -0.000978 -0.000978 -0.999999 0.000000
195.00000000 200.15600586 175.00000000 0.368902 0.755680 -0.541164 0.000000
179.53100586 266.25000000 90.00000000 -0.696896 -0.333016 0.635166 0.000000
256.87500000 188.43800354 82.50000000 0.000978 0.000978 0.999999 0.000000
133.12500000 283.59399414 145.00000000 0.946675 -0.316419 0.060701 0.000000
164.06199646 287.34399414 85.00000000 -0.557148 -0.728072 0.399371 0.000000
268.12500000 230.15600586 150.00000000 -0.432204 -0.804960 0.406497 0.000000
162.18800354 238.12500000 72.50000000 0.000978 0.000978 0.999999 0.000000
162.18800354 206.25000000 172.50000000 -0.000978 -0.000978 -0.999999 0.000000
181.87500000 274.68798828 187.50000000 -0.165174 -0.288031 -0.943268 0.000000
231.56199646 184.21899414 95.00000000 0.352578 0.931717 -0.087139 0.000000
237.18800354 197.81199646 87.50000000 -0.313836 -0.272964 0.909394 0.000000
177.18800354 260.62500000 87.50000000 -0.853214 0.386977 0.349678 0.000000
176.25000000 215.62500000 92.50000000 -0.264771 -0.794313 0.546776 0.000000
231.56199646 196.87500000 87.50000000 0.000978 0.000978 0.999999 0.000000
255.00000000 227.81199646 117.50000000 -0.836592 -0.511000 0.197466 0.000000
170.62500000 192.18800354 162.50000000 0.348846 0.895125 -0.277593 0.000000
218.43800354 210.00000000 182.50000000 -0.000978 -0.000978 -0.999999 0.000000
133.59399414 240.00000000 75.00000000 0.000978 0.000978 -0.999999 0.000000
240.00000000 243.75000000 182.50000000 0.095888 -0.298172 -0.949684 0.000000
182.81199646 293.90600586 105.00000000 -0.656816 -0.656816 0.370385 0.000000
174.37500000 256.87500000 192.50000000 -0.000978 -0.000978 -0.999999 0.000000
210.93800354 253.12500000 137.50000000 -0.728652 0.212847 0.650970 0.000000
204.37500000 238.12500000 127.50000000 -0.532847 0.089998 0.841412 0.000000
133.59399414 240.93800354 75.00000000 0.974257 0.172669 0.144941 0.000000
285.93798828 189.84399414 160.00000000 0.001139 0.983039 -0.183394 0.000000
234.37500000 195.00000000 87.50000000 0.193969 -0.218048 0.956468 0.000000
173.43800354 229.21899414 85.00000000 -0.873206 0.235151 0.426867 0.000000
200.62500000 255.00000000 187.50000000 -0.548727 -0.636524 -0.541974 0.000000
268.12500000 225.93800354 182.50000000 -0.000978 -0.000978 -0.999999 0.000000
220.31199646 227.34399414 130.00000000 -0.402930 -0.817008 0.412486 0.000000
159.37500000 241.87500000 72.50000000 -0.459466 0.669985 0.583104 0.000000
198.28100586 210.00000000 95.00000000 -0.475334 -0.592907 0.650015 0.000000
161.25000000 241.87500000 72.50000000 0.830477 0.390720 0.397047 0.000000
169.68800354 292.50000000 172.50000000 0.055913 -0.735465 -0.675252 0.000000
199.68800354 309.37500000 142.50000000 -0.357881 -0.908468 0.215888 0.000000
188.43800354 221.25000000 187.50000000 -0.000978 -0.000978 -0.999999 0.000000
130.31199646 252.18800354 127.50000000 0.940625 0.042580 0.336767 0.000000
253.12500000 248.43800354 177.50000000 -0.471890 -0.166117 -0.865867 0.000000
176.25000000 192.18800354 162.50000000 0.039806 0.866115 -0.498257 0.000000
161.25000000 197.34399414 115.00000000 0.566446 0.803351 0.183753 0.000000
236.25000000 215.15600586 190.00000000 0.457292 0.811017 -0.364878 0.000000
176.25000000 226.87500000 92.50000000 -0.808959 0.389262 0.440522 0.000000
160.31199646 243.75000000 72.50000000 -0.459466 0.669985 0.583104 0.000000
193.12500000 213.75000000 182.50000000 -0.000978 -0.000978 -0.999999 0.000000
268.12500000 187.03100586 150.00000000 -0.166013 0.948841 -0.268591 0.000000
258.75000000 181.40600586 110.00000000 -0.102186 0.994386 -0.027469 0.000000
153.28100586 197.81199646 140.00000000 0.509085 0.850419 0.132741 0.000000
197.81199646 299.06201172 122.50000000 -0.352119 -0.676396 0.646916 0.000000
268.12500000 229.68800354 147.50000000 -0.702572 -0.699576 0.130328 0.000000
298.12500000 216.56199646 177.50000000 -0.000978 -0.000978 -0.999999 0.000000
132.65600586 225.00000000 160.00000000 0.613033 0.596145 -0.518461 0.000000
261.56201172 235.78100586 165.00000000 -0.274467 -0.961249 0.025847 0.000000
193.12500000 223.12500000 112.50000000 0.528659 -0.172226 0.831178 0.000000
153.75000000 281.25000000 77.50000000 -0.035178 -0.637432 0.769703 0.000000
213.75000000 227.81199646 192.50000000 -0.003925 0.898824 -0.438291 0.000000
295.31201172 225.93800354 177.50000000 -0.000978 -0.000978 -0.999999 0.000000
265.31201172 223.12500000 122.50000000 0.317371 -0.597689 0.736236 0.000000
296.25000000 193.12500000 142.50000000 -0.807898 -0.538081 0.240353 0.000000
187.50000000 249.37500000 192.50000000 -0.000978 -0.000978 -0.999999 0.000000
173.90600586 246.56199646 85.00000000 -0.815982 0.232917 0.529077 0.000000
245.62500000 238.12500000 182.50000000 -0.000978 -0.000978 -0.999999 0.000000
222.18800354 219.37500000 187.50000000 -0.000978 -0.000978 -0.999999 0.000000
228.75000000 242.81199646 137.50000000 0.016686 0.930544 -0.365800 0.000000
178.12500000 278.43798828 92.50000000 -0.678906 0.004148 0.734214 0.000000
142.50000000 283.12500000 107.50000000 0.764112 -0.601601 0.232828 0.000000
252.18800354 207.18800354 102.50000000 -0.085284 -0.468366 0.879409 0.000000
165.46899414 246.56199646 75.00000000 -0.726420 0.451737 0.517926 0.000000
151.40600586 289.68798828 95.00000000 0.340528 -0.900703 0.269769 0.000000
152.81199646 208.12500000 92.50000000 0.701101 0.701101 0.130055 0.000000
165.00000000 247.50000000 72.50000000 -0.808818 0.443649 0.385991 0.000000
205.31199646 240.93800354 192.50000000 -0.000978 -0.000978 -0.999999 0.000000
291.56201172 207.18800354 152.50000000 -0.983039 -0.001139 0.183394 0.000000
256.87500000 185.62500000 157.50000000 -0.242445 0.965970 0.090123 0.000000
216.56199646 245.62500000 192.50000000 -0.212087 0.134964 -0.967886 0.000000
167.81199646 267.18798828 187.50000000 0.330858 -0.203059 -0.921575 0.000000
303.75000000 195.93800354 162.50000000 -0.957040 -0.121757 0.263153 0.000000
128.43800354 244.68800354 132.50000000 0.926403 0.228409 0.299343 0.000000
132.18800354 249.37500000 172.50000000 0.701101 0.701101 0.130055 0.000000
157.50000000 260.62500000 187.50000000 -0.656816 -0.656816 -0.370385 0.000000
166.87500000 248.43800354 72.50000000 -0.808818 0.443649 0.385991 0.000000
210.00000000 258.75000000 137.50000000 -0.946118 -0.008749 0.323705 0.000000
215.15600586 257.81201172 165.00000000 -0.894688 0.446689 -0.001310 0.000000
133.59399414 249.37500000 75.00000000 0.974641 -0.206817 0.085451 0.000000
165.93800354 229.68800354 187.50000000 -0.000978 -0.000978 -0.999999 0.000000
165.93800354 249.37500000 72.50000000 -0.808818 0.443649 0.385991 0.000000
233.43800354 184.68800354 122.50000000 -0.001139 0.983039 0.183394 0.000000
167.34399414 249.37500000 75.00000000 -0.580650 0.563721 0.587421 0.000000
158.43800354 290.15600586 90.00000000 0.205925 -0.875554 0.437036 0.000000
186.56199646 279.37500000 182.50000000 -0.123619 -0.525018 -0.842065 0.000000
270.93798828 213.75000000 117.50000000 0.000978 0.000978 0.999999 0.000000
165.93800354 250.31199646 72.50000000 -0.808818 0.443649 0.385991 0.000000
260.62500000 222.18800354 187.50000000 -0.461426 -0.006611 -0.887154 0.000000
200.15600586 274.68798828 120.00000000 -0.782580 -0.009661 0.622475 0.000000
178.12500000 290.62500000 177.50000000 0.205598 -0.194986 -0.959015 0.000000
239.06199646 250.78100586 175.00000000 0.505577 -0.505577 -0.699131 0.000000
134.06199646 250.78100586 75.00000000 0.000978 0.000978 0.999999 0.000000
154.68800354 243.75000000 192.50000000 0.624222 0.329135 -0.708532 0.000000
188.43800354 276.09399414 185.00000000 -0.344007 -0.686383 -0.640733 0.000000
168.75000000 195.93800354 167.50000000 0.001257 0.936483 -0.350710 0.000000
276.56201172 192.65600586 95.00000000 0.092411 -0.954049 0.285043 0.000000
172.50000000 211.87500000 87.50000000 0.440555 -0.882563 0.164299 0.000000
176.25000000 297.65600586 105.00000000 -0.227973 -0.877621 0.421675 0.000000
147.18800354 299.53100586 140.00000000 0.552920 -0.807171 0.206771 0.000000
185.62500000 277.50000000 97.50000000 0.000978 0.000978 0.999999 0.000000
148.12500000 262.50000000 182.50000000 -0.192757 -0.541843 -0.818077 0.000000
227.81199646 209.06199646 97.50000000 0.158843 -0.751855 0.639909 0.000000
287.81201172 214.21899414 150.00000000 -0.444724 -0.735696 0.510854 0.000000
168.75000000 278.43798828 182.50000000 0.306648 -0.411432 -0.858307 0.000000
275.62500000 207.18800354 117.50000000 -0.917980 -0.281899 0.279008 0.000000
219.37500000 239.06199646 192.50000000 -0.000978 -0.000978 -0.999999 0.000000
195.93800354 310.78100586 140.00000000 -0.324744 -0.923180 0.205624 0.000000
286.87500000 219.84399414 155.00000000 -0.189996 -0.912839 0.361422 0.000000
207.18800354 211.87500000 182.50000000 0.045572 0.355463 -0.933579 0.000000
171.56199646 263.43798828 192.50000000 -0.000978 -0.000978 -0.999999 0.000000
212.34399414 277.50000000 175.00000000 -0.502605 -0.573205 -0.647167 0.000000
278.43798828 235.78100586 175.00000000 0.224631 -0.782335 -0.580942 0.000000
134.53100586 254.06199646 75.00000000 0.965941 -0.229619 0.119300 0.000000
133.59399414 245.62500000 80.00000000 0.999286 -0.027729 0.025675 0.000000
165.93800354 280.31201172 77.50000000 0.764719 0.132671 0.630558 0.000000
270.00000000 200.62500000 102.50000000 0.000978 0.000978 0.999999 0.000000
221.25000000 218.43800354 187.50000000 -0.000978 -0.000978 -0.999999 0.000000
222.18800354 200.62500000 177.50000000 0.080095 0.703377 -0.706290 0.000000
218.43800354 198.28100586 175.00000000 -0.116832 0.761625 -0.637399 0.000000
203.43800354 297.18798828 167.50000000 -0.000978 -0.000978 -0.999999 0.000000
195.00000000 237.18800354 117.50000000 -0.000978 -0.000978 0.999999 0.000000
172.50000000 242.81199646 192.50000000 -0.000978 -0.000978 -0.999999 0.000000
200.62500000 284.06201172 177.50000000 0.000978 0.000978 -0.999999 0.000000
207.18800354 202.50000000 177.50000000 0.060625 0.405516 -0.912075 0.000000
252.65600586 246.56199646 155.00000000 -0.602201 -0.771618 0.204841 0.000000
279.37500000 189.84399414 160.00000000 -0.001139 0.983039 -0.183394 0.000000
261.56201172 188.90600586 165.00000000 -0.255181 0.925209 -0.280841 0.000000
268.12500000 204.84399414 185.00000000 -0.546365 0.667406 -0.506018 0.000000
240.00000000 237.18800354 132.50000000 -0.000978 -0.000978 -0.999999 0.000000
210.00000000 237.18800354 192.50000000 -0.000978 -0.000978 -0.999999 0.000000
281.25000000 194.06199646 172.50000000 -0.264043 0.887602 -0.377417 0.000000
130.78100586 264.37500000 125.00000000 0.983039 -0.001139 0.183394 0.000000
270.00000000 232.50000000 157.50000000 -0.500618 -0.863183 0.065541 0.000000
210.00000000 296.25000000 137.50000000 -0.744670 -0.324683 0.583136 0.000000
256.87500000 197.34399414 95.00000000 -0.267484 -0.533405 0.802453 0.000000
181.87500000 260.62500000 192.50000000 -0.000978 -0.000978 -0.999999 0.000000
268.12500000 187.96899414 155.00000000 -0.175387 0.980956 -0.083460 0.000000
230.62500000 212.34399414 100.00000000 -0.105744 -0.832914 0.543205 0.000000
134.53100586 285.93798828 140.00000000 -0.000978 -0.000978 0.999999 0.000000
152.81199646 297.18798828 122.50000000 0.701101 -0.701101 0.130055 0.000000
175.31199646 263.43798828 82.50000000 -0.000978 -0.000978 0.999999 0.000000
252.18800354 181.40600586 100.00000000 0.065615 0.997135 -0.037648 0.000000
254.06199646 228.28100586 120.00000000 0.001139 -0.983039 0.183394 0.000000
227.81199646 234.37500000 132.50000000 -0.000978 -0.000978 -0.999999 0.000000
171.56199646 205.31199646 177.50000000 -0.000978 -0.000978 -0.999999 0.000000
238.12500000 214.68800354 192.50000000 0.050939 0.933873 -0.353958 0.000000
127.50000000 244.21899414 135.00000000 0.895125 0.277593 0.348846 0.000000
213.75000000 271.87500000 177.50000000 -0.378640 -0.565502 -0.732693 0.000000
250.31199646 230.62500000 127.50000000 0.169627 -0.815110 0.553915 0.000000
147.18800354 203.43800354 157.50000000 0.626871 0.723066 -0.290188 0.000000
204.37500000 248.43800354 122.50000000 -0.589471 -0.589471 0.552312 0.000000
200.62500000 226.87500000 117.50000000 -0.263649 -0.768844 0.582553 0.000000
193.12500000 267.18798828 112.50000000 -0.428675 -0.638842 0.638842 0.000000
166.87500000 257.81201172 72.50000000 -0.630146 0.209017 0.747815 0.000000
201.56199646 291.56201172 167.50000000 -0.467398 -0.517298 -0.716898 0.000000
202.50000000 259.68798828 187.50000000 -0.000978 -0.000978 -0.999999 0.000000
217.50000000 205.31199646 182.50000000 0.029425 0.339026 -0.940317 0.000000
215.62500000 275.15600586 175.00000000 -0.410445 -0.636438 -0.653056 0.000000
215.62500000 195.93800354 172.50000000 0.209878 0.729131 -0.651398 0.000000
273.75000000 193.12500000 97.50000000 -0.004120 -0.797846 0.602847 0.000000
165.00000000 252.18800354 192.50000000 -0.000978 -0.000978 -0.999999 0.000000
177.18800354 210.00000000 182.50000000 0.656470 -0.189100 -0.730266 0.000000
165.93800354 221.71899414 185.00000000 0.055593 0.782573 -0.620072 0.000000
187.50000000 297.18798828 112.50000000 -0.000978 -0.000978 0.999999 0.000000
205.31199646 281.25000000 127.50000000 -0.929474 -0.359753 0.081580 0.000000
207.18800354 192.18800354 162.50000000 -0.001139 0.983039 -0.183394 0.000000
274.68798828 197.81199646 177.50000000 -0.264771 0.794313 -0.546776 0.000000
295.31201172 233.43800354 177.50000000 -0.316686 -0.198456 -0.927537 0.000000
181.40600586 239.06199646 95.00000000 -0.805157 0.137900 0.576807 0.000000
146.71899414 259.68798828 185.00000000 0.371112 -0.817083 -0.441193 0.000000
204.37500000 238.12500000 192.50000000 -0.000978 -0.000978 -0.999999 0.000000
193.12500000 188.90600586 80.00000000 0.130938 0.991385 0.003301 0.000000
187.50000000 265.31201172 102.50000000 0.000978 0.000978 0.999999 0.000000
170.62500000 225.00000000 82.50000000 -0.257510 0.950495 -0.173920 0.000000
283.12500000 206.25000000 127.50000000 -0.774973 -0.572944 0.266742 0.000000
214.68800354 276.56201172 142.50000000 -0.880661 0.224249 0.417311 0.000000
227.81199646 205.31199646 92.50000000 0.235897 -0.393162 0.888694 0.000000
167.81199646 260.62500000 72.50000000 -0.757762 -0.079688 0.647647 0.000000
217.50000000 244.68800354 192.50000000 -0.116109 -0.094998 -0.988683 0.000000
143.43800354 289.68798828 167.50000000 0.668950 -0.169142 -0.723807 0.000000
167.81199646 196.87500000 82.50000000 0.474335 0.878142 -0.062231 0.000000
196.87500000 310.31201172 142.50000000 -0.304588 -0.951678 0.039179 0.000000
304.68798828 209.06199646 172.50000000 -0.870854 0.290285 -0.396672 0.000000
240.93800354 245.62500000 182.50000000 0.197427 -0.306641 -0.931125 0.000000
294.37500000 209.06199646 157.50000000 -0.665817 -0.004153 0.746103 0.000000
165.93800354 223.12500000 187.50000000 0.031711 0.533569 -0.845162 0.000000
142.96899414 207.18800354 140.00000000 0.909704 0.302261 0.284739 0.000000
156.56199646 253.12500000 192.50000000 0.333684 -0.181625 -0.925023 0.000000
182.81199646 285.00000000 182.50000000 -0.687027 -0.315224 -0.654696 0.000000
165.93800354 237.18800354 77.50000000 -0.000978 -0.000978 0.999999 0.000000
168.28100586 262.50000000 75.00000000 -0.864674 0.017591 0.502025 0.000000
225.00000000 201.09399414 180.00000000 0.334703 0.859123 -0.387145 0.000000
137.34399414 263.43798828 75.00000000 0.909825 -0.398656 0.115291 0.000000
255.46899414 245.62500000 175.00000000 -0.768706 -0.354414 -0.532430 0.000000
221.25000000 213.75000000 187.50000000 -0.000978 -0.000978 -0.999999 0.000000
