159.60899353 160.31199646 322.50000000 0.000978 0.000978 0.999999 0.000000
146.60200500 204.60899353 360.00000000 0.629583 0.192415 0.752729 0.000000
97.73439789 130.07800293 307.50000000 0.000978 0.000978 0.999999 0.000000
142.73399353 166.64100647 322.50000000 0.000978 0.000978 0.999999 0.000000
67.50000000 253.82800293 327.50000000 0.572662 -0.726903 0.379040 0.000000
139.21899414 164.53100586 322.50000000 0.246040 0.218550 0.944299 0.000000
197.57800293 109.68800354 327.50000000 -0.655217 -0.098209 0.749029 0.000000
69.60939789 172.26600647 232.50000000 -0.323010 0.854663 0.406467 0.000000
187.73399353 113.90599823 362.50000000 0.157994 -0.600379 0.783953 0.000000
209.53100586 111.09400177 337.50000000 0.000978 0.000978 0.999999 0.000000
70.66410065 172.26600647 235.00000000 -0.318194 0.875415 0.363868 0.000000
169.45300293 125.15599823 362.50000000 0.000978 0.000978 0.999999 0.000000
176.48399353 120.23400116 362.50000000 0.000978 0.000978 0.999999 0.000000
130.78100586 210.58599854 345.00000000 0.541437 0.538064 -0.646014 0.000000
112.50000000 145.54699707 312.50000000 0.000978 0.000978 0.999999 0.000000
44.29690170 172.96899414 232.50000000 0.817773 -0.491292 0.299798 0.000000
103.35900116 215.15600586 377.50000000 0.000978 0.000978 0.999999 0.000000
135.70300293 200.03900146 370.00000000 0.629938 0.219312 0.745037 0.000000
82.26560211 153.98399353 262.50000000 -0.669985 0.583104 0.459466 0.000000
59.41410065 130.07800293 270.00000000 -0.387792 0.435667 0.812288 0.000000
79.45310211 165.93800354 247.50000000 -0.484903 0.558729 0.672824 0.000000
150.46899414 162.42199707 362.50000000 0.947732 0.315911 0.044765 0.000000
186.67999268 101.25000000 320.00000000 -0.595263 -0.332504 0.731508 0.000000
187.73399353 106.87500000 322.50000000 0.000978 0.000978 0.999999 0.000000
115.66400146 196.17199707 305.00000000 -0.599318 -0.589188 0.541918 0.000000
86.48439789 267.18798828 362.50000000 -0.477148 0.477148 0.738011 0.000000
178.59399414 135.00000000 322.50000000 0.000978 0.000978 0.999999 0.000000
69.60939789 225.70300293 377.50000000 0.000978 0.000978 0.999999 0.000000
93.51560211 247.50000000 372.50000000 0.608076 0.608076 0.510380 0.000000
116.71900177 133.59399414 367.50000000 0.216190 -0.645461 0.732559 0.000000
40.07809830 175.42999268 240.00000000 0.926351 -0.307838 0.217047 0.000000
68.20310211 147.65600586 262.50000000 -0.494119 0.530969 0.688417 0.000000
39.37500000 153.98399353 242.50000000 -0.001104 0.990125 0.140185 0.000000
96.67970276 142.03100586 310.00000000 -0.769060 -0.148996 0.621569 0.000000
164.53100586 116.71900177 362.50000000 0.000978 0.000978 0.999999 0.000000
204.60899353 94.92189789 332.50000000 -0.576400 -0.433546 0.692677 0.000000
137.81199646 167.69500732 315.00000000 -0.905862 0.300975 0.298039 0.000000
118.82800293 199.68800354 312.50000000 -0.489765 -0.761674 0.424244 0.000000
142.03100586 178.59399414 367.50000000 0.000978 0.000978 0.999999 0.000000
116.01599884 186.32800293 292.50000000 -0.316077 -0.802106 0.506677 0.000000
215.15600586 109.68800354 347.50000000 0.262578 -0.118879 0.957560 0.000000
157.50000000 84.37500000 297.50000000 -0.508265 -0.238009 0.827658 0.000000
170.50799561 85.07810211 340.00000000 -0.255562 -0.779228 0.572270 0.000000
143.43800354 156.09399414 322.50000000 0.000978 0.000978 0.999999 0.000000
78.04689789 121.99199677 360.00000000 0.502923 0.824794 -0.258425 0.000000
80.15619659 237.65600586 292.50000000 -0.594100 -0.718485 0.361697 0.000000
61.87500000 211.64100647 372.50000000 -0.000978 -0.000978 0.999999 0.000000
215.85899353 93.51560211 342.50000000 0.000978 0.000978 0.999999 0.000000
108.98400116 123.39800262 365.00000000 0.052052 -0.820165 0.569754 0.000000
136.40600586 166.64100647 372.50000000 0.000978 0.000978 0.999999 0.000000
188.43800354 132.18800354 362.50000000 0.000978 0.000978 0.999999 0.000000
61.87500000 225.35200500 275.00000000 0.592751 -0.804747 -0.032078 0.000000
39.02339935 181.40600586 315.00000000 0.975925 0.090066 -0.198640 0.000000
106.87500000 224.29699707 377.50000000 0.265826 0.928258 -0.260140 0.000000
96.32810211 137.10899353 377.50000000 0.000978 0.000978 0.999999 0.000000
190.54699707 130.07800293 327.50000000 -0.456786 -0.211170 0.864149 0.000000
66.09380341 161.01600647 247.50000000 -0.211902 0.774912 0.595491 0.000000
196.17199707 137.81199646 337.50000000 -0.990125 -0.001104 0.140185 0.000000
111.79699707 235.54699707 342.50000000 0.753709 0.461421 -0.467989 0.000000
97.03119659 150.82000732 285.00000000 -0.550024 0.824298 0.134188 0.000000
107.57800293 219.37500000 322.50000000 -0.679305 -0.413562 0.606226 0.000000
65.39060211 142.73399353 262.50000000 -0.675633 0.605912 0.419988 0.000000
150.46899414 170.85899353 352.50000000 0.842365 -0.120753 -0.525205 0.000000
168.75000000 80.85939789 302.50000000 0.799022 -0.561933 -0.213996 0.000000
45.00000000 132.18800354 297.50000000 0.000978 0.000978 -0.999999 0.000000
80.15619659 149.06199646 267.50000000 -0.632924 0.632924 0.445886 0.000000
79.45310211 262.61700439 370.00000000 -0.023361 0.834141 0.551056 0.000000
49.92190170 227.81199646 367.50000000 0.000978 0.000978 0.999999 0.000000
153.98399353 113.20300293 362.50000000 0.000978 0.000978 0.999999 0.000000
90.00000000 182.10899353 382.50000000 0.000978 0.000978 0.999999 0.000000
80.85939789 189.14100647 382.50000000 -0.054135 -0.134761 0.989398 0.000000
115.66400146 262.26599121 360.00000000 0.770140 0.104152 -0.629314 0.000000
107.57800293 255.58599854 350.00000000 0.394077 0.598535 -0.697466 0.000000
96.32810211 275.97698975 345.00000000 0.381810 0.518287 -0.765245 0.000000
87.89060211 91.05470276 300.00000000 0.525970 0.850476 0.006761 0.000000
188.43800354 90.00000000 317.50000000 0.790805 0.100860 0.603701 0.000000
126.56199646 168.04699707 372.50000000 0.771354 0.325540 0.546843 0.000000
134.29699707 94.21880341 347.50000000 -0.273809 -0.872862 0.403907 0.000000
149.76600647 95.62500000 302.50000000 -0.069386 -0.147005 0.986699 0.000000
132.89100647 174.37500000 372.50000000 0.000978 0.000978 0.999999 0.000000
63.28120041 249.60899353 327.50000000 0.683780 -0.661149 0.308752 0.000000
54.84379959 153.63299561 250.00000000 -0.167340 0.883265 0.437995 0.000000
163.12500000 143.43800354 327.50000000 0.000978 0.000978 0.999999 0.000000
130.07800293 113.20300293 307.50000000 -0.062171 -0.151322 0.986527 0.000000
140.62500000 175.78100586 372.50000000 0.000978 0.000978 0.999999 0.000000
104.06199646 244.68800354 342.50000000 -0.000978 -0.000978 -0.999999 0.000000
142.03100586 88.94529724 295.00000000 -0.385659 -0.792295 0.472795 0.000000
60.82030106 124.45300293 330.00000000 0.838250 0.520754 -0.161716 0.000000
133.59399414 163.82800293 322.50000000 -0.591215 -0.119422 0.797624 0.000000
204.60899353 118.12500000 337.50000000 -0.401245 0.041051 0.915050 0.000000
97.38279724 151.87500000 280.00000000 -0.575962 0.805157 0.141386 0.000000
90.00000000 89.64839935 305.00000000 0.446914 0.892460 0.061502 0.000000
132.18800354 135.00000000 367.50000000 0.198574 -0.532056 0.823095 0.000000
113.90599823 241.87500000 347.50000000 0.529500 0.519414 -0.670700 0.000000
144.84399414 165.23399353 367.50000000 0.000978 0.000978 0.999999 0.000000
81.56250000 226.40600586 377.50000000 0.000978 0.000978 0.999999 0.000000
46.40620041 176.48399353 232.50000000 0.948315 -0.143522 0.283019 0.000000
191.25000000 127.96900177 327.50000000 0.000978 0.000978 0.999999 0.000000
96.32810211 144.84399414 307.50000000 -0.756880 0.379254 0.532258 0.000000
143.43800354 210.93800354 362.50000000 0.830111 0.217809 0.513298 0.000000
51.67969894 245.39100647 350.00000000 0.777195 -0.599375 0.191616 0.000000
73.82810211 169.45300293 242.50000000 0.000978 0.000978 0.999999 0.000000
130.07800293 202.50000000 372.50000000 0.000978 0.000978 0.999999 0.000000
150.46899414 122.34400177 362.50000000 0.000978 0.000978 0.999999 0.000000
139.21899414 127.96900177 312.50000000 0.000978 0.000978 0.999999 0.000000
108.98400116 265.07800293 352.50000000 -0.000978 -0.000978 -0.999999 0.000000
53.43750000 159.60899353 377.50000000 0.000978 0.000978 0.999999 0.000000
123.04699707 249.60899353 362.50000000 0.746462 0.624399 -0.230042 0.000000
86.48439789 232.73399353 302.50000000 0.000978 0.000978 0.999999 0.000000
95.62500000 251.36700439 335.00000000 0.785691 0.238041 -0.570987 0.000000
126.56199646 146.25000000 327.50000000 -0.402321 -0.647355 0.647355 0.000000
123.04699707 99.14060211 327.50000000 -0.921899 -0.001279 -0.387428 0.000000
52.03120041 232.03100586 317.50000000 0.903494 -0.325730 0.278565 0.000000
138.16400146 215.85899353 355.00000000 0.632924 0.632924 -0.445886 0.000000
40.42969894 216.56199646 350.00000000 0.999999 -0.000978 -0.000978 0.000000
118.12500000 212.34399414 327.50000000 -0.991259 0.046448 0.123483 0.000000
77.34380341 177.18800354 232.50000000 -0.736970 0.402133 0.543290 0.000000
40.42969894 213.04699707 345.00000000 0.998339 -0.047440 0.032681 0.000000
80.15619659 170.15600586 247.50000000 -0.846655 0.454942 0.276050 0.000000
51.32809830 232.03100586 322.50000000 0.847982 -0.450923 0.278557 0.000000
36.56250000 186.32800293 302.50000000 0.785365 -0.523043 0.331101 0.000000
165.23399353 164.17999268 330.00000000 -0.462884 -0.718383 0.519293 0.000000
56.95309830 229.92199707 372.50000000 -0.416659 0.077867 0.905722 0.000000
129.72700500 146.25000000 370.00000000 0.585773 -0.452263 0.672554 0.000000
161.71899414 168.04699707 342.50000000 -0.268309 0.957875 -0.102398 0.000000
48.51559830 150.11700439 325.00000000 0.143593 0.966344 -0.213449 0.000000
99.14060211 163.82800293 267.50000000 -0.605218 0.372316 0.703628 0.000000
132.89100647 133.24200439 365.00000000 0.261003 -0.804889 0.532946 0.000000
127.26599884 103.35900116 302.50000000 -0.184652 -0.269455 0.945144 0.000000
112.50000000 108.28099823 302.50000000 -0.071290 -0.496231 0.865259 0.000000
84.72660065 227.10899353 275.00000000 -0.759534 -0.633196 0.148899 0.000000
52.03120041 144.14100647 257.50000000 0.000978 0.000978 0.999999 0.000000
78.39839935 177.89100647 235.00000000 -0.592903 0.555741 0.582768 0.000000
41.13280106 178.59399414 240.00000000 0.937074 -0.311443 0.157780 0.000000
73.12500000 153.28100586 257.50000000 -0.192789 0.735681 0.649312 0.000000
206.71899414 115.31199646 337.50000000 -0.256443 -0.072006 0.963873 0.000000
44.64839935 187.03100586 240.00000000 0.717925 -0.169193 0.675246 0.000000
194.76600647 109.68800354 352.50000000 0.000978 0.000978 0.999999 0.000000
96.32810211 209.53100586 292.50000000 -0.912399 -0.379343 0.153712 0.000000
81.56250000 137.81199646 377.50000000 0.000978 0.000978 0.999999 0.000000
172.26600647 156.79699707 327.50000000 -0.427258 -0.333355 0.840431 0.000000
68.20310211 246.09399414 312.50000000 0.360672 -0.768247 0.528878 0.000000
103.35900116 255.93800354 372.50000000 0.521590 0.452044 0.723602 0.000000
52.03120041 152.57800293 247.50000000 -0.219495 0.870515 0.440483 0.000000
78.75000000 178.24200439 235.00000000 -0.613565 0.532433 0.583141 0.000000
90.70310211 203.20300293 262.50000000 -0.972997 -0.178869 0.145886 0.000000
34.45309830 174.37500000 252.50000000 0.934512 -0.302219 0.188017 0.000000
71.01560211 125.85900116 357.50000000 0.512864 0.790865 -0.333921 0.000000
65.74220276 251.01600647 325.00000000 0.590851 -0.684055 0.427743 0.000000
45.00000000 179.29699707 232.50000000 0.826687 0.238615 0.509560 0.000000
122.34400177 194.76600647 377.50000000 0.000978 0.000978 0.999999 0.000000
193.35899353 111.79699707 357.50000000 0.000978 0.000978 0.999999 0.000000
29.53120041 154.33599854 275.00000000 0.959620 0.253902 0.121092 0.000000
122.34400177 95.62500000 317.50000000 0.000978 0.000978 0.999999 0.000000
87.18750000 205.31199646 237.50000000 -0.908688 -0.341667 0.239894 0.000000
112.14800262 248.20300293 350.00000000 0.689850 0.482728 -0.539519 0.000000
142.73399353 90.00000000 297.50000000 -0.001279 -0.921899 0.387428 0.000000
78.75000000 242.57800293 302.50000000 -0.630104 -0.725816 0.275970 0.000000
190.54699707 86.83589935 315.00000000 -0.636067 -0.571954 0.517964 0.000000
213.04699707 104.06199646 337.50000000 0.000978 0.000978 0.999999 0.000000
214.45300293 116.71900177 342.50000000 0.000978 0.000978 0.999999 0.000000
95.62500000 151.87500000 382.50000000 0.000978 0.000978 0.999999 0.000000
120.93800354 184.21899414 377.50000000 0.000978 0.000978 0.999999 0.000000
72.42189789 120.93800354 352.50000000 0.595092 0.785885 -0.168079 0.000000
163.12500000 93.16410065 350.00000000 -0.033352 -0.900500 0.433574 0.000000
96.67970276 234.14100647 325.00000000 0.736867 0.169342 -0.654485 0.000000
52.03120041 214.80499268 275.00000000 0.700693 -0.659194 0.272935 0.000000
78.04689789 116.71900177 352.50000000 0.000978 0.000978 0.999999 0.000000
101.25000000 171.56199646 382.50000000 0.000978 0.000978 0.999999 0.000000
56.25000000 241.87500000 367.50000000 0.000978 0.000978 0.999999 0.000000
83.67189789 149.06199646 382.50000000 0.000978 0.000978 0.999999 0.000000
91.40619659 117.42199707 357.50000000 0.000978 0.000978 0.999999 0.000000
161.71899414 88.59380341 302.50000000 -0.419218 -0.258795 0.870219 0.000000
92.10939789 153.98399353 272.50000000 -0.892875 -0.197280 0.404790 0.000000
78.04689789 144.14100647 377.50000000 -0.702805 -0.479109 0.525852 0.000000
83.67189789 243.28100586 377.50000000 0.000978 0.000978 0.999999 0.000000
93.51560211 184.92199707 252.50000000 -0.842507 0.072215 0.533824 0.000000
47.81250000 180.70300293 372.50000000 0.000978 0.000978 0.999999 0.000000
78.75000000 145.89799500 380.00000000 -0.702805 -0.479109 0.525852 0.000000
86.48439789 161.71899414 257.50000000 -0.393966 0.756872 0.521474 0.000000
104.76599884 265.78100586 352.50000000 0.069891 -0.273210 -0.959412 0.000000
66.79689789 243.98399353 372.50000000 0.000978 0.000978 0.999999 0.000000
217.26600647 119.53099823 342.50000000 0.000978 0.000978 0.999999 0.000000
70.31250000 116.36699677 340.00000000 0.714810 0.638052 -0.286244 0.000000
78.75000000 180.70300293 232.50000000 -0.710544 0.494219 0.500875 0.000000
107.57800293 265.78100586 352.50000000 -0.000978 -0.000978 -0.999999 0.000000
135.70300293 153.28100586 367.50000000 0.322619 -0.467405 0.823073 0.000000
82.96880341 106.17199707 337.50000000 0.215827 0.937109 -0.274310 0.000000
118.82800293 121.64099884 362.50000000 0.000978 0.000978 0.999999 0.000000
46.40620041 232.73399353 342.50000000 0.912393 -0.366956 0.181336 0.000000
72.42189789 113.90599823 292.50000000 0.441231 0.790337 -0.425069 0.000000
92.10939789 219.37500000 297.50000000 -0.990125 0.001104 0.140185 0.000000
165.93800354 94.21880341 352.50000000 -0.127194 -0.190162 0.973478 0.000000
94.92189789 118.12500000 362.50000000 0.000978 0.000978 0.999999 0.000000
81.56250000 114.60900116 297.50000000 0.154395 -0.236210 0.959358 0.000000
82.61720276 94.21880341 305.00000000 0.651117 0.758946 0.006912 0.000000
172.96899414 151.87500000 327.50000000 -0.259493 0.118662 0.958427 0.000000
92.81250000 202.50000000 377.50000000 0.206947 -0.027199 0.977974 0.000000
38.32030106 190.54699707 305.00000000 0.964431 -0.176182 -0.197062 0.000000
70.31250000 238.35899353 297.50000000 0.500184 -0.752735 0.428026 0.000000
144.14100647 189.84399414 347.50000000 0.608076 -0.608076 -0.510380 0.000000
94.21880341 215.15600586 377.50000000 0.000978 0.000978 0.999999 0.000000
129.37500000 155.39100647 372.50000000 0.000978 0.000978 0.999999 0.000000
104.76599884 139.21899414 307.50000000 0.248344 -0.871463 0.422938 0.000000
148.35899353 106.87500000 302.50000000 -0.216004 0.756793 0.616934 0.000000
213.75000000 134.29699707 347.50000000 -0.087180 -0.836067 0.541657 0.000000
219.37500000 111.09400177 347.50000000 0.000978 0.000978 0.999999 0.000000
94.21880341 197.57800293 377.50000000 0.000978 0.000978 0.999999 0.000000
59.76559830 144.49200439 260.00000000 0.046297 0.565385 0.823527 0.000000
33.04690170 183.16400146 265.00000000 0.849891 -0.472837 0.232618 0.000000
64.33589935 124.45300293 285.00000000 -0.961903 0.224400 0.156162 0.000000
91.40619659 158.20300293 267.50000000 -0.492361 0.442960 0.749245 0.000000
49.21879959 210.23399353 367.50000000 -0.370438 0.129029 0.919852 0.000000
100.54699707 94.21880341 332.50000000 0.139043 0.778940 -0.611490 0.000000
178.59399414 105.46900177 317.50000000 0.000978 0.000978 0.999999 0.000000
73.82810211 165.93800354 247.50000000 -0.472807 0.728289 0.496033 0.000000
104.76599884 224.29699707 327.50000000 0.000978 0.000978 -0.999999 0.000000
108.98400116 137.81199646 377.50000000 0.000978 0.000978 0.999999 0.000000
96.32810211 94.92189789 332.50000000 0.139043 0.778940 -0.611490 0.000000
49.92190170 233.43800354 367.50000000 -0.496858 0.383568 0.778465 0.000000
33.75000000 140.62500000 272.50000000 0.903690 0.342374 -0.257148 0.000000
116.71900177 153.98399353 377.50000000 0.246500 -0.309927 0.918250 0.000000
162.42199707 114.60900116 362.50000000 0.000978 0.000978 0.999999 0.000000
201.79699707 97.03119659 352.50000000 0.256736 -0.757606 0.600100 0.000000
120.93800354 190.54699707 377.50000000 0.000978 0.000978 0.999999 0.000000
52.03120041 186.32800293 372.50000000 0.000978 0.000978 0.999999 0.000000
99.84380341 149.06199646 382.50000000 -0.114459 -0.381990 0.917051 0.000000
196.17199707 87.89060211 322.50000000 0.000978 0.000978 0.999999 0.000000
144.14100647 78.04689789 317.50000000 0.369573 -0.923249 -0.105008 0.000000
159.60899353 127.96900177 312.50000000 0.000978 0.000978 0.999999 0.000000
156.79699707 147.65600586 327.50000000 0.000978 0.000978 0.999999 0.000000
80.85939789 202.50000000 382.50000000 0.000978 0.000978 0.999999 0.000000
163.12500000 133.59399414 322.50000000 0.000978 0.000978 0.999999 0.000000
99.14060211 120.23400116 362.50000000 0.000978 0.000978 0.999999 0.000000
168.39799500 162.42199707 330.00000000 -0.489431 -0.786644 0.376362 0.000000
95.62500000 116.01599884 302.50000000 0.000978 0.000978 0.999999 0.000000
81.56250000 234.14100647 377.50000000 0.000978 0.000978 0.999999 0.000000
64.68750000 222.18800354 377.50000000 -0.017186 0.434944 0.900294 0.000000
146.95300293 167.34399414 367.50000000 0.624012 -0.756518 -0.195678 0.000000
78.39839935 130.07800293 300.00000000 -0.693547 0.130321 0.708526 0.000000
149.76600647 132.89100647 367.50000000 0.000978 0.000978 0.999999 0.000000
111.09400177 182.10899353 282.50000000 -0.000978 -0.000978 0.999999 0.000000
142.03100586 111.09400177 307.50000000 -0.037416 -0.223291 0.974033 0.000000
104.06199646 156.79699707 282.50000000 0.000978 0.000978 0.999999 0.000000
180.00000000 97.73439789 312.50000000 0.000978 0.000978 0.999999 0.000000
74.53119659 167.34399414 242.50000000 -0.754774 0.578500 0.309281 0.000000
155.39100647 87.18750000 297.50000000 -0.354395 -0.489097 0.796987 0.000000
144.14100647 182.10899353 367.50000000 0.261745 0.030721 0.964648 0.000000
97.73439789 231.32800293 377.50000000 0.000978 0.000978 0.999999 0.000000
92.81250000 107.93000031 350.00000000 -0.210219 -0.805583 0.553935 0.000000
49.21879959 184.21899414 232.50000000 0.988304 0.140523 0.059229 0.000000
54.84379959 132.18800354 267.50000000 0.000978 0.000978 0.999999 0.000000
80.85939789 184.21899414 232.50000000 -0.859237 0.491618 0.141504 0.000000
122.34400177 183.51600647 377.50000000 0.000978 0.000978 0.999999 0.000000
164.53100586 93.51560211 352.50000000 -0.127194 -0.190162 0.973478 0.000000
82.96880341 157.85200500 260.00000000 -0.540262 0.457144 0.706496 0.000000
144.14100647 137.10899353 322.50000000 0.151640 -0.938529 0.310111 0.000000
68.90619659 262.96899414 347.50000000 0.000978 0.000978 -0.999999 0.000000
87.89060211 168.04699707 252.50000000 -0.462701 0.728049 0.505820 0.000000
76.64060211 123.75000000 362.50000000 0.551119 0.794674 -0.254483 0.000000
78.75000000 106.87500000 332.50000000 0.495997 0.867652 0.034160 0.000000
123.75000000 206.01600647 332.50000000 0.634955 0.570954 -0.520427 0.000000
151.87500000 102.65599823 302.50000000 -0.339928 -0.151233 0.928212 0.000000
53.08589935 239.76600647 330.00000000 0.962562 -0.001205 0.271059 0.000000
135.70300293 187.73399353 372.50000000 0.000978 0.000978 0.999999 0.000000
72.42189789 139.57000732 275.00000000 -0.871255 -0.001330 -0.490829 0.000000
175.07800293 76.64060211 322.50000000 -0.342178 -0.747602 0.569215 0.000000
78.04689789 132.89100647 297.50000000 -0.001379 0.663079 0.748548 0.000000
76.64060211 118.12500000 352.50000000 0.000978 0.000978 0.999999 0.000000
41.48440170 177.89100647 237.50000000 0.936812 -0.297510 0.184041 0.000000
173.67199707 75.58589935 320.00000000 -0.342178 -0.747602 0.569215 0.000000
171.56199646 144.14100647 362.50000000 0.000978 0.000978 0.999999 0.000000
191.95300293 113.90599823 322.50000000 0.000978 0.999999 0.000978 0.000000
106.87500000 163.12500000 282.50000000 0.000978 0.000978 0.999999 0.000000
75.23439789 228.51600647 377.50000000 0.000978 0.000978 0.999999 0.000000
190.54699707 140.62500000 337.50000000 -0.696184 -0.660974 0.280074 0.000000
66.79689789 222.89100647 257.50000000 -0.360030 -0.360030 0.860672 0.000000
99.14060211 139.21899414 312.50000000 -0.430490 -0.699754 0.570108 0.000000
169.45300293 161.71899414 357.50000000 0.196241 0.326127 0.924733 0.000000
52.73440170 207.42199707 372.50000000 0.553762 -0.832674 -0.001354 0.000000
123.04699707 203.20300293 372.50000000 0.000978 0.000978 0.999999 0.000000
184.92199707 118.12500000 362.50000000 0.000978 0.000978 0.999999 0.000000
86.83589935 247.50000000 320.00000000 0.752870 0.348101 -0.558581 0.000000
132.89100647 79.80470276 310.00000000 -0.384656 -0.915120 0.120812 0.000000
85.78119659 169.45300293 252.50000000 -0.462701 0.728049 0.505820 0.000000
100.54699707 108.28099823 352.50000000 0.000978 0.000978 0.999999 0.000000
144.84399414 96.32810211 352.50000000 0.280360 -0.433562 0.856401 0.000000
52.73440170 232.03100586 317.50000000 0.913231 -0.356977 0.196409 0.000000
191.95300293 85.42970276 315.00000000 -0.477148 -0.477148 0.738011 0.000000
45.00000000 163.12500000 327.50000000 0.858367 0.468881 -0.208225 0.000000
120.23400116 243.98399353 352.50000000 -0.438791 0.879049 -0.186376 0.000000
194.06199646 85.07810211 342.50000000 0.000978 0.000978 0.999999 0.000000
180.70300293 76.64060211 322.50000000 0.000978 0.000978 0.999999 0.000000
111.09400177 145.54699707 312.50000000 0.000978 0.000978 0.999999 0.000000
105.11699677 236.95300293 335.00000000 0.621803 0.344358 -0.703405 0.000000
137.81199646 196.17199707 367.50000000 0.393863 -0.016898 0.919014 0.000000
118.12500000 146.95300293 317.50000000 -0.354414 -0.768706 0.532430 0.000000
140.62500000 166.64100647 322.50000000 0.000978 0.000978 0.999999 0.000000
98.08589935 201.09399414 290.00000000 -0.895384 -0.380795 0.230830 0.000000
190.54699707 142.03100586 342.50000000 0.693374 -0.693374 0.196122 0.000000
95.62500000 214.45300293 377.50000000 0.000978 0.000978 0.999999 0.000000
45.00000000 210.93800354 292.50000000 0.677430 -0.677430 0.286667 0.000000
56.25000000 170.15600586 377.50000000 0.000978 0.000978 0.999999 0.000000
136.40600586 155.03900146 370.00000000 0.646555 -0.656476 0.388594 0.000000
84.02339935 211.64100647 240.00000000 -0.437109 -0.706355 0.556774 0.000000
203.90600586 82.26560211 337.50000000 0.265796 -0.819150 0.508277 0.000000
180.70300293 127.26599884 322.50000000 -0.050770 -0.173561 0.983514 0.000000
187.03100586 84.37500000 307.50000000 -0.000978 -0.000978 0.999999 0.000000
63.98440170 175.07800293 382.50000000 0.000978 0.000978 0.999999 0.000000
99.84380341 152.22700500 295.00000000 -0.955600 0.191656 -0.223822 0.000000
39.37500000 156.79699707 302.50000000 0.915643 -0.354580 -0.189394 0.000000
126.56199646 181.40600586 377.50000000 -0.408770 -0.819131 0.402408 0.000000
119.53099823 95.27339935 345.00000000 -0.291468 -0.801931 0.521491 0.000000
114.60900116 139.92199707 312.50000000 0.000978 0.000978 0.999999 0.000000
112.85199738 258.75000000 355.00000000 0.667554 0.453401 -0.590593 0.000000
132.89100647 220.78100586 367.50000000 -0.028649 0.503410 0.863573 0.000000
125.85900116 241.17199707 357.50000000 0.600415 0.358286 -0.714936 0.000000
71.71880341 149.76600647 377.50000000 0.000978 0.000978 0.999999 0.000000
48.51559830 188.08599854 235.00000000 0.824870 -0.292696 0.483652 0.000000
118.12500000 160.31199646 322.50000000 -0.728494 0.058912 0.682514 0.000000
150.46899414 179.29699707 362.50000000 0.393887 -0.393887 0.830485 0.000000
40.78120041 208.82800293 332.50000000 0.921899 0.001279 0.387428 0.000000
60.46879959 139.21899414 262.50000000 0.076250 0.608561 0.789835 0.000000
125.15599823 203.55499268 330.00000000 0.836749 0.544238 -0.060471 0.000000
140.62500000 157.50000000 327.50000000 0.358443 0.633413 0.685789 0.000000
72.42189789 201.09399414 382.50000000 0.000978 0.000978 0.999999 0.000000
140.62500000 147.65600586 332.50000000 -0.626303 -0.229593 0.745004 0.000000
80.15619659 162.42199707 252.50000000 -0.416788 0.592802 0.689111 0.000000
172.26600647 97.03119659 352.50000000 0.578659 0.001362 0.815569 0.000000
90.00000000 246.79699707 377.50000000 0.000978 0.000978 0.999999 0.000000
49.92190170 211.64100647 272.50000000 0.707944 -0.643731 0.290562 0.000000
92.81250000 180.00000000 252.50000000 0.000978 0.000978 0.999999 0.000000
138.51600647 214.45300293 367.50000000 0.000978 0.000978 0.999999 0.000000
207.42199707 125.15599823 342.50000000 0.000978 0.000978 0.999999 0.000000
111.09400177 153.28100586 377.50000000 0.000978 0.000978 0.999999 0.000000
54.84379959 180.00000000 372.50000000 -0.278474 0.185192 0.942421 0.000000
85.07810211 210.23399353 377.50000000 0.000978 0.000978 0.999999 0.000000
85.07810211 189.14100647 232.50000000 -0.877979 0.353315 0.322987 0.000000
76.64060211 145.54699707 267.50000000 -0.654317 0.728566 0.202637 0.000000
214.45300293 114.60900116 352.50000000 0.357511 -0.847723 -0.391857 0.000000
172.96899414 88.59380341 347.50000000 -0.412975 -0.805060 0.425830 0.000000
89.29689789 236.95300293 377.50000000 0.000978 0.000978 0.999999 0.000000
99.84380341 108.98400116 297.50000000 -0.433491 -0.472751 0.767198 0.000000
106.17199707 191.95300293 377.50000000 0.000978 0.000978 0.999999 0.000000
135.00000000 139.21899414 332.50000000 0.000978 0.000978 0.999999 0.000000
85.78119659 101.25000000 332.50000000 0.443690 0.805690 -0.392433 0.000000
89.29689789 204.60899353 252.50000000 -0.970837 -0.208850 0.117716 0.000000
95.62500000 181.40600586 382.50000000 0.440053 0.257332 0.860310 0.000000
156.09399414 134.64799500 320.00000000 -0.337356 -0.695899 0.633968 0.000000
112.14800262 172.26600647 285.00000000 -0.624776 0.772477 0.113730 0.000000
144.14100647 130.07800293 312.50000000 0.000978 0.000978 0.999999 0.000000
123.04699707 196.17199707 312.50000000 -0.648216 -0.648216 0.399540 0.000000
177.18800354 101.95300293 312.50000000 0.000978 0.000978 0.999999 0.000000
156.79699707 104.76599884 357.50000000 0.000978 0.000978 0.999999 0.000000
63.28120041 230.27299500 295.00000000 -0.318211 -0.946964 0.044728 0.000000
194.06199646 117.42199707 327.50000000 0.000978 0.000978 0.999999 0.000000
123.04699707 248.90600586 362.50000000 0.746462 0.624399 -0.230042 0.000000
54.84379959 249.60899353 352.50000000 0.540817 -0.833699 -0.111643 0.000000
45.70309830 197.22700500 250.00000000 0.240461 -0.724525 0.645943 0.000000
59.06250000 226.40600586 297.50000000 0.677430 -0.677430 0.286667 0.000000
205.31199646 133.59399414 357.50000000 0.000978 0.000978 0.999999 0.000000
35.15620041 170.15600586 247.50000000 0.960441 -0.067244 0.270243 0.000000
175.07800293 162.42199707 357.50000000 0.000978 0.000978 0.999999 0.000000
103.35900116 172.26600647 277.50000000 -0.529691 0.718984 0.449988 0.000000
139.21899414 195.46899414 342.50000000 0.639179 0.571720 -0.514379 0.000000
203.90600586 132.89100647 357.50000000 0.000978 0.000978 0.999999 0.000000
73.82810211 111.79699707 292.50000000 0.106425 -0.285113 0.952567 0.000000
40.42969894 203.20300293 285.00000000 0.869805 -0.492573 0.028496 0.000000
175.78100586 93.51560211 312.50000000 0.000978 0.000978 0.999999 0.000000
86.83589935 191.25000000 235.00000000 -0.940675 0.228588 0.250754 0.000000
79.10160065 108.98400116 340.00000000 0.562636 0.666766 -0.488738 0.000000
85.07810211 206.71899414 237.50000000 -0.789930 -0.518641 0.327143 0.000000
165.93800354 154.68800354 362.50000000 0.000978 0.000978 0.999999 0.000000
82.61720276 227.10899353 265.00000000 -0.517619 -0.794744 0.316942 0.000000
118.82800293 161.71899414 322.50000000 -0.785044 0.191287 0.589165 0.000000
99.14060211 187.03100586 272.50000000 -0.802739 0.012392 0.596202 0.000000
85.78119659 192.65600586 382.50000000 0.000978 0.000978 0.999999 0.000000
68.20310211 145.54699707 262.50000000 -0.563489 0.367493 0.739885 0.000000
106.17199707 251.01600647 347.50000000 0.533140 0.358127 -0.766490 0.000000
64.33589935 259.45300293 350.00000000 -0.648389 0.712113 -0.269233 0.000000
85.07810211 94.21880341 312.50000000 0.561331 0.804726 -0.193195 0.000000
152.57800293 135.00000000 317.50000000 -0.250312 -0.906100 0.341068 0.000000
51.67969894 192.65600586 235.00000000 0.789894 -0.262251 0.554339 0.000000
128.67199707 142.03100586 367.50000000 0.293426 -0.365654 0.883288 0.000000
76.64060211 216.56199646 237.50000000 -0.000978 -0.000978 0.999999 0.000000
64.68750000 226.05499268 375.00000000 -0.778447 0.252173 0.574829 0.000000
63.28120041 115.31199646 317.50000000 0.756159 0.631400 -0.171923 0.000000
49.21879959 239.06199646 362.50000000 0.872050 -0.283606 -0.398868 0.000000
178.59399414 139.21899414 362.50000000 0.000978 0.000978 0.999999 0.000000
86.48439789 192.65600586 232.50000000 -0.877979 0.353315 0.322987 0.000000
60.46879959 139.92199707 367.50000000 0.253309 0.756781 -0.602592 0.000000
97.73439789 206.01600647 292.50000000 -0.906989 -0.373466 0.194664 0.000000
50.62500000 199.68800354 372.50000000 0.000978 0.000978 0.999999 0.000000
93.51560211 168.75000000 262.50000000 0.834985 0.516036 -0.191069 0.000000
81.56250000 173.67199707 242.50000000 -0.000978 -0.000978 0.999999 0.000000
39.37500000 191.25000000 317.50000000 0.000000 0.000000 0.000000 0.000000
108.28099823 139.92199707 377.50000000 0.000978 0.000978 0.999999 0.000000
186.32800293 115.31199646 362.50000000 0.000978 0.000978 0.999999 0.000000
104.76599884 187.03100586 277.50000000 0.000978 0.000978 0.999999 0.000000
191.95300293 122.34400177 327.50000000 0.000978 0.000978 0.999999 0.000000
208.12500000 110.39099884 352.50000000 0.297999 0.057553 0.952830 0.000000
72.42189789 104.76599884 312.50000000 0.748225 0.649261 -0.136450 0.000000
167.34399414 118.12500000 312.50000000 -0.000978 -0.000978 0.999999 0.000000
34.45309830 165.93800354 297.50000000 0.731105 0.169421 -0.660895 0.000000
129.37500000 184.21899414 307.50000000 -0.705014 -0.610140 0.361504 0.000000
130.78100586 163.82800293 372.50000000 0.000978 0.000978 0.999999 0.000000
216.56199646 120.93800354 342.50000000 0.000978 0.000978 0.999999 0.000000
106.87500000 143.43800354 312.50000000 0.000978 0.000978 0.999999 0.000000
84.72660065 179.29699707 240.00000000 -0.762424 0.348028 0.545514 0.000000
137.10899353 89.29689789 342.50000000 0.000978 0.000978 0.999999 0.000000
68.20310211 127.26599884 292.50000000 -0.000978 -0.000978 0.999999 0.000000
39.37500000 184.92199707 317.50000000 0.990125 -0.001104 -0.140185 0.000000
76.64060211 262.96899414 332.50000000 0.542507 -0.751038 0.376334 0.000000
84.37500000 125.15599823 367.50000000 0.000978 0.000978 -0.999999 0.000000
59.76559830 210.93800354 247.50000000 0.891324 0.393361 -0.225409 0.000000
103.35900116 204.60899353 302.50000000 -0.891602 -0.300188 0.339018 0.000000
86.48439789 232.03100586 302.50000000 -0.790955 -0.505377 0.344940 0.000000
115.66400146 202.50000000 315.00000000 -0.669292 -0.724177 0.166180 0.000000
72.42189789 175.78100586 382.50000000 -0.058634 0.440434 0.895868 0.000000
178.59399414 74.88279724 315.00000000 0.142191 -0.969720 0.198556 0.000000
166.64100647 136.40600586 362.50000000 0.000978 0.000978 0.999999 0.000000
152.57800293 83.32029724 295.00000000 -0.454873 -0.809195 0.371879 0.000000
61.87500000 182.81199646 377.50000000 0.000978 0.000978 0.999999 0.000000
50.27339935 244.68800354 355.00000000 0.866115 -0.498257 0.039806 0.000000
62.57809830 139.21899414 367.50000000 0.253309 0.756781 -0.602592 0.000000
115.31199646 217.96899414 332.50000000 -0.681103 -0.402696 0.611502 0.000000
69.60939789 226.05499268 260.00000000 0.730168 -0.666675 -0.149662 0.000000
89.29689789 113.90599823 357.50000000 0.000978 0.000978 0.999999 0.000000
121.64099884 116.71900177 362.50000000 0.000978 0.000978 0.999999 0.000000
209.53100586 132.89100647 347.50000000 -0.160125 -0.480374 0.862323 0.000000
90.00000000 92.81250000 317.50000000 0.625737 0.703751 -0.336435 0.000000
108.98400116 196.17199707 377.50000000 0.000978 0.000978 0.999999 0.000000
142.03100586 172.26600647 322.50000000 0.000978 0.000978 0.999999 0.000000
85.78119659 126.21099854 375.00000000 0.032215 -0.617686 0.785764 0.000000
75.93750000 153.63299561 260.00000000 -0.320797 0.900302 0.294187 0.000000
86.48439789 228.51600647 377.50000000 0.000978 0.000978 0.999999 0.000000
147.65600586 189.14100647 352.50000000 -0.000978 -0.000978 -0.999999 0.000000
196.87500000 105.46900177 352.50000000 0.000978 0.000978 0.999999 0.000000
129.37500000 146.25000000 332.50000000 0.000978 0.000978 0.999999 0.000000
92.81250000 166.64100647 382.50000000 0.000978 0.000978 0.999999 0.000000
142.73399353 204.60899353 367.50000000 0.875021 0.106364 0.472256 0.000000
220.78100586 123.04699707 362.50000000 -0.304054 -0.609717 -0.731982 0.000000
144.84399414 184.92199707 367.50000000 0.421998 0.027780 0.906171 0.000000
66.79689789 142.73399353 262.50000000 -0.741084 0.537327 0.402584 0.000000
41.48440170 143.43800354 252.50000000 -0.601796 0.353902 0.715958 0.000000
118.12500000 255.23399353 357.50000000 0.804930 0.294563 -0.515092 0.000000
116.01599884 111.79699707 307.50000000 0.000978 0.000978 0.999999 0.000000
191.95300293 127.96900177 327.50000000 0.000978 0.000978 0.999999 0.000000
64.68750000 122.34400177 337.50000000 0.735945 0.579984 -0.349290 0.000000
137.10899353 182.81199646 317.50000000 0.000978 0.000978 0.999999 0.000000
149.76600647 82.26560211 332.50000000 0.219921 -0.887065 0.405895 0.000000
79.45310211 269.64801025 345.00000000 -0.408443 0.893923 -0.184599 0.000000
209.53100586 126.56199646 342.50000000 0.000978 0.000978 0.999999 0.000000
154.68800354 111.79699707 307.50000000 0.000978 0.000978 0.999999 0.000000
74.53119659 135.70300293 377.50000000 -0.406717 0.662368 0.629166 0.000000
99.84380341 157.50000000 382.50000000 0.000978 0.000978 0.999999 0.000000
28.82810020 165.23399353 267.50000000 0.997856 -0.062300 0.020063 0.000000
98.43750000 220.07800293 377.50000000 0.000978 0.000978 0.999999 0.000000
108.98400116 101.95300293 347.50000000 0.491419 -0.329203 0.806308 0.000000
42.89059830 201.09399414 357.50000000 0.873988 0.467951 0.131026 0.000000
109.33599854 222.89100647 375.00000000 0.701851 0.488462 0.518469 0.000000
104.06199646 243.98399353 372.50000000 0.000978 0.000978 0.999999 0.000000
131.48399353 198.98399353 372.50000000 0.264392 0.124962 0.956285 0.000000
51.67969894 239.06199646 335.00000000 0.962562 0.001205 0.271059 0.000000
100.54699707 146.95300293 312.50000000 0.000978 0.000978 0.999999 0.000000
52.73440170 128.67199707 312.50000000 0.879049 0.438791 -0.186376 0.000000
148.35899353 136.75799561 320.00000000 0.509765 0.001338 0.860313 0.000000
132.89100647 99.84380341 352.50000000 0.071290 -0.496231 0.865259 0.000000
69.60939789 254.53100586 372.50000000 0.000978 0.000978 0.999999 0.000000
55.54690170 198.98399353 232.50000000 0.435362 -0.726707 0.531373 0.000000
58.71089935 251.01600647 340.00000000 0.874811 -0.459892 0.152330 0.000000
209.53100586 92.81250000 332.50000000 -0.999008 -0.036233 -0.025881 0.000000
127.26599884 173.67199707 372.50000000 0.019524 0.396984 0.917618 0.000000
98.43750000 129.72700500 375.00000000 0.300930 -0.781781 0.546132 0.000000
173.32000732 158.20300293 330.00000000 -0.580716 -0.580716 0.570558 0.000000
201.79699707 84.37500000 322.50000000 -0.789894 -0.262251 0.554339 0.000000
204.60899353 107.57800293 352.50000000 0.006385 -0.371603 0.928370 0.000000
52.73440170 199.68800354 372.50000000 0.000978 0.000978 0.999999 0.000000
115.66400146 220.78100586 335.00000000 -0.617604 -0.421169 0.664215 0.000000
178.59399414 139.92199707 362.50000000 0.000978 0.000978 0.999999 0.000000
60.46879959 125.15599823 332.50000000 0.832305 0.513937 -0.207697 0.000000
145.54699707 79.45310211 322.50000000 -0.496066 -0.837971 0.227427 0.000000
42.18750000 192.65600586 252.50000000 0.852726 -0.427134 0.300690 0.000000
66.09380341 223.59399414 257.50000000 -0.360030 -0.360030 0.860672 0.000000
144.84399414 139.21899414 367.50000000 0.000978 0.000978 0.999999 0.000000
114.25800323 255.23399353 355.00000000 0.607267 0.376868 -0.699427 0.000000
98.43750000 145.19500732 380.00000000 0.690187 -0.347541 0.634711 0.000000
198.98399353 92.10939789 347.50000000 0.179389 -0.252223 0.950896 0.000000
182.81199646 144.84399414 362.50000000 0.000978 0.000978 0.999999 0.000000
173.67199707 155.39100647 327.50000000 -0.657202 -0.311646 0.686267 0.000000
52.73440170 168.04699707 377.50000000 -0.665173 -0.021005 0.746394 0.000000
215.85899353 106.17199707 347.50000000 0.000978 0.000978 0.999999 0.000000
77.34380341 111.09400177 342.50000000 0.347360 0.719181 -0.601764 0.000000
68.90619659 222.89100647 377.50000000 0.000978 0.000978 0.999999 0.000000
121.64099884 226.40600586 347.50000000 -0.000978 -0.000978 -0.999999 0.000000
63.98440170 148.35899353 372.50000000 0.000978 0.000978 0.999999 0.000000
80.85939789 118.12500000 357.50000000 0.368505 0.709167 -0.601072 0.000000
52.03120041 155.39100647 372.50000000 0.000978 0.000978 0.999999 0.000000
117.42199707 173.67199707 287.50000000 -0.000978 -0.000978 0.999999 0.000000
190.54699707 80.15619659 332.50000000 0.197016 -0.949754 0.243213 0.000000
86.83589935 200.39100647 235.00000000 -0.903596 -0.060962 0.424026 0.000000
154.68800354 123.75000000 362.50000000 0.000978 0.000978 0.999999 0.000000
119.88300323 158.20300293 325.00000000 -0.728494 0.058912 0.682514 0.000000
213.04699707 125.85900116 342.50000000 -0.138345 -0.251657 0.957877 0.000000
189.84399414 110.39099884 357.50000000 0.000978 0.000978 0.999999 0.000000
59.06250000 201.09399414 232.50000000 0.529764 -0.667670 0.523036 0.000000
141.32800293 130.07800293 337.50000000 -0.555211 -0.830730 0.040354 0.000000
42.89059830 213.75000000 317.50000000 0.882165 -0.444704 0.154995 0.000000
41.48440170 217.96899414 357.50000000 0.852162 -0.212663 -0.478116 0.000000
169.45300293 168.04699707 357.50000000 0.000978 0.000978 0.999999 0.000000
80.85939789 154.68800354 382.50000000 0.000978 0.000978 0.999999 0.000000
59.41410065 257.34399414 355.00000000 -0.656816 0.656816 -0.370385 0.000000
130.07800293 144.84399414 367.50000000 0.357234 -0.245507 0.901171 0.000000
92.10939789 149.41400146 290.00000000 -0.543982 0.816731 0.192439 0.000000
137.81199646 163.12500000 372.50000000 0.000978 0.000978 0.999999 0.000000
82.96880341 139.21899414 297.50000000 -0.565135 0.672460 0.477933 0.000000
143.43800354 184.21899414 342.50000000 -0.001282 -0.921514 -0.388343 0.000000
69.60939789 258.75000000 367.50000000 0.000978 0.000978 0.999999 0.000000
128.67199707 192.65600586 317.50000000 -0.801779 -0.536082 0.264134 0.000000
67.50000000 200.39100647 382.50000000 -0.460512 0.779454 0.424713 0.000000
213.75000000 96.32810211 347.50000000 0.000978 0.000978 0.999999 0.000000
48.16410065 211.64100647 280.00000000 0.703673 -0.703673 0.098426 0.000000
163.82800293 85.42970276 340.00000000 0.033475 -0.895793 0.443210 0.000000
221.48399353 125.15599823 357.50000000 0.313512 0.577183 -0.754036 0.000000
88.24220276 242.57800293 320.00000000 0.884290 0.370831 -0.283753 0.000000
49.92190170 151.52299500 355.00000000 0.809673 0.541324 -0.226709 0.000000
44.29690170 125.85900116 272.50000000 0.599529 0.726259 0.336321 0.000000
71.71880341 265.07800293 362.50000000 0.058819 0.658481 0.750295 0.000000
182.81199646 111.79699707 362.50000000 0.000978 0.000978 0.999999 0.000000
128.67199707 97.03119659 297.50000000 0.000978 0.000978 0.999999 0.000000
49.92190170 242.57800293 347.50000000 0.798223 -0.595408 0.091267 0.000000
213.75000000 103.35900116 347.50000000 0.000978 0.000978 0.999999 0.000000
66.09380341 222.18800354 377.50000000 -0.163566 0.274412 0.947599 0.000000
63.28120041 255.23399353 367.50000000 0.000978 0.000978 0.999999 0.000000
146.95300293 110.39099884 307.50000000 0.000978 0.000978 0.999999 0.000000
119.18000031 192.65600586 305.00000000 -0.496161 -0.607167 0.620622 0.000000
106.17199707 137.10899353 377.50000000 0.000978 0.000978 0.999999 0.000000
102.65599823 269.29699707 347.50000000 0.816732 0.143780 -0.558817 0.000000
184.21899414 145.54699707 362.50000000 0.418336 0.853652 -0.310279 0.000000
82.61720276 254.53100586 320.00000000 0.423154 0.419936 -0.802866 0.000000
66.09380341 129.37500000 277.50000000 -0.780583 0.585824 0.217945 0.000000
137.81199646 219.37500000 367.50000000 0.219051 0.274860 0.936199 0.000000
82.61720276 228.51600647 270.00000000 -0.718292 -0.675591 0.166229 0.000000
47.10940170 150.11700439 250.00000000 -0.268427 0.722689 0.636920 0.000000
150.82000732 143.43800354 340.00000000 -0.461989 -0.416601 0.782950 0.000000
168.75000000 163.82800293 332.50000000 -0.475613 -0.606700 0.636951 0.000000
78.75000000 220.78100586 247.50000000 -0.001330 -0.871255 0.490829 0.000000
141.67999268 183.51600647 335.00000000 0.975925 0.090066 -0.198640 0.000000
135.35200500 177.89100647 310.00000000 -0.768706 -0.354414 0.532430 0.000000
77.34380341 180.70300293 382.50000000 0.000978 0.000978 0.999999 0.000000
87.18750000 218.67199707 267.50000000 -0.879049 -0.438791 0.186376 0.000000
111.44499969 170.85899353 285.00000000 -0.756890 0.052740 0.651410 0.000000
68.20310211 258.04699707 337.50000000 -0.001379 0.665988 0.745961 0.000000
99.14060211 185.62500000 272.50000000 0.000978 0.000978 0.999999 0.000000
80.15619659 151.17199707 382.50000000 0.000978 0.000978 0.999999 0.000000
115.31199646 148.71099854 320.00000000 -0.261863 -0.680843 0.684018 0.000000
146.25000000 173.67199707 347.50000000 0.631142 0.604214 -0.486400 0.000000
95.62500000 125.15599823 302.50000000 0.000978 0.000978 0.999999 0.000000
80.85939789 124.45300293 367.50000000 -0.000978 -0.000978 -0.999999 0.000000
145.54699707 162.42199707 322.50000000 0.000978 0.000978 0.999999 0.000000
184.21899414 118.82800293 322.50000000 0.000978 0.000978 0.999999 0.000000
141.32800293 127.96900177 312.50000000 0.000978 0.000978 0.999999 0.000000
149.06199646 85.07810211 337.50000000 0.226932 -0.867150 0.443343 0.000000
52.03120041 175.78100586 372.50000000 0.000978 0.000978 0.999999 0.000000
67.50000000 158.90600586 252.50000000 -0.332369 0.094772 0.938376 0.000000
127.26599884 230.62500000 367.50000000 0.000978 0.000978 0.999999 0.000000
165.93800354 156.09399414 362.50000000 0.000978 0.000978 0.999999 0.000000
108.98400116 142.73399353 377.50000000 0.000978 0.000978 0.999999 0.000000
81.56250000 130.78100586 302.50000000 -0.361237 0.064837 0.930217 0.000000
217.26600647 124.45300293 357.50000000 -0.084679 0.889822 -0.448382 0.000000
75.93750000 163.47700500 250.00000000 -0.344858 0.678276 0.648857 0.000000
61.87500000 236.95300293 307.50000000 0.718846 -0.642677 0.265005 0.000000
114.60900116 209.53100586 377.50000000 0.656222 0.279413 0.700928 0.000000
53.78910065 144.84399414 355.00000000 0.872121 0.471378 -0.131179 0.000000
122.69499969 217.26600647 340.00000000 -0.308295 -0.432233 0.847425 0.000000
51.32809830 190.54699707 372.50000000 0.000978 0.000978 0.999999 0.000000
140.62500000 202.50000000 347.50000000 0.760658 -0.067582 -0.645625 0.000000
136.40600586 95.62500000 352.50000000 0.087550 -0.244887 0.965591 0.000000
35.50780106 152.57800293 295.00000000 0.951533 0.190307 -0.241595 0.000000
65.39060211 113.90599823 292.50000000 -0.626930 0.552577 0.549197 0.000000
69.60939789 214.80499268 240.00000000 0.386407 -0.708687 0.590298 0.000000
45.70309830 200.39100647 367.50000000 -0.001330 -0.871255 -0.490829 0.000000
131.13299561 216.56199646 370.00000000 0.628303 0.424979 0.651635 0.000000
78.75000000 120.23400116 357.50000000 0.573673 0.696722 -0.430671 0.000000
80.15619659 120.58599854 360.00000000 0.476509 0.789875 -0.386053 0.000000
52.73440170 217.26600647 372.50000000 -0.378405 -0.247818 0.891849 0.000000
203.90600586 125.15599823 337.50000000 0.000978 0.000978 0.999999 0.000000
215.15600586 90.00000000 342.50000000 0.566517 -0.234367 0.790019 0.000000
64.68750000 205.31199646 232.50000000 0.741404 -0.406046 0.534271 0.000000
85.07810211 177.89100647 242.50000000 -0.429211 0.548528 0.717561 0.000000
75.93750000 126.56199646 297.50000000 -0.453013 -0.108667 0.884857 0.000000
66.79689789 237.30499268 300.00000000 0.500184 -0.752735 0.428026 0.000000
56.95309830 120.58599854 275.00000000 -0.477148 0.477148 0.738011 0.000000
159.60899353 100.54699707 307.50000000 -0.305829 -0.101943 0.946613 0.000000
87.89060211 201.79699707 242.50000000 -0.990125 -0.001104 0.140185 0.000000
106.87500000 253.12500000 347.50000000 0.539786 0.361479 -0.760240 0.000000
42.18750000 206.71899414 307.50000000 0.763803 -0.001376 -0.645448 0.000000
117.42199707 118.82800293 307.50000000 0.000978 0.000978 0.999999 0.000000
129.37500000 114.60900116 357.50000000 0.000978 0.000978 0.999999 0.000000
112.50000000 266.48400879 357.50000000 0.645353 0.571213 -0.507183 0.000000
111.79699707 162.42199707 292.50000000 -0.779685 0.447627 0.437861 0.000000
186.32800293 93.51560211 352.50000000 0.000978 0.000978 0.999999 0.000000
63.28120041 206.01600647 232.50000000 0.741404 -0.406046 0.534271 0.000000
185.62500000 134.29699707 327.50000000 -0.638469 -0.387701 0.664865 0.000000
89.29689789 217.61700439 280.00000000 -0.962994 -0.262407 0.061521 0.000000
126.56199646 180.70300293 297.50000000 0.795962 -0.440766 0.414934 0.000000
143.43800354 187.03100586 367.50000000 0.297200 0.031350 0.954300 0.000000
93.86720276 151.17199707 275.00000000 -0.900379 -0.387120 0.198634 0.000000
78.04689789 155.39100647 257.50000000 -0.270061 0.890752 0.365552 0.000000
145.54699707 129.37500000 312.50000000 0.000978 0.000978 0.999999 0.000000
83.67189789 206.01600647 232.50000000 -0.532908 -0.754545 0.382977 0.000000
84.37500000 206.01600647 232.50000000 -0.532908 -0.754545 0.382977 0.000000
40.07809830 201.79699707 322.50000000 0.991695 -0.128492 -0.005491 0.000000
70.31250000 161.01600647 252.50000000 0.000978 0.000978 0.999999 0.000000
68.20310211 127.96900177 362.50000000 0.430470 0.862460 -0.266192 0.000000
99.84380341 137.81199646 377.50000000 0.000978 0.000978 0.999999 0.000000
40.78120041 215.15600586 357.50000000 0.852162 -0.212663 -0.478116 0.000000
37.26559830 171.56199646 302.50000000 0.789894 0.262251 -0.554339 0.000000
143.43800354 163.12500000 322.50000000 0.000978 0.000978 0.999999 0.000000
87.18750000 271.75799561 360.00000000 -0.189634 0.667572 0.719991 0.000000
172.26600647 74.17970276 315.00000000 0.237347 -0.950746 0.199372 0.000000
125.15599823 232.03100586 372.50000000 0.000978 0.000978 0.999999 0.000000
158.90600586 136.40600586 322.50000000 -0.252483 -0.364698 0.896241 0.000000
83.67189789 236.25000000 302.50000000 -0.833509 -0.537606 0.127443 0.000000
160.31199646 153.63299561 365.00000000 0.300420 0.734181 0.608872 0.000000
151.87500000 156.09399414 367.50000000 0.112008 0.202621 0.972831 0.000000
161.01600647 113.90599823 312.50000000 -0.000978 -0.000978 0.999999 0.000000
75.23439789 115.31199646 347.50000000 0.000978 0.000978 0.999999 0.000000
99.84380341 274.92199707 357.50000000 -0.173613 0.918880 0.354284 0.000000
176.48399353 130.07800293 322.50000000 0.000978 0.000978 0.999999 0.000000
91.75779724 206.01600647 270.00000000 -0.935714 -0.233579 0.264350 0.000000
121.64099884 183.51600647 377.50000000 0.000978 0.000978 0.999999 0.000000
79.45310211 175.78100586 237.50000000 -0.453689 0.543430 0.706293 0.000000
78.75000000 173.67199707 387.50000000 0.000978 0.000978 0.999999 0.000000
43.59379959 220.78100586 332.50000000 0.933654 -0.314917 0.170638 0.000000
49.21879959 181.40600586 372.50000000 0.000978 0.000978 0.999999 0.000000
127.61699677 199.68800354 330.00000000 0.664461 0.580775 -0.470311 0.000000
