176.75799561 162.10899353 213.75000000 0.000978 0.000978 0.999999 0.000000
146.48399353 160.15600586 193.75000000 -0.844238 0.422899 0.329269 0.000000
136.71899414 215.82000732 78.75000000 0.774851 0.442073 -0.451860 0.000000
113.28099823 209.96099854 143.75000000 -0.001371 0.788169 0.615457 0.000000
186.52299500 171.87500000 138.75000000 -0.796274 0.390898 -0.461678 0.000000
138.67199707 138.67199707 106.25000000 -0.748223 -0.511423 0.422623 0.000000
170.89799500 155.27299500 213.75000000 -0.387591 -0.317120 0.865568 0.000000
255.85899353 195.80099487 157.50000000 0.865035 0.498471 0.056928 0.000000
263.67199707 172.85099792 153.75000000 0.636126 0.202756 -0.744469 0.000000
237.30499268 106.93399811 170.00000000 -0.227962 -0.907492 0.352833 0.000000
196.28900146 107.91000366 145.00000000 -0.141365 -0.989554 0.028273 0.000000
228.51600647 189.45300293 196.25000000 0.391418 0.360230 0.846774 0.000000
129.88299561 204.10099792 178.75000000 -0.652039 0.275801 0.706243 0.000000
250.48800659 208.98399353 145.00000000 0.935787 0.261573 -0.236395 0.000000
138.18400574 141.60099792 152.50000000 -0.780970 -0.618690 0.085487 0.000000
199.21899414 249.02299500 161.25000000 0.371533 0.764156 0.527284 0.000000
147.46099854 248.04699707 116.25000000 0.368902 -0.541164 -0.755680 0.000000
147.94900513 127.93000031 80.00000000 -0.511631 -0.856456 -0.068685 0.000000
115.23400116 211.91400146 101.25000000 -0.975752 0.185679 -0.115894 0.000000
125.97699738 238.76899719 107.50000000 -0.568425 0.622400 -0.538064 0.000000
223.63299561 199.70700073 122.50000000 -0.236284 0.843001 -0.483239 0.000000
131.83599854 253.90600586 121.25000000 -0.001264 0.931838 0.362873 0.000000
122.55899811 231.44500732 102.50000000 -0.888235 0.459341 -0.006619 0.000000
250.00000000 142.57800293 131.25000000 0.618103 0.409307 -0.671131 0.000000
183.59399414 224.60899353 121.25000000 0.283089 0.686131 -0.670138 0.000000
125.97699738 250.00000000 133.75000000 -0.793869 0.590543 -0.145019 0.000000
149.41400146 204.10099792 88.75000000 0.694416 0.496968 -0.520394 0.000000
202.14799500 170.41000366 130.00000000 0.803757 0.402681 -0.437975 0.000000
263.67199707 162.59800720 150.00000000 0.775255 0.352975 -0.523821 0.000000
243.16400146 111.81600189 115.00000000 -0.440415 -0.854742 -0.274684 0.000000
163.08599854 164.06199646 86.25000000 0.548786 -0.060663 -0.833759 0.000000
227.53900146 168.94500732 203.75000000 0.605040 -0.148633 0.782199 0.000000
306.64001465 128.90600586 153.75000000 -0.000978 -0.000978 -0.999999 0.000000
241.21099854 145.99600220 125.00000000 0.465363 0.384850 -0.797075 0.000000
227.53900146 201.17199707 141.25000000 -0.681751 0.681751 0.265390 0.000000
116.69899750 164.06199646 55.00000000 0.333871 -0.327828 -0.883776 0.000000
225.58599854 110.35199738 173.75000000 -0.191656 -0.955600 0.223822 0.000000
251.95300293 113.28099823 186.25000000 0.131707 -0.584543 0.800602 0.000000
147.46099854 135.25399780 182.50000000 -0.659628 -0.746996 0.083000 0.000000
154.29699707 213.86700439 188.75000000 -0.372700 0.237173 0.897131 0.000000
177.24600220 142.57800293 102.50000000 0.579787 0.379408 -0.721039 0.000000
149.41400146 136.22999573 187.50000000 -0.679680 -0.528640 0.508502 0.000000
294.92199707 171.87500000 171.25000000 0.000978 0.000978 -0.999999 0.000000
189.45300293 137.69500732 101.25000000 0.000978 0.000978 -0.999999 0.000000
180.66400146 110.83999634 125.00000000 -0.391679 -0.919193 0.040882 0.000000
114.74600220 224.60899353 125.00000000 -0.891443 0.356876 -0.279229 0.000000
239.25799561 112.79299927 117.50000000 -0.422899 -0.844238 -0.329269 0.000000
278.32000732 164.06199646 186.25000000 0.498431 -0.068412 0.864226 0.000000
194.33599854 110.83999634 160.00000000 -0.251906 -0.939427 0.232421 0.000000
113.28099823 166.01600647 53.75000000 -0.574844 -0.625417 -0.527643 0.000000
168.94500732 152.34399414 211.25000000 -0.329740 -0.323718 0.886836 0.000000
248.04699707 210.93699646 166.25000000 0.256592 0.948983 -0.183280 0.000000
172.85099792 229.49200439 186.25000000 0.001371 0.788169 0.615457 0.000000
149.41400146 224.60899353 181.25000000 -0.338188 0.520906 0.783764 0.000000
217.77299500 161.13299561 158.75000000 0.014848 0.167899 0.985692 0.000000
271.48400879 186.52299500 178.75000000 0.845994 0.252421 0.469657 0.000000
240.23399353 133.78900146 111.25000000 0.558000 0.678649 -0.477568 0.000000
175.78100586 177.24600220 210.00000000 -0.224303 0.459144 0.859578 0.000000
157.22599792 187.50000000 86.25000000 0.732797 0.367214 -0.572855 0.000000
258.78900146 172.85099792 191.25000000 0.239511 0.480548 0.843628 0.000000
197.26600647 119.14099884 181.25000000 0.000978 0.000978 0.999999 0.000000
116.69899750 190.42999268 162.50000000 -0.906890 -0.083692 0.412971 0.000000
179.68699646 125.00000000 196.25000000 0.106168 -0.821711 0.559927 0.000000
267.57800293 158.20300293 188.75000000 0.315627 0.093764 0.944239 0.000000
150.87899780 205.07800293 90.00000000 0.694494 0.503717 -0.513758 0.000000
137.69500732 146.97300720 122.50000000 -0.777403 -0.627848 0.038094 0.000000
267.08999634 163.08599854 155.00000000 0.838693 0.054606 -0.541860 0.000000
294.92199707 109.37500000 138.75000000 0.339998 0.600284 -0.723920 0.000000
209.96099854 168.94500732 211.25000000 -0.422899 0.844238 0.329269 0.000000
305.66400146 169.92199707 176.25000000 0.259432 -0.072135 0.963064 0.000000
144.53100586 190.42999268 73.75000000 0.664859 -0.175767 -0.725995 0.000000
208.98399353 115.72299957 97.50000000 0.848620 -0.478203 -0.226198 0.000000
138.67199707 252.92999268 113.75000000 0.068141 0.378117 -0.923247 0.000000
234.37500000 192.38299561 193.75000000 0.003592 0.257437 0.966288 0.000000
129.88299561 239.74600220 105.00000000 -0.527979 0.602200 -0.598826 0.000000
206.05499268 208.98399353 123.75000000 0.701856 0.586257 -0.404600 0.000000
233.39799500 151.85499573 160.00000000 0.070818 -0.698068 0.712521 0.000000
221.67999268 130.85899353 193.75000000 0.415082 -0.307068 0.856397 0.000000
187.50000000 244.14100647 138.75000000 0.612284 -0.264216 -0.745183 0.000000
250.48800659 151.36700439 135.00000000 0.707936 0.136777 -0.692906 0.000000
264.64801025 121.09400177 186.25000000 0.091371 -0.138836 0.986091 0.000000
267.08999634 109.37500000 182.50000000 0.424413 -0.235452 0.874320 0.000000
145.50799561 245.11700439 116.25000000 0.499307 -0.469448 -0.728225 0.000000
202.14799500 240.72300720 150.00000000 0.745528 0.563613 -0.355709 0.000000
316.40600586 151.36700439 166.25000000 0.330519 0.053142 0.942302 0.000000
188.47599792 129.88299561 201.25000000 0.738360 -0.624523 0.254552 0.000000
294.92199707 124.02300262 173.75000000 0.221459 -0.221459 0.949691 0.000000
161.13299561 122.06999969 156.25000000 -0.549669 -0.798811 -0.244470 0.000000
124.02300262 218.75000000 166.25000000 -0.674710 0.172885 0.717549 0.000000
136.71899414 145.01899719 137.50000000 -0.847822 -0.473380 -0.238973 0.000000
158.20300293 208.00799561 191.25000000 -0.465764 0.297528 0.833391 0.000000
264.64801025 179.68699646 158.75000000 0.607011 0.650488 -0.456512 0.000000
135.74200439 228.51600647 171.25000000 -0.622322 0.336346 0.706815 0.000000
201.17199707 150.39100647 106.25000000 -0.188668 0.282314 -0.940587 0.000000
189.45300293 120.60500336 172.50000000 0.841803 -0.219931 0.492948 0.000000
131.34800720 143.55499268 165.00000000 -0.455439 -0.555535 0.695670 0.000000
155.76199341 125.97699738 175.00000000 -0.601516 -0.513900 0.611625 0.000000
244.14100647 116.21099854 188.75000000 -0.337657 -0.657372 0.673684 0.000000
261.71899414 160.15600586 191.25000000 0.219270 0.020149 0.975456 0.000000
260.74200439 145.50799561 191.25000000 0.000978 0.000978 0.999999 0.000000
197.26600647 140.62500000 103.75000000 0.000978 0.000978 -0.999999 0.000000
191.40600586 147.46099854 211.25000000 0.163684 -0.309486 0.936710 0.000000
205.07800293 207.03100586 118.75000000 0.704460 0.585675 -0.400899 0.000000
130.37100220 147.46099854 102.50000000 -0.869146 -0.429301 0.245530 0.000000
133.78900146 232.91000366 95.00000000 0.128561 0.862368 -0.489687 0.000000
208.98399353 232.91000366 150.00000000 0.730404 0.590505 -0.343241 0.000000
139.16000366 260.74200439 132.50000000 -0.459094 0.883090 -0.096873 0.000000
149.41400146 261.71899414 153.75000000 -0.171909 0.835626 0.521706 0.000000
186.52299500 165.03900146 118.75000000 0.759299 0.538176 -0.365829 0.000000
300.29299927 159.17999268 167.50000000 -0.359339 -0.140128 -0.922627 0.000000
163.08599854 118.65200043 90.00000000 0.001371 -0.788169 -0.615457 0.000000
264.64801025 160.15600586 191.25000000 0.462562 0.014663 0.886466 0.000000
256.83599854 118.16400146 116.25000000 0.844238 0.422899 -0.329269 0.000000
228.51600647 189.94099426 195.00000000 0.391418 0.360230 0.846774 0.000000
264.64801025 103.51599884 158.75000000 -0.043050 -0.998543 -0.032550 0.000000
215.82000732 130.85899353 118.75000000 -0.822119 0.543587 -0.169216 0.000000
140.62500000 179.68699646 191.25000000 -0.449107 0.158423 0.879321 0.000000
291.99200439 162.10899353 168.75000000 -0.000978 -0.000978 -0.999999 0.000000
297.85101318 118.16400146 168.75000000 -0.139966 0.678759 0.720899 0.000000
188.47599792 128.90600586 93.75000000 -0.097567 0.790733 -0.604336 0.000000
285.15600586 180.66400146 173.75000000 -0.344095 0.859467 -0.378042 0.000000
147.46099854 140.62500000 188.75000000 -0.762419 -0.447614 0.467289 0.000000
162.10899353 262.69500732 153.75000000 0.133379 0.663898 0.735833 0.000000
158.20300293 127.44100189 185.00000000 -0.259942 -0.927554 -0.268465 0.000000
126.95300293 175.78100586 53.75000000 0.742634 -0.320573 -0.587986 0.000000
284.17999268 181.64100647 178.75000000 -0.821614 0.430672 -0.373461 0.000000
215.33200073 208.98399353 157.50000000 0.931838 0.001264 -0.362873 0.000000
140.62500000 248.04699707 111.25000000 0.317219 0.521259 -0.792251 0.000000
164.06199646 263.67199707 153.75000000 0.133379 0.663898 0.735833 0.000000
124.02300262 212.40199280 170.00000000 -0.727798 0.353316 0.587774 0.000000
171.87500000 115.23400116 91.25000000 -0.409189 -0.910948 0.052323 0.000000
190.42999268 184.08200073 210.00000000 -0.267106 0.399905 0.876773 0.000000
245.11700439 130.85899353 191.25000000 -0.122023 -0.475173 0.871390 0.000000
154.29699707 125.00000000 161.25000000 -0.600444 -0.793288 -0.100805 0.000000
159.17999268 196.28900146 196.25000000 -0.306262 0.379399 0.873075 0.000000
114.25800323 200.19500732 141.25000000 -0.991782 0.001093 -0.127937 0.000000
139.16000366 211.91400146 77.50000000 0.714803 0.572833 -0.401148 0.000000
167.96899414 142.57800293 91.25000000 0.759955 0.175140 -0.625935 0.000000
154.29699707 162.10899353 203.75000000 -0.663323 0.206609 0.719247 0.000000
109.86299896 178.71099854 55.00000000 -0.960257 0.102100 0.259773 0.000000
184.57000732 154.29699707 213.75000000 0.000978 0.000978 0.999999 0.000000
127.93000031 178.71099854 53.75000000 0.811247 -0.368169 -0.454235 0.000000
169.92199707 233.88699341 182.50000000 0.001377 0.648407 0.761293 0.000000
299.80499268 141.60099792 176.25000000 0.477621 0.877679 0.039462 0.000000
212.40199280 122.06999969 117.50000000 -0.991746 0.128215 -0.001096 0.000000
283.20300293 132.81199646 156.25000000 0.020835 0.601424 -0.798658 0.000000
231.44500732 161.13299561 198.75000000 0.682097 -0.287283 0.672467 0.000000
166.99200439 198.24200439 98.75000000 0.562406 0.280411 -0.777862 0.000000
206.05499268 167.96899414 126.25000000 -0.409523 0.658221 -0.631693 0.000000
142.57800293 153.32000732 186.25000000 -0.868776 -0.236391 0.435141 0.000000
300.78100586 112.30500031 163.75000000 0.480671 -0.773962 0.412236 0.000000
134.76600647 145.50799561 108.75000000 -0.801335 -0.534746 0.268157 0.000000
190.42999268 252.92999268 146.25000000 0.707712 0.276375 -0.650200 0.000000
129.88299561 181.15199280 55.00000000 0.747062 -0.463409 -0.476603 0.000000
257.81201172 160.15600586 191.25000000 -0.000978 -0.000978 0.999999 0.000000
130.37100220 181.64100647 55.00000000 0.688109 -0.248352 -0.681782 0.000000
110.35199738 182.12899780 55.00000000 -0.946657 0.268333 0.178435 0.000000
290.03900146 181.64100647 173.75000000 -0.114980 0.977952 0.174325 0.000000
301.75799561 109.37500000 141.25000000 0.201887 0.602578 -0.772102 0.000000
284.17999268 103.51599884 133.75000000 -0.118231 -0.992015 -0.043914 0.000000
169.92199707 237.30499268 123.75000000 0.132692 0.381314 -0.914873 0.000000
136.22999573 193.35899353 182.50000000 -0.812655 0.094158 0.575088 0.000000
149.41400146 206.05499268 188.75000000 -0.439081 0.067025 0.895944 0.000000
131.83599854 206.05499268 178.75000000 -0.545242 0.105577 0.831603 0.000000
184.08200073 220.70300293 190.00000000 0.260334 0.186732 0.947289 0.000000
121.58200073 166.01600647 157.50000000 -0.912557 -0.408898 -0.006490 0.000000
172.85099792 216.79699707 113.75000000 0.261232 0.729866 -0.631706 0.000000
241.21099854 212.89100647 156.25000000 -0.999999 -0.000978 -0.000978 0.000000
295.89801025 107.42199707 138.75000000 -0.234167 -0.344706 -0.909034 0.000000
215.82000732 223.63299561 173.75000000 0.619831 0.586053 0.521874 0.000000
176.75799561 182.61700439 208.75000000 -0.340416 0.352628 0.871648 0.000000
213.37899780 159.17999268 152.50000000 -0.530338 0.826481 -0.188867 0.000000
162.10899353 256.83599854 121.25000000 0.825042 0.075522 -0.560002 0.000000
173.82800293 169.92199707 146.25000000 -0.994271 0.105634 0.016335 0.000000
294.92199707 105.95700073 157.50000000 0.376167 -0.917515 0.129091 0.000000
179.68699646 147.46099854 106.25000000 0.720364 0.086210 -0.688218 0.000000
160.15600586 248.53500366 170.00000000 -0.151203 0.579360 0.800924 0.000000
298.82800293 109.37500000 141.25000000 0.277234 0.512178 -0.812906 0.000000
191.40600586 173.33999634 127.50000000 -0.138232 0.972696 -0.186423 0.000000
177.73399353 199.21899414 103.75000000 0.099358 0.368849 -0.924164 0.000000
124.02300262 246.09399414 126.25000000 -0.861960 0.494802 -0.110434 0.000000
237.30499268 126.95300293 188.75000000 0.159552 -0.547250 0.821621 0.000000
284.17999268 166.01600647 183.75000000 0.000978 0.000978 0.999999 0.000000
184.57000732 220.70300293 118.75000000 0.383604 0.591047 -0.709585 0.000000
238.28100586 146.48399353 123.75000000 0.405056 0.401880 -0.821232 0.000000
229.00399780 146.48399353 150.00000000 -0.894688 0.446689 0.001310 0.000000
145.99600220 131.83599854 150.00000000 -0.664941 -0.745020 -0.052909 0.000000
248.04699707 155.27299500 133.75000000 0.695329 0.169630 -0.698386 0.000000
169.43400574 221.67999268 190.00000000 -0.019280 0.368883 0.929276 0.000000
113.76899719 228.51600647 150.00000000 -0.984318 0.151894 -0.089701 0.000000
133.78900146 224.60899353 171.25000000 -0.552765 0.472606 0.686364 0.000000
260.74200439 103.51599884 158.75000000 0.024563 -0.981350 -0.190656 0.000000
173.82800293 241.21099854 176.25000000 -0.034963 0.597169 0.801353 0.000000
230.46899414 168.45700073 202.50000000 0.655793 -0.203094 0.727109 0.000000
267.57800293 104.00399780 170.00000000 -0.000978 -0.999999 -0.000978 0.000000
140.62500000 236.32800293 106.25000000 0.718509 0.516065 -0.466284 0.000000
135.74200439 142.08999634 105.00000000 -0.798920 -0.523648 0.295838 0.000000
231.44500732 196.28900146 181.25000000 -0.681751 0.681751 0.265390 0.000000
162.10899353 128.90600586 193.75000000 -0.401661 -0.792031 0.459733 0.000000
317.38299561 153.32000732 158.75000000 0.001207 -0.273924 0.961751 0.000000
183.10499573 151.36700439 110.00000000 0.498382 0.048320 -0.865610 0.000000
155.27299500 249.02299500 121.25000000 0.165958 0.111868 -0.979767 0.000000
191.40600586 108.88700104 97.50000000 -0.219286 -0.971124 0.093980 0.000000
215.82000732 209.96099854 158.75000000 0.931838 0.001264 -0.362873 0.000000
251.95300293 105.95700073 175.00000000 -0.001093 -0.991782 0.127937 0.000000
216.79699707 171.38699341 150.00000000 0.156176 0.986801 -0.042804 0.000000
233.39799500 149.41400146 118.75000000 0.587462 0.570532 -0.573918 0.000000
286.62100220 171.87500000 182.50000000 0.489476 0.398411 0.775681 0.000000
255.37100220 196.28900146 157.50000000 0.865035 0.498471 0.056928 0.000000
302.73400879 162.10899353 176.25000000 0.374232 -0.076456 0.924178 0.000000
119.62899780 230.46899414 110.00000000 -0.911428 0.345216 -0.223885 0.000000
114.25800323 193.35899353 53.75000000 -0.907024 0.343238 -0.243918 0.000000
260.74200439 141.60099792 143.75000000 0.734692 0.175654 -0.655266 0.000000
251.95300293 209.96099854 173.75000000 -0.312856 0.192203 0.930150 0.000000
166.01600647 264.64801025 151.25000000 0.001355 0.830587 0.556887 0.000000
117.18699646 209.47300720 80.00000000 -0.880403 0.442391 -0.170824 0.000000
191.40600586 256.83599854 148.75000000 0.396158 0.444274 -0.803542 0.000000
235.35099792 197.26600647 121.25000000 0.582466 0.064085 -0.810325 0.000000
172.36300659 115.23400116 95.00000000 -0.432605 -0.901150 0.027953 0.000000
272.94900513 175.78100586 165.00000000 0.727145 0.475377 -0.495254 0.000000
263.67199707 184.08200073 170.00000000 0.696825 0.702846 -0.142977 0.000000
183.59399414 260.74200439 138.75000000 0.447235 -0.247116 -0.859601 0.000000
218.26199341 162.10899353 150.00000000 0.794229 0.313553 -0.520466 0.000000
180.17599487 262.69500732 137.50000000 0.134968 0.103913 -0.985386 0.000000
260.74200439 188.96499634 182.50000000 0.677188 0.593995 0.434265 0.000000
166.01600647 225.09800720 117.50000000 0.422188 0.211835 -0.881410 0.000000
132.81199646 223.63299561 171.25000000 -0.545423 0.495076 0.676324 0.000000
265.62500000 155.76199341 167.50000000 -0.681751 -0.681751 -0.265390 0.000000
114.74600220 183.59399414 100.00000000 -0.987680 -0.123903 0.095582 0.000000
163.08599854 129.39399719 195.00000000 -0.267025 -0.807321 0.526242 0.000000
137.69500732 230.46899414 171.25000000 -0.524051 0.434781 0.732349 0.000000
126.95300293 157.71499634 112.50000000 -0.840368 -0.510812 0.181256 0.000000
130.37100220 197.26600647 55.00000000 0.551383 0.308455 -0.775133 0.000000
201.17199707 245.11700439 166.25000000 0.657202 0.311646 0.686267 0.000000
150.39100647 251.95300293 113.75000000 0.293509 -0.617492 -0.729764 0.000000
190.42999268 180.66400146 211.25000000 -0.244754 0.381222 0.891496 0.000000
129.88299561 154.78500366 117.50000000 -0.794688 -0.601425 0.082209 0.000000
120.11699677 171.38699341 137.50000000 -0.949175 -0.314746 0.001234 0.000000
152.34399414 218.75000000 106.25000000 0.562036 0.616045 -0.551909 0.000000
264.64801025 105.95700073 127.50000000 -0.082320 -0.976777 -0.197813 0.000000
178.71099854 249.02299500 136.25000000 0.597580 0.282058 -0.750561 0.000000
253.41799927 202.14799500 180.00000000 0.923484 0.208529 -0.322014 0.000000
121.58200073 240.23399353 117.50000000 -0.797009 0.536056 -0.278246 0.000000
175.78100586 214.84399414 193.75000000 -0.047794 0.471113 0.880777 0.000000
135.74200439 247.07000732 108.75000000 -0.215188 0.265167 -0.939884 0.000000
307.61700439 150.39100647 161.25000000 -0.271920 0.634480 -0.723530 0.000000
134.76600647 195.31199646 181.25000000 -0.439634 0.161054 0.883620 0.000000
190.42999268 147.46099854 106.25000000 -0.108779 0.386924 -0.915673 0.000000
163.08599854 138.67199707 201.25000000 -0.575664 -0.806521 0.134667 0.000000
193.35899353 167.47999573 140.00000000 0.395638 0.792890 -0.463461 0.000000
274.90200806 160.15600586 187.50000000 0.410824 0.011738 0.911639 0.000000
125.97699738 200.19500732 53.75000000 0.531594 0.274422 -0.801312 0.000000
153.32000732 258.78900146 113.75000000 0.619586 0.619586 -0.481900 0.000000
120.11699677 174.80499268 158.75000000 -0.770817 -0.493779 0.402520 0.000000
128.41799927 200.19500732 55.00000000 0.542866 0.236634 -0.805792 0.000000
173.33999634 228.51600647 187.50000000 0.001371 0.788169 0.615457 0.000000
146.48399353 166.99200439 73.75000000 0.479461 -0.411198 -0.775263 0.000000
276.36700439 129.39399719 150.00000000 0.279482 0.662771 -0.694712 0.000000
152.34399414 221.67999268 108.75000000 0.562465 0.535440 -0.630029 0.000000
212.89100647 167.47999573 145.00000000 -0.014032 -0.360994 -0.932462 0.000000
272.46099854 157.22599792 188.75000000 0.086461 0.070741 0.993741 0.000000
242.18699646 132.32400513 145.00000000 -0.708701 -0.515267 0.481916 0.000000
268.55499268 128.90600586 186.25000000 0.366881 -0.407820 0.836111 0.000000
196.28900146 191.40600586 206.25000000 0.174342 0.358605 0.917065 0.000000
220.70300293 111.32800293 173.75000000 -0.000978 -0.000978 0.999999 0.000000
126.95300293 201.17199707 53.75000000 0.531594 0.274422 -0.801312 0.000000
204.10099792 167.96899414 128.75000000 -0.295905 0.415494 -0.860119 0.000000
205.56599426 245.11700439 162.50000000 0.438622 0.425674 0.791462 0.000000
295.89801025 155.27299500 168.75000000 0.731076 -0.489042 -0.475780 0.000000
303.71099854 125.97699738 168.75000000 0.605139 -0.158453 0.780192 0.000000
129.88299561 156.25000000 146.25000000 -0.878214 -0.421960 -0.225145 0.000000
260.74200439 185.05900574 160.00000000 0.530304 0.847108 0.034435 0.000000
119.62899780 238.28100586 132.50000000 -0.918041 0.393065 -0.051965 0.000000
208.98399353 244.14100647 161.25000000 0.547201 0.516894 0.658325 0.000000
182.61700439 251.95300293 138.75000000 0.495890 0.213824 -0.841648 0.000000
298.82800293 141.60099792 173.75000000 0.759462 -0.058640 0.647903 0.000000
179.68699646 170.41000366 147.50000000 0.153247 0.915262 -0.372572 0.000000
114.74600220 196.28900146 137.50000000 -0.987651 -0.139419 0.071467 0.000000
225.58599854 180.66400146 201.25000000 0.394151 0.534803 0.747416 0.000000
128.90600586 150.39100647 158.75000000 -0.657331 -0.741182 -0.136258 0.000000
129.39399719 148.43699646 100.00000000 -0.839363 -0.509023 0.190696 0.000000
260.74200439 184.57000732 186.25000000 0.735472 0.675492 -0.052840 0.000000
213.86700439 128.41799927 122.50000000 -0.869650 0.466249 -0.162237 0.000000
198.24200439 228.51600647 133.75000000 0.478256 0.572229 -0.666202 0.000000
317.38299561 147.46099854 158.75000000 0.000978 0.000978 0.999999 0.000000
148.43699646 197.26600647 83.75000000 0.615506 0.406466 -0.675232 0.000000
266.60101318 147.46099854 188.75000000 0.517605 -0.151890 0.842030 0.000000
150.39100647 236.32800293 116.25000000 0.791877 -0.609675 0.035039 0.000000
148.92599487 162.10899353 197.50000000 -0.745520 0.086078 0.660901 0.000000
246.09399414 124.02300262 103.75000000 0.766108 0.410006 -0.494948 0.000000
195.31199646 177.73399353 211.25000000 -0.030964 0.278677 0.959886 0.000000
304.68701172 125.97699738 153.75000000 -0.173944 0.053248 -0.983315 0.000000
116.69899750 233.39799500 152.50000000 -0.810186 0.436254 0.391510 0.000000
250.00000000 111.32800293 186.25000000 0.474177 -0.474177 0.741831 0.000000
178.71099854 248.04699707 133.75000000 0.697680 0.354559 -0.622520 0.000000
250.97599792 208.00799561 173.75000000 0.213788 0.447011 0.868606 0.000000
184.57000732 172.85099792 213.75000000 0.170258 0.196251 0.965659 0.000000
125.48799896 154.29699707 100.00000000 -0.790612 -0.551699 0.265633 0.000000
151.85499573 129.88299561 125.00000000 -0.735593 -0.677411 0.004156 0.000000
167.96899414 124.51200104 180.00000000 -0.340797 -0.901416 -0.267032 0.000000
163.08599854 175.78100586 86.25000000 0.792000 -0.171120 -0.586050 0.000000
129.88299561 165.03900146 176.25000000 -0.582507 0.812769 0.009594 0.000000
196.28900146 125.00000000 183.75000000 -0.244658 -0.553207 0.796307 0.000000
233.39799500 154.29699707 123.75000000 0.640928 0.222999 -0.734494 0.000000
253.90600586 206.05499268 171.25000000 0.338737 -0.385139 0.858443 0.000000
275.39099121 116.69899750 137.50000000 0.377798 0.799003 -0.467827 0.000000
141.60099792 180.66400146 191.25000000 -0.449107 0.158423 0.879321 0.000000
180.66400146 111.81600189 142.50000000 -0.446689 -0.894688 -0.001310 0.000000
246.09399414 151.85499573 157.50000000 0.051907 -0.976572 -0.208834 0.000000
182.61700439 231.44500732 183.75000000 0.259659 0.520873 0.813184 0.000000
125.97699738 159.17999268 111.25000000 -0.835289 -0.503608 0.220614 0.000000
127.93000031 154.29699707 106.25000000 -0.783201 -0.502218 0.366570 0.000000
158.20300293 210.93699646 101.25000000 0.528956 0.586414 -0.613453 0.000000
169.92199707 220.21499634 115.00000000 0.192236 0.478355 -0.856867 0.000000
166.99200439 167.96899414 88.75000000 0.478619 0.067978 -0.875387 0.000000
266.60101318 143.55499268 188.75000000 0.665248 -0.089187 0.741276 0.000000
175.29299927 113.28099823 105.00000000 -0.438413 -0.894805 -0.084363 0.000000
226.56199646 121.09400177 186.25000000 0.036145 -0.432405 0.900955 0.000000
270.50799561 128.41799927 145.00000000 0.479310 0.623944 -0.617217 0.000000
169.92199707 122.06999969 181.25000000 -0.232478 -0.889931 -0.392399 0.000000
306.64001465 139.64799500 156.25000000 -0.320731 0.170779 -0.931647 0.000000
186.03500366 110.35199738 145.00000000 -0.281895 -0.958443 0.043850 0.000000
123.04699707 243.16400146 146.25000000 -0.817863 0.573767 -0.043488 0.000000
151.36700439 126.46499634 145.00000000 -0.513109 -0.803608 -0.301550 0.000000
163.08599854 193.35899353 201.25000000 -0.327605 0.091517 0.940372 0.000000
250.48800659 199.21899414 132.50000000 0.840190 0.145672 -0.522360 0.000000
147.46099854 217.28500366 97.50000000 0.739011 0.491020 -0.461262 0.000000
178.71099854 167.96899414 213.75000000 0.000978 0.000978 0.999999 0.000000
221.67999268 115.23400116 181.25000000 -0.299089 -0.577386 0.759718 0.000000
138.67199707 212.89100647 181.25000000 -0.386271 0.324714 0.863339 0.000000
174.80499268 116.69899750 165.00000000 -0.245079 -0.963636 0.106500 0.000000
119.14099884 163.08599854 56.25000000 0.319250 -0.149349 -0.935828 0.000000
201.17199707 126.46499634 187.50000000 -0.237947 -0.953133 -0.186863 0.000000
223.63299561 190.42999268 123.75000000 -0.318261 -0.731839 -0.602596 0.000000
308.59399414 138.67199707 168.75000000 0.221591 -0.218872 0.950259 0.000000
189.45300293 108.39800262 133.75000000 -0.239719 -0.954859 0.175437 0.000000
163.08599854 183.59399414 88.75000000 0.501483 0.262386 -0.824420 0.000000
204.10099792 228.51600647 178.75000000 0.415165 0.415165 0.809491 0.000000
118.16400146 166.99200439 96.25000000 -0.920295 -0.382443 0.082435 0.000000
184.57000732 108.88700104 120.00000000 -0.241687 -0.970319 0.008334 0.000000
149.41400146 263.18301392 150.00000000 -0.171909 0.835626 0.521706 0.000000
151.36700439 195.31199646 193.75000000 -0.591446 0.415835 0.690849 0.000000
298.82800293 116.21099854 146.25000000 0.334783 0.523800 -0.783297 0.000000
116.21099854 184.08200073 127.50000000 -0.843894 -0.518077 0.139426 0.000000
146.48399353 206.05499268 186.25000000 -0.531122 0.253880 0.808365 0.000000
293.94500732 137.69500732 158.75000000 0.032481 0.676454 -0.735768 0.000000
220.70300293 135.25399780 115.00000000 -0.550845 0.832607 -0.057761 0.000000
282.22601318 108.39800262 131.25000000 -0.107668 -0.503885 0.857034 0.000000
173.33999634 118.16400146 155.00000000 -0.988721 -0.012345 -0.149262 0.000000
148.43699646 127.44100189 82.50000000 -0.511631 -0.856456 -0.068685 0.000000
192.38299561 240.23399353 138.75000000 0.521188 0.422540 -0.741501 0.000000
143.55499268 239.25799561 113.75000000 0.732518 0.467951 -0.494408 0.000000
298.82800293 113.76899719 145.00000000 0.328521 0.587453 -0.739576 0.000000
111.81600189 165.03900146 57.50000000 -0.886120 -0.458908 -0.064771 0.000000
119.14099884 165.03900146 56.25000000 0.319250 -0.149349 -0.935828 0.000000
186.52299500 125.97699738 91.25000000 -0.441748 0.788027 -0.428803 0.000000
121.09400177 165.03900146 56.25000000 0.319250 -0.149349 -0.935828 0.000000
214.35499573 114.25800323 177.50000000 -0.042608 -0.938676 0.342158 0.000000
237.30499268 158.20300293 126.25000000 0.405013 0.226985 -0.885687 0.000000
143.55499268 148.43699646 188.75000000 -0.001096 -0.991465 -0.130369 0.000000
196.28900146 186.52299500 206.25000000 -0.295361 0.013594 0.955289 0.000000
111.81600189 166.01600647 57.50000000 -0.886120 -0.458908 -0.064771 0.000000
136.22999573 143.55499268 152.50000000 -0.614644 -0.788256 0.029402 0.000000
254.88299561 193.84800720 180.00000000 0.638881 0.678298 0.362963 0.000000
188.47599792 205.56599426 197.50000000 -0.149971 0.412778 0.898400 0.000000
134.27699280 158.20300293 177.50000000 0.000978 0.000978 0.999999 0.000000
178.71099854 251.46499634 167.50000000 0.176297 0.703654 0.688324 0.000000
284.17999268 159.17999268 183.75000000 0.237214 0.160351 0.958132 0.000000
149.41400146 126.46499634 100.00000000 -0.446689 -0.894688 -0.001310 0.000000
135.74200439 231.93299866 170.00000000 -0.516796 0.139081 0.844735 0.000000
125.00000000 245.11700439 118.75000000 -0.775797 0.552776 -0.304265 0.000000
257.81201172 106.93399811 132.50000000 -0.161033 -0.979720 -0.119238 0.000000
142.57800293 259.27700806 120.00000000 -0.434362 0.796062 -0.421444 0.000000
129.88299561 155.27299500 146.25000000 -0.812563 -0.497004 -0.304514 0.000000
114.25800323 194.33599854 151.25000000 -0.985471 -0.165986 -0.035983 0.000000
125.97699738 226.56199646 166.25000000 -0.661172 0.453614 0.597566 0.000000
238.28100586 131.83599854 106.25000000 0.492008 0.649853 -0.579327 0.000000
227.53900146 119.62899780 185.00000000 0.065406 -0.494027 0.866983 0.000000
176.75799561 208.00799561 196.25000000 0.057418 0.393914 0.917352 0.000000
195.80099487 166.01600647 117.50000000 -0.196484 0.895096 -0.400246 0.000000
232.42199707 203.12500000 153.75000000 -0.732935 0.680286 -0.004157 0.000000
207.51899719 197.26600647 197.50000000 0.674219 0.237313 0.699365 0.000000
205.07800293 208.98399353 191.25000000 0.688476 0.082966 0.720498 0.000000
193.35899353 127.44100189 200.00000000 0.209671 -0.709775 0.672501 0.000000
125.97699738 167.47999573 57.50000000 0.227962 -0.907492 -0.352833 0.000000
229.49200439 118.65200043 115.00000000 -0.592618 -0.729001 -0.342582 0.000000
166.99200439 130.85899353 86.25000000 0.632710 0.416825 -0.652638 0.000000
270.50799561 157.22599792 188.75000000 0.077178 0.072704 0.994363 0.000000
147.46099854 210.44900513 90.00000000 0.725658 0.421510 -0.543830 0.000000
231.44500732 164.55099487 200.00000000 0.679544 -0.251859 0.689048 0.000000
149.41400146 136.71899414 188.75000000 -0.553108 -0.516122 0.653979 0.000000
153.32000732 243.16400146 171.25000000 -0.136838 0.534108 0.834268 0.000000
167.96899414 172.36300659 165.00000000 0.356533 0.930725 0.081455 0.000000
115.72299957 215.82000732 160.00000000 -0.778415 0.482650 0.401396 0.000000
138.18400574 144.53100586 130.00000000 -0.708486 -0.705724 -0.001381 0.000000
155.27299500 250.48800659 167.50000000 -0.301430 0.649606 0.697963 0.000000
142.57800293 215.82000732 88.75000000 0.799069 0.448572 -0.400339 0.000000
196.28900146 145.50799561 103.75000000 -0.201700 0.287944 -0.936165 0.000000
262.69500732 104.49199677 143.75000000 -0.158306 -0.984354 -0.077368 0.000000
240.23399353 116.21099854 186.25000000 -0.325920 -0.643732 0.692377 0.000000
170.89799500 235.35099792 181.25000000 0.155592 0.623879 0.765876 0.000000
197.26600647 208.98399353 113.75000000 0.627677 0.503151 -0.594021 0.000000
165.03900146 145.50799561 88.75000000 0.648407 -0.001377 -0.761293 0.000000
123.53500366 233.39799500 102.50000000 -0.871063 0.486401 -0.068291 0.000000
260.74200439 105.95700073 135.00000000 -0.265336 -0.962931 -0.048583 0.000000
160.64399719 259.76599121 120.00000000 0.793693 0.070327 -0.604240 0.000000
235.35099792 207.51899719 155.00000000 -0.826289 0.558918 -0.069687 0.000000
162.59800720 119.14099884 120.00000000 -0.000978 -0.000978 0.999999 0.000000
163.08599854 207.03100586 101.25000000 0.500768 0.608677 -0.615422 0.000000
277.34399414 145.99600220 160.00000000 0.408087 0.312610 -0.857753 0.000000
243.16400146 202.14799500 126.25000000 0.707708 0.379305 -0.596051 0.000000
213.86700439 125.48799896 185.00000000 -0.427459 -0.583805 0.690254 0.000000
177.73399353 117.18699646 168.75000000 -0.286240 -0.888694 0.358175 0.000000
204.10099792 145.99600220 157.50000000 0.474296 0.651948 -0.591614 0.000000
139.64799500 230.46899414 173.75000000 -0.499334 0.398491 0.769332 0.000000
211.91400146 120.11699677 116.25000000 -0.986045 -0.159490 0.047731 0.000000
140.62500000 140.62500000 113.75000000 -0.681751 -0.681751 0.265390 0.000000
174.80499268 170.89799500 141.25000000 -0.994271 0.105634 0.016335 0.000000
210.93699646 142.57800293 201.25000000 0.285644 -0.491682 0.822591 0.000000
145.99600220 148.43699646 195.00000000 -0.089407 -0.232962 0.968367 0.000000
207.03100586 167.96899414 126.25000000 -0.409523 0.658221 -0.631693 0.000000
231.44500732 204.58999634 130.00000000 -0.000978 -0.000978 -0.999999 0.000000
290.03900146 111.32800293 138.75000000 0.315145 0.693319 -0.648068 0.000000
254.39399719 173.82800293 140.00000000 0.833613 -0.063473 -0.548690 0.000000
165.03900146 142.08999634 207.50000000 -0.618519 -0.168687 0.767450 0.000000
248.04699707 125.00000000 146.25000000 0.052312 -0.810128 -0.583914 0.000000
215.82000732 159.17999268 208.75000000 0.436871 -0.166911 0.883903 0.000000
283.20300293 116.21099854 176.25000000 0.771946 -0.291270 0.565032 0.000000
242.18699646 127.93000031 188.75000000 -0.028220 -0.463621 0.885584 0.000000
127.93000031 234.37500000 98.75000000 0.026416 0.802216 -0.596449 0.000000
209.96099854 232.42199707 171.25000000 0.638359 0.635026 0.435018 0.000000
138.67199707 219.72599792 86.25000000 0.760451 0.492249 -0.423563 0.000000
312.98800659 156.25000000 167.50000000 0.712113 0.648389 0.269233 0.000000
243.65199280 147.46099854 127.50000000 0.580972 0.284915 -0.762427 0.000000
184.57000732 120.60500336 187.50000000 0.001264 -0.931838 0.362873 0.000000
115.72299957 221.67999268 115.00000000 -0.950920 0.271500 -0.148456 0.000000
166.01600647 179.68699646 88.75000000 0.553063 0.223382 -0.802634 0.000000
169.92199707 176.75799561 91.25000000 0.538096 -0.001349 -0.842882 0.000000
159.17999268 153.32000732 83.75000000 0.597212 0.184815 -0.780500 0.000000
218.75000000 205.07800293 183.75000000 0.908864 0.388705 -0.151242 0.000000
249.02299500 144.53100586 131.25000000 0.685958 0.351983 -0.636844 0.000000
154.78500366 165.03900146 202.50000000 -0.664068 0.230775 0.711165 0.000000
115.23400116 214.84399414 106.25000000 -0.969097 0.158299 -0.189186 0.000000
150.39100647 244.14100647 118.75000000 0.561879 0.093887 -0.821874 0.000000
185.05900574 250.97599792 140.00000000 0.563460 0.433814 -0.703078 0.000000
194.33599854 149.90199280 212.50000000 -0.001314 -0.456129 0.889912 0.000000
138.18400574 205.07800293 182.50000000 -0.509852 0.437251 0.740852 0.000000
179.68699646 171.38699341 145.00000000 0.349950 0.872584 0.340781 0.000000
148.92599487 129.88299561 140.00000000 -0.738223 -0.667777 -0.095397 0.000000
257.81201172 123.53500366 147.50000000 0.561864 -0.238131 -0.792213 0.000000
258.78900146 134.27699280 190.00000000 0.142390 -0.302408 0.942483 0.000000
168.45700073 123.04699707 190.00000000 -0.457631 -0.866070 0.201238 0.000000
260.25399780 129.88299561 135.00000000 0.725003 0.456238 -0.515963 0.000000
257.81201172 139.16000366 140.00000000 0.815763 -0.106151 -0.568562 0.000000
311.52301025 153.32000732 168.75000000 -0.135374 0.375419 0.916916 0.000000
253.90600586 157.22599792 138.75000000 0.616330 -0.076500 -0.783764 0.000000
200.19500732 250.97599792 158.75000000 0.828746 -0.544185 -0.130546 0.000000
150.39100647 134.76600647 186.25000000 -0.613055 -0.649805 0.449351 0.000000
255.85899353 153.80900574 140.00000000 0.538096 -0.001349 -0.842882 0.000000
246.09399414 148.43699646 128.75000000 0.660733 0.088973 -0.745330 0.000000
132.81199646 254.39399719 120.00000000 -0.488835 0.785685 -0.379129 0.000000
231.93299866 154.29699707 155.00000000 -0.719719 0.202759 -0.663998 0.000000
231.44500732 195.31199646 118.75000000 0.179556 0.022010 -0.983502 0.000000
236.32800293 128.90600586 191.25000000 0.137709 -0.570084 0.809963 0.000000
306.64001465 116.21099854 148.75000000 0.389618 0.235549 -0.890345 0.000000
113.28099823 227.53900146 153.75000000 -0.793519 0.255115 0.552489 0.000000
186.52299500 246.09399414 171.25000000 -0.035001 0.592215 0.805020 0.000000
154.29699707 123.53500366 92.50000000 -0.612544 -0.787556 0.067423 0.000000
217.28500366 205.07800293 165.00000000 0.908465 0.331014 -0.255187 0.000000
164.06199646 204.58999634 100.00000000 0.489047 0.613409 -0.620131 0.000000
159.17999268 157.22599792 208.75000000 -0.621545 -0.113679 0.775086 0.000000
197.26600647 178.71099854 211.25000000 0.000978 0.000978 0.999999 0.000000
161.13299561 219.72599792 188.75000000 -0.325861 0.325861 0.887484 0.000000
129.88299561 179.68699646 56.25000000 0.752349 -0.344625 -0.561431 0.000000
112.30500031 202.63699341 147.50000000 -0.999394 -0.023575 -0.025625 0.000000
208.49600220 176.75799561 127.50000000 -0.610737 -0.376978 -0.696339 0.000000
249.02299500 113.28099823 103.75000000 0.806394 0.160678 -0.569131 0.000000
158.20300293 236.81599426 177.50000000 -0.148284 0.603622 0.783360 0.000000
212.89100647 142.57800293 148.75000000 -0.381011 -0.737492 -0.557616 0.000000
319.33599854 157.22599792 166.25000000 0.000978 0.000978 0.999999 0.000000
123.53500366 161.13299561 107.50000000 -0.810780 -0.502212 0.300697 0.000000
147.94900513 127.93000031 157.50000000 -0.262347 -0.964401 0.033255 0.000000
218.75000000 171.87500000 126.25000000 -0.463600 0.427813 -0.775920 0.000000
146.48399353 251.95300293 163.75000000 -0.430842 0.577229 0.693673 0.000000
190.42999268 116.21099854 171.25000000 -0.183199 -0.228665 0.956112 0.000000
161.13299561 206.54299927 100.00000000 0.507859 0.602344 -0.615842 0.000000
178.71099854 210.44900513 195.00000000 0.056127 0.340680 0.938502 0.000000
110.83999634 182.61700439 57.50000000 -0.946657 0.268333 0.178435 0.000000
299.80499268 129.88299561 153.75000000 -0.150440 0.555584 -0.817737 0.000000
148.43699646 265.13699341 130.00000000 -0.369635 0.896843 -0.242987 0.000000
254.88299561 137.69500732 191.25000000 0.155532 -0.116343 0.980956 0.000000
134.27699280 247.07000732 110.00000000 -0.165951 0.695778 -0.698823 0.000000
127.93000031 153.32000732 106.25000000 -0.783201 -0.502218 0.366570 0.000000
309.08200073 117.18699646 162.50000000 0.651480 -0.453859 0.607936 0.000000
221.67999268 151.36700439 203.75000000 -0.009223 -0.441388 0.897269 0.000000
313.47601318 146.48399353 168.75000000 0.276558 0.155142 0.948392 0.000000
155.27299500 163.08599854 203.75000000 -0.683418 0.220508 0.695929 0.000000
239.25799561 151.36700439 196.25000000 0.529701 0.175567 0.829815 0.000000
133.30099487 183.59399414 57.50000000 0.701113 -0.425972 -0.571830 0.000000
172.85099792 171.87500000 141.25000000 -0.994271 0.105634 0.016335 0.000000
213.86700439 167.96899414 156.25000000 0.000978 0.000978 0.999999 0.000000
216.30799866 108.39800262 165.00000000 -0.356793 -0.834614 0.419665 0.000000
161.13299561 200.68400574 95.00000000 0.529577 0.430591 -0.730849 0.000000
158.20300293 252.92999268 166.25000000 -0.233861 0.797605 0.556000 0.000000
198.24200439 226.56199646 133.75000000 0.931838 -0.001264 -0.362873 0.000000
207.03100586 125.48799896 190.00000000 -0.086608 -0.979523 0.181754 0.000000
179.68699646 217.77299500 191.25000000 -0.073269 0.457586 0.886141 0.000000
255.37100220 131.83599854 190.00000000 0.261569 -0.299142 0.917658 0.000000
308.59399414 123.04699707 166.25000000 0.677001 -0.453006 0.580048 0.000000
162.10899353 209.96099854 103.75000000 0.489030 0.610027 -0.623471 0.000000
163.08599854 157.22599792 211.25000000 -0.431471 -0.111030 0.895268 0.000000
112.30500031 186.52299500 56.25000000 -0.974192 0.224814 -0.020221 0.000000
214.35499573 116.21099854 122.50000000 -0.932685 0.003797 0.360672 0.000000
240.23399353 184.57000732 128.75000000 0.422938 -0.248344 -0.871463 0.000000
315.42999268 152.34399414 166.25000000 0.516050 0.117087 0.848518 0.000000
295.89801025 115.23400116 171.25000000 0.202132 0.527366 0.825244 0.000000
259.27700806 127.93000031 132.50000000 0.765618 0.422804 -0.484837 0.000000
284.17999268 119.14099884 143.75000000 0.148206 0.588332 -0.794922 0.000000
116.69899750 166.99200439 80.00000000 -0.931838 0.001264 -0.362873 0.000000
175.78100586 113.76899719 95.00000000 -0.442187 -0.896397 0.030726 0.000000
218.75000000 147.94900513 202.50000000 0.412350 -0.490583 0.767656 0.000000
114.74600220 206.05499268 95.00000000 -0.990033 0.139835 0.016780 0.000000
193.35899353 254.88299561 148.75000000 0.494163 0.362171 -0.790339 0.000000
255.85899353 196.28900146 153.75000000 0.864670 0.499434 0.053955 0.000000
170.89799500 148.43699646 211.25000000 0.000978 0.000978 0.999999 0.000000
175.78100586 216.79699707 113.75000000 0.107301 0.780502 -0.615876 0.000000
296.87500000 160.15600586 168.75000000 -0.184974 -0.244382 -0.951873 0.000000
232.42199707 183.59399414 196.25000000 0.386582 0.490102 0.781252 0.000000
131.34800720 250.00000000 115.00000000 -0.000978 0.999999 -0.000978 0.000000
264.16000366 119.14099884 127.50000000 0.671589 0.594931 -0.441616 0.000000
146.48399353 256.34799194 115.00000000 -0.304099 0.023777 -0.952344 0.000000
180.66400146 164.06199646 106.25000000 0.797144 -0.049556 -0.601752 0.000000
304.19900513 112.30500031 160.00000000 0.419727 -0.769227 0.481788 0.000000
220.70300293 153.32000732 156.25000000 0.979253 -0.175260 0.101725 0.000000
266.60101318 181.15199280 162.50000000 0.519162 0.673735 -0.525883 0.000000
129.39399719 155.27299500 117.50000000 -0.794688 -0.601425 0.082209 0.000000
200.19500732 236.32800293 176.25000000 0.311121 0.627078 0.714127 0.000000
132.32400513 148.43699646 147.50000000 -0.927398 -0.298750 -0.225124 0.000000
136.71899414 142.08999634 170.00000000 -0.846042 -0.430007 0.315131 0.000000
277.34399414 162.59800720 165.00000000 0.394902 0.091552 -0.914150 0.000000
135.74200439 143.55499268 161.25000000 -0.817585 -0.536397 -0.209363 0.000000
178.71099854 237.30499268 128.75000000 0.648407 0.001377 -0.761293 0.000000
141.60099792 169.92199707 191.25000000 -0.656780 -0.012497 0.753978 0.000000
148.43699646 227.53900146 178.75000000 -0.243274 0.485019 0.839985 0.000000
205.07800293 168.94500732 128.75000000 -0.238973 0.473380 -0.847822 0.000000
239.25799561 153.32000732 158.75000000 0.454988 -0.564985 -0.688315 0.000000
159.17999268 208.98399353 191.25000000 -0.497943 0.248201 0.830933 0.000000
161.13299561 221.67999268 113.75000000 0.165187 0.774410 -0.610739 0.000000
211.91400146 204.10099792 126.25000000 0.645603 0.718571 -0.258559 0.000000
275.39099121 110.35199738 178.75000000 0.557844 -0.344408 0.755111 0.000000
145.99600220 263.67199707 130.00000000 -0.488803 0.854291 -0.176801 0.000000
115.23400116 201.17199707 156.25000000 -0.941846 0.069427 0.328795 0.000000
296.87500000 173.82800293 171.25000000 -0.229488 0.433477 -0.871454 0.000000
152.34399414 213.86700439 186.25000000 -0.374322 0.383719 0.844182 0.000000
222.65600586 166.99200439 123.75000000 0.055483 0.607464 -0.792407 0.000000
201.17199707 172.85099792 146.25000000 0.118924 0.992514 -0.027786 0.000000
139.16000366 227.53900146 175.00000000 -0.539136 0.391652 0.745614 0.000000
304.68701172 174.31599426 175.00000000 0.049315 0.203274 0.977879 0.000000
142.08999634 259.76599121 150.00000000 -0.858879 0.491413 0.144362 0.000000
248.04699707 107.42199707 178.75000000 0.139699 -0.907335 0.396518 0.000000
276.36700439 164.06199646 186.25000000 0.530524 0.072151 0.844594 0.000000
190.42999268 118.65200043 180.00000000 -0.241294 -0.701803 0.670261 0.000000
170.89799500 167.96899414 213.75000000 -0.251493 0.213013 0.944128 0.000000
293.94500732 176.75799561 178.75000000 -0.940805 0.050470 -0.335170 0.000000
316.40600586 127.93000031 156.25000000 0.946675 -0.316419 0.060701 0.000000
275.39099121 182.61700439 173.75000000 0.255115 0.552489 -0.793519 0.000000
182.61700439 186.52299500 206.25000000 -0.178819 0.423060 0.888281 0.000000
310.54699707 118.16400146 161.25000000 0.689004 -0.465453 0.555541 0.000000
241.21099854 111.81600189 117.50000000 -0.422899 -0.844238 -0.329269 0.000000
267.57800293 151.36700439 171.25000000 0.132878 -0.966270 -0.220604 0.000000
197.75399780 241.21099854 145.00000000 0.542624 0.566290 -0.620383 0.000000
121.09400177 240.23399353 121.25000000 -0.941530 0.313843 -0.122574 0.000000
263.18301392 172.85099792 152.50000000 0.889823 0.294614 -0.348452 0.000000
149.41400146 147.46099854 73.75000000 0.698909 0.230876 -0.676921 0.000000
245.11700439 198.24200439 191.25000000 0.444618 0.577837 0.684412 0.000000
132.32400513 199.21899414 57.50000000 0.564840 0.374923 -0.735111 0.000000
283.20300293 137.69500732 158.75000000 0.182753 0.542218 -0.820123 0.000000
132.81199646 151.85499573 137.50000000 -0.772088 -0.630128 -0.082569 0.000000
263.67199707 140.62500000 146.25000000 0.619586 0.619586 -0.481900 0.000000
137.69500732 260.25399780 135.00000000 -0.681751 0.681751 -0.265390 0.000000
277.83200073 145.50799561 160.00000000 0.408087 0.312610 -0.857753 0.000000
153.32000732 182.61700439 198.75000000 -0.608547 0.113458 0.785365 0.000000
210.44900513 150.39100647 107.50000000 0.526150 0.522788 -0.670715 0.000000
167.96899414 163.57400513 142.50000000 0.817320 -0.561079 -0.131066 0.000000
302.73400879 147.46099854 171.25000000 -0.586295 0.643412 0.492219 0.000000
142.57800293 148.92599487 185.00000000 -0.905999 -0.063650 0.418466 0.000000
212.89100647 205.56599426 137.50000000 0.881094 0.439816 -0.173881 0.000000
260.74200439 189.45300293 176.25000000 0.667534 -0.035282 0.743743 0.000000
134.76600647 213.86700439 71.25000000 0.729777 0.468315 -0.498102 0.000000
214.84399414 163.08599854 211.25000000 0.667159 0.064843 0.742088 0.000000
178.71099854 160.15600586 213.75000000 0.000978 0.000978 0.999999 0.000000
151.36700439 162.10899353 78.75000000 0.931838 0.001264 -0.362873 0.000000
210.93699646 200.68400574 120.00000000 0.525922 0.733653 -0.430300 0.000000
309.57000732 142.57800293 156.25000000 -0.784445 0.500949 -0.365645 0.000000
186.52299500 172.85099792 213.75000000 -0.019012 0.335874 0.941715 0.000000
249.02299500 135.74200439 123.75000000 0.694463 0.517082 -0.500348 0.000000
150.39100647 145.50799561 73.75000000 0.713145 0.196463 -0.672924 0.000000
211.91400146 228.51600647 173.75000000 0.470406 0.560804 0.681335 0.000000
196.28900146 123.04699707 91.25000000 0.471966 0.754817 -0.455521 0.000000
260.74200439 176.75799561 148.75000000 0.693523 0.412142 -0.590902 0.000000
143.55499268 179.68699646 191.25000000 -0.449107 0.158423 0.879321 0.000000
191.40600586 233.88699341 135.00000000 0.405948 0.641232 -0.651174 0.000000
227.53900146 158.20300293 158.75000000 -0.938157 0.123192 -0.323549 0.000000
159.17999268 143.55499268 81.25000000 0.577040 0.134989 -0.805483 0.000000
259.76599121 116.21099854 186.25000000 0.265453 -0.279802 0.922630 0.000000
256.34799194 191.40600586 142.50000000 0.915688 -0.183707 -0.357446 0.000000
217.77299500 201.66000366 130.00000000 0.251544 0.901733 -0.351573 0.000000
199.21899414 186.03500366 207.50000000 0.048068 0.346871 0.936680 0.000000
245.11700439 178.71099854 133.75000000 0.655745 0.182749 -0.732531 0.000000
239.25799561 107.42199707 176.25000000 -0.207090 -0.965116 0.160201 0.000000
195.80099487 238.28100586 175.00000000 0.203243 0.715229 0.668685 0.000000
162.10899353 251.95300293 168.75000000 -0.172480 0.670078 0.721974 0.000000
262.69500732 105.46900177 178.75000000 0.001050 -0.996891 0.078785 0.000000
239.25799561 151.36700439 158.75000000 -0.073657 -0.769792 0.634031 0.000000
244.14100647 110.83999634 122.50000000 -0.267842 -0.960930 -0.069817 0.000000
150.87899780 180.66400146 197.50000000 -0.542954 0.087388 0.835203 0.000000
275.39099121 104.00399780 135.00000000 -0.024727 -0.996609 -0.078482 0.000000
232.91000366 139.64799500 150.00000000 0.894688 -0.446689 -0.001310 0.000000
131.83599854 223.63299561 171.25000000 -0.526650 0.530015 0.664623 0.000000
202.14799500 125.97699738 188.75000000 -0.093594 -0.986887 -0.131506 0.000000
196.28900146 121.09400177 181.25000000 -0.047348 -0.439664 0.896914 0.000000
115.23400116 227.05099487 130.00000000 -0.963446 0.262985 -0.051101 0.000000
128.90600586 204.10099792 56.25000000 0.267562 0.444917 -0.854669 0.000000
128.90600586 182.61700439 176.25000000 -0.752003 0.091993 0.652709 0.000000
274.90200806 132.81199646 152.50000000 0.380291 0.630526 -0.676621 0.000000
262.69500732 156.25000000 148.75000000 0.271118 -0.591385 -0.759446 0.000000
122.06999969 205.07800293 56.25000000 -0.442391 0.880403 -0.170824 0.000000
182.61700439 120.11699677 181.25000000 -0.132766 -0.989397 0.058879 0.000000
146.97300720 147.46099854 195.00000000 0.035277 -0.374986 0.926359 0.000000
