106.49600220 172.57000732 391.50000000 0.653449 0.082954 -0.752412 0.000000
118.15599823 262.74200439 385.50000000 -0.000978 -0.000978 -0.999999 0.000000
209.88299561 170.23800659 367.50000000 -0.000978 -0.000978 0.999999 0.000000
208.32800293 121.65399933 342.00000000 0.000978 0.999999 0.000978 0.000000
156.24600220 127.87300110 330.00000000 -0.001191 0.967932 0.251210 0.000000
132.14799500 202.88699341 322.50000000 -0.567725 0.377938 0.731335 0.000000
125.54100037 227.76199341 306.00000000 -0.730471 -0.107726 0.674394 0.000000
177.23399353 129.42799377 321.00000000 0.003288 0.992018 0.126057 0.000000
199.00000000 159.35600281 355.50000000 -0.884477 0.243119 0.398238 0.000000
110.77200317 164.02000427 393.00000000 0.445142 0.148381 -0.883081 0.000000
97.94529724 167.12899780 286.50000000 -0.054313 0.923313 -0.380188 0.000000
79.67780304 195.11300659 315.00000000 0.888291 0.001316 0.459279 0.000000
140.69900513 272.07000732 355.50000000 -0.644410 -0.323017 0.693106 0.000000
132.92599487 206.77299500 394.50000000 -0.000978 -0.000978 -0.999999 0.000000
104.94100189 179.56599426 382.50000000 0.550210 -0.186435 -0.813948 0.000000
119.71099854 247.97300720 388.50000000 -0.183200 -0.552628 -0.813044 0.000000
95.61329651 195.89100647 262.50000000 -0.804686 0.396721 0.441694 0.000000
169.46099854 197.44500732 388.50000000 -0.424618 -0.493475 -0.759066 0.000000
108.82800293 149.25000000 325.50000000 0.000978 0.000978 0.999999 0.000000
104.94100189 269.73800659 376.50000000 0.540824 -0.387237 -0.746697 0.000000
124.37500000 265.07400513 385.50000000 -0.000978 -0.000978 -0.999999 0.000000
132.92599487 194.33599854 397.50000000 0.065199 -0.484138 -0.872559 0.000000
94.83599854 196.66799927 262.50000000 -0.855365 0.264719 0.445280 0.000000
102.60900116 144.58599854 328.50000000 0.444843 0.888274 0.114388 0.000000
134.48100281 281.78698730 351.00000000 -0.592518 -0.336031 0.732125 0.000000
185.78500366 190.06100464 387.00000000 -0.001244 -0.329630 -0.944109 0.000000
84.73049927 178.78900146 307.50000000 0.941583 0.250259 0.225371 0.000000
71.51560211 232.42599487 319.50000000 0.970748 -0.096698 0.219768 0.000000
133.70300293 212.99200439 319.50000000 -0.698486 0.351697 0.623239 0.000000
180.34399414 214.54699707 361.50000000 -0.270565 -0.915870 0.296609 0.000000
102.60900116 205.21899414 388.50000000 0.192115 0.537015 -0.821406 0.000000
132.92599487 287.61700439 376.50000000 -0.049528 -0.598584 -0.799527 0.000000
151.19299316 255.74600220 354.00000000 -0.236002 -0.819067 0.522907 0.000000
170.23800659 202.88699341 388.50000000 -0.380443 -0.604427 -0.699950 0.000000
130.59399414 190.44900513 397.50000000 0.366388 -0.558538 -0.744174 0.000000
105.71900177 256.52398682 277.50000000 -0.588563 -0.782190 0.204384 0.000000
156.24600220 160.91000366 352.50000000 0.000978 0.000978 0.999999 0.000000
80.45510101 250.30499268 303.00000000 0.877020 -0.390961 0.279258 0.000000
138.36700439 134.48100281 361.50000000 -0.291685 0.878077 -0.379342 0.000000
77.73439789 217.65600586 379.50000000 0.846611 0.104928 -0.521766 0.000000
125.93000031 172.57000732 403.50000000 0.554478 0.147167 -0.819082 0.000000
77.73439789 212.99200439 379.50000000 0.918418 0.275381 -0.284032 0.000000
85.11920166 199.77699280 264.00000000 0.989064 0.142599 -0.037646 0.000000
215.32400513 139.14500427 361.50000000 -0.731295 -0.437456 0.523297 0.000000
109.60500336 263.51998901 283.50000000 -0.230286 -0.737854 0.634460 0.000000
139.92199707 267.40600586 385.50000000 -0.000978 -0.000978 -0.999999 0.000000
153.52499390 213.77000427 333.00000000 -0.573826 0.440765 0.690254 0.000000
141.47700500 260.41000366 388.50000000 -0.147995 -0.432491 -0.889409 0.000000
101.44300079 223.87500000 393.00000000 0.407028 -0.106966 -0.907131 0.000000
82.78710175 176.45700073 348.00000000 0.725632 0.657555 -0.202682 0.000000
88.61720276 187.33999634 373.50000000 0.434596 0.533743 -0.725428 0.000000
103.38700104 170.23800659 385.50000000 0.932576 -0.019242 -0.360459 0.000000
97.16799927 200.55499268 262.50000000 -0.741044 0.041090 0.670198 0.000000
160.91000366 179.56599426 355.50000000 0.000978 0.000978 0.999999 0.000000
119.71099854 219.21099854 295.50000000 -0.774843 -0.079657 0.627116 0.000000
123.59799957 140.31100464 378.00000000 0.148019 0.953456 -0.262701 0.000000
104.55300140 175.67999268 387.00000000 0.924170 -0.261396 -0.278536 0.000000
226.20700073 162.46499634 379.50000000 -0.230155 -0.136532 -0.963529 0.000000
74.23639679 188.89500427 339.00000000 0.903846 0.241709 0.353042 0.000000
150.02699280 181.12100220 400.50000000 -0.000978 -0.000978 -0.999999 0.000000
137.58999634 164.02000427 400.50000000 -0.000978 -0.000978 -0.999999 0.000000
170.23800659 212.60400391 381.00000000 -0.477477 -0.577998 -0.661766 0.000000
84.73049927 202.10899353 262.50000000 0.989064 0.142599 -0.037646 0.000000
201.33200073 171.01600647 364.50000000 -0.326766 -0.655158 0.681169 0.000000
96.39070129 183.84199524 375.00000000 0.369247 0.432637 -0.822485 0.000000
185.78500366 179.56599426 361.50000000 -0.592106 0.740535 0.317833 0.000000
111.16000366 263.51998901 283.50000000 -0.421671 -0.560574 0.712706 0.000000
223.09800720 163.24200439 379.50000000 -0.000978 -0.000978 -0.999999 0.000000
158.57800293 260.41000366 382.50000000 -0.477554 -0.480859 -0.735334 0.000000
199.77699280 141.47700500 379.50000000 -0.000978 -0.000978 -0.999999 0.000000
126.70700073 197.05700684 321.00000000 -0.652256 0.541018 0.530906 0.000000
75.40239716 253.41400146 358.50000000 0.932692 -0.206174 -0.295937 0.000000
121.26599884 262.74200439 325.50000000 -0.888291 -0.001316 0.459279 0.000000
104.16400146 261.96499634 283.50000000 0.450045 -0.660847 0.600618 0.000000
73.45899963 196.66799927 330.00000000 0.983861 0.109854 0.141241 0.000000
70.34960175 206.77299500 342.00000000 0.000000 0.000000 0.000000 0.000000
131.37100220 187.33999634 400.50000000 0.441836 -0.422415 -0.791421 0.000000
76.56839752 186.56300354 327.00000000 0.914502 0.391929 0.100389 0.000000
115.43599701 236.31300354 279.00000000 -0.971890 0.015503 0.234923 0.000000
190.83799744 207.55099487 354.00000000 -0.695601 -0.695601 0.179659 0.000000
93.28130341 275.95700073 316.50000000 0.586050 -0.792000 0.171120 0.000000
162.46499634 235.53500366 379.50000000 -0.480829 0.250400 -0.840299 0.000000
166.35200500 256.13500977 378.00000000 -0.860598 -0.369269 -0.350729 0.000000
146.91799927 240.19900513 334.50000000 -0.535997 -0.607012 0.586722 0.000000
130.98199463 272.84799194 345.00000000 -0.790530 0.001370 0.612421 0.000000
82.39849854 225.42999268 385.50000000 0.602632 -0.164629 -0.780854 0.000000
85.50779724 169.46099854 340.50000000 0.932461 0.346805 -0.101208 0.000000
188.89500427 125.54100037 363.00000000 0.157202 0.986296 -0.050072 0.000000
160.91000366 150.02699280 379.50000000 -0.202682 0.657555 -0.725632 0.000000
143.80900574 190.06100464 342.00000000 -0.812936 -0.324857 0.483325 0.000000
116.98999786 232.42599487 285.00000000 0.000978 0.000978 0.999999 0.000000
184.23100281 156.24600220 343.50000000 -0.619689 -0.518378 0.589296 0.000000
69.96099854 220.37699890 327.00000000 0.935987 0.312915 0.161282 0.000000
122.43199921 202.10899353 312.00000000 -0.466398 0.354972 0.810227 0.000000
116.60199738 155.46899414 394.50000000 0.438317 0.534251 -0.722810 0.000000
167.12899780 207.55099487 343.50000000 0.000978 0.000978 0.999999 0.000000
96.39070129 160.91000366 367.50000000 0.924136 0.184827 -0.334382 0.000000
132.14799500 292.28100586 364.50000000 0.051012 -0.964250 -0.260037 0.000000
112.71499634 171.01600647 322.50000000 -0.660809 0.496027 0.563285 0.000000
174.90199280 210.66000366 379.50000000 -0.654696 0.117281 -0.746739 0.000000
164.02000427 256.13500977 363.00000000 -0.559209 -0.345251 0.753716 0.000000
140.31100464 159.35600281 348.00000000 -0.712647 0.304041 0.632213 0.000000
129.42799377 180.34399414 333.00000000 -0.575825 0.491886 0.653050 0.000000
194.33599854 192.78100586 358.50000000 -0.694569 0.001381 0.719425 0.000000
169.46099854 188.11700439 358.50000000 -0.902463 0.182796 -0.390060 0.000000
85.11920166 207.55099487 264.00000000 0.945180 0.315934 -0.082589 0.000000
95.61329651 276.34600830 363.00000000 0.888274 -0.444843 -0.114388 0.000000
148.86099243 262.74200439 357.00000000 -0.135476 -0.608899 0.781594 0.000000
100.27700043 211.43800354 391.50000000 0.122948 0.276302 -0.953174 0.000000
111.16000366 172.57000732 319.50000000 -0.728518 0.421252 0.540193 0.000000
155.46899414 130.98199463 363.00000000 0.376749 0.879082 -0.292019 0.000000
175.67999268 136.03500366 376.50000000 0.377978 0.415934 -0.827123 0.000000
142.25399780 194.33599854 337.50000000 -0.888694 0.235897 0.393162 0.000000
133.70300293 205.21899414 394.50000000 -0.000978 -0.000978 -0.999999 0.000000
109.60500336 203.66400146 388.50000000 0.161464 0.358029 -0.919644 0.000000
207.55099487 127.48400116 334.50000000 -0.845131 -0.421787 0.328403 0.000000
102.99800110 170.23800659 294.00000000 -0.967932 -0.001191 0.251210 0.000000
129.03900146 240.19900513 316.50000000 -0.827180 -0.455343 0.329296 0.000000
137.58999634 192.78100586 331.50000000 -0.275727 0.553029 0.786215 0.000000
193.55900574 195.89100647 382.50000000 -0.797578 -0.302858 -0.521676 0.000000
145.36300659 197.05700684 342.00000000 0.106373 0.578492 0.808723 0.000000
100.66600037 171.79299927 381.00000000 0.869933 -0.216364 -0.443174 0.000000
193.55900574 198.22300720 379.50000000 -0.779685 -0.437861 -0.447627 0.000000
194.33599854 123.98600006 348.00000000 -0.001191 0.967932 -0.251210 0.000000
130.59399414 164.79699707 340.50000000 -0.967932 0.001191 0.251210 0.000000
89.78320313 208.32800293 387.00000000 0.501579 0.051125 -0.863600 0.000000
223.09800720 123.20899963 360.00000000 -0.905098 0.316416 0.284039 0.000000
181.12100220 149.25000000 379.50000000 0.171427 0.596203 -0.784318 0.000000
82.00980377 256.52398682 306.00000000 0.816831 -0.530710 0.226128 0.000000
202.10899353 178.01199341 370.50000000 -0.570499 -0.570499 0.590814 0.000000
124.37500000 223.87500000 304.50000000 -0.790530 -0.001370 0.612421 0.000000
85.50779724 269.35000610 324.00000000 0.745992 -0.657709 0.104468 0.000000
217.65600586 179.95500183 375.00000000 -0.391226 -0.628933 0.671852 0.000000
154.69099426 209.49400330 336.00000000 -0.728854 0.110880 0.675631 0.000000
219.21099854 140.69900513 376.50000000 -0.000978 -0.000978 -0.999999 0.000000
219.21099854 159.35600281 370.50000000 -0.035424 -0.147409 0.988441 0.000000
120.87699890 258.07800293 321.00000000 -0.938202 -0.157508 0.308169 0.000000
131.37100220 142.25399780 385.50000000 -0.217473 0.865392 -0.451444 0.000000
87.06250000 270.51599121 319.50000000 0.695601 -0.695601 0.179659 0.000000
186.56300354 203.66400146 349.50000000 -0.840818 0.358561 0.405534 0.000000
111.93800354 153.91400146 388.50000000 0.657312 0.489201 -0.573257 0.000000
108.05100250 182.67599487 304.50000000 -0.878351 0.365600 0.307954 0.000000
89.78320313 270.51599121 312.00000000 0.744883 -0.604520 0.282322 0.000000
170.23800659 199.00000000 352.50000000 0.079635 0.641421 0.763045 0.000000
169.46099854 195.89100647 391.50000000 -0.222917 -0.872220 -0.435362 0.000000
128.64999390 139.92199707 345.00000000 -0.436300 0.705048 0.559061 0.000000
78.51170349 206.77299500 295.50000000 0.970064 0.172997 0.170434 0.000000
131.37100220 195.50199890 396.00000000 0.313266 -0.586369 -0.747018 0.000000
146.91799927 284.89700317 366.00000000 -0.747743 -0.644606 0.159256 0.000000
152.74800110 279.84399414 372.00000000 -0.751727 -0.657582 0.049925 0.000000
84.73049927 170.62699890 324.00000000 0.879718 0.460533 0.118341 0.000000
122.81999969 201.33200073 391.50000000 -0.000978 -0.000978 -0.999999 0.000000
97.94529724 239.81100464 390.00000000 0.326447 -0.435783 -0.838765 0.000000
96.39070129 164.79699707 370.50000000 0.967932 -0.001191 -0.251210 0.000000
128.26199341 223.87500000 310.50000000 -0.967932 0.001191 0.251210 0.000000
133.70300293 245.64100647 388.50000000 -0.203868 -0.574816 -0.792480 0.000000
155.46899414 174.90199280 355.50000000 -0.551215 -0.009527 0.834309 0.000000
170.23800659 184.61900330 357.00000000 -0.907649 0.418813 0.027745 0.000000
129.03900146 248.75000000 388.50000000 -0.055481 -0.235484 -0.970293 0.000000
87.06250000 259.63299561 298.50000000 0.638526 -0.547549 0.540810 0.000000
148.86099243 171.79299927 348.00000000 -0.267848 0.481508 0.834510 0.000000
155.85699463 212.99200439 336.00000000 -0.692124 0.369900 0.619788 0.000000
118.54499817 181.12100220 324.00000000 -0.636463 0.237299 0.733897 0.000000
97.94529724 156.63499451 369.00000000 0.773663 0.387642 -0.501178 0.000000
118.15599823 178.78900146 325.50000000 -0.569888 0.183884 0.800883 0.000000
86.28520203 265.07400513 364.50000000 0.359790 -0.904572 -0.228692 0.000000
112.71499634 295.77899170 345.00000000 0.485248 -0.872896 0.050862 0.000000
158.57800293 194.33599854 394.50000000 0.689291 -0.202915 -0.695487 0.000000
158.57800293 236.31300354 340.50000000 -0.529052 -0.600043 0.600043 0.000000
86.28520203 219.98800659 262.50000000 0.888291 -0.001316 0.459279 0.000000
108.05100250 194.33599854 385.50000000 0.883813 0.123819 -0.451157 0.000000
90.17189789 163.24200439 310.50000000 0.967932 0.001191 0.251210 0.000000
129.03900146 151.58200073 394.50000000 -0.169633 0.544928 -0.821145 0.000000
179.56599426 156.24600220 382.50000000 -0.000978 -0.000978 -0.999999 0.000000
112.71499634 170.23800659 322.50000000 -0.889271 0.011928 0.457226 0.000000
117.37899780 155.46899414 337.50000000 -0.696392 0.308610 0.647919 0.000000
97.55670166 150.80499268 318.00000000 0.695601 0.695601 0.179659 0.000000
119.71099854 279.84399414 379.50000000 0.523246 -0.383062 -0.761234 0.000000
97.16799927 189.67199707 379.50000000 0.533864 0.550706 -0.641648 0.000000
187.33999634 175.67999268 385.50000000 -0.547575 0.216269 -0.808325 0.000000
96.39070129 264.29699707 376.50000000 0.287123 -0.652845 -0.700966 0.000000
133.70300293 265.85198975 346.50000000 -0.786888 -0.248738 0.564745 0.000000
200.55499268 146.91799927 346.50000000 -0.357582 -0.713531 0.602501 0.000000
97.16799927 220.76600647 391.50000000 -0.000978 -0.000978 -0.999999 0.000000
140.69900513 230.09399414 322.50000000 -0.469897 0.062010 0.880540 0.000000
103.38700104 284.50799561 325.50000000 0.477098 -0.795164 0.374289 0.000000
107.66200256 222.32000732 264.00000000 -0.907492 0.227962 0.352833 0.000000
89.39459991 275.56799316 351.00000000 0.812940 -0.568025 -0.128359 0.000000
145.36300659 273.62500000 358.50000000 -0.467856 0.047740 0.882515 0.000000
107.27300262 223.09800720 262.50000000 -0.907492 0.227962 0.352833 0.000000
186.56300354 157.41200256 345.00000000 -0.566724 -0.509547 0.647445 0.000000
136.42399597 178.78900146 339.00000000 -0.571984 0.306019 0.761043 0.000000
70.34960175 216.10200500 336.00000000 0.994124 0.090578 -0.059267 0.000000
136.03500366 215.32400513 319.50000000 -0.671925 0.445171 0.591894 0.000000
213.77000427 142.25399780 361.50000000 -0.683435 -0.434006 0.586989 0.000000
171.01600647 185.00799561 364.50000000 -0.720987 0.538668 -0.435907 0.000000
80.45510101 263.51998901 348.00000000 0.764809 -0.642326 -0.049848 0.000000
125.93000031 185.78500366 328.50000000 -0.322020 0.707150 0.629477 0.000000
108.43900299 179.56599426 309.00000000 -0.889838 0.319621 0.325624 0.000000
102.60900116 189.28300476 282.00000000 -0.920864 0.307909 0.239167 0.000000
122.81999969 143.03100586 343.50000000 -0.749225 -0.289147 0.595866 0.000000
191.22700500 125.15200043 343.50000000 0.371689 0.888171 0.270183 0.000000
79.67780304 194.33599854 315.00000000 0.888291 0.001316 0.459279 0.000000
226.98399353 169.46099854 376.50000000 -0.474681 -0.632348 -0.612220 0.000000
177.23399353 188.11700439 355.50000000 0.000978 0.000978 0.999999 0.000000
189.67199707 173.34800720 358.50000000 -0.322758 -0.705527 0.630919 0.000000
212.21499634 140.69900513 358.50000000 -0.677938 -0.412730 0.608321 0.000000
97.16799927 173.34800720 373.50000000 0.894791 0.058563 -0.442629 0.000000
91.72660065 247.97300720 277.50000000 0.647506 -0.446729 0.617389 0.000000
178.01199341 211.82600403 378.00000000 -0.363178 -0.505221 -0.782850 0.000000
97.16799927 153.91400146 361.50000000 0.805448 0.572331 -0.153917 0.000000
167.12899780 163.24200439 349.50000000 0.393517 -0.568047 0.722819 0.000000
91.72660065 163.24200439 355.50000000 0.945180 0.315934 -0.082589 0.000000
155.46899414 212.99200439 334.50000000 -0.692124 0.369900 0.619788 0.000000
154.69099426 219.98800659 334.50000000 0.000978 0.000978 0.999999 0.000000
181.12100220 136.03500366 376.50000000 -0.000978 -0.000978 -0.999999 0.000000
170.23800659 243.30900574 376.50000000 -0.837839 -0.168163 -0.519371 0.000000
127.48400116 280.62100220 343.50000000 -0.777683 -0.110258 0.618912 0.000000
191.22700500 194.33599854 355.50000000 -0.654859 -0.046877 0.754296 0.000000
135.25799561 272.84799194 349.50000000 -0.945381 0.316001 -0.079984 0.000000
94.05860138 167.51800537 288.00000000 0.507033 0.791739 0.340688 0.000000
115.82399750 287.22900391 372.00000000 0.240454 -0.860492 -0.449150 0.000000
112.71499634 229.31599426 394.50000000 -0.000978 -0.000978 -0.999999 0.000000
96.39070129 246.41799927 385.50000000 -0.000978 -0.000978 -0.999999 0.000000
139.53300476 217.65600586 393.00000000 -0.364818 0.600396 -0.711641 0.000000
83.95310211 232.42599487 277.50000000 0.862323 -0.347089 0.368685 0.000000
149.25000000 232.42599487 388.50000000 -0.074431 -0.393806 -0.916175 0.000000
163.24200439 233.98100281 343.50000000 -0.781889 -0.456779 0.424268 0.000000
103.38700104 289.56100464 342.00000000 0.461509 -0.830715 0.311323 0.000000
214.54699707 170.23800659 382.50000000 -0.315780 0.405122 -0.857997 0.000000
77.73439789 212.21499634 295.50000000 0.967932 -0.001191 0.251210 0.000000
123.59799957 137.97900391 366.00000000 0.435070 0.871635 -0.225758 0.000000
129.81599426 224.65199280 394.50000000 -0.000978 -0.000978 -0.999999 0.000000
178.78900146 214.54699707 355.50000000 -0.565760 -0.822539 -0.057846 0.000000
88.61720276 179.56599426 364.50000000 0.570499 0.570499 -0.590814 0.000000
224.65199280 157.02299500 370.50000000 -0.521999 -0.596329 0.609843 0.000000
178.01199341 206.77299500 385.50000000 -0.000978 -0.000978 -0.999999 0.000000
169.46099854 127.48400116 355.50000000 0.193890 0.969452 -0.150233 0.000000
197.44500732 136.03500366 325.50000000 -0.512690 -0.556395 0.653890 0.000000
168.68400574 196.66799927 391.50000000 -0.222917 -0.872220 -0.435362 0.000000
72.68170166 233.98100281 357.00000000 0.987098 -0.142020 -0.073944 0.000000
108.05100250 230.87100220 262.50000000 -0.846336 0.427050 0.318346 0.000000
186.56300354 162.46499634 346.50000000 -0.612407 0.055415 0.788598 0.000000
104.94100189 261.96499634 280.50000000 0.452389 -0.589274 0.669402 0.000000
87.83989716 179.56599426 283.50000000 0.951957 0.283871 0.114869 0.000000
172.57000732 214.93600464 378.00000000 -0.132311 -0.780487 -0.611010 0.000000
111.93800354 295.00201416 348.00000000 0.601260 -0.793430 0.094629 0.000000
112.71499634 274.40200806 298.50000000 -0.367901 -0.734167 0.570655 0.000000
74.23639679 241.75399780 315.00000000 0.927819 -0.339784 0.153943 0.000000
167.90600586 228.92799377 375.00000000 -0.416018 -0.044143 -0.908284 0.000000
104.16400146 164.02000427 385.50000000 0.745331 0.345873 -0.569959 0.000000
89.39459991 265.85198975 304.50000000 0.679474 -0.498281 0.538546 0.000000
108.82800293 232.42599487 262.50000000 -0.846336 0.427050 0.318346 0.000000
110.38300323 209.88299561 391.50000000 -0.000978 -0.000978 -0.999999 0.000000
78.51170349 204.44099426 376.50000000 0.703346 0.258793 -0.662066 0.000000
162.46499634 147.69500732 337.50000000 0.365476 -0.621145 0.693257 0.000000
111.16000366 257.30099487 385.50000000 0.206482 0.024778 -0.978136 0.000000
178.01199341 216.10200500 364.50000000 -0.798124 -0.306239 -0.518860 0.000000
106.49600220 143.41999817 345.00000000 0.695601 0.695601 -0.179659 0.000000
202.88699341 173.34800720 367.50000000 -0.296342 -0.530881 0.793944 0.000000
96.00199890 159.35600281 303.00000000 0.797435 0.493802 0.346780 0.000000
73.07029724 225.42999268 370.50000000 0.967932 -0.001191 -0.251210 0.000000
137.58999634 173.34800720 343.50000000 -0.768164 0.221914 0.600565 0.000000
110.38300323 263.51998901 382.50000000 0.463374 -0.358279 -0.810506 0.000000
136.03500366 230.87100220 319.50000000 -0.701125 -0.293606 0.649784 0.000000
134.86900330 240.97700500 324.00000000 -0.653101 -0.691803 0.308006 0.000000
150.02699280 234.75799561 331.50000000 0.000978 0.000978 0.999999 0.000000
147.69500732 193.55900574 343.50000000 0.052856 0.729986 0.681415 0.000000
167.90600586 131.75999451 369.00000000 0.196504 0.679255 -0.707106 0.000000
145.36300659 245.25199890 339.00000000 -0.624340 -0.680349 0.383829 0.000000
168.68400574 129.81599426 367.50000000 0.341477 0.814780 -0.468538 0.000000
87.83989716 188.11700439 373.50000000 0.434596 0.533743 -0.725428 0.000000
143.03100586 289.17199707 364.50000000 -0.769063 -0.416372 0.484950 0.000000
116.60199738 188.11700439 391.50000000 0.504157 -0.628932 -0.591837 0.000000
120.48799896 160.91000366 397.50000000 0.045365 0.346070 -0.937111 0.000000
77.34570313 229.31599426 294.00000000 0.967932 0.001191 0.251210 0.000000
132.14799500 280.62100220 382.50000000 0.347336 -0.308242 -0.885632 0.000000
139.14500427 222.32000732 394.50000000 -0.001191 0.967932 -0.251210 0.000000
75.40239716 251.85899353 337.50000000 0.879082 -0.376749 0.292019 0.000000
165.57400513 218.04499817 381.00000000 -0.461973 -0.558704 -0.688790 0.000000
206.77299500 149.25000000 358.50000000 -0.882480 -0.457530 0.109071 0.000000
126.70700073 226.98399353 394.50000000 -0.000978 -0.000978 -0.999999 0.000000
204.83000183 149.25000000 381.00000000 -0.429966 0.150991 -0.890130 0.000000
125.93000031 162.46499634 340.50000000 -0.737067 -0.026675 0.675293 0.000000
160.91000366 178.01199341 355.50000000 0.000978 0.000978 0.999999 0.000000
171.01600647 187.72900391 360.00000000 -0.901917 -0.392701 0.179808 0.000000
164.79699707 229.31599426 379.50000000 -0.967932 -0.001191 -0.251210 0.000000
159.35600281 149.25000000 379.50000000 -0.294401 0.664414 -0.686937 0.000000
167.90600586 178.78900146 358.50000000 -0.996838 0.079282 -0.005285 0.000000
75.40239716 247.19500732 361.50000000 0.961693 -0.206547 -0.180235 0.000000
90.94920349 172.18200684 288.00000000 0.888274 0.444843 -0.114388 0.000000
71.51560211 203.66400146 337.50000000 0.967932 0.001191 0.251210 0.000000
94.05860138 251.08200073 277.50000000 0.703552 -0.457392 0.543881 0.000000
161.68800354 127.09600067 348.00000000 0.000000 0.000000 0.000000 0.000000
122.81999969 216.87899780 394.50000000 -0.000978 -0.000978 -0.999999 0.000000
146.14100647 188.11700439 346.50000000 -0.933273 -0.317563 0.167795 0.000000
143.80900574 228.53900146 325.50000000 0.449467 0.676706 0.583137 0.000000
117.37899780 223.87500000 289.50000000 -0.679680 0.508502 0.528640 0.000000
115.04699707 144.58599854 334.50000000 -0.421787 0.845131 0.328403 0.000000
124.37500000 171.01600647 334.50000000 -0.545574 0.472163 0.692395 0.000000
80.84380341 176.06799316 339.00000000 -0.292461 0.877383 0.380351 0.000000
133.70300293 253.02499390 336.00000000 -0.845131 -0.421787 0.328403 0.000000
77.73439789 211.04899597 378.00000000 0.918418 0.275381 -0.284032 0.000000
108.43900299 144.58599854 327.00000000 -0.521346 0.521346 0.675571 0.000000
73.84770203 236.31300354 364.50000000 0.948626 -0.174569 -0.263883 0.000000
167.90600586 152.35899353 337.50000000 0.443610 -0.712767 0.543298 0.000000
188.89500427 125.93000031 370.50000000 0.307909 0.920864 -0.239167 0.000000
82.78710175 247.19500732 378.00000000 0.643535 -0.370321 -0.669869 0.000000
148.86099243 212.21499634 330.00000000 -0.565385 0.046297 0.823527 0.000000
150.02699280 167.12899780 397.50000000 -0.622560 -0.416700 -0.662404 0.000000
162.46499634 127.09600067 348.00000000 0.000000 0.000000 0.000000 0.000000
157.80099487 148.47300720 379.50000000 -0.456625 0.613851 -0.643958 0.000000
161.68800354 207.55099487 388.50000000 -0.819640 0.130966 -0.557708 0.000000
106.49600220 142.25399780 337.50000000 0.515126 0.856721 0.025961 0.000000
152.35899353 279.84399414 376.50000000 -0.367480 0.367480 -0.854352 0.000000
108.05100250 237.86700439 262.50000000 0.000978 0.000978 0.999999 0.000000
85.50779724 261.18798828 304.50000000 0.695601 -0.695601 0.179659 0.000000
109.60500336 237.86700439 262.50000000 0.000978 0.000978 0.999999 0.000000
174.12500000 206.77299500 343.50000000 0.000978 0.000978 0.999999 0.000000
177.23399353 182.28700256 393.00000000 -0.622046 0.413039 -0.665175 0.000000
195.50199890 203.66400146 372.00000000 -0.950505 -0.281286 -0.131978 0.000000
216.10200500 170.23800659 379.50000000 -0.646704 0.340456 -0.682542 0.000000
169.46099854 141.47700500 319.50000000 0.267562 -0.444917 0.854669 0.000000
115.82399750 181.12100220 322.50000000 -0.406583 0.541562 0.735800 0.000000
174.90199280 148.47300720 379.50000000 -0.000978 -0.000978 -0.999999 0.000000
199.77699280 144.58599854 343.50000000 -0.602873 -0.575853 0.552211 0.000000
135.25799561 154.69099426 346.50000000 -0.120205 0.039319 0.991970 0.000000
73.07029724 198.22300720 331.50000000 0.980856 0.113882 0.157966 0.000000
117.37899780 144.58599854 337.50000000 -0.764697 -0.046818 0.642686 0.000000
110.38300323 212.99200439 277.50000000 -0.945107 0.198898 0.259253 0.000000
169.46099854 148.47300720 379.50000000 0.064042 0.335894 -0.939720 0.000000
88.61720276 186.56300354 373.50000000 0.434596 0.533743 -0.725428 0.000000
97.16799927 246.41799927 385.50000000 0.276992 -0.565064 -0.777160 0.000000
126.70700073 236.31300354 310.50000000 -0.839917 -0.155540 0.519949 0.000000
87.83989716 165.18600464 318.00000000 0.919967 0.359865 0.155428 0.000000
157.02299500 142.25399780 337.50000000 0.695601 -0.695601 0.179659 0.000000
78.12310028 238.64500427 375.00000000 0.940095 -0.157367 -0.302418 0.000000
90.56060028 251.08200073 282.00000000 0.782021 -0.450353 0.430843 0.000000
143.03100586 259.63299561 352.50000000 -0.386369 -0.346025 0.854977 0.000000
167.12899780 146.91799927 379.50000000 0.169516 0.670428 -0.722351 0.000000
203.66400146 171.40400696 366.00000000 -0.296342 -0.530881 0.793944 0.000000
215.32400513 125.15200043 370.50000000 -0.000978 -0.000978 -0.999999 0.000000
83.95310211 255.74600220 373.50000000 0.756757 -0.064619 -0.650495 0.000000
82.78710175 206.77299500 276.00000000 0.907304 -0.003905 0.420458 0.000000
133.70300293 164.02000427 403.50000000 0.230650 0.139432 -0.962995 0.000000
120.48799896 174.12500000 328.50000000 -0.509081 0.656933 0.556125 0.000000
106.49600220 239.42199707 262.50000000 -0.310305 -0.383678 0.869771 0.000000
170.62699890 251.08200073 372.00000000 -0.866220 -0.467788 0.175605 0.000000
113.10399628 285.28500366 327.00000000 -0.300878 -0.837157 0.456773 0.000000
203.66400146 142.25399780 379.50000000 -0.000978 -0.000978 -0.999999 0.000000
126.31800079 284.50799561 342.00000000 -0.746370 -0.257206 0.613822 0.000000
116.21299744 243.30900574 285.00000000 -0.967932 -0.001191 0.251210 0.000000
118.54499817 264.29699707 315.00000000 -0.956400 -0.191280 0.220708 0.000000
73.07029724 226.20700073 370.50000000 0.967932 -0.001191 -0.251210 0.000000
118.93399811 274.40200806 325.50000000 -0.924136 -0.184827 0.334382 0.000000
153.91400146 191.22700500 397.50000000 -0.000978 -0.000978 -0.999999 0.000000
197.44500732 191.61500549 375.00000000 -0.735567 -0.614302 0.285611 0.000000
116.60199738 238.64500427 391.50000000 -0.000978 -0.000978 -0.999999 0.000000
96.39070129 153.91400146 349.50000000 0.695601 0.695601 -0.179659 0.000000
185.78500366 191.22700500 352.50000000 0.127551 0.465777 0.875661 0.000000
133.70300293 195.89100647 325.50000000 -0.746841 0.377506 0.547465 0.000000
176.45700073 218.04499817 369.00000000 -0.837859 -0.543135 0.054735 0.000000
172.57000732 219.98800659 346.50000000 -0.512673 -0.798373 0.315857 0.000000
172.57000732 176.45700073 355.50000000 0.000978 0.000978 0.999999 0.000000
225.81799316 143.03100586 372.00000000 -0.896461 0.424937 -0.125646 0.000000
180.34399414 126.31800079 351.00000000 0.291359 0.948579 0.123728 0.000000
211.43800354 129.42799377 348.00000000 -0.452511 -0.727664 0.515498 0.000000
135.25799561 167.90600586 403.50000000 -0.000978 -0.000978 -0.999999 0.000000
99.11139679 152.35899353 363.00000000 0.695601 0.695601 -0.179659 0.000000
100.27700043 156.63499451 375.00000000 0.728224 0.543278 -0.417779 0.000000
181.12100220 184.23100281 355.50000000 0.109339 0.336115 0.935453 0.000000
165.18600464 226.20700073 378.00000000 -0.861956 -0.166497 -0.478864 0.000000
84.73049927 269.35000610 339.00000000 0.855623 -0.515585 0.045615 0.000000
212.60400391 125.15200043 342.00000000 -0.682018 -0.605685 0.409875 0.000000
153.91400146 218.43400574 388.50000000 -0.547575 -0.216269 -0.808325 0.000000
126.70700073 161.68800354 340.50000000 -0.761139 0.145622 0.632030 0.000000
102.60900116 195.11300659 385.50000000 0.304522 0.371184 -0.877205 0.000000
116.60199738 246.41799927 289.50000000 -0.955538 -0.239219 0.172398 0.000000
108.05100250 162.85400391 315.00000000 -0.984407 0.111782 0.135822 0.000000
171.40400696 150.02699280 333.00000000 -0.014327 -0.913018 0.407667 0.000000
180.34399414 192.78100586 385.50000000 0.095680 -0.351727 -0.931200 0.000000
137.58999634 238.25599670 324.00000000 -0.417211 -0.430098 0.800594 0.000000
158.18899536 129.81599426 363.00000000 0.376749 0.879082 -0.292019 0.000000
141.86500549 169.46099854 402.00000000 -0.391289 0.276471 -0.877757 0.000000
103.77500153 192.78100586 282.00000000 -0.920864 0.307909 0.239167 0.000000
137.58999634 272.45901489 384.00000000 -0.169923 -0.489083 -0.855526 0.000000
172.57000732 185.00799561 394.50000000 -0.000978 -0.000978 -0.999999 0.000000
196.66799927 134.48100281 379.50000000 -0.291616 0.584826 -0.756927 0.000000
183.45300293 139.53300476 315.00000000 0.001191 -0.967932 0.251210 0.000000
132.14799500 172.57000732 403.50000000 -0.000978 -0.000978 -0.999999 0.000000
77.73439789 202.49800110 303.00000000 0.970005 0.126190 0.207767 0.000000
149.25000000 167.12899780 397.50000000 -0.622560 -0.416700 -0.662404 0.000000
181.89799500 162.46499634 385.50000000 -0.000978 -0.000978 -0.999999 0.000000
142.25399780 184.23100281 340.50000000 0.000978 0.000978 0.999999 0.000000
108.82800293 283.34201050 321.00000000 -0.129488 -0.949135 0.287010 0.000000
215.32400513 155.46899414 367.50000000 -0.559495 -0.176445 0.809835 0.000000
110.38300323 292.28100586 340.50000000 0.405006 -0.811614 0.421015 0.000000
145.36300659 197.44500732 397.50000000 -0.141901 -0.781204 -0.607935 0.000000
215.71299744 129.03900146 351.00000000 -0.664593 -0.651465 0.365936 0.000000
111.16000366 153.91400146 328.50000000 -0.790530 -0.001370 0.612421 0.000000
139.92199707 244.08599854 331.50000000 -0.773663 -0.387642 0.501178 0.000000
133.70300293 200.55499268 394.50000000 -0.000978 -0.000978 -0.999999 0.000000
103.38700104 242.53100586 262.50000000 -0.026693 -0.689795 0.723512 0.000000
136.03500366 192.00399780 331.50000000 -0.459822 0.446731 0.767460 0.000000
103.38700104 185.78500366 382.50000000 0.401776 0.103551 -0.909864 0.000000
119.71099854 290.72698975 340.50000000 -0.628073 -0.667846 0.399382 0.000000
150.80499268 150.41600037 354.00000000 -0.129421 -0.504598 0.853599 0.000000
106.88500214 242.53100586 264.00000000 -0.396761 -0.511054 0.762499 0.000000
121.26599884 281.39898682 334.50000000 -0.797948 -0.364455 0.480053 0.000000
120.48799896 236.31300354 298.50000000 -0.967932 0.001191 0.251210 0.000000
96.39070129 279.45498657 318.00000000 0.695601 -0.695601 0.179659 0.000000
84.34179688 264.29699707 366.00000000 0.071485 -0.915814 -0.395189 0.000000
139.14500427 216.10200500 322.50000000 -0.677583 0.162925 0.717172 0.000000
119.71099854 291.50399780 364.50000000 0.491753 -0.818540 -0.296937 0.000000
131.37100220 202.10899353 394.50000000 -0.000978 -0.000978 -0.999999 0.000000
118.54499817 188.89500427 318.00000000 -0.655278 0.283580 0.700138 0.000000
139.92199707 230.87100220 322.50000000 -0.429617 -0.242696 0.869786 0.000000
79.28910065 228.53900146 286.50000000 0.859601 -0.247116 0.447235 0.000000
76.17970276 245.64100647 313.50000000 0.885870 -0.447912 0.120865 0.000000
104.55300140 178.01199341 300.00000000 -0.940679 0.026804 0.338236 0.000000
139.92199707 166.35200500 400.50000000 -0.384381 0.409690 -0.827288 0.000000
161.68800354 248.75000000 382.50000000 -0.000978 -0.000978 -0.999999 0.000000
194.33599854 152.35899353 346.50000000 -0.713319 -0.487185 0.503813 0.000000
141.47700500 240.19900513 388.50000000 -0.773663 -0.387642 -0.501178 0.000000
121.65399933 252.63699341 318.00000000 -0.905804 -0.423236 0.019777 0.000000
170.23800659 126.31800079 345.00000000 -0.001191 0.967932 -0.251210 0.000000
155.46899414 240.19900513 385.50000000 0.084616 -0.555025 -0.827519 0.000000
120.48799896 163.63099670 336.00000000 -0.481817 0.317525 0.816719 0.000000
134.48100281 284.50799561 379.50000000 0.234279 -0.831459 -0.503775 0.000000
128.26199341 256.91198730 333.00000000 -0.604709 -0.467351 0.644911 0.000000
194.33599854 148.86099243 342.00000000 -0.610398 -0.783957 0.113255 0.000000
208.32800293 146.14100647 358.50000000 -0.873815 -0.469191 0.127700 0.000000
181.12100220 155.46899414 382.50000000 0.273202 0.513619 -0.813361 0.000000
89.39459991 183.06500244 267.00000000 0.260317 0.522193 0.812127 0.000000
142.25399780 286.83999634 361.50000000 -0.568790 -0.659393 0.491609 0.000000
129.81599426 176.84599304 336.00000000 -0.459329 0.318238 0.829301 0.000000
87.83989716 201.33200073 382.50000000 -0.000978 -0.000978 -0.999999 0.000000
212.99200439 142.64300537 378.00000000 -0.209227 0.640081 -0.739270 0.000000
85.50779724 179.56599426 361.50000000 0.365459 0.850665 -0.377900 0.000000
98.72270203 162.46499634 376.50000000 0.823440 0.325912 -0.464464 0.000000
139.92199707 164.02000427 400.50000000 0.102801 0.321753 -0.941226 0.000000
117.37899780 209.10600281 391.50000000 -0.506050 -0.113897 -0.854951 0.000000
123.59799957 293.83599854 364.50000000 0.333153 -0.716685 -0.612676 0.000000
126.70700073 235.53500366 310.50000000 -0.895402 -0.067189 0.440159 0.000000
95.61329651 250.69299316 384.00000000 0.291838 -0.436985 -0.850808 0.000000
178.78900146 175.67999268 355.50000000 -0.293006 -0.822610 0.487299 0.000000
173.34800720 239.42199707 364.50000000 -0.893420 -0.190927 0.406630 0.000000
89.39459991 240.19900513 274.50000000 0.753157 -0.510309 0.415139 0.000000
143.80900574 268.18399048 385.50000000 0.168163 -0.837839 -0.519371 0.000000
175.67999268 141.08799744 318.00000000 0.263219 -0.879904 0.395581 0.000000
73.07029724 223.87500000 370.50000000 0.967932 0.001191 -0.251210 0.000000
179.56599426 188.11700439 391.50000000 -0.386937 -0.313526 -0.867168 0.000000
116.21299744 186.56300354 393.00000000 0.548509 -0.565386 -0.616017 0.000000
113.49199677 213.77000427 283.50000000 -0.790530 -0.001370 0.612421 0.000000
212.21499634 126.70700073 373.50000000 -0.330699 0.559768 -0.759801 0.000000
219.60000610 148.47300720 378.00000000 -0.587595 0.335075 -0.736517 0.000000
90.17189789 185.00799561 265.50000000 0.208983 0.611468 0.763173 0.000000
154.69099426 168.29499817 354.00000000 -0.460994 -0.365286 0.808734 0.000000
188.11700439 181.12100220 358.50000000 0.664577 0.536709 0.519885 0.000000
71.51560211 219.98800659 364.50000000 0.967932 -0.001191 -0.251210 0.000000
120.48799896 255.35699463 315.00000000 -0.949663 -0.226886 0.216018 0.000000
117.37899780 147.69500732 388.50000000 0.901416 0.340797 -0.267032 0.000000
139.14500427 181.12100220 403.50000000 -0.000978 -0.000978 -0.999999 0.000000
88.61720276 185.78500366 265.50000000 0.543624 0.516695 0.661437 0.000000
199.00000000 179.56599426 385.50000000 -0.678098 -0.223945 -0.700023 0.000000
119.71099854 176.45700073 400.50000000 0.535530 -0.721224 -0.439367 0.000000
125.93000031 253.41400146 388.50000000 -0.000978 -0.000978 -0.999999 0.000000
94.05860138 161.68800354 304.50000000 0.770557 0.567194 0.290746 0.000000
77.73439789 255.74600220 322.50000000 0.907563 -0.409023 0.095026 0.000000
80.06639862 219.98800659 382.50000000 0.551551 0.551551 -0.625766 0.000000
216.87899780 156.24600220 367.50000000 -0.559495 -0.176445 0.809835 0.000000
160.91000366 151.58200073 382.50000000 -0.361264 0.711085 -0.603197 0.000000
120.87699890 289.17199707 339.00000000 -0.798544 -0.545385 0.254721 0.000000
109.99400330 176.45700073 393.00000000 0.577543 -0.112584 -0.808560 0.000000
92.11530304 278.28900146 354.00000000 0.746388 -0.599348 -0.289285 0.000000
137.20100403 292.28100586 369.00000000 0.047247 -0.998481 -0.028348 0.000000
207.55099487 179.56599426 373.50000000 -0.238699 -0.469796 0.849891 0.000000
104.16400146 167.12899780 388.50000000 0.977725 0.105065 -0.181701 0.000000
120.09999847 261.96499634 321.00000000 -0.935828 -0.149349 0.319250 0.000000
167.90600586 132.92599487 370.50000000 -0.253309 0.602592 -0.756781 0.000000
132.14799500 251.85899353 388.50000000 -0.000978 -0.000978 -0.999999 0.000000
94.05860138 229.31599426 391.50000000 0.434829 -0.239231 -0.868154 0.000000
147.69500732 254.19099426 349.50000000 -0.405372 -0.203418 0.891232 0.000000
87.06250000 187.33999634 265.50000000 0.526889 0.553823 0.644724 0.000000
120.09999847 164.79699707 399.00000000 -0.216848 0.408619 -0.886571 0.000000
180.34399414 216.10200500 373.50000000 -0.001370 -0.790530 -0.612421 0.000000
113.49199677 295.00201416 354.00000000 0.377974 -0.830278 -0.409604 0.000000
93.28130341 187.33999634 265.50000000 -0.585002 0.477724 0.655403 0.000000
85.50779724 187.72900391 372.00000000 0.504627 0.365975 -0.781930 0.000000
149.25000000 247.58399963 345.00000000 -0.483324 -0.783986 0.389569 0.000000
134.48100281 191.22700500 400.50000000 0.037703 -0.814097 -0.579503 0.000000
87.06250000 188.11700439 265.50000000 0.526889 0.553823 0.644724 0.000000
168.68400574 218.04499817 378.00000000 -0.549287 -0.512332 -0.660152 0.000000
90.94920349 261.18798828 295.50000000 0.564265 -0.751814 0.341146 0.000000
114.26999664 201.33200073 298.50000000 -0.851327 0.471948 0.229145 0.000000
112.71499634 138.36700439 337.50000000 0.582188 0.763032 0.280783 0.000000
160.13299561 180.34399414 397.50000000 -0.000978 -0.000978 -0.999999 0.000000
113.49199677 236.31300354 391.50000000 -0.039320 -0.203749 -0.978233 0.000000
139.14500427 241.75399780 328.50000000 -0.874740 0.448396 -0.183769 0.000000
118.93399811 223.87500000 394.50000000 -0.000978 -0.000978 -0.999999 0.000000
88.22850037 267.40600586 309.00000000 0.760294 -0.571421 0.308919 0.000000
94.05860138 188.89500427 265.50000000 -0.655910 0.384955 0.649301 0.000000
125.15200043 225.42999268 394.50000000 -0.000978 -0.000978 -0.999999 0.000000
132.14799500 139.53300476 375.00000000 -0.032366 0.974563 -0.221764 0.000000
161.68800354 180.34399414 355.50000000 0.000978 0.000978 0.999999 0.000000
104.94100189 151.19299316 375.00000000 0.630609 0.695788 -0.343820 0.000000
138.36700439 271.29299927 352.50000000 -0.663077 -0.505282 0.552285 0.000000
112.32599640 165.57400513 324.00000000 -0.892054 0.355928 0.278488 0.000000
183.45300293 186.56300354 391.50000000 -0.000978 -0.000978 -0.999999 0.000000
149.25000000 261.18798828 385.50000000 -0.265313 -0.354244 -0.896727 0.000000
192.78100586 182.67599487 367.50000000 -0.477127 -0.396258 0.784429 0.000000
116.60199738 282.17599487 376.50000000 0.351721 -0.430583 -0.831198 0.000000
213.77000427 130.20500183 351.00000000 -0.434853 -0.684769 0.584803 0.000000
130.59399414 230.09399414 394.50000000 -0.000978 -0.000978 -0.999999 0.000000
94.83599854 190.44900513 265.50000000 -0.836196 0.311034 0.451702 0.000000
108.05100250 192.00399780 385.50000000 -0.000978 -0.000978 -0.999999 0.000000
195.89100647 123.98600006 357.00000000 0.229960 0.972158 -0.045019 0.000000
192.00399780 158.57800293 349.50000000 -0.576148 -0.385740 0.720596 0.000000
130.59399414 139.14500427 373.50000000 -0.140907 0.983938 -0.109594 0.000000
124.37500000 143.80900574 388.50000000 0.182905 0.817782 -0.545692 0.000000
90.94920349 229.70500183 390.00000000 0.406144 -0.362237 -0.838947 0.000000
141.47700500 247.19500732 337.50000000 -0.503424 -0.687400 0.523494 0.000000
90.94920349 171.01600647 298.50000000 0.703552 0.457392 0.543881 0.000000
136.03500366 178.01199341 337.50000000 -0.510692 0.340995 0.789251 0.000000
194.72500610 193.55900574 381.00000000 -0.827977 -0.054824 -0.558076 0.000000
125.93000031 262.74200439 385.50000000 -0.000978 -0.000978 -0.999999 0.000000
100.66600037 280.62100220 366.00000000 0.991527 -0.012159 -0.129330 0.000000
78.51170349 242.14300537 300.00000000 0.969452 -0.193890 0.150233 0.000000
190.44900513 129.81599426 376.50000000 0.135959 0.634974 -0.760475 0.000000
71.90429688 213.77000427 324.00000000 0.982897 0.097927 0.155958 0.000000
140.69900513 256.52398682 346.50000000 0.000978 0.000978 0.999999 0.000000
199.00000000 137.97900391 330.00000000 -0.739258 -0.604556 0.296665 0.000000
131.37100220 172.57000732 403.50000000 -0.000978 -0.000978 -0.999999 0.000000
212.99200439 150.80499268 364.50000000 -0.708234 -0.162970 0.686910 0.000000
110.38300323 139.53300476 339.00000000 0.504680 0.812834 0.290859 0.000000
82.78710175 197.44500732 282.00000000 0.976695 0.206958 0.056883 0.000000
154.69099426 246.41799927 385.50000000 -0.513889 0.074620 -0.854605 0.000000
95.61329651 193.55900574 265.50000000 -0.839784 0.296486 0.454818 0.000000
207.94000244 137.58999634 378.00000000 -0.504017 0.691558 -0.517412 0.000000
122.81999969 195.11300659 394.50000000 0.468140 -0.595662 -0.652711 0.000000
175.29100037 219.98800659 369.00000000 -0.686330 -0.704755 -0.179643 0.000000
123.59799957 147.69500732 343.50000000 -0.481360 -0.215782 0.849547 0.000000
70.73829651 223.09800720 322.50000000 0.948145 0.104468 0.300180 0.000000
93.28130341 180.34399414 370.50000000 0.746437 0.439953 -0.499273 0.000000
85.89649963 171.79299927 348.00000000 0.912101 0.334969 -0.236363 0.000000
170.23800659 204.44099426 385.50000000 -0.021037 -0.694216 -0.719460 0.000000
159.74400330 269.73800659 372.00000000 -0.845185 -0.463389 0.266333 0.000000
131.37100220 194.33599854 325.50000000 -0.532026 0.789304 0.306510 0.000000
125.15200043 179.56599426 328.50000000 -0.373394 0.613551 0.695796 0.000000
167.12899780 225.42999268 346.50000000 -0.788052 -0.438526 0.432053 0.000000
179.95500183 145.36300659 324.00000000 0.001316 -0.888291 0.459279 0.000000
120.48799896 171.01600647 400.50000000 -0.000978 -0.000978 -0.999999 0.000000
190.44900513 181.12100220 364.50000000 -0.766646 -0.259747 0.587185 0.000000
186.56300354 160.13299561 385.50000000 -0.000978 -0.000978 -0.999999 0.000000
142.25399780 192.39300537 399.00000000 -0.269366 -0.427637 -0.862884 0.000000
150.80499268 233.98100281 331.50000000 0.000978 0.000978 0.999999 0.000000
136.03500366 150.02699280 349.50000000 -0.804334 -0.017997 0.593906 0.000000
115.82399750 245.64100647 283.50000000 -0.967932 -0.001191 0.251210 0.000000
198.22300720 149.25000000 382.50000000 -0.072362 0.424615 -0.902478 0.000000
126.70700073 237.08999634 391.50000000 -0.116568 -0.102439 -0.987886 0.000000
113.10399628 169.46099854 396.00000000 0.688914 0.585992 -0.426628 0.000000
161.68800354 258.07800293 382.50000000 -0.518723 -0.535510 -0.666450 0.000000
136.81300354 258.07800293 346.50000000 -0.000978 -0.000978 0.999999 0.000000
109.60500336 260.41000366 382.50000000 0.386320 -0.453645 -0.803096 0.000000
121.26599884 237.86700439 301.50000000 -0.769868 -0.462575 0.439691 0.000000
163.24200439 175.67999268 397.50000000 0.372084 0.926923 -0.048647 0.000000
178.78900146 142.25399780 376.50000000 -0.023774 0.773365 -0.633516 0.000000
80.84380341 182.67599487 358.50000000 0.348190 0.694746 -0.629358 0.000000
144.19700623 246.41799927 339.00000000 -0.559988 -0.687031 0.463035 0.000000
98.72270203 170.23800659 376.50000000 0.943879 -0.190420 -0.269875 0.000000
116.60199738 236.70100403 285.00000000 -0.976729 -0.087450 0.195838 0.000000
95.61329651 275.95700073 364.50000000 0.888274 -0.444843 -0.114388 0.000000
164.79699707 170.23800659 394.50000000 -0.279666 0.394556 -0.875279 0.000000
134.48100281 159.35600281 346.50000000 -0.318359 0.079917 0.944596 0.000000
151.58200073 279.06600952 376.50000000 -0.538450 -0.599215 -0.592464 0.000000
115.43599701 212.99200439 291.00000000 -0.811614 0.405006 0.421015 0.000000
146.14100647 129.81599426 349.50000000 0.920253 0.230421 -0.316292 0.000000
78.51170349 241.36500549 375.00000000 0.816855 -0.109205 -0.566411 0.000000
129.03900146 231.64900208 394.50000000 -0.000978 -0.000978 -0.999999 0.000000
130.59399414 152.35899353 346.50000000 0.000978 0.000978 0.999999 0.000000
139.14500427 240.19900513 325.50000000 -0.438405 -0.611766 0.658440 0.000000
91.72660065 249.52699280 382.50000000 0.401309 -0.826411 -0.394964 0.000000
112.71499634 182.67599487 391.50000000 0.673979 -0.383954 -0.631135 0.000000
171.79299927 227.76199341 370.50000000 -0.682397 0.217055 -0.698012 0.000000
99.50000000 199.00000000 265.50000000 -0.728131 0.254293 0.636522 0.000000
212.99200439 124.37500000 370.50000000 0.042325 0.875171 -0.481959 0.000000
181.12100220 192.78100586 352.50000000 -0.063644 0.130759 0.989369 0.000000
140.69900513 139.14500427 349.50000000 0.000978 0.000978 0.999999 0.000000
172.57000732 211.43800354 343.50000000 0.000978 0.000978 0.999999 0.000000
85.89649963 181.89799500 291.00000000 0.902965 0.418987 0.095413 0.000000
132.92599487 151.58200073 394.50000000 0.054642 0.536617 -0.842055 0.000000
132.92599487 251.85899353 388.50000000 -0.000978 -0.000978 -0.999999 0.000000
161.68800354 252.63699341 382.50000000 -0.000978 -0.000978 -0.999999 0.000000
171.79299927 199.00000000 349.50000000 0.158934 0.967817 0.195114 0.000000
173.34800720 241.75399780 364.50000000 -0.961753 -0.182878 0.203928 0.000000
205.99600220 157.80099487 361.50000000 -0.619586 -0.619586 0.481900 0.000000
178.78900146 164.79699707 346.50000000 0.000978 0.000978 0.999999 0.000000
100.27700043 201.33200073 265.50000000 -0.806585 0.049440 0.589047 0.000000
115.82399750 255.35699463 387.00000000 0.398002 -0.525756 -0.751782 0.000000
106.49600220 219.98800659 394.50000000 -0.000978 -0.000978 -0.999999 0.000000
178.78900146 214.93600464 363.00000000 -0.374855 -0.888599 0.264340 0.000000
100.27700043 202.10899353 265.50000000 -0.899865 0.189827 0.392695 0.000000
148.47300720 150.02699280 352.50000000 -0.039711 -0.497074 0.866799 0.000000
192.78100586 135.25799561 316.50000000 -0.596212 -0.717088 0.360994 0.000000
135.25799561 171.79299927 403.50000000 -0.000978 -0.000978 -0.999999 0.000000
226.98399353 156.24600220 370.50000000 -0.233805 -0.704552 0.670031 0.000000
200.55499268 149.25000000 349.50000000 -0.367901 -0.734167 0.570655 0.000000
157.80099487 262.74200439 382.50000000 -0.357124 -0.128234 -0.925213 0.000000
174.12500000 165.57400513 346.50000000 -0.747382 -0.428718 0.507563 0.000000
165.57400513 152.35899353 340.50000000 0.297089 -0.857403 0.420235 0.000000
152.35899353 138.36700439 370.50000000 0.129231 0.852345 -0.506761 0.000000
106.10700226 147.69500732 369.00000000 0.484294 0.808214 -0.335036 0.000000
117.37899780 195.89100647 391.50000000 0.243875 0.181896 -0.952596 0.000000
164.02000427 252.63699341 361.50000000 -0.622527 -0.548296 0.558419 0.000000
129.03900146 211.04899597 315.00000000 -0.676482 0.319585 0.663504 0.000000
141.47700500 212.21499634 391.50000000 -0.000978 -0.000978 -0.999999 0.000000
125.15200043 258.85598755 331.50000000 -0.709248 -0.251159 0.658700 0.000000
111.93800354 181.12100220 313.50000000 -0.782087 0.443887 0.437383 0.000000
125.93000031 203.66400146 391.50000000 0.498507 -0.141804 -0.855209 0.000000
154.69099426 136.81300354 367.50000000 0.591473 0.805795 -0.029226 0.000000
143.80900574 171.79299927 346.50000000 0.000978 0.000978 0.999999 0.000000
124.37500000 235.14700317 393.00000000 -0.017370 -0.463637 -0.885855 0.000000
114.65799713 260.41000366 285.00000000 -0.967932 -0.001191 -0.251210 0.000000
154.69099426 250.30499268 385.50000000 0.000978 0.000978 -0.999999 0.000000
93.28130341 204.44099426 388.50000000 0.777862 0.502942 -0.376802 0.000000
143.03100586 197.83399963 396.00000000 -0.247668 -0.875092 -0.415781 0.000000
178.01199341 205.21899414 343.50000000 -0.023854 0.310105 0.950403 0.000000
159.35600281 167.90600586 394.50000000 -0.773663 -0.501178 -0.387642 0.000000
