79.27500153 235.55999756 447.50000000 -0.123547 -0.212705 -0.969274 0.000000
114.38200378 157.03999329 392.00000000 -0.112096 0.557571 0.822526 0.000000
201.58500671 107.20999908 442.50000000 -0.000978 -0.000978 -0.999999 0.000000
181.95500183 113.25000000 417.50000000 0.131153 0.413201 0.901146 0.000000
115.51499939 245.37500000 432.50000000 -0.000978 -0.000978 -0.999999 0.000000
73.98999786 112.87200165 432.00000000 0.276381 0.844583 -0.458576 0.000000
50.96250153 181.95500183 340.00000000 0.829100 -0.415340 0.374280 0.000000
163.08000183 114.00499725 442.50000000 -0.000978 -0.000978 -0.999999 0.000000
180.44500732 171.38499451 407.50000000 -0.512206 -0.825991 0.235338 0.000000
224.99000549 127.97200012 422.00000000 -0.360389 0.525231 0.770877 0.000000
50.20750046 166.85499573 350.00000000 0.987018 0.160573 -0.003369 0.000000
123.06500244 174.40499878 367.50000000 -0.742916 0.495826 0.449703 0.000000
92.11000061 101.16999817 427.50000000 -0.000978 -0.000978 -0.999999 0.000000
108.72000122 200.07499695 352.50000000 0.000978 0.000978 0.999999 0.000000
210.64500427 140.42999268 412.50000000 0.000978 0.000978 0.999999 0.000000
116.26999664 264.25000000 407.50000000 -0.506949 -0.852662 -0.126374 0.000000
145.71499634 101.16999817 412.50000000 0.547999 0.425486 0.720180 0.000000
124.57499695 240.84500122 362.50000000 -0.735716 -0.244188 0.631739 0.000000
80.02999878 246.88499451 437.50000000 -0.808313 -0.404957 -0.427365 0.000000
117.77999878 261.98498535 412.50000000 0.001379 -0.740750 -0.671779 0.000000
173.64999390 86.06999969 437.50000000 -0.245183 -0.419669 -0.873935 0.000000
222.72500610 145.71499634 417.50000000 0.000978 0.000978 0.999999 0.000000
193.27999878 92.48750305 440.00000000 -0.272681 0.506408 -0.818044 0.000000
175.91499329 161.19299316 422.00000000 0.725174 0.629547 -0.278913 0.000000
131.36999512 243.11000061 367.50000000 0.000978 0.000978 0.999999 0.000000
96.63999939 172.89500427 467.50000000 -0.000978 -0.000978 -0.999999 0.000000
58.13499832 215.92999268 342.50000000 0.829100 -0.415340 0.374280 0.000000
99.66000366 208.38000488 462.50000000 -0.158628 -0.944987 0.286072 0.000000
121.55500031 192.52499390 357.50000000 0.000978 0.000978 0.999999 0.000000
163.83500671 149.49000549 447.50000000 -0.000978 -0.000978 -0.999999 0.000000
56.62500000 136.65499878 432.50000000 -0.000978 -0.000978 -0.999999 0.000000
72.10250092 170.63000488 312.00000000 -0.988665 0.001112 0.150135 0.000000
158.55000305 142.69500732 412.50000000 0.608711 -0.745393 0.271774 0.000000
183.46499634 121.93299866 410.00000000 -0.603964 0.460083 0.650808 0.000000
116.26999664 154.02000427 402.50000000 -0.000978 -0.000978 0.999999 0.000000
72.10250092 252.92500305 420.00000000 0.598652 -0.795787 -0.091320 0.000000
228.76499939 157.03999329 432.50000000 -0.000978 -0.000978 -0.999999 0.000000
181.19999695 102.68000031 442.50000000 -0.000978 -0.000978 -0.999999 0.000000
215.92999268 109.47499847 437.50000000 -0.000978 -0.000978 -0.999999 0.000000
117.02500153 179.69000244 362.50000000 -0.769590 0.627785 0.116694 0.000000
61.53250122 242.35499573 412.00000000 0.790035 -0.612935 0.012452 0.000000
86.06999969 102.68000031 427.50000000 -0.137995 0.864283 -0.483708 0.000000
130.99200439 95.88500214 410.00000000 -0.898250 0.199449 0.391620 0.000000
116.26999664 179.69000244 357.50000000 -0.312255 0.901248 0.300416 0.000000
158.55000305 97.39499664 437.50000000 -0.000978 -0.000978 -0.999999 0.000000
88.33499908 171.38499451 467.50000000 -0.000978 -0.000978 -0.999999 0.000000
132.12500000 178.17999268 372.50000000 -0.229189 0.435909 0.870319 0.000000
98.15000153 114.38200378 440.00000000 -0.397617 0.714390 -0.575802 0.000000
53.22750092 141.18499756 372.00000000 0.673370 0.673370 0.305197 0.000000
66.44000244 182.71000671 457.50000000 -0.000978 -0.000978 -0.999999 0.000000
56.62500000 146.47000122 347.50000000 0.922430 0.346789 0.169884 0.000000
62.66500092 172.13999939 312.50000000 -0.000978 -0.000978 0.999999 0.000000
223.47999573 150.24499512 417.50000000 -0.195606 0.024597 0.980374 0.000000
183.08700562 143.44999695 402.00000000 -0.765414 -0.142298 0.627609 0.000000
167.61000061 150.24499512 447.50000000 -0.000978 -0.000978 -0.999999 0.000000
108.72000122 196.30000305 352.50000000 0.000978 0.000978 0.999999 0.000000
111.73999786 244.61999512 437.50000000 -0.000978 -0.000978 -0.999999 0.000000
120.04499817 200.83000183 357.50000000 -0.465829 0.149472 0.872159 0.000000
100.41500092 97.39499664 422.50000000 0.230024 0.646258 -0.727627 0.000000
166.10000610 130.61500549 442.50000000 0.270309 0.514056 -0.814052 0.000000
43.79000092 203.09500122 402.50000000 0.976729 -0.195838 0.087450 0.000000
129.10499573 203.85000610 447.50000000 -0.000978 -0.000978 -0.999999 0.000000
81.16249847 140.42999268 342.00000000 -0.808477 0.495212 0.318011 0.000000
46.05500031 194.03500366 362.50000000 0.993650 -0.066243 0.090944 0.000000
109.47499847 240.84500122 437.50000000 -0.000978 -0.000978 -0.999999 0.000000
130.61500549 168.36500549 457.50000000 -0.131279 -0.357909 -0.924482 0.000000
157.03999329 166.10000610 397.50000000 0.000978 0.000978 0.999999 0.000000
62.66500092 172.89500427 312.50000000 -0.000978 -0.000978 0.999999 0.000000
160.81500244 128.35000610 402.50000000 0.000978 0.000978 0.999999 0.000000
140.42999268 222.72500610 432.50000000 -0.315483 0.003712 -0.948924 0.000000
139.67500305 215.17500305 372.50000000 -0.768678 0.110654 0.629992 0.000000
129.86000061 120.04499817 397.50000000 0.000978 0.000978 0.999999 0.000000
114.00499725 146.47000122 462.50000000 -0.000978 -0.000978 -0.999999 0.000000
125.33000183 169.49699402 372.00000000 0.533872 0.841383 -0.083996 0.000000
101.92500305 230.27499390 347.50000000 0.000978 0.000978 0.999999 0.000000
178.93499756 133.63499451 442.50000000 -0.000978 -0.000978 -0.999999 0.000000
137.03300476 92.86499786 430.00000000 0.695446 0.682943 -0.223480 0.000000
147.22500610 208.38000488 382.50000000 -0.716238 -0.659817 -0.227253 0.000000
88.33499908 106.45500183 432.50000000 0.023891 0.704089 -0.709710 0.000000
72.48000336 222.72500610 332.50000000 0.000978 0.000978 0.999999 0.000000
132.12500000 162.32499695 452.50000000 -0.000978 -0.000978 -0.999999 0.000000
73.98999786 218.94999695 452.50000000 0.513436 -0.349265 -0.783835 0.000000
59.26750183 233.29499817 370.00000000 0.703222 -0.703222 0.104673 0.000000
105.69999695 223.47999573 452.50000000 -0.237253 -0.125757 -0.963274 0.000000
104.94499969 201.58500671 347.50000000 0.000978 0.000978 0.999999 0.000000
66.44000244 219.70500183 332.50000000 0.400127 0.019550 0.916251 0.000000
80.02999878 151.75500488 467.50000000 -0.000978 -0.000978 -0.999999 0.000000
44.54499817 170.63000488 427.50000000 0.995725 -0.091302 0.013964 0.000000
206.11500549 132.88000488 437.50000000 -0.000978 -0.000978 -0.999999 0.000000
66.44000244 173.64999390 312.50000000 0.000978 0.000978 0.999999 0.000000
61.15499878 130.23800659 362.00000000 0.893653 0.447499 -0.033596 0.000000
102.68000031 269.91299438 400.00000000 -0.000978 -0.000978 -0.999999 0.000000
140.42999268 86.06999969 422.50000000 -0.000978 -0.000978 0.999999 0.000000
92.86499786 178.17999268 342.50000000 0.000978 0.000978 0.999999 0.000000
146.47000122 221.21499634 427.50000000 -0.610660 -0.553146 -0.566679 0.000000
98.15000153 177.42500305 347.50000000 -0.541840 0.372617 0.753370 0.000000
120.04499817 196.30000305 357.50000000 -0.730627 -0.127001 0.670862 0.000000
120.80000305 259.72000122 372.50000000 0.000978 0.000978 0.999999 0.000000
170.63000488 117.02500153 407.50000000 -0.029100 0.178093 0.983583 0.000000
100.41500092 99.66000366 427.50000000 0.238559 0.187343 -0.952886 0.000000
75.50000000 246.13000488 352.50000000 0.414090 0.414090 0.810592 0.000000
140.42999268 98.90499878 432.50000000 -0.000978 -0.000978 -0.999999 0.000000
61.90999985 123.44200134 382.00000000 0.892121 0.446748 0.067356 0.000000
114.76000214 156.28500366 462.50000000 -0.140206 0.469762 -0.871588 0.000000
81.54000092 107.20999908 432.50000000 0.210690 0.564402 -0.798160 0.000000
120.80000305 184.97500610 357.50000000 -0.054467 0.532096 0.844930 0.000000
101.16999817 256.70001221 427.50000000 -0.000978 -0.000978 -0.999999 0.000000
141.94000244 85.31500244 432.50000000 -0.306136 0.588229 -0.748510 0.000000
166.10000610 99.66000366 422.50000000 -0.673370 -0.673370 0.305197 0.000000
58.88999939 198.56500244 452.50000000 -0.000978 -0.000978 -0.999999 0.000000
80.02999878 256.70001221 377.50000000 0.551164 -0.824541 0.127870 0.000000
73.98999786 233.29499817 447.50000000 0.522951 0.463185 -0.715529 0.000000
46.05500031 163.45799255 430.00000000 0.978834 0.164168 -0.122200 0.000000
107.96499634 197.80999756 352.50000000 0.000978 0.000978 0.999999 0.000000
194.78999329 131.36999512 407.50000000 0.000978 0.000978 0.999999 0.000000
163.08000183 147.97999573 417.50000000 0.081807 -0.237871 0.967846 0.000000
117.02500153 230.27499390 357.50000000 -0.376927 0.194962 0.905492 0.000000
115.13700104 161.57000732 380.00000000 -0.000978 -0.000978 0.999999 0.000000
145.71499634 211.39999390 377.50000000 -0.000978 -0.000978 0.999999 0.000000
150.24499512 140.42999268 447.50000000 0.000978 0.000978 -0.999999 0.000000
130.61500549 226.50000000 437.50000000 -0.000978 -0.000978 -0.999999 0.000000
92.86499786 175.16000366 467.50000000 -0.000978 -0.000978 -0.999999 0.000000
144.96000671 109.85299683 402.00000000 -0.196249 0.653648 0.730911 0.000000
67.57250214 241.60000610 362.00000000 0.760427 -0.614847 0.209079 0.000000
66.44000244 230.27499390 342.50000000 0.576689 -0.542866 0.610513 0.000000
110.60700226 266.51501465 410.00000000 -0.238923 -0.937529 -0.252895 0.000000
150.62199402 194.03500366 392.00000000 -0.686171 0.213164 0.695507 0.000000
124.57499695 91.35500336 422.50000000 -0.592266 0.235969 -0.770415 0.000000
124.57499695 204.60499573 357.50000000 0.000978 0.000978 0.999999 0.000000
159.30499268 105.69999695 437.50000000 -0.049186 0.392159 -0.918582 0.000000
148.73500061 107.20999908 407.50000000 0.000978 0.000978 0.999999 0.000000
226.50000000 120.04499817 427.50000000 0.000978 0.000978 0.999999 0.000000
84.93750000 96.63999939 420.00000000 0.461909 0.768760 -0.442322 0.000000
46.05500031 158.17300415 402.00000000 0.959318 0.272083 -0.075366 0.000000
74.36750031 252.92500305 422.00000000 0.545037 -0.729461 -0.413306 0.000000
153.26499939 144.96000671 447.50000000 -0.000978 -0.000978 -0.999999 0.000000
206.86999512 147.97999573 432.50000000 -0.000978 -0.000978 -0.999999 0.000000
138.91999817 143.44999695 447.50000000 -0.000978 -0.000978 -0.999999 0.000000
138.16499329 207.62500000 442.50000000 -0.000978 -0.000978 -0.999999 0.000000
89.08999634 209.88999939 462.50000000 -0.301975 -0.322801 -0.897001 0.000000
104.94499969 163.83500671 467.50000000 -0.000978 -0.000978 -0.999999 0.000000
147.22500610 189.50500488 392.50000000 -0.892851 0.187892 0.409284 0.000000
175.91499329 125.33000183 407.50000000 0.000978 0.000978 0.999999 0.000000
132.88000488 119.29000092 437.50000000 -0.000978 -0.000978 -0.999999 0.000000
107.58799744 241.60000610 350.00000000 -0.614384 -0.399101 0.680625 0.000000
118.53500366 132.12500000 447.50000000 -0.365186 0.487451 -0.793114 0.000000
123.81999969 161.57000732 402.50000000 0.000978 0.000978 0.999999 0.000000
189.50500488 141.18499756 437.50000000 -0.000978 -0.000978 -0.999999 0.000000
174.40499878 138.91999817 402.50000000 0.000978 0.000978 0.999999 0.000000
51.34000015 197.05499268 442.50000000 0.864193 0.059839 -0.499590 0.000000
52.84999847 218.19500732 362.50000000 0.880973 -0.377990 0.284622 0.000000
132.12500000 234.80499268 362.50000000 -0.828357 -0.358166 0.430746 0.000000
96.63999939 110.23000336 437.50000000 -0.058486 0.626232 -0.777440 0.000000
69.45999908 176.66999817 312.50000000 0.000978 0.000978 0.999999 0.000000
237.44700623 144.96000671 430.00000000 0.565870 -0.565870 -0.599653 0.000000
159.30499268 136.65499878 402.50000000 0.076481 -0.140019 0.987191 0.000000
193.27999878 132.12500000 407.50000000 0.000978 0.000978 0.999999 0.000000
66.44000244 141.94000244 452.50000000 -0.000978 -0.000978 -0.999999 0.000000
148.73500061 212.91000366 432.50000000 -0.000978 -0.000978 -0.999999 0.000000
103.43499756 197.05499268 347.50000000 0.000978 0.000978 0.999999 0.000000
61.90999985 136.65499878 442.50000000 0.957524 0.001217 -0.288352 0.000000
52.84999847 228.76499939 382.50000000 0.912248 -0.399194 0.091911 0.000000
53.22750092 136.65499878 420.00000000 0.673370 0.673370 -0.305197 0.000000
103.43499756 148.73500061 367.50000000 -0.000978 -0.000978 0.999999 0.000000
74.74500275 160.43800354 462.00000000 0.889502 0.229406 -0.395170 0.000000
163.45799255 162.32499695 440.00000000 -0.692665 -0.720765 -0.026695 0.000000
159.30499268 166.85499573 397.50000000 0.000978 0.000978 0.999999 0.000000
115.51499939 258.96499634 417.50000000 -0.200145 -0.921233 -0.333574 0.000000
110.98500061 256.70001221 357.50000000 0.000978 0.000978 0.999999 0.000000
141.56199646 248.39500427 380.00000000 -0.440989 -0.510358 0.738284 0.000000
143.07200623 255.19000244 392.00000000 -0.703222 -0.703222 0.104673 0.000000
92.11000061 178.17999268 467.50000000 -0.000978 -0.000978 -0.999999 0.000000
96.63999939 96.63999939 422.50000000 -0.255165 0.257984 -0.931845 0.000000
148.73500061 101.92500305 437.50000000 -0.000978 -0.000978 -0.999999 0.000000
194.78999329 139.67500305 437.50000000 -0.000978 -0.000978 -0.999999 0.000000
82.67250061 134.38999939 352.00000000 -0.720172 0.442037 0.534748 0.000000
126.08499908 222.72500610 362.50000000 0.000978 0.000978 0.999999 0.000000
172.89500427 164.58999634 392.50000000 -0.000978 -0.000978 0.999999 0.000000
185.72999573 164.58999634 407.50000000 -0.757026 -0.438451 0.484431 0.000000
147.97999573 199.32000732 387.50000000 0.000978 0.000978 0.999999 0.000000
140.42999268 246.13000488 417.50000000 0.209453 -0.653183 -0.727655 0.000000
100.41500092 221.97000122 347.50000000 0.000978 0.000978 0.999999 0.000000
208.38000488 115.51499939 437.50000000 -0.000978 -0.000978 -0.999999 0.000000
56.62500000 231.02999878 372.50000000 0.703222 -0.703222 0.104673 0.000000
102.68000031 149.11300659 380.00000000 -0.698176 0.672960 -0.244283 0.000000
116.26999664 231.78500366 442.50000000 -0.068685 -0.511631 -0.856456 0.000000
145.71499634 200.07499695 382.50000000 -0.001112 0.988665 0.150135 0.000000
74.74500275 105.32299805 400.00000000 0.892680 0.445654 0.067191 0.000000
119.29000092 183.08700562 360.00000000 -0.624332 0.723840 0.293709 0.000000
145.33700562 230.27499390 422.00000000 -0.670232 -0.223411 -0.707727 0.000000
187.99499512 96.63999939 432.50000000 0.102630 -0.542060 -0.834049 0.000000
67.19499969 217.44000244 332.50000000 0.400127 0.019550 0.916251 0.000000
181.95500183 123.81999969 442.50000000 -0.000978 -0.000978 -0.999999 0.000000
97.39499664 255.19000244 352.50000000 0.058537 -0.783829 0.618211 0.000000
137.41000366 89.84500122 422.50000000 0.000978 0.000978 0.999999 0.000000
232.53999329 152.00000000 422.50000000 0.000978 0.000978 0.999999 0.000000
78.51999664 153.26499939 467.50000000 0.708726 0.347031 -0.614229 0.000000
95.88500214 140.42999268 462.50000000 -0.000978 -0.000978 -0.999999 0.000000
217.44000244 134.38999939 417.50000000 0.000978 0.000978 0.999999 0.000000
152.00000000 149.49000549 412.50000000 0.000978 0.000978 0.999999 0.000000
102.68000031 170.63000488 352.50000000 -0.180479 0.043645 0.982610 0.000000
102.68000031 120.80000305 402.50000000 0.000978 0.000978 0.999999 0.000000
72.48000336 252.92500305 422.50000000 0.625996 -0.725259 -0.286581 0.000000
52.09500122 191.77000427 442.50000000 0.758230 -0.651318 0.029541 0.000000
172.89500427 113.25000000 412.50000000 -0.158186 0.312246 0.936739 0.000000
151.75500488 141.94000244 447.50000000 -0.000978 -0.000978 -0.999999 0.000000
181.95500183 150.24499512 442.50000000 -0.503610 0.037050 -0.863136 0.000000
66.44000244 221.97000122 447.50000000 0.094530 -0.472650 -0.876166 0.000000
155.52999878 144.20500183 447.50000000 -0.000978 -0.000978 -0.999999 0.000000
81.16249847 251.41499329 352.00000000 0.637927 -0.637927 0.431392 0.000000
101.16999817 239.33500671 442.50000000 -0.248201 -0.497943 -0.830933 0.000000
110.23000336 171.38499451 362.50000000 -0.427934 0.838625 0.337018 0.000000
65.68499756 179.69000244 312.50000000 0.000978 0.000978 0.999999 0.000000
132.12500000 110.23000336 437.50000000 -0.000978 -0.000978 -0.999999 0.000000
103.43499756 212.15499878 457.50000000 -0.000978 -0.000978 -0.999999 0.000000
92.48750305 136.65499878 392.00000000 -0.719401 0.293208 0.629676 0.000000
117.02500153 194.03500366 352.50000000 -0.243274 -0.485019 0.839985 0.000000
139.67500305 252.16999817 412.50000000 -0.830294 -0.497560 -0.251091 0.000000
77.01000214 258.96499634 392.50000000 0.506305 -0.843841 0.177729 0.000000
52.84999847 221.97000122 367.50000000 0.894688 -0.446689 -0.001310 0.000000
197.05499268 147.97999573 407.50000000 0.015036 -0.188526 0.981953 0.000000
150.24499512 152.50999451 412.50000000 0.000978 0.000978 0.999999 0.000000
98.15000153 144.96000671 467.50000000 0.000978 0.000978 -0.999999 0.000000
169.87500000 102.68000031 417.50000000 0.336682 -0.771631 -0.539658 0.000000
72.48000336 245.75300598 432.00000000 0.083057 -0.668824 -0.738766 0.000000
150.62199402 220.46000671 422.00000000 -0.196484 -0.980066 -0.029414 0.000000
202.33999634 144.20500183 407.50000000 0.000978 0.000978 0.999999 0.000000
149.11300659 244.61999512 392.00000000 -0.920285 -0.366165 0.137834 0.000000
101.92500305 236.31500244 447.50000000 -0.238295 -0.327837 -0.914187 0.000000
169.87500000 147.22500610 442.50000000 -0.000978 -0.000978 -0.999999 0.000000
98.15000153 197.05499268 462.50000000 -0.000978 -0.000978 -0.999999 0.000000
67.94999695 205.36000061 457.50000000 0.320904 -0.338983 -0.884370 0.000000
57.38000107 214.41999817 342.50000000 0.849761 -0.382002 0.363292 0.000000
172.89500427 138.91999817 402.50000000 0.000978 0.000978 0.999999 0.000000
80.02999878 234.05000305 337.50000000 -0.000978 -0.000978 0.999999 0.000000
220.46000671 160.05999756 422.50000000 -0.145352 -0.783705 0.603887 0.000000
66.44000244 221.97000122 332.50000000 0.000978 0.000978 0.999999 0.000000
68.70500183 209.88999939 452.50000000 0.629340 -0.416792 -0.655908 0.000000
89.84500122 88.71250153 412.00000000 0.644613 -0.136101 -0.752297 0.000000
70.97000122 139.67500305 457.50000000 0.573589 0.604045 -0.553285 0.000000
80.02999878 163.83500671 467.50000000 -0.000978 -0.000978 -0.999999 0.000000
181.95500183 91.35500336 442.50000000 -0.082657 0.313571 -0.945960 0.000000
73.23500061 189.50500488 462.50000000 0.108983 -0.329641 -0.937795 0.000000
85.31500244 184.22000122 337.50000000 0.000978 0.000978 0.999999 0.000000
47.18750000 158.55000305 370.00000000 0.966293 0.124807 0.225168 0.000000
209.13499451 121.17700195 420.00000000 -0.701577 0.619808 0.351606 0.000000
118.53500366 136.65499878 402.50000000 0.000978 0.000978 0.999999 0.000000
142.69500732 140.42999268 412.50000000 -0.605085 0.517440 0.605085 0.000000
49.45249939 184.22000122 342.00000000 0.911251 0.227451 0.343349 0.000000
99.66000366 168.36500549 467.50000000 -0.000978 -0.000978 -0.999999 0.000000
160.05999756 105.69999695 412.50000000 -0.076638 0.773610 0.629010 0.000000
91.35500336 147.97999573 467.50000000 0.000000 0.000000 0.000000 0.000000
139.67500305 201.58500671 372.50000000 0.000978 0.000978 0.999999 0.000000
135.14500427 176.66999817 382.50000000 -0.423252 0.702101 0.572636 0.000000
157.03999329 142.69500732 447.50000000 -0.000978 -0.000978 -0.999999 0.000000
113.25000000 200.07499695 352.50000000 0.000978 0.000978 0.999999 0.000000
105.69999695 128.35000610 452.50000000 -0.066586 0.906381 -0.417180 0.000000
83.80500031 101.54799652 422.00000000 0.509556 0.509556 -0.693330 0.000000
97.39499664 106.45500183 402.50000000 0.000978 0.000978 0.999999 0.000000
145.33700562 252.92500305 392.00000000 -0.703222 -0.703222 0.104673 0.000000
55.11500168 132.50300598 392.00000000 0.234322 -0.702967 0.671514 0.000000
184.22000122 118.53500366 412.50000000 -0.141839 0.198064 0.969872 0.000000
92.11000061 142.69500732 467.50000000 -0.000978 -0.000978 -0.999999 0.000000
45.29999924 158.55000305 397.50000000 0.969630 0.243910 -0.018023 0.000000
50.20750046 192.52499390 342.00000000 0.988665 -0.001112 0.150135 0.000000
164.58999634 135.89999390 447.50000000 -0.000978 -0.000978 -0.999999 0.000000
154.77499390 177.42500305 422.50000000 -0.931976 -0.156020 0.327227 0.000000
169.11999512 157.03999329 412.50000000 -0.730713 0.584245 0.353151 0.000000
187.24000549 129.10499573 407.50000000 0.000978 0.000978 0.999999 0.000000
184.59800720 89.08999634 440.00000000 -0.237291 0.702446 -0.671016 0.000000
178.17999268 133.63499451 402.50000000 0.000978 0.000978 0.999999 0.000000
67.19499969 182.71000671 312.50000000 -0.279762 -0.155423 0.947405 0.000000
114.76000214 83.80500031 422.50000000 0.175889 0.545705 -0.819310 0.000000
110.98500061 267.64700317 382.00000000 0.000978 0.000978 0.999999 0.000000
83.80500031 191.77000427 462.50000000 0.757765 -0.136009 -0.638196 0.000000
57.00249863 133.63499451 422.00000000 0.703222 0.703222 0.104673 0.000000
128.35000610 113.25000000 402.50000000 0.000978 0.000978 0.999999 0.000000
89.08999634 168.36500549 467.50000000 -0.000978 -0.000978 -0.999999 0.000000
140.42999268 104.19000244 407.50000000 -0.327282 -0.885319 0.330298 0.000000
107.20999908 172.13999939 357.50000000 -0.596711 0.446279 0.666912 0.000000
88.33499908 205.36000061 462.50000000 0.170002 -0.190765 -0.966803 0.000000
47.18750000 187.99499512 352.00000000 0.980307 0.003464 0.197447 0.000000
61.90999985 123.81999969 422.50000000 0.857794 0.502647 0.107403 0.000000
124.57499695 155.52999878 407.50000000 0.000978 0.000978 0.999999 0.000000
46.43249893 181.95500183 360.00000000 0.987044 0.031025 0.157421 0.000000
178.17999268 158.55000305 422.50000000 0.858807 0.473464 -0.195659 0.000000
53.60499954 197.80999756 447.50000000 0.748532 0.149104 -0.646117 0.000000
80.40750122 252.92500305 360.00000000 0.460240 -0.855166 0.238474 0.000000
96.63999939 98.90499878 402.50000000 0.000978 0.000978 0.999999 0.000000
167.61000061 154.77499390 442.50000000 -0.531383 -0.585365 -0.612356 0.000000
123.06500244 167.61000061 397.50000000 -0.209142 0.390497 0.896533 0.000000
43.03499985 190.25999451 422.50000000 -0.000978 -0.000978 -0.999999 0.000000
147.97999573 156.28500366 412.50000000 0.026913 0.188388 0.981726 0.000000
161.57000732 122.30999756 402.50000000 0.000978 0.000978 0.999999 0.000000
154.02000427 152.50999451 417.50000000 -0.502777 0.148048 0.851643 0.000000
81.54000092 117.40200043 382.00000000 -0.918970 0.393844 0.019497 0.000000
164.58999634 164.58999634 432.50000000 -0.374806 -0.725062 -0.577758 0.000000
110.98500061 161.94700623 370.00000000 -0.487638 0.393675 0.779249 0.000000
54.73749924 216.68499756 440.00000000 0.742406 -0.018176 -0.669703 0.000000
169.87500000 123.06500244 407.50000000 0.000978 0.000978 0.999999 0.000000
93.62000275 206.86999512 342.50000000 -0.263001 0.064177 0.962659 0.000000
79.27500153 132.12500000 352.50000000 -0.673370 0.673370 0.305197 0.000000
138.16499329 132.88000488 442.50000000 -0.000978 -0.000978 -0.999999 0.000000
199.32000732 145.71499634 407.50000000 0.000978 0.000978 0.999999 0.000000
64.17500305 184.97500610 312.50000000 -0.144482 -0.142012 0.979264 0.000000
114.00499725 128.35000610 402.50000000 0.000978 0.000978 0.999999 0.000000
109.47499847 221.97000122 352.50000000 0.000978 0.000978 0.999999 0.000000
103.43499756 265.76000977 417.50000000 0.062028 -0.986590 -0.150973 0.000000
135.14500427 114.76000214 402.50000000 0.000978 0.000978 0.999999 0.000000
61.15499878 185.72999573 312.50000000 0.000978 0.000978 0.999999 0.000000
61.90999985 185.72999573 312.50000000 0.000978 0.000978 0.999999 0.000000
160.81500244 102.68000031 437.50000000 -0.000978 -0.000978 -0.999999 0.000000
109.47499847 216.68499756 352.50000000 -0.329943 -0.126274 0.935517 0.000000
147.22500610 194.78999329 387.50000000 -0.000978 -0.000978 0.999999 0.000000
66.44000244 162.32499695 457.50000000 0.133325 0.397167 -0.908011 0.000000
80.02999878 235.55999756 337.50000000 0.243365 -0.479078 0.843361 0.000000
67.94999695 185.72999573 312.50000000 -0.411591 -0.210959 0.886617 0.000000
130.61500549 217.44000244 362.50000000 0.000978 0.000978 0.999999 0.000000
150.24499512 204.60499573 432.50000000 -0.000978 -0.000978 -0.999999 0.000000
224.23500061 157.79499817 432.50000000 0.075050 -0.268398 -0.960380 0.000000
141.94000244 238.58000183 372.50000000 -0.622453 -0.046790 0.781257 0.000000
128.35000610 163.83500671 402.50000000 -0.045694 0.250700 0.966986 0.000000
91.35500336 267.64700317 392.00000000 0.553217 -0.831916 0.043198 0.000000
195.54499817 107.20999908 442.50000000 -0.000978 -0.000978 -0.999999 0.000000
64.93000031 186.48500061 312.50000000 -0.144482 -0.142012 0.979264 0.000000
100.41500092 146.84800720 380.00000000 -0.000978 -0.000978 -0.999999 0.000000
75.87750244 101.92500305 410.00000000 0.000978 0.000978 0.999999 0.000000
49.07500076 197.05499268 352.50000000 0.936746 -0.261060 0.233140 0.000000
51.34000015 149.49000549 362.50000000 0.708486 0.705724 0.001381 0.000000
43.79000092 187.99499512 422.50000000 0.977407 0.145677 -0.153148 0.000000
83.05000305 141.94000244 462.50000000 -0.000978 -0.000978 -0.999999 0.000000
155.52999878 171.00700378 400.00000000 -0.532430 -0.768706 0.354414 0.000000
148.73500061 242.35499573 417.50000000 -0.000978 -0.000978 -0.999999 0.000000
111.73999786 224.99000549 447.50000000 -0.226501 -0.150564 -0.962303 0.000000
60.40000153 126.08499908 432.50000000 0.729921 0.488269 -0.478339 0.000000
93.62000275 134.38999939 462.50000000 -0.000978 -0.000978 -0.999999 0.000000
101.92500305 207.24699402 460.00000000 -0.563205 -0.553057 -0.613944 0.000000
67.19499969 186.86300659 312.00000000 -0.703931 -0.365913 0.608761 0.000000
154.77499390 228.76499939 402.50000000 -0.960566 -0.220047 0.169977 0.000000
187.24000549 104.94499969 442.50000000 -0.000978 -0.000978 -0.999999 0.000000
149.11300659 230.27499390 382.00000000 -0.911072 -0.001292 0.412244 0.000000
135.89999390 172.13999939 397.50000000 -0.327605 0.940372 0.091517 0.000000
64.93000031 187.99499512 312.50000000 -0.178186 0.001135 0.983996 0.000000
65.68499756 187.99499512 312.50000000 -0.178186 0.001135 0.983996 0.000000
168.36500549 166.85499573 392.50000000 0.000978 0.000978 0.999999 0.000000
79.27500153 114.38200378 440.00000000 0.406073 0.687838 -0.601651 0.000000
97.39499664 114.38200378 440.00000000 -0.308070 0.685495 -0.659689 0.000000
43.41249847 196.30000305 382.00000000 0.999999 -0.000978 -0.000978 0.000000
106.45500183 216.68499756 452.50000000 -0.233657 -0.487167 -0.841470 0.000000
59.64500046 234.05000305 372.50000000 0.789949 -0.551236 0.268551 0.000000
129.86000061 167.98800659 400.00000000 -0.475334 0.592907 0.650015 0.000000
53.60499954 220.46000671 437.50000000 0.794550 -0.248199 -0.554155 0.000000
50.58499908 164.58999634 347.50000000 0.954089 0.276909 0.114176 0.000000
200.07499695 154.02000427 432.50000000 -0.664650 0.165782 -0.728530 0.000000
101.92500305 126.83999634 452.50000000 -0.390960 0.744296 -0.541455 0.000000
94.37500000 133.63499451 397.50000000 -0.587010 0.463253 0.663940 0.000000
89.84500122 180.44500732 342.50000000 -0.303258 0.107266 0.946852 0.000000
89.84500122 161.57000732 347.50000000 -0.818500 0.084871 0.568203 0.000000
117.02500153 165.34500122 372.50000000 -0.597207 0.733157 0.325308 0.000000
229.52000427 137.41000366 432.50000000 -0.000978 -0.000978 -0.999999 0.000000
86.06999969 165.34500122 342.50000000 -0.000978 -0.000978 0.999999 0.000000
85.31500244 191.77000427 337.50000000 -0.839343 -0.381234 0.387510 0.000000
189.50500488 94.37500000 442.50000000 -0.166667 0.216536 -0.961943 0.000000
221.21499634 154.77499390 417.50000000 -0.371146 -0.340345 0.863954 0.000000
102.68000031 127.97200012 452.00000000 -0.207573 0.785701 -0.582741 0.000000
92.11000061 139.29800415 362.00000000 -0.623338 0.623338 0.472124 0.000000
197.05499268 152.13200378 410.00000000 -0.278282 -0.831738 0.480387 0.000000
147.22500610 126.08499908 442.50000000 -0.000978 -0.000978 -0.999999 0.000000
80.78500366 265.00500488 407.50000000 0.345043 -0.922463 0.173226 0.000000
46.43249893 156.28500366 402.00000000 0.980066 0.196484 0.029414 0.000000
139.67500305 202.33999634 372.50000000 0.000978 0.000978 0.999999 0.000000
47.56499863 193.27999878 352.50000000 0.780960 -0.311426 -0.541402 0.000000
191.01499939 98.90499878 442.50000000 -0.000978 -0.000978 -0.999999 0.000000
175.91499329 173.64999390 417.50000000 -0.000978 -0.000978 -0.999999 0.000000
126.83999634 120.04499817 437.50000000 -0.000978 -0.000978 -0.999999 0.000000
188.75000000 93.62000275 442.50000000 0.094630 0.399092 -0.912015 0.000000
131.36999512 187.99499512 452.50000000 -0.477501 -0.022866 -0.878333 0.000000
141.18499756 246.88499451 417.50000000 0.209453 -0.653183 -0.727655 0.000000
49.45249939 221.21499634 380.00000000 0.919345 -0.368572 0.137693 0.000000
78.51999664 139.29800415 340.00000000 -0.809084 0.392526 0.437386 0.000000
182.33299255 114.00499725 412.00000000 0.326171 0.803494 0.498007 0.000000
141.94000244 217.44000244 437.50000000 -0.462838 0.085297 -0.882329 0.000000
88.33499908 260.85299683 370.00000000 0.415340 -0.829100 0.374280 0.000000
120.80000305 199.32000732 457.50000000 0.000978 0.000978 -0.999999 0.000000
110.23000336 147.97999573 397.50000000 -0.320011 0.250506 0.913696 0.000000
132.12500000 132.12500000 402.50000000 -0.136243 -0.168741 0.976199 0.000000
43.41249847 167.61000061 382.00000000 0.998004 -0.043576 0.045702 0.000000
78.51999664 221.97000122 452.50000000 -0.000978 -0.000978 -0.999999 0.000000
206.11500549 155.52999878 432.50000000 0.000978 0.000978 -0.999999 0.000000
112.49500275 178.93499756 462.50000000 -0.000978 -0.000978 -0.999999 0.000000
206.11500549 134.38999939 437.50000000 -0.000978 -0.000978 -0.999999 0.000000
130.61500549 258.20999146 377.50000000 -0.000978 -0.000978 0.999999 0.000000
96.63999939 176.66999817 467.50000000 -0.000978 -0.000978 -0.999999 0.000000
67.19499969 241.22300720 362.00000000 0.760427 -0.614847 0.209079 0.000000
228.00999451 152.00000000 417.50000000 -0.127994 0.476022 0.870070 0.000000
131.74699402 97.39499664 412.00000000 -0.973718 0.226363 0.025151 0.000000
103.43499756 266.51501465 412.50000000 -0.301319 -0.923951 -0.235629 0.000000
73.23500061 240.08999634 347.50000000 0.520171 -0.777840 0.352685 0.000000
70.97000122 149.49000549 317.50000000 -0.888433 0.273249 0.368812 0.000000
102.68000031 119.29000092 402.50000000 0.000978 0.000978 0.999999 0.000000
97.39499664 179.69000244 347.50000000 -0.540053 0.310650 0.782201 0.000000
115.51499939 200.07499695 457.50000000 -0.259433 -0.033198 -0.965190 0.000000
91.35500336 269.15798950 402.00000000 0.210166 -0.977215 -0.029685 0.000000
110.98500061 116.26999664 402.50000000 0.000978 0.000978 0.999999 0.000000
126.83999634 207.62500000 447.50000000 -0.000978 -0.000978 -0.999999 0.000000
110.23000336 240.84500122 352.50000000 -0.708545 -0.443048 0.549247 0.000000
92.11000061 199.32000732 462.50000000 -0.000978 -0.000978 -0.999999 0.000000
157.03999329 102.68000031 437.50000000 -0.000978 -0.000978 -0.999999 0.000000
153.26499939 174.78300476 402.00000000 -0.797052 -0.595967 0.097628 0.000000
55.11500168 213.66499329 347.50000000 0.932593 -0.339001 0.123892 0.000000
139.67500305 246.13000488 377.50000000 -0.632645 -0.240185 0.736255 0.000000
120.80000305 191.01499939 357.50000000 0.000978 0.000978 0.999999 0.000000
131.36999512 160.81500244 402.50000000 -0.400883 -0.326588 0.855940 0.000000
73.98999786 104.56700134 410.00000000 0.000978 0.000978 0.999999 0.000000
130.61500549 175.91499329 372.50000000 0.000978 0.000978 0.999999 0.000000
72.48000336 145.71499634 457.50000000 -0.000978 -0.000978 -0.999999 0.000000
130.61500549 173.64999390 457.50000000 -0.378442 0.341370 -0.860377 0.000000
78.51999664 145.71499634 462.50000000 0.276381 0.458576 -0.844583 0.000000
168.36500549 132.88000488 402.50000000 0.000978 0.000978 0.999999 0.000000
139.67500305 198.56500244 372.50000000 0.000978 0.000978 0.999999 0.000000
58.88999939 140.42999268 347.50000000 0.863483 0.432500 0.259500 0.000000
46.81000137 172.89500427 437.50000000 0.836228 -0.102543 -0.538710 0.000000
157.03999329 132.12500000 442.50000000 -0.000978 -0.000978 -0.999999 0.000000
112.49500275 83.80500031 422.50000000 0.219558 0.545056 -0.809140 0.000000
87.58000183 151.37800598 350.00000000 -0.636526 -0.001375 0.771254 0.000000
110.98500061 189.50500488 462.50000000 -0.000978 -0.000978 -0.999999 0.000000
75.12249756 105.69999695 422.00000000 0.409861 0.880828 -0.236974 0.000000
136.65499878 173.64999390 452.50000000 -0.000978 -0.000978 -0.999999 0.000000
167.61000061 91.35500336 437.50000000 0.183060 0.287665 -0.940073 0.000000
72.48000336 154.02000427 317.50000000 -0.806229 0.267699 0.527571 0.000000
61.90999985 123.81999969 432.50000000 0.728289 0.496033 -0.472807 0.000000
104.94499969 206.11500549 457.50000000 -0.404097 -0.575633 -0.710881 0.000000
93.62000275 172.13999939 467.50000000 -0.000978 -0.000978 -0.999999 0.000000
129.10499573 206.11500549 362.50000000 -0.626866 -0.158605 0.762813 0.000000
43.03499985 181.19999695 417.50000000 0.988665 0.001112 -0.150135 0.000000
50.96250153 163.08000183 350.00000000 0.970126 0.237306 -0.050412 0.000000
98.15000153 171.38499451 352.50000000 -0.302190 0.113155 0.946508 0.000000
104.94499969 237.82499695 347.50000000 0.000978 0.000978 0.999999 0.000000
120.80000305 261.98498535 412.50000000 -0.175512 -0.743253 -0.645577 0.000000
147.97999573 136.65499878 402.50000000 0.000978 0.000978 0.999999 0.000000
171.38499451 141.94000244 442.50000000 0.000978 0.000978 -0.999999 0.000000
114.00499725 231.40800476 352.00000000 -0.510445 0.520487 0.684499 0.000000
83.05000305 188.75000000 467.50000000 0.334214 -0.383499 -0.860947 0.000000
95.12999725 231.78500366 447.50000000 -0.000978 -0.000978 -0.999999 0.000000
160.81500244 116.26999664 442.50000000 -0.000978 -0.000978 -0.999999 0.000000
98.15000153 149.49000549 362.50000000 -0.817745 0.235621 0.525143 0.000000
158.55000305 104.94499969 412.50000000 -0.283072 0.666898 0.689288 0.000000
179.69000244 167.61000061 417.50000000 -0.000978 -0.000978 -0.999999 0.000000
100.41500092 141.18499756 397.50000000 -0.397553 0.419906 0.815862 0.000000
118.53500366 258.20999146 367.50000000 -0.000978 -0.000978 0.999999 0.000000
173.64999390 142.69500732 442.50000000 -0.000978 -0.000978 -0.999999 0.000000
132.50300598 194.78999329 362.00000000 -0.568988 -0.283702 0.771859 0.000000
209.88999939 151.75500488 432.50000000 -0.000978 -0.000978 -0.999999 0.000000
123.81999969 206.86999512 452.50000000 -0.000978 -0.000978 -0.999999 0.000000
104.94499969 252.16999817 432.50000000 -0.185971 -0.178168 -0.966267 0.000000
152.88699341 239.33500671 402.00000000 -0.704682 -0.701727 -0.104890 0.000000
53.60499954 210.64500427 347.50000000 0.921233 -0.333574 0.200145 0.000000
45.67750168 186.48500061 432.00000000 0.925698 -0.286695 -0.246758 0.000000
58.13499832 201.58500671 447.50000000 0.312154 -0.939188 -0.143127 0.000000
80.78500366 223.47999573 332.50000000 0.000978 0.000978 0.999999 0.000000
55.11500168 232.53999329 427.50000000 0.857970 -0.455466 -0.237568 0.000000
160.05999756 135.14500427 447.50000000 -0.000978 -0.000978 -0.999999 0.000000
73.61250305 159.30499268 320.00000000 -0.966141 0.084616 0.243745 0.000000
113.25000000 178.17999268 462.50000000 -0.000978 -0.000978 -0.999999 0.000000
137.41000366 171.76199341 392.00000000 -0.856545 -0.001340 -0.516071 0.000000
96.63999939 93.62000275 422.50000000 0.527995 0.185024 -0.828847 0.000000
75.87750244 142.69500732 460.00000000 0.367054 0.556291 -0.745528 0.000000
99.66000366 266.51501465 377.50000000 0.110417 -0.993750 0.016399 0.000000
209.13499451 104.19000244 437.50000000 -0.000978 -0.000978 -0.999999 0.000000
166.85499573 111.73999786 442.50000000 -0.000978 -0.000978 -0.999999 0.000000
42.65750122 191.77000427 390.00000000 0.988665 0.001112 0.150135 0.000000
167.61000061 118.53500366 407.50000000 0.000978 0.000978 0.999999 0.000000
123.06500244 265.38299561 390.00000000 -0.195838 -0.976729 -0.087450 0.000000
73.98999786 231.02999878 447.50000000 0.522951 0.463185 -0.715529 0.000000
152.50999451 134.38999939 402.50000000 0.000978 0.000978 0.999999 0.000000
58.13499832 238.58000183 422.50000000 0.703222 -0.703222 0.104673 0.000000
81.54000092 188.75000000 462.50000000 0.519858 -0.690358 -0.503143 0.000000
98.15000153 91.35500336 422.50000000 0.495835 0.333214 -0.801945 0.000000
94.37500000 210.64500427 457.50000000 -0.641527 0.107658 -0.759509 0.000000
95.88500214 113.25000000 402.50000000 0.000978 0.000978 0.999999 0.000000
113.25000000 231.78500366 352.50000000 -0.673370 0.673370 0.305197 0.000000
77.76499939 121.55500031 447.50000000 0.900223 0.359795 0.245248 0.000000
133.63499451 249.14999390 372.50000000 0.000978 0.000978 0.999999 0.000000
155.52999878 202.33999634 427.50000000 -0.469793 -0.211632 -0.857034 0.000000
54.73749924 197.80999756 332.00000000 0.959709 0.240255 0.145729 0.000000
191.01499939 138.16499329 437.50000000 -0.000978 -0.000978 -0.999999 0.000000
198.56500244 150.24499512 407.50000000 -0.043133 -0.166703 0.985063 0.000000
78.51999664 117.02500153 442.50000000 0.329892 0.706912 -0.625657 0.000000
98.15000153 234.80499268 447.50000000 -0.000978 -0.000978 -0.999999 0.000000
58.13499832 135.89999390 437.50000000 0.846867 0.430426 -0.312331 0.000000
136.65499878 216.68499756 437.50000000 -0.000978 -0.000978 -0.999999 0.000000
121.55500031 164.58999634 462.50000000 -0.000978 -0.000978 -0.999999 0.000000
134.38999939 197.80999756 367.50000000 -0.568988 -0.283702 0.771859 0.000000
58.88999939 164.58999634 317.50000000 0.956020 0.248645 0.155569 0.000000
81.91750336 133.63499451 352.00000000 -0.720172 0.442037 0.534748 0.000000
91.35500336 267.26998901 412.50000000 -0.094382 -0.939831 -0.328343 0.000000
96.63999939 116.26999664 402.50000000 0.000978 0.000978 0.999999 0.000000
126.08499908 256.70001221 412.50000000 -0.638678 -0.312063 -0.703354 0.000000
80.02999878 99.66000366 417.50000000 0.392527 0.786669 -0.476524 0.000000
82.29499817 137.41000366 352.50000000 -0.648554 0.507051 0.567695 0.000000
135.89999390 184.97500610 372.50000000 -0.869197 0.281614 0.406437 0.000000
89.08999634 243.11000061 442.50000000 -0.520959 -0.601885 -0.605257 0.000000
122.30999756 185.35200500 360.00000000 -0.432452 0.744869 0.508090 0.000000
157.03999329 120.80000305 442.50000000 -0.000978 -0.000978 -0.999999 0.000000
57.38000107 145.71499634 442.50000000 0.920277 0.128700 -0.369495 0.000000
111.73999786 121.55500031 442.50000000 -0.000978 -0.000978 -0.999999 0.000000
70.97000122 237.82499695 442.50000000 -0.150568 -0.378531 -0.913260 0.000000
103.43499756 217.44000244 347.50000000 -0.000978 -0.000978 0.999999 0.000000
207.62500000 154.02000427 417.50000000 0.001112 -0.988665 0.150135 0.000000
50.96250153 141.18499756 412.00000000 0.939188 0.312154 -0.143127 0.000000
60.40000153 205.36000061 452.50000000 -0.000978 -0.000978 -0.999999 0.000000
214.41999817 150.24499512 432.50000000 -0.000978 -0.000978 -0.999999 0.000000
129.86000061 114.76000214 437.50000000 -0.000978 -0.000978 -0.999999 0.000000
111.73999786 126.08499908 447.50000000 0.192047 0.960236 0.202643 0.000000
125.33000183 147.22500610 452.50000000 -0.266631 -0.064446 -0.961642 0.000000
107.20999908 126.83999634 452.50000000 0.032244 0.992897 -0.114522 0.000000
44.92250061 188.75000000 362.00000000 0.984402 -0.099519 0.145082 0.000000
170.63000488 104.94499969 417.50000000 0.370241 -0.636814 -0.676306 0.000000
108.72000122 230.27499390 447.50000000 -0.000978 -0.000978 -0.999999 0.000000
157.79499817 94.37500000 437.50000000 -0.000978 -0.000978 -0.999999 0.000000
100.41500092 194.78999329 462.50000000 -0.535430 -0.413517 -0.736423 0.000000
85.31500244 110.98500061 402.50000000 -0.536549 0.383249 0.751821 0.000000
57.75749969 168.36500549 320.00000000 0.966370 -0.030543 0.255337 0.000000
114.76000214 206.86999512 352.50000000 -0.090892 -0.378491 0.921131 0.000000
47.94250107 152.00000000 402.00000000 0.961546 0.273850 -0.020876 0.000000
82.29499817 257.45498657 372.50000000 0.673370 -0.673370 0.305197 0.000000
97.39499664 98.52749634 422.00000000 0.092686 0.900579 -0.424697 0.000000
155.52999878 158.55000305 412.50000000 -0.171795 0.609643 0.773836 0.000000
178.93499756 112.49500275 442.50000000 -0.000978 -0.000978 -0.999999 0.000000
83.80500031 160.81500244 342.50000000 -0.568988 0.283702 0.771859 0.000000
169.11999512 154.02000427 417.50000000 0.234624 -0.226392 0.945356 0.000000
45.67750168 209.13499451 420.00000000 0.000978 0.000978 0.999999 0.000000
131.36999512 106.45500183 402.50000000 0.000978 0.000978 0.999999 0.000000
152.00000000 220.46000671 422.50000000 -0.850288 -0.510173 -0.129360 0.000000
98.15000153 190.25999451 347.50000000 -0.355438 0.377168 0.855224 0.000000
59.64500046 169.87500000 317.50000000 0.825971 -0.118414 0.551135 0.000000
144.96000671 123.81999969 402.50000000 -0.101747 0.025163 0.994492 0.000000
98.52749634 174.40499878 350.00000000 -0.823280 0.394984 0.407674 0.000000
109.09700012 154.77499390 382.00000000 -0.681717 0.730107 0.046966 0.000000
98.15000153 143.44999695 467.50000000 -0.000978 -0.000978 -0.999999 0.000000
68.70500183 236.31500244 347.50000000 0.673370 -0.673370 0.305197 0.000000
198.56500244 154.39700317 420.00000000 0.001112 -0.988665 0.150135 0.000000
176.66999817 117.02500153 412.50000000 -0.345332 0.053429 0.936958 0.000000
194.03500366 152.50999451 407.50000000 -0.163399 -0.481364 0.861156 0.000000
138.91999817 173.64999390 452.50000000 -0.000978 -0.000978 -0.999999 0.000000
135.89999390 181.19999695 377.50000000 -0.516071 0.001340 0.856545 0.000000
209.88999939 137.41000366 412.50000000 0.000978 0.000978 0.999999 0.000000
231.02999878 137.78799438 422.00000000 -0.699946 0.169268 0.693847 0.000000
136.65499878 109.47499847 437.50000000 -0.053058 0.327405 -0.943393 0.000000
73.23500061 224.23500061 452.50000000 0.716960 -0.095301 -0.690569 0.000000
120.04499817 108.72000122 402.50000000 0.000978 0.000978 0.999999 0.000000
144.20500183 200.83000183 377.50000000 -0.789737 0.524896 0.317490 0.000000
140.05299377 184.22000122 380.00000000 -0.988665 0.001112 0.150135 0.000000
138.91999817 111.73999786 437.50000000 -0.000978 -0.000978 -0.999999 0.000000
89.84500122 135.14500427 367.50000000 -0.623338 0.623338 0.472124 0.000000
83.80500031 196.30000305 332.50000000 -0.272890 -0.422294 0.864407 0.000000
53.60499954 209.13499451 347.50000000 0.000978 0.000978 0.999999 0.000000
53.60499954 200.07499695 447.50000000 -0.000978 -0.000978 -0.999999 0.000000
72.85749817 172.13999939 320.00000000 -0.937385 -0.268819 0.221462 0.000000
77.76499939 146.47000122 462.50000000 0.276381 0.458576 -0.844583 0.000000
106.45500183 260.47500610 362.50000000 -0.244416 -0.792405 0.558887 0.000000
147.97999573 210.64500427 432.50000000 -0.000978 -0.000978 -0.999999 0.000000
88.33499908 102.68000031 427.50000000 -0.103651 0.481338 -0.870385 0.000000
175.16000366 110.23000336 442.50000000 -0.000978 -0.000978 -0.999999 0.000000
141.18499756 234.80499268 427.50000000 0.000978 0.000978 -0.999999 0.000000
193.27999878 94.37500000 442.50000000 -0.201192 0.230898 -0.951949 0.000000
154.02000427 221.97000122 417.50000000 -0.925742 -0.087588 -0.367871 0.000000
160.05999756 147.22500610 417.50000000 -0.006122 -0.292617 0.956210 0.000000
161.94700623 90.59999847 422.00000000 0.787878 -0.393130 -0.474021 0.000000
95.88500214 163.08000183 352.50000000 0.000978 0.000978 0.999999 0.000000
102.68000031 190.25999451 347.50000000 0.000978 0.000978 0.999999 0.000000
155.52999878 163.83500671 447.50000000 -0.000978 -0.000978 -0.999999 0.000000
152.88699341 200.07499695 392.00000000 -0.858813 0.393173 0.328415 0.000000
104.19000244 134.38999939 457.50000000 -0.000978 -0.000978 -0.999999 0.000000
178.17999268 138.91999817 442.50000000 -0.000978 -0.000978 -0.999999 0.000000
172.13999939 94.37500000 442.50000000 -0.000978 -0.000978 -0.999999 0.000000
137.41000366 192.52499390 447.50000000 -0.000978 -0.000978 -0.999999 0.000000
70.97000122 239.71200562 440.00000000 0.261038 -0.751474 -0.605925 0.000000
91.35500336 96.63999939 422.50000000 -0.000978 -0.000978 -0.999999 0.000000
154.77499390 170.63000488 397.50000000 -0.691395 -0.493853 0.527335 0.000000
178.17999268 159.30499268 427.50000000 0.277365 0.950007 -0.143372 0.000000
118.53500366 160.05999756 462.50000000 -0.329969 0.150488 -0.931920 0.000000
44.54499817 169.87500000 422.50000000 0.703222 0.703222 -0.104673 0.000000
155.52999878 147.97999573 417.50000000 0.000978 0.000978 0.999999 0.000000
129.10499573 149.49000549 407.50000000 0.000978 0.000978 0.999999 0.000000
98.90499878 132.12500000 457.50000000 -0.051618 0.382504 -0.922511 0.000000
185.72999573 138.91999817 407.50000000 0.354065 0.538373 0.764717 0.000000
113.25000000 81.91750336 420.00000000 0.211266 0.788007 -0.578283 0.000000
166.10000610 103.43499756 417.50000000 0.011928 -0.451947 -0.891965 0.000000
110.23000336 164.58999634 367.50000000 -0.487638 0.393675 0.779249 0.000000
64.93000031 221.21499634 447.50000000 0.296150 -0.284479 -0.911793 0.000000
228.00999451 119.29000092 432.50000000 0.126246 0.503534 0.854702 0.000000
195.92300415 123.81999969 440.00000000 -0.827125 -0.031866 -0.561115 0.000000
77.76499939 254.43499756 372.50000000 0.551164 -0.824541 0.127870 0.000000
234.05000305 152.00000000 422.50000000 -0.177942 -0.212212 0.960886 0.000000
49.83000183 200.83000183 352.50000000 0.921542 -0.167425 0.350327 0.000000
147.97999573 151.75500488 412.50000000 0.000978 0.000978 0.999999 0.000000
57.38000107 201.58500671 332.50000000 0.910424 -0.365603 0.193555 0.000000
124.95200348 229.52000427 440.00000000 -0.152268 -0.518893 -0.841169 0.000000
138.16499329 171.38499451 452.50000000 -0.000978 -0.000978 -0.999999 0.000000
56.62500000 138.16499329 362.50000000 0.900223 0.359795 0.245248 0.000000
52.47249985 194.03500366 442.00000000 0.861300 0.131728 -0.490724 0.000000
177.42500305 90.22250366 432.00000000 -0.000978 -0.000978 -0.999999 0.000000
224.23500061 138.91999817 417.50000000 0.775255 0.352975 0.523821 0.000000
67.94999695 129.86000061 447.50000000 0.702062 0.436507 -0.562646 0.000000
134.38999939 233.29499817 367.50000000 -0.690358 -0.519858 0.503143 0.000000
141.94000244 111.73999786 402.50000000 -0.065765 0.505127 0.860536 0.000000
95.88500214 187.99499512 467.50000000 -0.000978 -0.000978 -0.999999 0.000000
178.93499756 137.41000366 402.50000000 0.000978 0.000978 0.999999 0.000000
105.69999695 145.71499634 397.50000000 -0.282785 0.391665 0.875575 0.000000
99.66000366 240.08999634 442.50000000 -0.390043 -0.454248 -0.800953 0.000000
117.40200043 263.49499512 372.00000000 -0.382754 -0.724441 0.573310 0.000000
102.68000031 187.24000549 347.50000000 0.000978 0.000978 0.999999 0.000000
172.13999939 114.00499725 412.50000000 0.144540 0.295835 0.944240 0.000000
87.58000183 135.89999390 462.50000000 -0.000978 -0.000978 -0.999999 0.000000
145.71499634 114.00499725 402.50000000 -0.022286 0.200577 0.979424 0.000000
134.38999939 131.36999512 402.50000000 -0.000978 -0.000978 0.999999 0.000000
92.11000061 91.73249817 400.00000000 -0.223411 -0.670232 0.707727 0.000000
150.24499512 152.50999451 447.50000000 -0.000978 -0.000978 -0.999999 0.000000
128.35000610 165.34500122 402.50000000 -0.372192 0.601737 0.706672 0.000000
101.92500305 257.07699585 352.00000000 -0.129021 -0.784508 0.606548 0.000000
131.36999512 124.57499695 442.50000000 0.552966 0.261602 -0.791071 0.000000
175.16000366 101.16999817 422.50000000 0.145899 -0.630222 -0.762584 0.000000
228.76499939 126.08499908 427.50000000 -0.595029 0.178052 0.783734 0.000000
63.41999817 167.61000061 457.50000000 0.755099 0.079713 -0.650747 0.000000
108.72000122 224.23500061 352.50000000 0.000978 0.000978 0.999999 0.000000
79.65249634 118.53500366 442.00000000 0.482965 0.686846 -0.543127 0.000000
53.60499954 152.88699341 350.00000000 0.940391 0.297038 0.165629 0.000000
154.02000427 218.19500732 397.50000000 -0.951241 -0.114782 0.286296 0.000000
114.00499725 249.90499878 432.50000000 -0.790679 -0.299476 -0.533986 0.000000
