29.82130051 204.29299927 344.00000000 -0.264771 0.794313 -0.546776 0.000000
154.24800110 169.67300415 358.00000000 -0.056250 0.884912 0.462349 0.000000
101.80400085 163.16000366 306.00000000 0.711322 -0.693502 0.114346 0.000000
29.13570023 170.70100403 364.00000000 -0.927111 0.008951 0.374681 0.000000
91.17769623 255.02299500 313.50000000 -0.855581 0.434702 -0.281097 0.000000
137.10899353 177.89900208 339.00000000 0.802353 0.555949 -0.217143 0.000000
137.79499817 179.61300659 364.50000000 0.146004 0.243340 0.958889 0.000000
96.66210175 176.52799988 343.00000000 -0.244754 -0.381222 -0.891496 0.000000
40.10449982 215.94700623 296.00000000 -0.824607 0.521690 -0.218773 0.000000
72.66799927 203.94999695 288.00000000 0.728077 0.155908 -0.667530 0.000000
174.12899780 120.99900055 338.00000000 0.552852 -0.443278 -0.705592 0.000000
154.93400574 150.13499451 327.50000000 -0.000978 -0.000978 -0.999999 0.000000
50.04489899 239.59899902 345.00000000 -0.393567 0.912800 0.109094 0.000000
124.76999664 241.31199646 360.50000000 0.500459 0.457515 0.734997 0.000000
110.37300110 179.95599365 306.00000000 0.454392 -0.470796 -0.756227 0.000000
115.85700226 185.78300476 386.50000000 0.260842 0.208398 0.942620 0.000000
65.12699890 117.22899628 380.50000000 -0.211283 -0.421088 0.882068 0.000000
90.49220276 223.48800659 309.50000000 0.433397 0.096156 -0.896059 0.000000
102.83200073 80.55180359 314.00000000 -0.309965 -0.927064 -0.210889 0.000000
38.73339844 141.22300720 300.00000000 -0.943392 -0.313575 -0.108083 0.000000
130.93899536 180.98399353 378.50000000 0.752600 -0.133164 0.644872 0.000000
109.00199890 154.59100342 327.00000000 0.553544 0.730941 -0.399143 0.000000
43.18949890 154.59100342 273.00000000 0.586853 0.245696 -0.771516 0.000000
75.41020203 237.19900513 380.50000000 -0.163167 0.483621 0.859934 0.000000
141.22300720 90.83499908 324.00000000 0.649631 0.688511 -0.322385 0.000000
198.12300110 137.10899353 361.50000000 0.360261 -0.140488 0.922212 0.000000
122.71299744 88.43550110 357.50000000 -0.364430 -0.064935 0.928964 0.000000
119.97100067 218.68899536 376.50000000 0.569753 0.301634 0.764459 0.000000
156.30499268 75.75289917 354.00000000 -0.114795 -0.914209 0.388643 0.000000
150.82000732 151.50599670 376.50000000 0.523770 0.178592 0.832929 0.000000
63.75590134 189.21099854 275.50000000 0.436071 0.087214 -0.895676 0.000000
180.29899597 148.42100525 364.00000000 0.431873 0.123190 0.893482 0.000000
28.45019913 197.43800354 340.00000000 -0.989833 0.110498 0.089562 0.000000
161.10400391 154.93400574 360.50000000 -0.001358 0.824239 0.566240 0.000000
70.61129761 182.69799805 280.00000000 0.564371 0.121670 -0.816506 0.000000
165.90199280 131.62500000 330.50000000 -0.364474 -0.174437 0.914730 0.000000
113.45800018 216.63299561 381.00000000 0.521435 0.174808 0.835193 0.000000
176.52799988 93.91989899 351.00000000 0.565841 -0.452339 -0.689358 0.000000
142.59399414 83.29389954 360.00000000 0.086223 -0.694169 0.714629 0.000000
139.85200500 187.83999634 373.50000000 0.555516 -0.300838 0.775176 0.000000
83.63670349 147.73500061 309.00000000 0.500316 -0.864930 0.039751 0.000000
124.76999664 134.71000671 330.00000000 0.496518 0.858412 0.128834 0.000000
165.21699524 92.54879761 338.50000000 0.702792 0.587038 -0.401832 0.000000
192.29600525 147.39300537 362.00000000 -0.273633 -0.043731 0.960840 0.000000
93.91989899 82.60839844 327.00000000 -0.909489 -0.181898 -0.373822 0.000000
114.14399719 253.65199280 355.00000000 0.327027 0.752323 0.571894 0.000000
135.05299377 230.34399414 334.50000000 0.794884 0.125820 -0.593573 0.000000
109.68800354 257.42300415 327.00000000 0.589978 0.702355 -0.398276 0.000000
69.24019623 133.68200684 298.50000000 0.873927 -0.274143 -0.401370 0.000000
51.41600037 206.00700378 266.00000000 0.233322 0.536177 -0.811218 0.000000
198.46600342 119.97100067 355.00000000 0.855224 0.355438 0.377168 0.000000
59.64260101 217.31799316 275.50000000 0.765729 0.117007 -0.632430 0.000000
104.88899994 183.04100037 333.50000000 -0.873982 0.308554 0.375432 0.000000
54.84379959 218.00399780 383.50000000 -0.426885 0.351274 0.833292 0.000000
154.24800110 139.50900269 375.00000000 0.548850 -0.112099 0.828370 0.000000
102.48899841 236.51400757 316.00000000 0.631766 0.110449 -0.767250 0.000000
41.13280106 134.71000671 299.00000000 -0.635449 -0.635449 -0.438644 0.000000
54.84379959 237.54200745 308.00000000 -0.520026 0.801378 -0.295577 0.000000
128.53999329 176.18600464 325.00000000 0.875202 -0.450062 -0.177386 0.000000
119.97100067 73.69629669 329.00000000 -0.099581 -0.994711 -0.025169 0.000000
126.14099884 73.69629669 315.00000000 -0.362411 -0.931358 -0.035072 0.000000
95.29100037 185.09800720 326.50000000 0.075285 0.044734 0.996158 0.000000
105.57399750 79.18070221 316.00000000 -0.283245 -0.936243 -0.207899 0.000000
39.76169968 148.07800293 365.50000000 -0.790757 -0.285683 0.541377 0.000000
69.58300018 95.97660065 317.00000000 -0.521435 -0.174808 0.835193 0.000000
79.18070221 132.99600220 311.00000000 0.571954 -0.032007 -0.819661 0.000000
52.78710175 109.68800354 337.50000000 -0.610950 -0.782549 0.119823 0.000000
33.24900055 180.98399353 291.00000000 -0.990702 0.102885 -0.089013 0.000000
67.86910248 99.06150055 304.00000000 -0.600297 -0.785926 -0.148203 0.000000
80.20899963 113.11499786 383.50000000 -0.255043 -0.561720 0.787034 0.000000
166.58799744 95.29100037 368.50000000 0.000978 0.000978 0.999999 0.000000
45.93159866 201.55099487 384.50000000 -0.598455 0.300030 0.742855 0.000000
82.95120239 166.58799744 396.50000000 -0.236640 0.406306 0.882563 0.000000
124.08399963 138.47999573 393.50000000 0.541348 -0.066432 0.838170 0.000000
93.91989899 97.34770203 361.50000000 0.492586 -0.606906 0.623718 0.000000
27.07909966 178.92799377 345.00000000 -0.903763 0.357709 -0.235066 0.000000
168.64500427 153.22000122 363.00000000 0.162089 0.981063 0.106028 0.000000
35.30569839 218.00399780 333.00000000 -0.747221 0.523876 -0.408919 0.000000
116.54299927 201.89399719 314.00000000 0.366909 0.336205 -0.867378 0.000000
79.52339935 110.02999878 381.00000000 -0.255884 -0.579271 0.773931 0.000000
36.67679977 166.58799744 267.00000000 -0.732422 -0.098341 -0.673711 0.000000
76.43849945 196.06599426 288.00000000 0.608182 0.274714 -0.744746 0.000000
136.42399597 72.32520294 330.00000000 -0.138800 -0.987927 0.068817 0.000000
111.74400330 224.85899353 379.50000000 0.423100 0.311513 0.850850 0.000000
53.12990189 116.54299927 292.00000000 -0.708486 -0.705724 0.001381 0.000000
38.39059830 217.66099548 321.00000000 -0.708486 0.705724 -0.001381 0.000000
123.05599976 248.16799927 356.00000000 0.474264 0.564760 0.675366 0.000000
85.00779724 245.76899719 306.00000000 0.268988 0.200016 -0.942146 0.000000
35.99119949 152.87699890 283.00000000 -0.824239 0.001358 -0.566240 0.000000
52.78710175 241.31199646 353.50000000 -0.824777 0.372020 0.425845 0.000000
156.99000549 74.38179779 350.00000000 -0.108638 -0.954186 0.278795 0.000000
69.24019623 97.00489807 355.00000000 -0.071954 -0.850756 0.520612 0.000000
41.13280106 198.80900574 381.50000000 -0.756551 0.168968 0.631728 0.000000
111.74400330 236.85600281 373.00000000 0.370313 0.562810 0.738994 0.000000
152.87699890 167.95899963 361.50000000 0.075402 0.835113 0.544886 0.000000
41.13280106 137.45199585 281.00000000 -0.854872 -0.476264 -0.205830 0.000000
34.62009811 195.38099670 374.00000000 -0.816879 0.179683 0.548109 0.000000
137.79499817 219.37500000 337.50000000 0.824239 0.001358 -0.566240 0.000000
86.72170258 179.61300659 292.00000000 0.549846 0.153480 -0.821044 0.000000
127.51200104 73.01069641 319.00000000 -0.139714 -0.982860 -0.120276 0.000000
148.76400757 73.01069641 342.00000000 -0.000978 -0.999999 -0.000978 0.000000
125.45500183 249.53900146 353.50000000 0.544779 0.558272 0.625737 0.000000
68.89749908 174.12899780 388.00000000 0.579063 -0.382214 0.720138 0.000000
35.99119949 198.12300110 287.00000000 -0.943430 0.282619 -0.173395 0.000000
99.40429688 92.20610046 353.00000000 0.050033 -0.713333 0.699037 0.000000
83.63670349 215.94700623 392.50000000 0.056593 0.361929 0.930486 0.000000
44.90330124 222.80299377 373.00000000 -0.661172 0.453614 0.597566 0.000000
43.18949890 126.48300171 339.00000000 -0.881968 -0.434402 -0.182829 0.000000
88.43550110 180.98399353 389.50000000 0.178920 -0.468741 0.865026 0.000000
67.86910248 166.58799744 386.50000000 -0.037727 0.582673 0.811830 0.000000
70.61129761 233.08599854 382.50000000 -0.207981 0.465338 0.860352 0.000000
103.51799774 78.83789825 322.50000000 -0.165129 -0.982339 -0.087989 0.000000
85.00779724 227.60200500 305.50000000 0.673357 -0.101667 -0.732294 0.000000
77.46679688 256.73699951 339.00000000 -0.177561 0.984029 0.012601 0.000000
40.79000092 132.99600220 359.00000000 -0.770817 -0.402520 0.493779 0.000000
102.83200073 180.29899597 341.50000000 -0.060076 -0.512744 -0.856437 0.000000
41.13280106 211.83399963 375.50000000 -0.691767 0.397890 0.602613 0.000000
114.48600006 161.78900146 395.50000000 0.193033 0.190407 0.962540 0.000000
141.90800476 82.95120239 312.50000000 0.394201 0.796447 -0.458560 0.000000
28.79299927 193.66700745 319.00000000 -0.897648 0.389710 -0.205802 0.000000
116.88600159 150.82000732 338.00000000 0.280450 -0.768465 -0.575160 0.000000
128.19700623 136.76699829 327.00000000 -0.735447 0.638636 -0.226411 0.000000
77.46679688 123.74099731 307.00000000 0.506758 0.506758 -0.697419 0.000000
44.21780014 222.80299377 296.00000000 -0.846340 0.474256 -0.242465 0.000000
44.56050110 196.40899658 385.00000000 -0.610398 0.113255 0.783957 0.000000
38.39059830 138.82299805 324.00000000 -0.703874 -0.703874 0.095515 0.000000
125.45500183 83.63670349 355.50000000 -0.280936 -0.470296 0.836599 0.000000
77.12400055 172.07200623 285.00000000 0.370075 -0.032463 -0.928434 0.000000
52.78710175 233.42900085 302.00000000 -0.455104 0.774818 -0.438792 0.000000
124.76999664 114.48600006 377.50000000 0.455246 -0.733360 0.504909 0.000000
99.40429688 187.15400696 389.50000000 0.285034 -0.439107 0.852021 0.000000
136.42399597 193.32400513 333.50000000 0.055609 -0.768550 -0.637369 0.000000
190.58200073 135.73800659 362.50000000 0.000978 0.000978 0.999999 0.000000
117.91400146 200.52200317 314.00000000 0.327377 0.218728 -0.919229 0.000000
110.37300110 196.75199890 309.50000000 0.305559 0.468524 -0.828927 0.000000
78.15229797 118.59999847 387.50000000 -0.159237 -0.671827 0.723389 0.000000
66.15529633 180.98399353 277.00000000 0.697330 0.004159 -0.716738 0.000000
49.35940170 140.19400024 278.00000000 0.306266 -0.439966 -0.844175 0.000000
35.30569839 154.93400574 364.00000000 -0.751589 -0.358750 0.553546 0.000000
54.50099945 113.80100250 363.00000000 -0.694059 -0.645524 0.318717 0.000000
37.36230087 143.96499634 311.00000000 -0.948930 -0.315485 0.001237 0.000000
28.45019913 196.75199890 323.00000000 -0.844905 0.338899 -0.413863 0.000000
66.84079742 224.85899353 286.00000000 0.659292 0.133054 -0.740021 0.000000
164.53100586 122.02700043 331.50000000 0.264752 -0.279063 -0.923055 0.000000
143.62199402 173.44299316 363.00000000 0.855873 0.485044 0.179481 0.000000
98.37599945 187.15400696 300.00000000 0.343479 0.349585 -0.871672 0.000000
37.01950073 208.06300354 372.00000000 -0.971818 0.194364 0.133387 0.000000
57.58589935 241.65499878 366.00000000 -0.636378 0.636378 0.435944 0.000000
56.21480179 106.26000214 353.50000000 -0.688511 -0.649631 0.322385 0.000000
44.56050110 123.05599976 339.00000000 -0.861253 -0.403761 -0.308577 0.000000
55.18650055 126.82599640 377.00000000 -0.651246 -0.308655 0.693261 0.000000
84.66500092 183.72700500 291.00000000 0.623124 0.126409 -0.771840 0.000000
93.91989899 200.86500549 393.50000000 0.312787 0.107812 0.943685 0.000000
31.19239998 173.44299316 300.00000000 -0.993853 -0.020865 -0.108720 0.000000
108.31600189 101.46099854 370.50000000 0.484471 -0.707560 0.514438 0.000000
89.12110138 215.26199341 392.50000000 0.182753 0.542218 0.820123 0.000000
100.08999634 189.89599609 390.50000000 0.316218 -0.408770 0.856103 0.000000
125.11199951 250.91000366 344.00000000 0.264192 0.961961 0.069524 0.000000
43.18949890 158.36099243 376.50000000 -0.544507 -0.551250 0.632167 0.000000
114.48600006 95.97660065 359.50000000 0.033518 -0.959613 0.279318 0.000000
87.06449890 249.53900146 369.50000000 0.035331 0.750441 0.659992 0.000000
47.64550018 208.40600586 383.00000000 -0.570734 0.290931 0.767868 0.000000
40.44729996 146.70700073 366.50000000 -0.822648 -0.272143 0.499187 0.000000
53.12990189 149.44900513 382.00000000 -0.647903 0.058640 0.759462 0.000000
37.70510101 199.49400330 376.50000000 -0.827412 0.102883 0.552091 0.000000
144.99299622 196.06599426 364.00000000 0.245394 0.941369 -0.231530 0.000000
35.99119949 178.92799377 267.00000000 -0.845045 0.385816 -0.370195 0.000000
126.48300171 134.36700439 391.00000000 0.658061 -0.300874 0.690240 0.000000
102.14600372 193.32400513 304.50000000 0.301828 0.406013 -0.862585 0.000000
116.54299927 174.81399536 338.50000000 0.614670 0.424772 0.664643 0.000000
85.69339752 106.94499969 378.50000000 -0.001358 -0.824239 0.566240 0.000000
200.52200317 132.31100464 354.00000000 0.839269 -0.418850 -0.346689 0.000000
103.51799774 206.35000610 388.50000000 0.062461 -0.062461 0.996091 0.000000
52.10160065 166.58799744 274.50000000 0.352718 -0.319414 -0.879525 0.000000
75.41020203 98.03320313 360.50000000 -0.175522 -0.892115 0.416320 0.000000
108.31600189 158.70399475 337.00000000 0.830163 0.525820 -0.185318 0.000000
80.89450073 135.73800659 312.50000000 0.695945 -0.004151 -0.718083 0.000000
71.98239899 245.76899719 371.00000000 -0.201436 0.588930 0.782678 0.000000
87.06449890 147.39300537 316.50000000 0.704931 -0.304879 -0.640407 0.000000
37.01950073 206.35000610 293.50000000 -0.907156 0.355605 -0.224975 0.000000
122.71299744 243.36900330 360.50000000 0.556631 0.566782 0.607388 0.000000
74.72460175 92.20610046 311.00000000 -0.151625 -0.958537 -0.241282 0.000000
63.07030106 246.11099243 316.50000000 -0.541507 0.747640 -0.384454 0.000000
51.41600037 240.28399658 359.00000000 -0.698034 0.698034 0.159681 0.000000
119.62799835 112.43000031 379.00000000 0.404476 -0.718151 0.566266 0.000000
185.78300476 141.22300720 346.50000000 0.373204 0.649408 -0.662561 0.000000
85.00779724 119.62799835 305.00000000 0.152721 0.828845 -0.538230 0.000000
43.18949890 226.57299805 311.00000000 -0.742135 0.636779 -0.209161 0.000000
55.52930069 183.72700500 392.50000000 -0.386700 -0.035393 0.921526 0.000000
47.64550018 123.39800262 294.00000000 -0.924026 -0.331521 0.190448 0.000000
117.91400146 241.99800110 365.50000000 0.390630 0.604900 0.693905 0.000000
80.20899963 200.86500549 293.50000000 0.675093 0.363006 -0.642242 0.000000
111.74400330 91.17769623 315.50000000 -0.243623 0.611415 -0.752874 0.000000
128.88299561 132.99600220 387.50000000 0.681267 -0.369362 0.632019 0.000000
96.66210175 189.55400085 335.00000000 -0.438405 -0.658440 -0.611766 0.000000
41.81840134 202.23599243 273.50000000 -0.788102 0.533362 -0.307280 0.000000
148.76400757 171.72900391 356.00000000 0.708486 0.705724 -0.001381 0.000000
124.42700195 118.59999847 319.00000000 0.678421 0.020982 -0.734374 0.000000
131.96800232 172.75799561 377.00000000 0.699492 0.705432 0.114354 0.000000
104.20300293 96.31929779 324.00000000 0.461767 -0.555121 0.691818 0.000000
29.82130051 165.90199280 322.00000000 -0.877023 -0.407673 -0.254231 0.000000
128.19700623 241.99800110 357.50000000 0.505035 0.297357 0.810258 0.000000
112.77200317 255.02299500 327.00000000 0.617727 0.604262 -0.503271 0.000000
126.48300171 134.36700439 323.00000000 -0.675688 0.582260 -0.452127 0.000000
52.78710175 183.72700500 266.50000000 0.616052 -0.445762 -0.649443 0.000000
132.31100464 204.97900391 372.50000000 0.211131 -0.032206 0.976927 0.000000
116.88600159 175.50000000 338.00000000 0.614670 0.424772 0.664643 0.000000
161.44599915 76.09570313 356.00000000 -0.079551 -0.920908 0.381577 0.000000
28.45019913 195.38099670 338.00000000 -0.965367 -0.015746 0.260419 0.000000
36.33399963 144.64999390 325.50000000 -0.804807 -0.548381 -0.227076 0.000000
42.16109848 154.24800110 372.00000000 -0.621585 -0.454042 0.638340 0.000000
184.06900024 109.68800354 349.00000000 0.666584 -0.073744 -0.741773 0.000000
43.53219986 130.93899536 292.00000000 -0.948930 -0.315485 0.001237 0.000000
104.88899994 223.48800659 316.50000000 0.178186 0.001135 -0.983996 0.000000
41.81840134 213.20500183 286.50000000 -0.861274 0.442029 -0.250635 0.000000
32.22069931 197.77999878 369.00000000 -0.957853 0.168720 0.232489 0.000000
122.02700043 127.51200104 390.50000000 0.425953 -0.555230 0.714341 0.000000
76.43849945 92.54879761 302.00000000 -0.515126 -0.856721 -0.025961 0.000000
41.47560120 137.10899353 284.00000000 -0.867326 -0.456722 -0.197863 0.000000
41.13280106 224.85899353 316.50000000 0.118088 0.961573 0.247855 0.000000
91.86329651 122.37000275 306.00000000 -0.484420 0.827096 -0.285044 0.000000
118.94200134 138.47999573 338.00000000 -0.993599 -0.097456 0.057129 0.000000
61.01369858 236.51400757 292.50000000 -0.441910 0.662032 -0.605334 0.000000
80.20899963 117.57099915 387.00000000 -0.192341 -0.626261 0.755514 0.000000
117.57099915 175.50000000 390.00000000 0.179850 0.252872 0.950636 0.000000
113.80100250 125.45500183 392.50000000 0.341214 -0.680796 0.648144 0.000000
151.50599670 101.46099854 368.50000000 -0.028544 -0.154140 0.987637 0.000000
45.58890152 133.68200684 368.00000000 -0.836973 -0.330096 0.436478 0.000000
131.96800232 129.56799316 384.00000000 0.503014 -0.634235 0.587130 0.000000
68.89749908 246.79699707 307.00000000 -0.593724 0.771373 -0.229075 0.000000
98.03320313 126.14099884 307.50000000 -0.362513 0.497852 -0.787863 0.000000
72.66799927 148.76400757 395.50000000 -0.241796 -0.060759 0.968423 0.000000
110.37300110 117.22899628 387.50000000 0.258107 -0.625474 0.736317 0.000000
117.22899628 137.10899353 317.50000000 0.453332 0.268926 -0.849805 0.000000
29.13570023 167.95899963 313.00000000 -0.895526 -0.415421 -0.159556 0.000000
170.70100403 110.37300110 368.50000000 0.336017 0.259717 0.905340 0.000000
133.33900452 232.39999390 333.00000000 0.808163 0.398481 -0.433688 0.000000
50.04489899 112.08699799 340.00000000 -0.824165 -0.559512 -0.087738 0.000000
131.28199768 235.82800293 333.00000000 0.589169 0.354154 -0.726261 0.000000
39.41889954 189.21099854 267.00000000 -0.826038 0.278457 -0.490023 0.000000
62.72750092 200.86500549 274.00000000 0.959035 -0.072596 -0.273828 0.000000
106.26000214 259.82199097 349.50000000 0.230421 0.920253 0.316292 0.000000
132.99600220 128.19700623 343.50000000 -0.283340 0.226954 -0.931778 0.000000
150.82000732 82.60839844 362.00000000 -0.143761 -0.471944 0.869829 0.000000
49.35940170 214.91900635 382.00000000 -0.549859 0.351975 0.757475 0.000000
40.10449982 210.46299744 286.00000000 -0.874848 0.483003 0.036735 0.000000
44.56050110 152.87699890 273.50000000 0.481191 -0.186219 -0.856608 0.000000
39.76169968 190.23899841 267.00000000 -0.764943 0.270818 -0.584397 0.000000
110.37300110 250.22500610 361.50000000 0.352613 0.739351 0.573606 0.000000
80.20899963 215.26199341 392.50000000 0.000978 0.000978 0.999999 0.000000
61.01369858 150.82000732 283.50000000 0.380431 -0.141784 -0.913876 0.000000
37.36230087 167.27299500 376.00000000 -0.712113 -0.269233 0.648389 0.000000
72.66799927 174.12899780 386.50000000 0.309646 -0.525604 0.792376 0.000000
74.72460175 129.56799316 307.50000000 0.533405 0.267484 -0.802453 0.000000
160.41799927 95.97660065 367.50000000 0.010382 -0.190334 0.981664 0.000000
72.66799927 255.36599731 353.00000000 -0.478721 0.850221 0.218974 0.000000
99.40429688 79.18070221 330.00000000 -0.300391 -0.953522 -0.023682 0.000000
179.61300659 135.73800659 340.50000000 0.570098 0.115778 -0.813378 0.000000
93.91989899 175.50000000 344.50000000 0.274698 -0.833406 -0.479558 0.000000
60.67089844 244.05499268 316.00000000 -0.561855 0.732213 -0.384944 0.000000
137.79499817 137.10899353 322.50000000 0.098273 0.502760 -0.858822 0.000000
168.64500427 128.53999329 331.00000000 -0.488465 0.216255 0.845361 0.000000
71.98239899 95.97660065 352.50000000 -0.028759 -0.855928 0.516295 0.000000
134.36700439 152.19099426 386.50000000 0.458289 0.014612 0.888683 0.000000
86.72170258 227.60200500 386.00000000 0.040158 0.535905 0.843323 0.000000
46.61719894 197.43800354 386.50000000 -0.576431 0.187074 0.795444 0.000000
95.29100037 86.03610229 334.00000000 -0.830827 0.093594 0.548605 0.000000
107.63099670 171.72900391 316.00000000 0.532730 -0.846100 -0.017712 0.000000
40.10449982 227.60200500 352.00000000 -0.883833 0.467756 -0.006625 0.000000
171.38699341 91.17769623 367.50000000 0.003778 -0.346286 0.938121 0.000000
112.43000031 174.81399536 312.50000000 0.355448 -0.627357 -0.692878 0.000000
105.57399750 190.58200073 304.50000000 0.083523 -0.063478 -0.994482 0.000000
178.24200439 152.53399658 357.00000000 0.181898 0.909489 -0.373822 0.000000
40.79000092 223.48800659 322.00000000 -0.867647 0.496765 -0.020304 0.000000
97.34770203 160.07499695 315.00000000 0.632623 -0.770965 0.073494 0.000000
80.89450073 257.42300415 343.00000000 -0.399536 0.909048 -0.118329 0.000000
43.53219986 125.45500183 331.00000000 -0.998814 -0.036453 -0.032287 0.000000
120.65599823 93.23439789 359.50000000 -0.181256 -0.510812 0.840368 0.000000
65.12699890 205.32099915 280.00000000 0.714192 0.230739 -0.660824 0.000000
101.11799622 91.86329651 322.00000000 0.576068 -0.682932 0.449166 0.000000
110.37300110 241.31199646 321.50000000 0.558088 0.017826 -0.829590 0.000000
75.41020203 237.88499451 380.50000000 -0.145336 0.388033 0.910114 0.000000
195.72399902 111.74400330 356.00000000 0.666814 -0.233777 0.707607 0.000000
159.04699707 73.01069641 321.00000000 0.813364 -0.581753 -0.001362 0.000000
47.98830032 154.93400574 377.50000000 -0.674480 -0.480337 0.560672 0.000000
36.33399963 201.55099487 374.50000000 -0.827412 0.102883 0.552091 0.000000
177.21400452 76.78119659 348.00000000 0.996288 0.070775 0.048998 0.000000
92.20610046 154.24800110 299.00000000 0.579503 -0.814097 0.037703 0.000000
27.76460075 168.64500427 360.00000000 -0.927334 -0.151090 0.342379 0.000000
128.19700623 129.56799316 320.50000000 0.184663 0.036462 -0.982125 0.000000
119.62799835 202.23599243 382.00000000 0.824239 0.001358 0.566240 0.000000
51.07320023 235.14300537 367.00000000 -0.656555 0.565880 0.498713 0.000000
56.90039825 209.43499756 388.00000000 -0.419460 0.335256 0.843598 0.000000
103.51799774 162.13200378 330.00000000 0.804435 0.574597 -0.150738 0.000000
169.33000183 146.70700073 335.50000000 0.307384 -0.295618 -0.904503 0.000000
89.12110138 250.91000366 312.50000000 0.428238 0.386847 -0.816677 0.000000
94.60549927 116.88600159 390.00000000 -0.110308 -0.622138 0.775098 0.000000
90.49220276 168.64500427 292.50000000 0.579688 0.072998 -0.811563 0.000000
58.27149963 127.85399628 381.00000000 -0.670932 -0.308790 0.674165 0.000000
32.56349945 147.39300537 353.00000000 -0.928866 -0.029796 0.369215 0.000000
59.64260101 174.81399536 274.50000000 0.468870 -0.468870 -0.748547 0.000000
43.18949890 130.93899536 316.50000000 -0.555821 -0.827302 -0.081444 0.000000
134.36700439 225.20199585 333.00000000 0.762886 0.085734 -0.640824 0.000000
29.47850037 166.24499512 319.00000000 -0.760911 -0.646703 -0.052821 0.000000
57.58589935 245.76899719 341.00000000 -0.510528 0.851844 0.117147 0.000000
86.37889862 241.31199646 306.50000000 0.566109 0.087869 -0.819634 0.000000
100.43299866 187.15400696 333.00000000 -0.638178 -0.591031 -0.493367 0.000000
141.90800476 78.83789825 356.50000000 -0.254458 -0.741247 0.621131 0.000000
96.31929779 95.29100037 336.00000000 0.333904 0.849515 0.408451 0.000000
64.44139862 132.99600220 288.50000000 0.883921 -0.053446 -0.464572 0.000000
143.27900696 139.50900269 327.00000000 0.106373 0.808723 -0.578492 0.000000
113.11499786 149.79200745 323.00000000 0.392805 0.819006 -0.418250 0.000000
123.39800262 143.27900696 393.50000000 0.458908 0.064771 0.886120 0.000000
80.89450073 258.10800171 352.00000000 0.001314 0.889912 0.456129 0.000000
51.07320023 135.05299377 376.00000000 -0.709247 -0.213553 0.671836 0.000000
83.29389954 259.13699341 346.00000000 -0.731056 0.657491 0.182381 0.000000
145.67900085 194.00999451 369.00000000 0.513492 0.634710 0.577468 0.000000
126.82599640 115.17199707 376.50000000 0.480838 -0.665132 0.571310 0.000000
138.13800049 225.54499817 338.00000000 0.931612 0.062107 -0.358109 0.000000
197.43800354 143.27900696 361.50000000 0.134677 0.035084 0.990268 0.000000
41.47560120 142.59399414 279.00000000 -0.318778 -0.243771 -0.915946 0.000000
80.20899963 114.48600006 384.50000000 -0.249693 -0.585758 0.771065 0.000000
37.36230087 211.14799500 370.00000000 -0.949416 0.224754 0.219306 0.000000
109.00199890 221.43200684 381.50000000 0.335624 0.239732 0.910980 0.000000
118.25700378 74.03910065 330.00000000 -0.109478 -0.993974 0.005420 0.000000
143.27900696 175.84300232 361.00000000 0.707585 0.623000 0.333459 0.000000
91.17769623 247.13999939 372.00000000 0.487010 0.784717 0.383460 0.000000
129.22599792 128.88299561 385.00000000 0.542146 -0.388183 0.745246 0.000000
146.36399841 151.50599670 337.00000000 -0.765647 -0.642920 -0.020919 0.000000
66.15529633 248.85400391 322.00000000 -0.708486 0.705724 0.001381 0.000000
124.08399963 112.08699799 375.00000000 0.409244 -0.697537 0.588185 0.000000
56.21480179 116.54299927 284.50000000 0.124506 -0.258186 -0.958039 0.000000
102.48899841 214.57600403 314.00000000 0.331373 0.441308 -0.833930 0.000000
156.99000549 85.35060120 330.00000000 0.549973 0.725040 -0.414544 0.000000
119.97100067 194.69500732 383.50000000 0.269986 -0.269986 0.924238 0.000000
126.82599640 139.16600037 345.50000000 -0.137314 0.278627 0.950532 0.000000
51.41600037 160.76100159 276.00000000 0.326648 -0.288218 -0.900129 0.000000
47.98830032 154.24800110 377.50000000 -0.674480 -0.480337 0.560672 0.000000
46.61719894 201.89399719 267.00000000 -0.777656 0.331907 -0.533937 0.000000
164.53100586 74.72460175 324.50000000 0.341642 0.001251 -0.939829 0.000000
36.33399963 219.37500000 356.50000000 -0.931453 0.288877 0.221238 0.000000
80.89450073 201.89399719 295.00000000 0.678276 0.344858 -0.648857 0.000000
195.38099670 130.59700012 359.00000000 0.871299 0.094614 0.481545 0.000000
40.10449982 165.21699524 378.00000000 -0.547742 0.137305 0.825304 0.000000
135.73800659 109.00199890 369.50000000 0.056615 -0.487441 0.871318 0.000000
165.55999756 81.58010101 334.00000000 0.616662 0.682792 -0.391820 0.000000
161.78900146 77.80960083 360.00000000 0.515225 -0.800580 0.305964 0.000000
44.21780014 206.35000610 274.00000000 -0.736855 0.515963 -0.436838 0.000000
89.12110138 153.22000122 308.00000000 0.663518 -0.747685 0.026653 0.000000
93.91989899 194.00999451 300.50000000 0.491555 0.317693 -0.810829 0.000000
81.58010101 255.02299500 359.50000000 -0.070601 0.884595 0.460986 0.000000
37.70510101 138.82299805 334.00000000 -0.964139 -0.261819 -0.043430 0.000000
141.90800476 73.01069641 339.00000000 -0.067547 -0.957134 0.281660 0.000000
172.75799561 71.98239899 337.50000000 0.874888 -0.351477 -0.333218 0.000000
31.53520012 207.37800598 356.00000000 -0.959758 0.199894 0.197247 0.000000
117.22899628 237.88499451 325.50000000 0.447048 -0.090524 -0.889918 0.000000
135.39599609 229.65800476 358.00000000 0.658880 0.304470 0.687877 0.000000
54.15819931 203.60699463 266.50000000 0.440047 0.370148 -0.818138 0.000000
29.82130051 159.73199463 357.00000000 -0.001294 -0.909655 0.415362 0.000000
114.48600006 224.85899353 377.50000000 0.382113 0.762600 0.521950 0.000000
37.01950073 128.88299561 351.50000000 -0.780060 -0.201554 0.592353 0.000000
150.13499451 168.98699951 360.00000000 0.112135 0.878628 0.464154 0.000000
37.01950073 216.28999329 323.00000000 -0.819801 0.547033 -0.169356 0.000000
103.17500305 215.94700623 315.00000000 0.331373 0.441308 -0.833930 0.000000
76.78119659 144.64999390 301.50000000 0.656299 -0.721773 -0.219806 0.000000
120.31300354 189.89599609 312.00000000 0.379186 0.082314 -0.921652 0.000000
87.75000000 256.73699951 357.00000000 -0.854001 0.429309 0.293899 0.000000
88.43550110 137.10899353 397.50000000 -0.206122 -0.195484 0.958801 0.000000
83.63670349 170.70100403 288.50000000 0.500904 0.138734 -0.854311 0.000000
131.96800232 222.11700439 364.00000000 0.630782 0.427733 0.647425 0.000000
73.35350037 243.71200562 373.00000000 -0.207573 0.785701 0.582741 0.000000
87.06449890 209.43499756 394.00000000 0.080499 0.269608 0.959600 0.000000
120.65599823 233.77099609 326.50000000 0.587453 0.328521 -0.739576 0.000000
107.63099670 172.75799561 341.50000000 -0.170428 0.565579 -0.806892 0.000000
63.07030106 133.68200684 287.50000000 0.809925 0.112774 -0.575589 0.000000
85.35060120 232.39999390 305.00000000 0.756623 -0.132819 -0.640219 0.000000
117.22899628 126.14099884 391.50000000 0.293885 -0.631129 0.717849 0.000000
82.26560211 87.40720367 312.00000000 -0.285808 -0.935500 -0.207734 0.000000
51.41600037 233.42900085 304.00000000 -0.455104 0.774818 -0.438792 0.000000
119.28500366 180.29899597 312.50000000 0.641747 -0.409590 -0.648380 0.000000
129.56799316 105.57399750 366.50000000 -0.263773 -0.925344 0.272328 0.000000
86.37889862 172.07200623 342.50000000 0.625702 -0.561614 -0.541375 0.000000
132.31100464 237.19900513 356.50000000 0.593441 0.270609 0.758022 0.000000
95.29100037 174.81399536 329.50000000 0.792493 0.414808 0.447089 0.000000
133.68200684 167.95899963 383.50000000 0.717849 0.293885 0.631129 0.000000
91.17769623 159.73199463 399.50000000 -0.000978 -0.000978 0.999999 0.000000
27.76460075 185.78300476 364.00000000 -0.974705 -0.001170 0.223492 0.000000
54.84379959 240.28399658 318.00000000 -0.536952 0.827115 -0.166021 0.000000
202.23599243 133.68200684 356.50000000 0.856646 -0.267225 -0.441303 0.000000
73.35350037 91.52050018 328.00000000 -0.467607 -0.881099 -0.070765 0.000000
108.31600189 129.56799316 308.50000000 0.799672 0.316371 -0.510327 0.000000
83.63670349 184.41200256 393.50000000 0.290141 -0.658827 0.694093 0.000000
122.71299744 164.18800354 391.00000000 0.299990 0.332824 0.893999 0.000000
88.43550110 192.98100281 296.00000000 0.547401 0.447571 -0.707129 0.000000
104.88899994 250.91000366 318.50000000 0.733494 0.209348 -0.646653 0.000000
137.79499817 176.87100220 365.50000000 0.124793 0.408031 0.904399 0.000000
67.86910248 224.51699829 386.00000000 0.028252 0.466835 0.883893 0.000000
69.92579651 122.02700043 385.50000000 -0.440353 -0.345653 0.828621 0.000000
105.23100281 175.50000000 326.00000000 -0.265033 -0.356833 0.895783 0.000000
126.82599640 208.40600586 321.50000000 0.626303 0.088642 -0.774524 0.000000
150.13499451 147.39300537 377.50000000 0.511725 0.095503 0.853825 0.000000
111.05899811 75.75289917 340.00000000 -0.445433 -0.880711 0.161052 0.000000
119.28500366 138.47999573 338.50000000 -0.993599 -0.097456 0.057129 0.000000
53.12990189 137.79499817 380.00000000 -0.658593 -0.185757 0.729212 0.000000
62.72750092 130.25399780 287.00000000 0.806858 -0.085160 -0.584575 0.000000
46.61719894 125.79799652 292.00000000 -0.924026 -0.331521 0.190448 0.000000
182.35499573 126.14099884 341.50000000 0.715034 -0.038230 -0.698043 0.000000
132.99600220 93.23439789 319.50000000 0.449792 0.462876 -0.763828 0.000000
141.56500244 74.72460175 347.00000000 -0.008251 -0.974833 0.222785 0.000000
112.43000031 256.05200195 328.00000000 0.589978 0.702355 -0.398276 0.000000
107.28800201 133.68200684 309.00000000 -0.420274 -0.011783 -0.907321 0.000000
94.26270294 85.00779724 332.00000000 -0.911310 0.097591 0.399987 0.000000
193.32400513 126.14099884 361.50000000 0.672332 -0.504668 0.541554 0.000000
112.08699799 119.28500366 310.00000000 0.611785 -0.043800 -0.789810 0.000000
179.27099609 146.02099609 347.00000000 0.575177 0.659022 -0.484624 0.000000
39.07619858 139.50900269 302.00000000 -0.943392 -0.313575 -0.108083 0.000000
34.27730179 146.02099609 356.50000000 -0.836039 -0.099289 0.539612 0.000000
84.32230377 258.10800171 352.00000000 -0.138338 0.792843 0.593517 0.000000
34.62009811 183.04100037 279.00000000 -0.982119 0.179757 -0.055951 0.000000
42.16109848 222.11700439 370.00000000 -0.723076 0.382033 0.575510 0.000000
33.59180069 176.87100220 373.50000000 -0.824239 0.001358 0.566240 0.000000
168.64500427 95.97660065 368.50000000 0.000978 0.000978 0.999999 0.000000
28.45019913 173.44299316 337.00000000 -0.995725 0.091302 -0.013964 0.000000
84.66500092 116.54299927 300.00000000 0.063013 0.950337 -0.304777 0.000000
72.66799927 248.51100159 365.00000000 -0.295554 0.824111 0.483207 0.000000
183.72700500 80.89450073 362.50000000 0.458830 -0.754849 0.468697 0.000000
98.71880341 178.92799377 326.50000000 0.055714 -0.176625 0.982700 0.000000
56.55759811 111.05899811 362.00000000 -0.637439 -0.647425 0.417747 0.000000
84.32230377 116.88600159 301.00000000 0.152721 0.828845 -0.538230 0.000000
154.24800110 159.73199463 366.50000000 0.835619 0.495239 0.237653 0.000000
122.71299744 100.08999634 317.50000000 0.000978 0.000978 -0.999999 0.000000
68.21189880 123.39800262 293.00000000 0.842257 0.387407 -0.374859 0.000000
105.23100281 224.17399597 382.00000000 0.462868 0.398356 0.791875 0.000000
136.08099365 150.82000732 386.00000000 0.493738 -0.028563 0.869142 0.000000
88.77829742 150.82000732 316.00000000 0.689973 -0.486155 -0.536274 0.000000
100.77500153 199.83700562 308.00000000 0.420499 0.489219 -0.764098 0.000000
167.61599731 174.12899780 345.00000000 0.992361 0.014350 0.122527 0.000000
95.29100037 132.99600220 313.50000000 -0.398411 0.489476 -0.775681 0.000000
53.47269821 210.11999512 386.00000000 -0.451702 0.311034 0.836196 0.000000
35.30569839 150.82000732 362.00000000 -0.534748 -0.442037 0.720172 0.000000
78.83789825 253.30999756 312.00000000 -0.075275 0.839391 -0.538290 0.000000
78.83789825 255.02299500 323.50000000 -0.523456 0.816838 -0.242426 0.000000
58.27149963 204.63600159 391.00000000 -0.636378 0.636378 0.435944 0.000000
43.87500000 229.31500244 332.00000000 -0.727684 0.649773 -0.219707 0.000000
143.96499634 102.14600372 367.50000000 -0.257357 -0.404847 0.877420 0.000000
73.35350037 256.05200195 342.00000000 -0.234266 0.971904 0.022826 0.000000
84.32230377 154.93400574 290.50000000 0.618544 -0.178691 -0.765162 0.000000
135.73800659 90.83499908 319.00000000 0.434164 0.516705 -0.737914 0.000000
68.21189880 98.03320313 305.00000000 -0.652526 -0.747656 -0.123371 0.000000
122.02700043 154.93400574 340.50000000 0.593911 -0.100688 -0.798205 0.000000
52.78710175 208.40600586 386.50000000 -0.412587 0.281655 0.866281 0.000000
39.76169968 183.72700500 381.50000000 -0.619048 -0.032286 0.784689 0.000000
65.12699890 97.69039917 349.00000000 -0.442605 -0.745353 -0.498547 0.000000
79.18070221 178.24200439 389.00000000 0.499307 -0.728225 0.469448 0.000000
125.11199951 207.72099304 377.00000000 0.419508 0.293502 0.858993 0.000000
150.13499451 95.97660065 331.50000000 0.449818 -0.014596 -0.893001 0.000000
62.38479996 119.28500366 285.50000000 0.294524 -0.070737 -0.953023 0.000000
81.58010101 235.82800293 381.50000000 -0.489455 0.095054 0.866832 0.000000
35.64839935 130.59700012 350.00000000 -0.954189 -0.222061 0.200528 0.000000
129.56799316 226.91600037 328.50000000 0.498330 0.268570 -0.824340 0.000000
137.10899353 183.04100037 364.50000000 0.346205 0.064502 0.935939 0.000000
87.75000000 95.63379669 360.00000000 -0.020984 -0.653294 0.756814 0.000000
91.17769623 180.98399353 294.50000000 0.514908 0.211128 -0.830840 0.000000
113.80100250 148.76400757 396.50000000 0.269986 -0.269986 0.924238 0.000000
177.55700684 145.33599854 344.50000000 0.541974 0.636524 -0.548727 0.000000
76.78119659 245.42599487 373.50000000 -0.395885 0.644348 0.654287 0.000000
58.27149963 180.98399353 393.50000000 -0.351911 -0.136624 0.926009 0.000000
124.08399963 221.43200684 373.50000000 0.425727 0.212122 0.879637 0.000000
168.64500427 72.32520294 331.00000000 0.836749 -0.060471 -0.544238 0.000000
117.91400146 165.90199280 339.50000000 -0.120865 0.447912 -0.885870 0.000000
106.26000214 260.50799561 339.50000000 0.092102 0.992654 -0.078457 0.000000
27.07909966 167.27299500 342.00000000 -0.995093 -0.082832 -0.054117 0.000000
148.07800293 161.78900146 372.50000000 0.545668 0.552426 0.630137 0.000000
111.05899811 233.77099609 321.50000000 0.429051 0.147800 -0.891106 0.000000
85.69339752 172.75799561 340.50000000 0.633354 -0.613194 -0.472076 0.000000
106.26000214 93.91989899 356.50000000 -0.165942 -0.704874 0.689650 0.000000
139.85200500 219.37500000 352.50000000 0.988036 -0.028490 0.151567 0.000000
35.99119949 150.13499451 362.00000000 -0.484970 -0.481659 0.729937 0.000000
104.88899994 78.49510193 324.00000000 -0.170764 -0.982790 -0.070455 0.000000
55.52930069 163.50300598 276.00000000 0.226564 -0.210284 -0.951025 0.000000
36.67679977 146.02099609 308.00000000 -0.958443 -0.281895 -0.043850 0.000000
141.22300720 81.58010101 358.50000000 0.018073 -0.618641 0.785466 0.000000
100.77500153 261.53601074 334.00000000 -0.104345 0.962294 0.251201 0.000000
58.27149963 245.76899719 329.00000000 -0.417602 0.905032 -0.080782 0.000000
176.18600464 130.93899536 337.50000000 0.657607 0.120240 -0.743704 0.000000
93.91989899 124.08399963 307.50000000 -0.149462 0.714098 -0.683904 0.000000
97.34770203 220.06100464 312.50000000 0.368984 -0.001268 -0.929435 0.000000
34.96289825 214.23300171 363.00000000 -0.808191 0.345912 0.476626 0.000000
43.53219986 228.28700256 321.00000000 -0.842161 0.537932 -0.037337 0.000000
78.15229797 117.22899628 298.50000000 0.401148 0.572833 -0.714803 0.000000
44.56050110 132.99600220 365.50000000 -0.836973 -0.330096 0.436478 0.000000
135.73800659 140.19400024 335.00000000 0.463825 -0.272747 0.842897 0.000000
44.21780014 120.65599823 344.00000000 -0.805892 -0.547020 -0.226513 0.000000
174.12899780 84.32230377 364.50000000 -0.009743 -0.700080 0.713998 0.000000
34.62009811 191.95300293 286.00000000 -0.974325 0.213095 -0.072674 0.000000
158.36099243 154.93400574 360.50000000 0.001358 0.824239 0.566240 0.000000
90.49220276 135.73800659 397.50000000 -0.079633 -0.379269 0.921853 0.000000
36.67679977 220.74600220 334.00000000 -0.904438 0.417115 0.089480 0.000000
85.69339752 190.58200073 395.50000000 0.000978 0.000978 0.999999 0.000000
105.57399750 89.46389771 352.00000000 -0.368228 -0.594075 0.715181 0.000000
33.24900055 178.92799377 288.00000000 -0.999999 -0.000978 -0.000978 0.000000
136.42399597 75.41020203 348.50000000 0.034703 -0.939565 0.340608 0.000000
89.12110138 249.88200378 369.00000000 0.116446 0.791541 0.599920 0.000000
64.44139862 180.98399353 275.50000000 0.540648 -0.093215 -0.836069 0.000000
155.61900330 78.15229797 358.50000000 -0.167329 -0.803481 0.571331 0.000000
56.21480179 243.71200562 358.00000000 -0.705724 0.708486 0.001381 0.000000
178.92799377 89.12110138 366.50000000 0.110586 -0.261504 0.958847 0.000000
161.10400391 116.54299927 333.50000000 0.178297 -0.410228 -0.894384 0.000000
31.19239998 208.40600586 351.00000000 -0.985297 0.170815 0.003394 0.000000
82.95120239 185.78300476 289.50000000 0.596705 0.239622 -0.765849 0.000000
62.38479996 99.40429688 348.50000000 -0.471497 -0.757352 -0.451783 0.000000
75.06739807 253.65199280 319.00000000 0.018661 0.993413 -0.113062 0.000000
45.93159866 122.71299744 358.50000000 -0.760890 -0.433626 0.482715 0.000000
38.73339844 226.22999573 344.00000000 -0.845451 0.319185 -0.428175 0.000000
126.14099884 197.43800354 318.50000000 0.566715 0.137610 -0.812341 0.000000
160.41799927 153.56199646 367.50000000 0.305795 0.862067 0.404142 0.000000
162.47500610 84.32230377 365.50000000 -0.001211 -0.279674 0.960094 0.000000
94.60549927 95.97660065 331.50000000 0.598872 -0.725463 -0.339199 0.000000
36.67679977 150.13499451 282.00000000 -0.919535 -0.360795 -0.155830 0.000000
189.21099854 104.88899994 360.50000000 0.776403 -0.004137 0.630224 0.000000
55.87210083 239.25599670 367.00000000 -0.636378 0.636378 0.435944 0.000000
126.14099884 77.12400055 352.00000000 -0.209757 -0.893301 0.397512 0.000000
85.00779724 104.20300293 374.50000000 0.001358 -0.824239 0.566240 0.000000
171.72900391 150.13499451 367.00000000 0.624938 -0.126175 0.770411 0.000000
171.38699341 119.97100067 336.50000000 0.488665 -0.416754 -0.766501 0.000000
103.17500305 88.43550110 316.00000000 0.339278 -0.535448 0.773425 0.000000
82.26560211 116.54299927 299.50000000 0.187535 0.911905 -0.365048 0.000000
127.51200104 198.12300110 319.50000000 0.544345 0.182454 -0.818779 0.000000
63.41310120 204.29299927 278.00000000 0.714192 0.230739 -0.660824 0.000000
72.66799927 164.87399292 392.00000000 -0.497603 0.675199 0.544515 0.000000
121.34200287 253.65199280 352.50000000 0.510480 0.825096 0.242131 0.000000
184.41200256 89.12110138 365.50000000 0.172972 -0.220506 0.959926 0.000000
116.54299927 206.00700378 316.00000000 0.401345 0.401345 -0.823313 0.000000
31.19239998 194.69500732 367.00000000 -0.957853 0.168720 0.232489 0.000000
141.90800476 124.76999664 376.50000000 0.314240 -0.182958 0.931547 0.000000
55.52930069 222.80299377 277.50000000 -0.855127 0.426793 -0.294287 0.000000
46.27439880 124.76999664 312.00000000 -0.783302 -0.598461 0.168175 0.000000
44.21780014 218.68899536 375.00000000 -0.672506 0.410146 0.616049 0.000000
28.79299927 191.61000061 356.00000000 -0.974335 0.225028 0.005891 0.000000
54.15819931 111.74400330 358.50000000 -0.677541 -0.590975 0.437821 0.000000
142.93699646 206.35000610 358.00000000 0.869620 0.248678 -0.426521 0.000000
63.75590134 123.05599976 286.00000000 0.390303 -0.027413 -0.920278 0.000000
122.02700043 75.06739807 344.00000000 -0.189361 -0.946804 0.260201 0.000000
29.82130051 161.10400391 360.00000000 -0.726771 -0.624544 0.285917 0.000000
101.46099854 256.39498901 317.50000000 0.380667 0.611374 -0.693769 0.000000
120.31300354 152.87699890 394.00000000 0.376261 0.102617 0.920814 0.000000
104.88899994 243.36900330 318.50000000 -0.276165 0.137416 -0.951236 0.000000
104.54599762 156.99000549 325.00000000 0.729362 0.511050 -0.454818 0.000000
59.64260101 236.51400757 293.50000000 -0.506597 0.587383 -0.631142 0.000000
128.19700623 109.00199890 370.50000000 0.001380 -0.738126 0.674661 0.000000
137.79499817 76.09570313 350.50000000 -0.059713 -0.924886 0.375527 0.000000
31.87789917 173.44299316 371.00000000 -0.762886 -0.085734 0.640824 0.000000
101.46099854 260.50799561 338.50000000 -0.017074 0.986889 0.160497 0.000000
40.10449982 210.46299744 288.00000000 -0.886328 0.430834 -0.169722 0.000000
79.52339935 123.05599976 308.00000000 0.504878 0.403576 -0.763036 0.000000
54.84379959 183.72700500 267.50000000 0.602588 -0.228890 -0.764524 0.000000
74.03910065 194.00999451 396.50000000 -0.071161 0.136488 0.988083 0.000000
80.20899963 154.24800110 287.50000000 0.046281 -0.186312 -0.981400 0.000000
188.18299866 82.26560211 361.00000000 0.826205 -0.540383 -0.159286 0.000000
84.32230377 258.10800171 325.00000000 -0.273477 0.915931 -0.293735 0.000000
116.54299927 139.16600037 395.50000000 0.157220 0.047748 0.986409 0.000000
139.16600037 193.66700745 375.00000000 0.648857 -0.344858 0.678276 0.000000
141.90800476 74.38179779 345.00000000 0.010401 -0.981145 0.192993 0.000000
47.98830032 123.74099731 295.00000000 -0.924026 -0.331521 0.190448 0.000000
148.76400757 138.47999573 377.50000000 0.508355 -0.110888 0.853979 0.000000
42.16109848 122.71299744 348.00000000 -0.759264 -0.641320 -0.110572 0.000000
46.95999908 211.14799500 382.00000000 -0.492128 0.257634 0.831526 0.000000
124.76999664 207.72099304 320.50000000 0.497119 0.107446 -0.861004 0.000000
92.54879761 155.96200562 307.00000000 0.001251 -0.341642 -0.939829 0.000000
96.66210175 260.85101318 325.00000000 0.183285 0.965822 -0.183285 0.000000
68.89749908 253.65199280 334.00000000 -0.516298 0.849950 -0.104985 0.000000
135.05299377 163.50300598 384.00000000 0.717849 0.293885 0.631129 0.000000
27.42189980 196.06599426 335.50000000 -0.911033 -0.287158 0.295904 0.000000
31.87789917 211.14799500 348.00000000 -0.965536 0.253562 0.058707 0.000000
105.57399750 247.48199463 367.50000000 0.532697 0.427147 0.730602 0.000000
163.16000366 98.71880341 368.50000000 -0.156659 -0.082515 0.984200 0.000000
163.16000366 120.31300354 369.00000000 0.139754 0.096753 0.985448 0.000000
54.15819931 232.05799866 294.00000000 -0.687410 0.687410 -0.234380 0.000000
40.44729996 220.74600220 303.50000000 -0.927064 0.309965 -0.210889 0.000000
100.08999634 182.35499573 340.50000000 -0.026487 -0.611987 -0.790425 0.000000
32.90620041 197.09500122 305.00000000 -0.943876 0.284661 -0.167528 0.000000
57.58589935 104.54599762 345.00000000 -0.727066 -0.684045 0.058796 0.000000
53.12990189 114.48600006 308.00000000 -0.828614 -0.551929 0.093669 0.000000
73.01069641 142.59399414 298.00000000 0.684519 -0.696993 -0.213620 0.000000
109.34500122 226.22999573 319.00000000 0.475193 0.232283 -0.848667 0.000000
31.19239998 161.78900146 314.00000000 -0.930728 -0.360410 -0.062049 0.000000
147.39300537 164.53100586 324.50000000 0.279687 -0.023410 -0.959806 0.000000
120.65599823 103.86000061 367.00000000 0.050033 -0.713333 0.699037 0.000000
119.62799835 253.65199280 346.00000000 0.517223 0.778252 -0.356095 0.000000
124.08399963 135.73800659 331.50000000 0.483358 0.850770 0.206293 0.000000
77.12400055 113.80100250 383.00000000 -0.252485 -0.581814 0.773139 0.000000
78.15229797 255.02299500 323.50000000 -0.590602 0.791978 -0.154789 0.000000
43.53219986 128.19700623 333.00000000 -0.962222 0.161464 -0.219224 0.000000
130.59700012 197.43800354 378.00000000 0.402098 0.277675 0.872476 0.000000
195.38099670 128.53999329 361.00000000 0.895027 -0.064223 0.441364 0.000000
37.70510101 209.77699280 296.50000000 -0.888909 0.363033 -0.279371 0.000000
128.19700623 250.22500610 342.50000000 0.264192 0.961961 0.069524 0.000000
59.64260101 218.68899536 275.50000000 0.765729 0.117007 -0.632430 0.000000
71.98239899 139.16600037 302.50000000 0.889909 0.254047 0.378843 0.000000
62.72750092 132.31100464 286.00000000 0.750421 0.046990 -0.659288 0.000000
32.22069931 164.53100586 299.50000000 -0.979323 -0.104445 -0.173255 0.000000
68.89749908 253.65199280 337.00000000 -0.696771 0.716557 -0.032507 0.000000
75.75289917 254.33799744 325.00000000 -0.410368 0.812752 -0.413561 0.000000
196.06599426 118.59999847 355.50000000 0.855224 0.355438 0.377168 0.000000
124.08399963 91.86329651 313.50000000 0.222913 0.441338 -0.869212 0.000000
130.25399780 180.29899597 323.50000000 0.858576 -0.408479 -0.309827 0.000000
119.62799835 199.49400330 315.00000000 0.424104 0.166457 -0.890184 0.000000
124.08399963 160.41799927 340.50000000 0.192191 -0.141279 -0.971135 0.000000
32.90620041 162.13200378 366.00000000 -0.809591 -0.378448 0.448708 0.000000
74.38179779 220.74600220 294.00000000 0.792042 0.094464 -0.603114 0.000000
140.53700256 188.52499390 357.50000000 0.948277 -0.206028 0.241504 0.000000
105.91699982 260.50799561 342.00000000 0.135051 0.989223 -0.056560 0.000000
150.13499451 73.01069641 342.00000000 -0.076759 -0.986062 0.147614 0.000000
27.76460075 164.53100586 357.00000000 -0.969151 -0.107683 0.221701 0.000000
133.33900452 189.21099854 327.00000000 0.899724 -0.055639 -0.432899 0.000000
120.65599823 241.99800110 363.50000000 0.419388 0.691244 0.588469 0.000000
36.33399963 177.55700684 377.50000000 -0.793051 -0.103695 0.600265 0.000000
139.85200500 141.90800476 333.50000000 -0.275263 0.949320 0.151730 0.000000
73.35350037 222.80299377 387.50000000 -0.279031 0.497267 0.821503 0.000000
182.69799805 104.20300293 365.00000000 0.224824 0.017843 0.974236 0.000000
147.39300537 78.83789825 358.50000000 -0.066541 -0.833890 0.547904 0.000000
142.25100708 194.00999451 356.00000000 0.772631 0.228525 0.592299 0.000000
70.95410156 213.89100647 289.00000000 0.762600 0.382113 -0.521950 0.000000
87.75000000 246.11099243 307.50000000 0.494004 0.186557 -0.849209 0.000000
115.17199707 76.43849945 345.00000000 0.134696 -0.950877 -0.278728 0.000000
44.21780014 152.19099426 373.00000000 -0.600599 -0.229320 0.765959 0.000000
86.37889862 201.55099487 395.50000000 0.152969 0.074706 0.985403 0.000000
67.18360138 197.43800354 395.50000000 -0.136477 0.093754 0.986197 0.000000
80.20899963 253.99499512 313.00000000 -0.465471 0.864022 -0.191840 0.000000
90.49220276 160.41799927 399.50000000 -0.000978 -0.000978 0.999999 0.000000
97.34770203 80.89450073 335.50000000 -0.273052 -0.681831 0.678638 0.000000
88.77829742 152.19099426 314.00000000 0.718151 -0.566266 -0.404476 0.000000
124.76999664 131.62500000 325.50000000 -0.772377 0.632980 0.052630 0.000000
129.22599792 241.99800110 334.00000000 0.655590 0.304439 -0.691027 0.000000
