90.17579651 152.89100647 55.00000000 -0.892680 -0.445654 -0.067191 0.000000
165.50799561 140.64500427 182.50000000 -0.306770 -0.793152 0.526119 0.000000
89.43360138 164.02299500 132.50000000 -0.664746 -0.738771 -0.111038 0.000000
129.88299561 234.53100586 193.75000000 0.449556 0.452825 0.769967 0.000000
153.63299561 171.44500732 201.25000000 0.000978 0.000978 0.999999 0.000000
131.36700439 192.59800720 105.00000000 0.857997 0.315780 -0.405122 0.000000
91.28910065 162.53900146 131.25000000 -0.631102 -0.760636 -0.152127 0.000000
96.48439789 253.08599854 181.25000000 -0.149430 0.719980 0.677717 0.000000
102.42199707 146.58200073 177.50000000 -0.690339 -0.693442 -0.206326 0.000000
98.71089935 156.97300720 102.50000000 -0.472155 -0.748539 0.465575 0.000000
225.25399780 144.72700500 190.00000000 -0.899687 -0.418164 0.125308 0.000000
73.84770203 187.77299500 182.50000000 -0.886120 -0.064771 0.458908 0.000000
103.16400146 184.80499268 31.25000000 0.000978 0.000978 -0.999999 0.000000
118.00800323 214.49200439 203.75000000 -0.064381 0.447929 0.891748 0.000000
142.50000000 158.08599854 118.75000000 0.713497 0.123633 -0.689664 0.000000
78.30079651 252.34399414 147.50000000 -0.693442 0.690339 -0.206326 0.000000
161.05499268 171.44500732 203.75000000 -0.089251 -0.045176 0.994984 0.000000
161.05499268 130.62500000 161.25000000 -0.550506 -0.658250 0.513469 0.000000
203.35899353 146.95300293 203.75000000 -0.175067 -0.607406 0.774861 0.000000
106.13300323 145.09800720 187.50000000 -0.327486 -0.944229 -0.034405 0.000000
116.52300262 210.78100586 106.25000000 0.644658 0.523469 -0.557132 0.000000
207.81199646 136.56199646 141.25000000 -0.502775 -0.664201 0.553221 0.000000
193.71099854 160.31199646 208.75000000 -0.486534 -0.486534 0.725650 0.000000
162.53900146 150.66400146 113.75000000 -0.259659 -0.813184 0.520873 0.000000
97.22660065 210.78100586 63.75000000 0.505369 0.458975 -0.730715 0.000000
113.18399811 196.67999268 72.50000000 0.679465 0.682648 -0.268922 0.000000
124.68800354 146.21099854 201.25000000 0.272151 -0.850279 0.450510 0.000000
146.95300293 177.75399780 155.00000000 0.365394 0.594789 -0.716040 0.000000
183.32000732 169.96099854 158.75000000 -0.605560 -0.527967 0.595439 0.000000
103.53500366 152.89100647 127.50000000 -0.686976 -0.621079 -0.377260 0.000000
191.48399353 121.34799957 120.00000000 -0.135252 -0.985068 -0.106526 0.000000
145.46899414 176.64100647 148.75000000 0.023969 0.947397 -0.319163 0.000000
106.87500000 185.54699707 31.25000000 -0.068703 0.392013 -0.917391 0.000000
107.61699677 185.54699707 31.25000000 -0.068703 0.392013 -0.917391 0.000000
139.53100586 181.09399414 208.75000000 0.356329 -0.045683 0.933243 0.000000
119.86299896 151.40600586 65.00000000 0.839068 -0.531844 -0.114484 0.000000
89.80470276 161.79699707 101.25000000 -0.191429 -0.830533 0.523040 0.000000
214.86300659 136.56199646 150.00000000 -0.526613 -0.803281 0.278240 0.000000
135.44900513 217.46099854 127.50000000 0.668099 0.387663 -0.635107 0.000000
134.33599854 148.06599426 192.50000000 0.634678 -0.753395 0.171987 0.000000
72.73439789 188.14500427 177.50000000 -0.935348 -0.301591 0.184846 0.000000
161.05499268 153.63299561 196.25000000 -0.017584 -0.507237 0.861627 0.000000
84.60939789 214.86300659 75.00000000 -0.598970 0.598970 -0.531480 0.000000
106.13300323 194.08200073 210.00000000 -0.220132 0.311026 0.924556 0.000000
155.85899353 190.00000000 146.25000000 -0.888397 0.417122 -0.191730 0.000000
189.62899780 161.79699707 157.50000000 -0.486938 -0.755820 0.437753 0.000000
181.09399414 185.54699707 203.75000000 -0.116424 0.863838 0.490131 0.000000
106.13300323 198.16400146 208.75000000 -0.094734 0.147497 0.984515 0.000000
147.69500732 192.22700500 203.75000000 0.459008 0.354183 0.814780 0.000000
182.57800293 193.33999634 172.50000000 0.950641 0.306699 0.047087 0.000000
120.97699738 227.47999573 125.00000000 0.596368 0.488853 -0.636685 0.000000
92.77339935 236.75799561 101.25000000 0.055519 0.778691 -0.624946 0.000000
91.28910065 212.63699341 202.50000000 -0.462071 0.435947 0.772296 0.000000
198.16400146 144.72700500 143.75000000 -0.539178 -0.673552 0.505584 0.000000
120.23400116 184.06199646 43.75000000 0.913239 0.306349 0.268600 0.000000
137.30499268 227.10899353 193.75000000 0.361587 0.352355 0.863192 0.000000
204.10200500 135.44900513 135.00000000 -0.831058 -0.414740 -0.370585 0.000000
152.52000427 214.49200439 185.00000000 0.792882 0.552046 0.258038 0.000000
123.94499969 255.31199646 178.75000000 0.171987 0.753395 0.634678 0.000000
171.44500732 142.50000000 103.75000000 -0.364682 -0.714645 0.596900 0.000000
201.13299561 148.43800354 151.25000000 -0.624743 -0.591064 0.510235 0.000000
227.85200500 136.56199646 178.75000000 -0.905229 -0.417693 0.078061 0.000000
89.80470276 230.44900513 92.50000000 -0.343933 0.715577 -0.607996 0.000000
124.68800354 209.29699707 113.75000000 0.446152 0.810750 -0.378990 0.000000
65.31250000 194.45300293 113.75000000 -0.830933 -0.497943 -0.248201 0.000000
192.96899414 119.86299896 147.50000000 -0.001215 -0.958392 0.285453 0.000000
100.19499969 233.78900146 196.25000000 -0.294830 0.518711 0.802505 0.000000
143.98399353 155.11700439 121.25000000 0.767655 -0.001378 -0.640861 0.000000
95.74220276 212.26600647 63.75000000 0.079252 0.799726 -0.595111 0.000000
173.67199707 124.68800354 158.75000000 -0.097759 -0.868496 0.485961 0.000000
83.86720276 163.65199280 97.50000000 -0.725697 -0.591973 0.350617 0.000000
212.26600647 162.16799927 195.00000000 -0.598970 -0.598970 0.531480 0.000000
211.52299500 160.31199646 208.75000000 0.395713 0.022202 0.918106 0.000000
155.48800659 190.74200439 200.00000000 0.542965 0.583561 0.603859 0.000000
172.92999268 165.50799561 143.75000000 -0.486426 -0.758300 0.434016 0.000000
204.84399414 137.30499268 196.25000000 -0.431706 -0.864926 0.255994 0.000000
82.01170349 196.67999268 62.50000000 -0.853258 0.287494 -0.435085 0.000000
119.49199677 263.47698975 141.25000000 0.246278 0.882122 -0.401507 0.000000
180.35200500 140.27299500 108.75000000 -0.687818 -0.638804 0.344726 0.000000
222.28500366 152.14799500 200.00000000 -0.869360 -0.488578 -0.074197 0.000000
85.35160065 257.16799927 142.50000000 -0.454541 0.787763 -0.415719 0.000000
146.58200073 231.56199646 145.00000000 0.606615 0.032222 -0.794343 0.000000
103.16400146 195.93800354 43.75000000 0.234440 0.557376 -0.796473 0.000000
143.98399353 183.32000732 206.25000000 0.161776 -0.045390 0.985783 0.000000
174.41400146 167.36300659 147.50000000 -0.448889 -0.768825 0.455419 0.000000
86.83589935 156.60200500 58.75000000 -0.923321 -0.374466 -0.085167 0.000000
214.86300659 151.40600586 177.50000000 -0.626939 -0.653547 0.424057 0.000000
129.14100647 168.47700500 213.75000000 0.255901 -0.217170 0.941993 0.000000
106.87500000 148.43800354 33.75000000 0.399828 -0.841992 -0.362198 0.000000
190.74200439 140.27299500 126.25000000 -0.362726 -0.836939 0.409833 0.000000
141.01600647 175.89799500 206.25000000 0.473412 -0.389394 0.790097 0.000000
107.61699677 263.84799194 137.50000000 -0.271441 0.851128 -0.449334 0.000000
129.14100647 166.99200439 213.75000000 0.255901 -0.217170 0.941993 0.000000
99.45310211 225.62500000 201.25000000 -0.274093 0.578289 0.768411 0.000000
195.93800354 180.35200500 208.75000000 0.206771 0.552920 0.807171 0.000000
104.64800262 247.89100647 188.75000000 -0.285346 0.824854 0.488051 0.000000
192.22700500 161.05499268 158.75000000 -0.508600 -0.730594 0.455586 0.000000
86.09380341 172.92999268 198.75000000 -0.819370 -0.137300 0.556581 0.000000
170.70300293 140.27299500 101.25000000 -0.469448 -0.728225 0.499307 0.000000
139.53100586 199.64799500 113.75000000 -0.000978 -0.000978 -0.999999 0.000000
197.79299927 137.30499268 127.50000000 -0.458859 -0.723904 0.515181 0.000000
92.77339935 263.84799194 165.00000000 -0.324752 0.849950 0.414875 0.000000
92.03119659 157.71499634 145.00000000 -0.759573 -0.528610 -0.378973 0.000000
168.84800720 151.40600586 197.50000000 -0.349352 -0.087003 0.932944 0.000000
96.48439789 250.11700439 118.75000000 -0.213237 0.906621 -0.364099 0.000000
108.35900116 149.92199707 33.75000000 0.627822 -0.654467 -0.421323 0.000000
134.33599854 186.28900146 151.25000000 0.343121 0.230195 0.910647 0.000000
83.86720276 160.68400574 87.50000000 -0.798139 -0.602395 0.009649 0.000000
70.50779724 204.10200500 98.75000000 -0.958392 -0.001215 -0.285453 0.000000
178.12500000 122.46099854 156.25000000 -0.221396 -0.832144 0.508448 0.000000
102.42199707 135.82000732 58.75000000 -0.614870 -0.767444 -0.181562 0.000000
160.31199646 138.41799927 172.50000000 -0.350896 -0.876480 0.329629 0.000000
198.90600586 130.62500000 113.75000000 -0.001069 -0.995047 0.099398 0.000000
125.05899811 230.07800293 130.00000000 0.520178 0.506797 -0.687438 0.000000
137.30499268 192.96899414 143.75000000 -0.303476 -0.913331 0.271531 0.000000
87.57810211 184.06199646 48.75000000 -0.859824 0.254143 -0.442847 0.000000
103.16400146 248.63299561 186.25000000 -0.285346 0.824854 0.488051 0.000000
145.46899414 161.05499268 198.75000000 0.276411 -0.554401 0.785007 0.000000
70.87889862 190.74200439 172.50000000 -0.952158 -0.265750 0.150903 0.000000
69.02339935 205.58599854 176.25000000 -0.900133 -0.104667 0.422853 0.000000
92.03119659 210.41000366 62.50000000 -0.432692 0.717837 -0.545424 0.000000
130.62500000 186.28900146 211.25000000 0.205483 0.003483 0.978655 0.000000
140.27299500 146.58200073 180.00000000 -0.364464 -0.813279 0.453590 0.000000
169.96099854 142.87100220 102.50000000 -0.338238 -0.742828 0.577755 0.000000
80.89839935 233.04699707 108.75000000 -0.678216 0.687746 -0.258898 0.000000
152.14799500 204.84399414 128.75000000 0.799835 0.600218 0.001367 0.000000
148.43800354 195.19500732 201.25000000 0.481600 0.511596 0.711569 0.000000
110.58599854 152.14799500 33.75000000 0.740662 -0.606287 -0.289546 0.000000
142.12899780 248.63299561 175.00000000 0.600304 0.536046 0.593540 0.000000
163.28100586 149.17999268 193.75000000 -0.294555 -0.571596 0.765843 0.000000
194.45300293 121.71900177 158.75000000 -0.303476 -0.913331 0.271531 0.000000
149.17999268 169.58999634 137.50000000 0.823611 0.369752 -0.430055 0.000000
77.92970276 178.49600220 185.00000000 -0.916588 -0.334218 0.219465 0.000000
173.67199707 150.29299927 122.50000000 -0.507831 -0.729490 0.458206 0.000000
156.60200500 178.86700439 203.75000000 0.000978 0.000978 0.999999 0.000000
104.64800262 155.11700439 208.75000000 -0.350971 -0.535353 0.768255 0.000000
195.93800354 133.96499634 117.50000000 -0.457183 -0.793205 0.402256 0.000000
128.39799500 224.14100647 198.75000000 0.363178 0.505221 0.782850 0.000000
84.23829651 161.05499268 70.00000000 -0.913780 -0.358934 -0.190192 0.000000
161.05499268 175.52699280 150.00000000 -0.392245 0.653741 -0.647121 0.000000
154.37500000 141.01600647 176.25000000 -0.133173 -0.838549 0.528300 0.000000
86.83589935 185.54699707 51.25000000 -0.860736 0.110277 -0.496964 0.000000
139.90199280 218.94500732 132.50000000 0.486534 0.486534 -0.725650 0.000000
96.85549927 153.63299561 142.50000000 -0.707044 -0.585083 -0.397197 0.000000
103.90599823 152.14799500 98.75000000 -0.282563 -0.739135 0.611423 0.000000
112.06999969 154.37500000 33.75000000 0.734865 -0.613188 -0.289783 0.000000
112.44100189 154.37500000 35.00000000 0.798183 -0.537872 -0.271288 0.000000
113.55500031 178.86700439 216.25000000 -0.101252 0.203755 0.973772 0.000000
178.12500000 159.57000732 138.75000000 -0.377938 -0.567725 0.731335 0.000000
99.45310211 178.86700439 211.25000000 -0.241447 -0.042897 0.969465 0.000000
175.15600586 148.43800354 198.75000000 -0.842599 -0.078150 0.532841 0.000000
93.88670349 144.72700500 77.50000000 -0.733819 -0.650396 0.196200 0.000000
140.27299500 230.82000732 188.75000000 0.669037 0.230324 0.706641 0.000000
209.29699707 155.85899353 173.75000000 -0.414740 -0.831058 0.370585 0.000000
141.38699341 146.21099854 117.50000000 0.709510 0.240698 -0.662314 0.000000
103.53500366 259.02301025 177.50000000 -0.127553 0.831293 0.541000 0.000000
91.28910065 150.66400146 86.25000000 -0.626479 -0.701330 0.340088 0.000000
94.25779724 153.26199341 172.50000000 -0.707106 -0.707106 0.001384 0.000000
113.92600250 155.85899353 35.00000000 0.816230 -0.499765 -0.289832 0.000000
113.55500031 212.26600647 103.75000000 0.720987 0.538668 -0.435907 0.000000
105.39099884 155.11700439 208.75000000 -0.305400 -0.507945 0.805433 0.000000
97.22660065 139.16000366 70.00000000 -0.691826 -0.691826 0.206770 0.000000
182.57800293 139.53100586 188.75000000 -0.109559 -0.908368 0.403565 0.000000
183.32000732 162.53900146 206.25000000 -0.080559 -0.124925 0.988890 0.000000
184.80499268 148.06599426 200.00000000 -0.052555 -0.609349 0.791159 0.000000
89.06250000 218.20300293 76.25000000 -0.411997 0.696589 -0.587385 0.000000
129.14100647 227.10899353 131.25000000 0.528685 0.416690 -0.739501 0.000000
73.47660065 210.78100586 188.75000000 -0.846664 0.072087 0.527222 0.000000
74.96089935 210.78100586 86.25000000 0.001379 -0.643838 -0.765161 0.000000
207.07000732 178.12500000 203.75000000 -0.238110 0.168939 0.956433 0.000000
95.00000000 154.00399780 152.50000000 -0.667208 -0.735563 0.117393 0.000000
84.98049927 184.06199646 52.50000000 -0.828495 0.175287 -0.531855 0.000000
76.44529724 178.12500000 83.75000000 -0.767876 -0.573920 -0.284575 0.000000
83.12500000 216.71899414 196.25000000 -0.321719 -0.069033 0.944315 0.000000
128.39799500 192.96899414 141.25000000 0.708750 -0.206267 0.674631 0.000000
102.42199707 243.80900574 110.00000000 0.156080 0.653112 -0.741002 0.000000
196.67999268 141.38699341 137.50000000 -0.554962 -0.710683 0.432373 0.000000
182.20700073 193.71099854 172.50000000 0.950641 0.306699 0.047087 0.000000
115.03900146 158.45700073 35.00000000 0.832139 -0.512670 -0.211458 0.000000
118.75000000 245.66400146 123.75000000 0.717166 0.175851 -0.674351 0.000000
152.89100647 182.20700073 157.50000000 -0.673823 -0.607272 -0.420931 0.000000
103.90599823 139.53100586 83.75000000 -0.438249 -0.664872 0.604883 0.000000
76.07420349 176.64100647 90.00000000 -0.918278 -0.361405 -0.161718 0.000000
94.25779724 217.46099854 71.25000000 0.113948 0.921193 -0.372047 0.000000
106.13300323 145.09800720 182.50000000 -0.412244 -0.911072 -0.001292 0.000000
166.25000000 190.00000000 193.75000000 0.288060 0.807512 0.514730 0.000000
209.29699707 147.69500732 203.75000000 0.029496 -0.754247 0.655928 0.000000
112.81199646 142.87100220 155.00000000 -0.516071 -0.856545 0.001340 0.000000
88.69139862 149.92199707 75.00000000 -0.837491 -0.447597 0.313474 0.000000
197.79299927 174.41400146 210.00000000 -0.156422 0.328071 0.931612 0.000000
135.07800293 149.92199707 113.75000000 0.220734 0.102168 -0.969968 0.000000
193.71099854 140.27299500 128.75000000 0.489456 -0.650926 -0.580283 0.000000
85.35160065 181.09399414 201.25000000 -0.586450 -0.046410 0.808654 0.000000
131.36700439 204.47300720 115.00000000 0.212736 0.644420 -0.734484 0.000000
102.05100250 244.17999268 110.00000000 0.213168 0.689297 -0.692409 0.000000
157.34399414 135.82000732 166.25000000 -0.265476 -0.723303 0.637460 0.000000
189.25799561 159.57000732 153.75000000 -0.433016 -0.783320 0.445990 0.000000
144.35499573 222.65600586 140.00000000 0.681997 0.438546 -0.585284 0.000000
161.79699707 166.25000000 133.75000000 -0.209700 -0.806657 0.552567 0.000000
74.96089935 178.12500000 91.25000000 -0.911879 -0.371295 -0.174978 0.000000
118.75000000 152.14799500 211.25000000 -0.049265 -0.581331 0.812174 0.000000
136.93400574 179.60899353 85.00000000 0.909861 0.400228 0.109405 0.000000
90.54689789 245.29299927 115.00000000 -0.400202 0.716412 -0.571482 0.000000
94.25779724 264.58999634 165.00000000 -0.315726 0.860931 0.398893 0.000000
210.78100586 121.71900177 151.25000000 0.143284 -0.989449 0.021436 0.000000
175.89799500 169.96099854 206.25000000 0.000978 0.000978 0.999999 0.000000
117.26599884 143.98399353 196.25000000 -0.001215 -0.958392 0.285453 0.000000
134.33599854 216.71899414 126.25000000 0.413306 0.545037 -0.729461 0.000000
92.03119659 162.91000366 35.00000000 -0.906517 -0.182453 -0.380708 0.000000
133.59399414 179.97999573 142.50000000 0.547435 0.830541 0.102554 0.000000
213.00799561 147.69500732 203.75000000 -0.083889 -0.226627 0.970362 0.000000
69.39450073 212.26600647 107.50000000 -0.866594 0.345104 -0.360442 0.000000
92.03119659 164.02299500 33.75000000 -0.900850 -0.009179 -0.434034 0.000000
127.65599823 146.95300293 108.75000000 0.052451 0.998623 -0.001028 0.000000
80.52729797 218.94500732 192.50000000 -0.814210 0.252793 0.522645 0.000000
181.09399414 120.97699738 131.25000000 -0.074825 -0.984606 -0.157964 0.000000
84.23829651 207.07000732 67.50000000 -0.548329 0.820252 0.162855 0.000000
152.89100647 187.03100586 123.75000000 0.387580 -0.851431 -0.353336 0.000000
148.43800354 171.44500732 201.25000000 0.255114 -0.358339 0.898059 0.000000
190.00000000 172.18800354 168.75000000 -0.771244 -0.441875 0.458181 0.000000
91.66020203 164.76600647 35.00000000 -0.922009 -0.009001 -0.387064 0.000000
178.12500000 175.89799500 161.25000000 -0.766475 -0.576046 0.284056 0.000000
172.92999268 188.14500427 195.00000000 -0.425674 0.438622 0.791462 0.000000
209.29699707 159.19900513 180.00000000 -0.734865 -0.613188 0.289783 0.000000
87.20700073 175.89799500 202.50000000 -0.678062 -0.251310 0.690706 0.000000
146.21099854 197.42199707 201.25000000 0.640181 0.673095 0.370285 0.000000
120.97699738 149.17999268 206.25000000 0.225726 -0.758127 0.611794 0.000000
163.28100586 123.94499969 131.25000000 -0.269280 -0.948570 -0.166440 0.000000
133.22300720 221.17199707 197.50000000 0.337673 0.334645 0.879767 0.000000
165.50799561 172.18800354 203.75000000 0.000978 0.000978 0.999999 0.000000
73.84770203 185.54699707 90.00000000 -0.913331 -0.303476 -0.271531 0.000000
189.25799561 120.97699738 126.25000000 -0.161129 -0.968064 -0.192066 0.000000
138.41799927 174.41400146 85.00000000 0.955908 0.293079 0.018549 0.000000
67.53910065 192.22700500 151.25000000 -0.789375 -0.613337 -0.026545 0.000000
120.97699738 260.50799561 136.25000000 0.424984 0.756438 -0.497182 0.000000
101.30899811 135.82000732 67.50000000 -0.498561 -0.866770 -0.012094 0.000000
155.11700439 189.62899780 137.50000000 0.389946 -0.844099 0.368021 0.000000
98.71089935 181.09399414 211.25000000 -0.464428 0.204587 0.861656 0.000000
84.60939789 220.42999268 196.25000000 -0.578325 0.252332 0.775802 0.000000
113.55500031 139.90199280 140.00000000 -0.443828 -0.886229 0.132720 0.000000
211.52299500 125.05899811 170.00000000 -0.128138 -0.868171 0.479438 0.000000
154.37500000 207.81199646 188.75000000 0.963288 -0.133898 0.232697 0.000000
186.28900146 172.18800354 163.75000000 -0.637834 -0.720546 0.271994 0.000000
133.59399414 186.66000366 102.50000000 0.680586 0.693161 -0.237341 0.000000
153.63299561 210.03900146 166.25000000 0.988357 -0.118697 -0.095193 0.000000
198.16400146 131.36700439 181.25000000 -0.037273 -0.846244 0.531491 0.000000
62.34379959 222.65600586 148.75000000 -0.975504 0.183610 0.121157 0.000000
103.16400146 212.26600647 206.25000000 -0.262302 0.659729 0.704241 0.000000
123.94499969 158.08599854 118.75000000 0.669451 -0.682294 -0.293788 0.000000
81.26950073 256.05499268 150.00000000 -0.746075 0.649613 -0.146201 0.000000
64.94139862 231.56199646 142.50000000 -0.894688 0.446689 0.001310 0.000000
159.19900513 141.01600647 177.50000000 -0.189333 -0.900414 0.391673 0.000000
191.48399353 176.64100647 178.75000000 -0.691826 -0.691826 0.206770 0.000000
175.89799500 136.19099426 180.00000000 -0.315857 -0.798373 0.512673 0.000000
115.78099823 261.25000000 173.75000000 0.233122 0.813610 0.532629 0.000000
62.34379959 213.37899780 155.00000000 -0.978585 0.017579 0.205093 0.000000
103.16400146 162.53900146 211.25000000 -0.318187 -0.489152 0.812088 0.000000
89.06250000 207.81199646 203.75000000 -0.403686 0.106817 0.908641 0.000000
82.01170349 192.96899414 60.00000000 -0.882592 0.189442 -0.430282 0.000000
169.21899414 170.33200073 147.50000000 -0.429447 -0.714640 0.552146 0.000000
88.32029724 201.13299561 53.75000000 -0.699123 0.502234 -0.508908 0.000000
160.31199646 151.40600586 113.75000000 -0.058102 -0.814841 0.576766 0.000000
83.12500000 162.53900146 93.75000000 -0.693430 -0.687197 0.216599 0.000000
119.49199677 261.62100220 137.50000000 0.262661 0.866934 -0.423598 0.000000
140.27299500 165.50799561 121.25000000 0.111643 0.540817 -0.833699 0.000000
92.03119659 163.65199280 107.50000000 -0.367480 -0.854352 0.367480 0.000000
119.86299896 170.70300293 35.00000000 0.903745 -0.250471 -0.347144 0.000000
96.48439789 157.34399414 133.75000000 -0.737235 -0.651403 -0.179327 0.000000
92.40229797 171.44500732 35.00000000 -0.793865 0.190467 -0.577495 0.000000
130.62500000 167.36300659 62.50000000 0.839887 -0.476193 -0.260442 0.000000
80.52729797 176.64100647 62.50000000 -0.969423 -0.091787 -0.227582 0.000000
62.71480179 209.29699707 155.00000000 -0.905861 -0.083597 0.415243 0.000000
174.78500366 204.10200500 180.00000000 0.804454 0.569004 -0.170550 0.000000
88.32029724 237.50000000 188.75000000 -0.569592 0.426779 0.702442 0.000000
113.55500031 193.71099854 211.25000000 0.000978 0.000978 0.999999 0.000000
213.75000000 132.47999573 140.00000000 -0.370096 -0.833110 0.411043 0.000000
112.06999969 246.40600586 188.75000000 0.178502 0.758254 0.627047 0.000000
184.06199646 169.96099854 208.75000000 -0.462576 -0.146458 0.874399 0.000000
102.42199707 244.92199707 111.25000000 0.186210 0.724836 -0.663279 0.000000
213.00799561 126.91400146 173.75000000 -0.201678 -0.858999 0.470582 0.000000
129.88299561 169.21899414 213.75000000 0.393361 -0.225409 0.891324 0.000000
118.75000000 143.61300659 195.00000000 -0.001215 -0.958392 0.285453 0.000000
109.10199738 150.66400146 101.25000000 -0.547087 -0.680931 0.486857 0.000000
74.21880341 238.24200439 123.75000000 -0.521017 0.833327 0.184683 0.000000
181.09399414 177.75399780 167.50000000 -0.512226 -0.769152 0.382137 0.000000
87.94920349 166.99200439 127.50000000 -0.691826 -0.691826 -0.206770 0.000000
120.23400116 137.67599487 145.00000000 -0.495211 -0.793299 0.354180 0.000000
157.34399414 163.28100586 198.75000000 -0.028413 -0.477616 0.878109 0.000000
144.72700500 210.78100586 196.25000000 0.316692 0.523575 0.790933 0.000000
106.87500000 147.32400513 200.00000000 -0.291374 -0.909261 0.297230 0.000000
199.64799500 142.50000000 201.25000000 -0.307973 -0.503812 0.807047 0.000000
70.50779724 185.17599487 127.50000000 -0.765280 -0.626958 0.145839 0.000000
97.59770203 267.18798828 157.50000000 0.014319 0.992395 0.122260 0.000000
141.75799561 132.10899353 151.25000000 -0.234263 -0.798978 0.553855 0.000000
224.88299561 146.21099854 196.25000000 -0.918161 -0.364171 0.156073 0.000000
120.97699738 250.11700439 186.25000000 -0.018104 0.761780 0.647583 0.000000
67.16799927 228.59399414 170.00000000 -0.850229 0.305091 0.428986 0.000000
83.86720276 250.85899353 131.25000000 -0.538261 0.767790 -0.347526 0.000000
70.13670349 186.28900146 137.50000000 -0.847553 -0.508532 -0.151822 0.000000
105.39099884 258.28100586 178.75000000 -0.158869 0.832947 0.530057 0.000000
103.16400146 202.98800659 55.00000000 0.578736 0.678806 -0.451981 0.000000
93.51560211 175.15600586 33.75000000 -0.732733 0.117416 -0.670310 0.000000
93.14450073 175.15600586 35.00000000 -0.710772 0.101539 -0.696056 0.000000
91.28910065 152.14799500 48.75000000 -0.867764 -0.484633 -0.110079 0.000000
156.60200500 126.17199707 148.75000000 -0.234131 -0.896765 0.375493 0.000000
159.94099426 172.18800354 202.50000000 -0.405362 -0.083256 0.910357 0.000000
126.17199707 188.88699341 87.50000000 0.262251 0.789894 -0.554339 0.000000
95.00000000 233.04699707 96.25000000 0.236081 0.870643 -0.431562 0.000000
97.96880341 207.07000732 206.25000000 0.000978 0.000978 0.999999 0.000000
171.44500732 193.71099854 191.25000000 -0.624101 0.395650 0.673764 0.000000
155.11700439 178.86700439 203.75000000 0.000978 0.000978 0.999999 0.000000
79.41410065 254.19900513 152.50000000 -0.755099 0.650747 -0.079713 0.000000
165.13699341 132.85200500 167.50000000 -0.378093 -0.815214 0.438716 0.000000
120.23400116 175.89799500 33.75000000 0.901151 0.058270 -0.429571 0.000000
126.17199707 158.82800293 116.25000000 0.105706 -0.993635 -0.038944 0.000000
122.46099854 136.56199646 146.25000000 -0.377990 -0.880973 0.284622 0.000000
77.18750000 177.38299561 116.25000000 -0.476070 -0.850881 -0.222166 0.000000
76.44529724 185.54699707 76.25000000 -0.877786 -0.359301 -0.316852 0.000000
183.32000732 139.16000366 187.50000000 -0.109559 -0.908368 0.403565 0.000000
144.72700500 236.75799561 143.75000000 0.859102 0.286367 -0.424191 0.000000
140.27299500 177.01199341 110.00000000 0.985717 0.045495 0.162148 0.000000
191.48399353 131.73800659 177.50000000 0.059196 -0.882439 0.466688 0.000000
101.68000031 219.68800354 203.75000000 -0.541437 0.538064 0.646014 0.000000
132.10899353 142.87100220 170.00000000 -0.001215 -0.958392 0.285453 0.000000
129.88299561 239.72700500 133.75000000 0.554038 -0.374261 -0.743620 0.000000
84.23829651 169.21899414 195.00000000 -0.901146 -0.131153 0.413201 0.000000
221.17199707 151.03500366 192.50000000 -0.999999 0.000978 0.000978 0.000000
102.05100250 139.53100586 82.50000000 -0.551081 -0.635344 0.540969 0.000000
184.80499268 155.11700439 143.75000000 -0.492386 -0.663796 0.562966 0.000000
135.07800293 182.57800293 91.25000000 0.715327 0.685335 -0.136467 0.000000
159.57000732 191.85499573 192.50000000 0.241644 0.931249 0.272733 0.000000
100.93800354 200.76199341 207.50000000 -0.001215 0.958392 0.285453 0.000000
203.35899353 141.75799561 143.75000000 -0.453689 -0.706293 0.543430 0.000000
95.00000000 224.88299561 198.75000000 -0.631004 0.279559 0.723658 0.000000
80.15619659 238.24200439 181.25000000 -0.671728 0.487463 0.557819 0.000000
185.17599487 140.27299500 115.00000000 -0.602149 -0.761679 0.239295 0.000000
82.38279724 163.65199280 82.50000000 -0.877652 -0.476597 -0.050819 0.000000
135.07800293 219.31599426 197.50000000 0.356046 0.313624 0.880268 0.000000
92.77339935 198.16400146 48.75000000 -0.460620 0.587918 -0.664967 0.000000
130.62500000 209.29699707 203.75000000 0.232305 0.357953 0.904380 0.000000
84.23829651 171.44500732 125.00000000 -0.691826 -0.691826 -0.206770 0.000000
112.06999969 225.62500000 201.25000000 0.041539 0.430135 0.901809 0.000000
100.56600189 151.40600586 202.50000000 -0.505807 -0.670488 0.542776 0.000000
119.86299896 178.86700439 35.00000000 0.812818 0.375270 -0.445533 0.000000
77.18750000 204.10200500 193.75000000 -0.655217 0.098209 0.749029 0.000000
124.68800354 254.57000732 133.75000000 0.506482 0.421249 -0.752347 0.000000
79.41410065 224.14100647 96.25000000 -0.720860 0.620875 -0.308018 0.000000
190.00000000 131.73800659 177.50000000 0.059196 -0.882439 0.466688 0.000000
222.65600586 130.25399780 182.50000000 0.106300 -0.811086 0.575187 0.000000
195.93800354 158.08599854 208.75000000 -0.321845 -0.622665 0.713235 0.000000
62.71480179 225.62500000 147.50000000 -0.782975 0.342451 0.519304 0.000000
133.59399414 246.40600586 183.75000000 0.388424 0.629744 0.672718 0.000000
133.59399414 258.65200806 160.00000000 0.000978 0.000978 0.999999 0.000000
132.10899353 155.11700439 206.25000000 0.486534 -0.486534 0.725650 0.000000
94.62889862 180.35200500 35.00000000 -0.645201 0.470913 -0.601629 0.000000
180.35200500 145.46899414 196.25000000 -0.243863 -0.799933 0.548304 0.000000
147.69500732 155.11700439 196.25000000 -0.291941 -0.482406 0.825866 0.000000
112.81199646 198.53500366 210.00000000 -0.185817 0.311559 0.931882 0.000000
89.43360138 253.08599854 127.50000000 -0.526249 0.757603 -0.386133 0.000000
162.53900146 148.80900574 110.00000000 -0.210363 -0.889996 0.404543 0.000000
183.32000732 190.74200439 171.25000000 0.950641 0.306699 0.047087 0.000000
184.06199646 183.32000732 193.75000000 0.296667 0.934570 -0.196385 0.000000
228.59399414 135.82000732 186.25000000 0.466893 -0.779239 0.418088 0.000000
143.24200439 141.01600647 168.75000000 -0.133892 -0.903420 0.407314 0.000000
95.37110138 181.09399414 35.00000000 -0.645201 0.470913 -0.601629 0.000000
142.87100220 138.78900146 122.50000000 -0.140007 -0.122963 -0.982486 0.000000
176.64100647 195.93800354 161.25000000 0.466757 0.722560 -0.509945 0.000000
129.88299561 197.42199707 108.75000000 0.351246 0.877355 -0.326917 0.000000
151.03500366 237.50000000 155.00000000 0.848647 0.334787 -0.409531 0.000000
118.00800323 181.09399414 33.75000000 0.659958 0.555843 -0.505464 0.000000
215.97700500 123.57399750 165.00000000 0.025196 -0.973061 0.229167 0.000000
83.86720276 223.39799500 86.25000000 -0.631236 0.644561 -0.431373 0.000000
133.59399414 182.20700073 152.50000000 0.518028 0.197848 0.832168 0.000000
107.61699677 241.95300293 111.25000000 0.677726 0.038202 -0.734321 0.000000
101.68000031 135.82000732 61.25000000 -0.619315 -0.765394 -0.174991 0.000000
128.39799500 142.87100220 170.00000000 0.001110 -0.989041 0.147635 0.000000
109.10199738 214.86300659 97.50000000 0.827550 0.312490 -0.466380 0.000000
73.84770203 180.35200500 155.00000000 -0.838818 -0.541941 -0.051813 0.000000
197.42199707 172.18800354 211.25000000 0.118999 0.483166 0.867404 0.000000
112.06999969 239.72700500 193.75000000 0.001352 0.547504 0.836802 0.000000
138.04699707 178.12500000 116.25000000 0.840922 -0.210609 0.498492 0.000000
89.06250000 151.03500366 65.00000000 -0.832184 -0.492517 -0.254750 0.000000
92.77339935 214.12100220 67.50000000 -0.446264 0.721653 -0.529212 0.000000
144.72700500 193.71099854 116.25000000 0.196154 -0.956750 -0.214835 0.000000
72.73439789 227.85200500 176.25000000 -0.523848 0.201947 0.827527 0.000000
123.20300293 190.74200439 88.75000000 0.473983 0.813222 -0.337654 0.000000
106.87500000 145.83999634 160.00000000 -0.315309 -0.948461 0.031658 0.000000
211.52299500 126.17199707 171.25000000 -0.104571 -0.858054 0.502800 0.000000
134.33599854 192.22700500 208.75000000 0.521176 0.020412 0.853205 0.000000
186.28900146 135.82000732 106.25000000 -0.721561 -0.601029 0.343678 0.000000
192.96899414 128.77000427 172.50000000 -0.230643 -0.860765 0.453748 0.000000
107.24600220 229.33599854 110.00000000 0.789298 0.395456 -0.469705 0.000000
147.32400513 243.43800354 165.00000000 0.894688 0.446689 0.001310 0.000000
103.90599823 134.70700073 70.00000000 -0.315627 -0.944239 -0.093764 0.000000
90.54689789 229.33599854 196.25000000 0.000978 0.000978 0.999999 0.000000
143.98399353 170.70300293 203.75000000 0.550435 -0.210055 0.808021 0.000000
135.82000732 149.17999268 188.75000000 0.129625 -0.989969 0.056209 0.000000
103.16400146 219.68800354 203.75000000 -0.542518 0.562800 0.623643 0.000000
92.03119659 246.03500366 115.00000000 -0.400202 0.716412 -0.571482 0.000000
70.13670349 234.53100586 170.00000000 -0.819139 0.405593 0.405593 0.000000
90.54689789 201.87500000 53.75000000 -0.451417 0.890560 -0.055916 0.000000
164.76600647 166.99200439 136.25000000 -0.407063 -0.780068 0.475177 0.000000
82.75389862 179.60899353 55.00000000 -0.892578 0.001315 -0.450890 0.000000
112.81199646 199.64799500 78.75000000 0.802139 0.592636 -0.073183 0.000000
87.20700073 191.48399353 50.00000000 -0.880688 0.059264 -0.469976 0.000000
68.28119659 210.78100586 108.75000000 -0.864536 0.333222 -0.376219 0.000000
95.74220276 159.94099426 207.50000000 -0.681431 -0.318864 0.658770 0.000000
198.90600586 149.92199707 203.75000000 -0.374229 -0.567064 0.733751 0.000000
176.64100647 137.67599487 182.50000000 -0.165755 -0.825786 0.539076 0.000000
155.85899353 170.70300293 201.25000000 -0.146645 0.136786 0.979686 0.000000
129.14100647 261.25000000 148.75000000 0.459843 0.871205 -0.171890 0.000000
113.55500031 184.06199646 33.75000000 0.626216 0.639575 -0.445866 0.000000
182.94900513 167.73399353 157.50000000 -0.599646 -0.569241 0.562485 0.000000
201.87500000 134.70700073 127.50000000 -0.445098 -0.838658 0.313911 0.000000
118.75000000 210.78100586 206.25000000 0.037956 0.246104 0.968500 0.000000
201.13299561 129.88299561 178.75000000 -0.130325 -0.928738 0.347076 0.000000
83.12500000 243.80900574 120.00000000 -0.473023 0.693655 -0.543224 0.000000
103.90599823 227.10899353 201.25000000 -0.146572 0.546315 0.824655 0.000000
85.35160065 260.13699341 155.00000000 -0.691826 0.691826 -0.206770 0.000000
77.18750000 183.32000732 186.25000000 -0.893521 -0.287896 0.344580 0.000000
218.20300293 155.11700439 191.25000000 -0.522045 -0.790252 0.320890 0.000000
114.29699707 143.61300659 195.00000000 -0.024320 -0.935683 0.352001 0.000000
138.04699707 155.85899353 116.25000000 0.469800 0.503001 -0.725450 0.000000
121.71900177 260.87899780 137.50000000 0.424244 0.761674 -0.489765 0.000000
134.33599854 165.50799561 211.25000000 0.633931 -0.104429 0.766307 0.000000
92.77339935 232.30499268 93.75000000 -0.120711 0.884741 -0.450181 0.000000
135.07800293 209.66799927 202.50000000 0.173524 0.388636 0.904904 0.000000
217.46099854 137.30499268 156.25000000 -0.570383 -0.770573 0.284397 0.000000
149.17999268 188.14500427 137.50000000 -0.003817 -0.929954 0.367656 0.000000
78.67189789 249.37500000 168.75000000 -0.821282 0.436852 0.366956 0.000000
60.48830032 213.75000000 140.00000000 -0.983919 0.178584 0.003412 0.000000
193.33999634 145.46899414 140.00000000 -0.603223 -0.630108 0.488964 0.000000
83.86720276 227.10899353 191.25000000 -0.552377 0.458923 0.695895 0.000000
126.91400146 257.53900146 176.25000000 0.097257 0.811442 0.576284 0.000000
129.14100647 147.32400513 200.00000000 0.285683 -0.953581 0.095228 0.000000
146.21099854 223.39799500 186.25000000 0.694101 0.344601 0.632040 0.000000
125.43000031 141.01600647 161.25000000 -0.126936 -0.959218 0.252564 0.000000
131.36700439 151.40600586 113.75000000 -0.000978 -0.000978 -0.999999 0.000000
154.37500000 150.29299927 112.50000000 0.147593 -0.915074 0.375307 0.000000
202.61700439 133.96499634 187.50000000 -0.155142 -0.781737 0.604001 0.000000
208.55499268 160.31199646 208.75000000 0.000978 0.000978 0.999999 0.000000
112.81199646 185.54699707 33.75000000 0.580048 0.677001 -0.453006 0.000000
162.53900146 165.50799561 201.25000000 -0.132057 -0.491950 0.860550 0.000000
149.17999268 236.38699341 172.50000000 0.915900 0.327416 0.232220 0.000000
115.03900146 189.25799561 48.75000000 0.598970 0.598970 0.531480 0.000000
200.39100647 129.88299561 178.75000000 -0.130325 -0.928738 0.347076 0.000000
85.35160065 207.07000732 198.75000000 -0.709095 0.104669 0.697301 0.000000
193.71099854 144.35499573 200.00000000 -0.202589 -0.731484 0.651067 0.000000
107.61699677 235.27299500 111.25000000 0.948432 -0.236084 -0.211521 0.000000
75.33200073 216.71899414 92.50000000 -0.906057 0.216004 -0.363872 0.000000
129.88299561 230.82000732 196.25000000 0.289248 0.492503 0.820839 0.000000
106.13300323 153.63299561 113.75000000 0.600180 -0.596799 0.532555 0.000000
106.87500000 210.41000366 85.00000000 0.815784 0.513179 -0.266728 0.000000
77.55860138 224.14100647 100.00000000 -0.754668 0.574449 -0.316993 0.000000
193.71099854 131.73800659 110.00000000 -0.303476 -0.913331 0.271531 0.000000
86.46479797 241.21099854 112.50000000 -0.446815 0.715900 -0.536510 0.000000
126.91400146 136.93400574 150.00000000 -0.280363 -0.859473 0.427438 0.000000
94.25779724 226.36700439 86.25000000 -0.006677 0.874641 -0.484725 0.000000
144.72700500 182.57800293 153.75000000 0.514908 -0.338460 -0.787601 0.000000
158.08599854 127.65599823 153.75000000 -0.145851 -0.923722 0.354209 0.000000
138.78900146 247.89100647 143.75000000 0.813549 0.203006 -0.544910 0.000000
176.64100647 164.76600647 146.25000000 -0.475430 -0.748514 0.462269 0.000000
80.89839935 170.33200073 70.00000000 -0.902483 -0.385541 -0.192048 0.000000
208.92599487 173.67199707 205.00000000 0.939237 -0.309444 0.148588 0.000000
106.13300323 134.33599854 66.25000000 -0.315627 -0.944239 -0.093764 0.000000
103.16400146 137.30499268 53.75000000 -0.507266 -0.816308 -0.276265 0.000000
102.42199707 223.77000427 90.00000000 0.792550 0.501148 -0.347441 0.000000
193.71099854 120.23400116 153.75000000 0.050412 -0.970126 0.237306 0.000000
95.00000000 198.16400146 206.25000000 -0.622587 0.777140 0.091857 0.000000
106.87500000 213.75000000 206.25000000 0.203059 0.330858 0.921575 0.000000
190.74200439 181.46499634 195.00000000 0.691826 0.691826 0.206770 0.000000
226.36700439 136.93400574 192.50000000 0.191761 -0.382080 0.904015 0.000000
124.68800354 243.80900574 190.00000000 0.234440 0.557376 0.796473 0.000000
107.61699677 213.00799561 93.75000000 0.801573 0.461025 -0.380707 0.000000
107.98799896 145.46899414 160.00000000 -0.315309 -0.948461 0.031658 0.000000
126.17199707 169.21899414 51.25000000 0.920631 -0.167260 -0.352792 0.000000
117.26599884 145.09800720 100.00000000 0.155142 -0.781737 -0.604001 0.000000
128.39799500 184.80499268 146.25000000 0.699504 0.693381 0.172963 0.000000
85.72270203 169.21899414 110.00000000 -0.395749 -0.770327 0.499979 0.000000
188.51600647 157.34399414 206.25000000 0.000978 0.000978 0.999999 0.000000
213.75000000 146.95300293 203.75000000 0.006633 -0.470922 0.882150 0.000000
82.38279724 192.22700500 198.75000000 -0.677066 -0.018148 0.735699 0.000000
151.03500366 130.62500000 132.50000000 -0.601421 -0.696989 -0.390512 0.000000
94.25779724 240.83999634 190.00000000 -0.194266 0.513525 0.835795 0.000000
216.71899414 132.85200500 186.25000000 -0.063316 -0.839993 0.538890 0.000000
79.78520203 170.70300293 177.50000000 -0.804515 -0.588634 -0.079156 0.000000
73.47660065 247.52000427 152.50000000 -0.707106 0.707106 0.001384 0.000000
180.72300720 187.77299500 157.50000000 0.740044 0.243539 -0.626916 0.000000
60.85940170 213.75000000 143.75000000 -0.975124 0.197509 0.100618 0.000000
129.14100647 147.69500732 108.75000000 -0.140929 0.957525 -0.251564 0.000000
149.92199707 136.56199646 131.25000000 0.009096 -0.913506 -0.406724 0.000000
85.35160065 168.47700500 48.75000000 -0.960256 -0.199998 -0.194700 0.000000
135.07800293 244.92199707 138.75000000 0.349273 0.523104 -0.777413 0.000000
133.59399414 138.78900146 158.75000000 -0.139497 -0.908841 0.393127 0.000000
120.97699738 151.77699280 210.00000000 0.254598 -0.713191 0.653099 0.000000
125.43000031 152.14799500 208.75000000 0.223945 -0.678098 0.700023 0.000000
111.32800293 187.40199280 35.00000000 0.578736 0.678806 -0.451981 0.000000
95.00000000 264.58999634 150.00000000 -0.360739 0.844848 -0.395095 0.000000
122.46099854 203.35899353 208.75000000 -0.000978 -0.000978 0.999999 0.000000
88.69139862 153.63299561 60.00000000 -0.801999 -0.572425 -0.170670 0.000000
127.65599823 131.73800659 130.00000000 -0.484905 -0.874442 -0.014776 0.000000
88.32029724 262.73400879 153.75000000 -0.702846 0.696825 -0.142977 0.000000
121.71900177 230.82000732 198.75000000 0.087049 0.292330 0.952347 0.000000
107.61699677 241.95300293 193.75000000 -0.162549 0.412846 0.896178 0.000000
71.62110138 219.68800354 110.00000000 -0.841033 0.364917 -0.399373 0.000000
106.87500000 234.53100586 108.75000000 0.831058 0.414740 -0.370585 0.000000
164.76600647 177.38299561 158.75000000 -0.243361 -0.969846 -0.013187 0.000000
109.84400177 188.14500427 35.00000000 0.350894 0.700155 -0.621816 0.000000
136.56199646 250.11700439 141.25000000 0.813549 0.203006 -0.544910 0.000000
147.69500732 181.83599854 156.25000000 0.665807 0.006921 -0.746092 0.000000
72.36329651 224.88299561 112.50000000 -0.842116 0.443629 -0.306649 0.000000
168.47700500 128.02699280 107.50000000 -0.203737 -0.918954 -0.337662 0.000000
76.44529724 195.56599426 192.50000000 -0.933914 0.075723 0.349387 0.000000
201.13299561 158.08599854 166.25000000 -0.416825 -0.632710 0.652638 0.000000
141.75799561 156.60200500 118.75000000 0.649472 0.076664 -0.756511 0.000000
77.92970276 180.72300720 187.50000000 -0.947540 -0.239278 0.211932 0.000000
168.47700500 187.03100586 198.75000000 -0.264974 0.791786 0.550330 0.000000
156.97300720 124.68800354 145.00000000 -0.442503 -0.859156 0.256986 0.000000
140.27299500 154.37500000 193.75000000 0.433626 -0.760890 0.482715 0.000000
67.91020203 218.94500732 175.00000000 -0.837883 0.063369 0.542159 0.000000
92.77339935 238.98399353 103.75000000 0.055519 0.778691 -0.624946 0.000000
68.65229797 227.85200500 122.50000000 -0.443828 0.886229 0.132720 0.000000
146.95300293 201.87500000 196.25000000 0.769060 -0.148996 0.621569 0.000000
100.19499969 145.46899414 36.25000000 -0.479146 -0.745886 -0.462680 0.000000
125.43000031 179.60899353 213.75000000 0.435070 0.225758 0.871635 0.000000
135.07800293 185.91799927 100.00000000 0.532374 0.823587 -0.195659 0.000000
108.35900116 169.96099854 216.25000000 -0.342378 0.385756 0.856720 0.000000
62.71480179 201.87500000 135.00000000 -0.933394 -0.144339 0.328544 0.000000
114.29699707 255.31199646 181.25000000 0.156000 0.680038 0.716388 0.000000
101.30899811 212.26600647 72.50000000 0.808409 0.505847 -0.300987 0.000000
86.83589935 214.86300659 72.50000000 -0.485073 0.701773 -0.521746 0.000000
152.52000427 202.61700439 155.00000000 0.895819 0.411124 0.168777 0.000000
141.75799561 173.67199707 136.25000000 0.494856 0.856874 -0.144515 0.000000
102.05100250 148.43800354 152.50000000 -0.658250 -0.751679 -0.041052 0.000000
207.81199646 124.31600189 167.50000000 0.001242 -0.945148 0.326641 0.000000
84.60939789 245.29299927 120.00000000 -0.691826 0.691826 -0.206770 0.000000
148.43800354 189.25799561 203.75000000 0.179630 0.316093 0.931568 0.000000
141.01600647 141.01600647 168.75000000 -0.164881 -0.917412 0.362173 0.000000
114.29699707 185.54699707 213.75000000 -0.049605 0.141893 0.988638 0.000000
103.16400146 147.32400513 145.00000000 -0.538081 -0.807898 -0.240353 0.000000
155.11700439 196.67999268 178.75000000 0.809974 0.577306 0.103246 0.000000
129.14100647 138.04699707 153.75000000 -0.298618 -0.865227 0.402752 0.000000
188.51600647 141.75799561 193.75000000 -0.255124 -0.714665 0.651280 0.000000
121.71900177 254.57000732 181.25000000 0.049549 0.788535 0.612990 0.000000
110.58599854 149.17999268 121.25000000 -0.754858 -0.564123 -0.334595 0.000000
203.35899353 179.97999573 202.50000000 0.357781 0.895196 0.265738 0.000000
107.61699677 237.87100220 195.00000000 -0.999999 -0.000978 -0.000978 0.000000
175.89799500 146.58200073 117.50000000 -0.449252 -0.847558 0.282519 0.000000
80.15619659 211.89500427 77.50000000 -0.748072 0.401045 -0.528725 0.000000
101.30899811 210.78100586 70.00000000 0.811014 0.505506 -0.294485 0.000000
165.87899780 164.76600647 135.00000000 -0.407063 -0.780068 0.475177 0.000000
173.67199707 135.07800293 98.75000000 -0.847264 -0.170640 0.503017 0.000000
152.52000427 201.87500000 155.00000000 0.895819 0.411124 0.168777 0.000000
220.42999268 129.88299561 143.75000000 -0.512226 -0.769152 0.382137 0.000000
90.54689789 194.45300293 46.25000000 -0.756227 0.454392 -0.470796 0.000000
113.18399811 206.32800293 95.00000000 0.810153 0.455412 -0.369123 0.000000
97.96880341 147.32400513 37.50000000 -0.691826 -0.691826 -0.206770 0.000000
155.11700439 181.46499634 155.00000000 -0.653099 -0.629833 -0.420443 0.000000
88.32029724 196.67999268 203.75000000 -0.347729 -0.072719 0.934771 0.000000
95.74220276 224.88299561 198.75000000 -0.543876 0.223405 0.808881 0.000000
200.39100647 145.46899414 148.75000000 -0.576399 -0.616967 0.535832 0.000000
183.32000732 163.28100586 206.25000000 -0.074775 -0.074775 0.994393 0.000000
115.78099823 255.68400574 127.50000000 0.260419 0.604487 -0.752847 0.000000
97.22660065 148.43800354 36.25000000 -0.691826 -0.691826 -0.206770 0.000000
63.82809830 228.22300720 155.00000000 -0.932248 0.310749 0.185335 0.000000
132.85200500 204.84399414 116.25000000 0.192554 0.636199 -0.747110 0.000000
95.74220276 218.20300293 73.75000000 0.286508 0.815686 -0.502563 0.000000
203.35899353 145.46899414 203.75000000 -0.233518 -0.539721 0.808808 0.000000
133.96499634 255.31199646 145.00000000 0.598970 0.598970 -0.531480 0.000000
137.67599487 250.11700439 177.50000000 0.348559 0.666027 0.659481 0.000000
164.02299500 187.03100586 201.25000000 0.294261 0.867536 0.400988 0.000000
99.45310211 215.97700500 203.75000000 -0.594902 0.188105 0.781478 0.000000
129.14100647 213.00799561 203.75000000 0.350223 0.244717 0.904133 0.000000
131.36700439 204.10200500 206.25000000 -0.540279 0.806549 0.239952 0.000000
140.27299500 242.69500732 141.25000000 0.651781 0.651781 -0.387768 0.000000
138.04699707 166.25000000 103.75000000 0.791786 -0.264974 0.550330 0.000000
187.03100586 176.64100647 208.75000000 -0.056928 0.498471 0.865035 0.000000
135.07800293 225.62500000 193.75000000 0.491292 0.299798 0.817773 0.000000
176.64100647 192.96899414 193.75000000 0.403194 0.063378 0.912917 0.000000
102.42199707 254.19900513 122.50000000 0.398140 0.398140 -0.826419 0.000000
115.78099823 232.30499268 198.75000000 -0.019041 0.338928 0.940620 0.000000
125.80100250 192.96899414 92.50000000 0.769561 0.361289 -0.526542 0.000000
103.53500366 148.43800354 137.50000000 -0.691826 -0.691826 -0.206770 0.000000
224.14100647 131.36700439 183.75000000 -0.001379 -0.745961 0.665988 0.000000
163.65199280 130.62500000 105.00000000 -0.550651 -0.734749 -0.396140 0.000000
140.27299500 145.46899414 116.25000000 0.673534 0.192658 -0.713607 0.000000
169.21899414 182.57800293 206.25000000 -0.065844 0.308561 0.948923 0.000000
93.51560211 148.06599426 85.00000000 -0.513080 -0.700263 0.496368 0.000000
108.35900116 156.60200500 211.25000000 -0.146113 -0.670312 0.727552 0.000000
101.68000031 226.36700439 93.75000000 0.741429 0.600509 -0.299454 0.000000
98.71089935 170.70300293 211.25000000 -0.382737 -0.153942 0.910942 0.000000
218.20300293 131.36700439 143.75000000 -0.547782 -0.761078 0.347413 0.000000
123.94499969 151.77699280 110.00000000 0.912909 -0.124044 -0.388857 0.000000
154.37500000 185.54699707 151.25000000 -0.645602 -0.514122 -0.564691 0.000000
204.84399414 135.07800293 133.75000000 -0.504938 -0.839554 0.200468 0.000000
77.92970276 244.55099487 127.50000000 -0.598714 0.739966 -0.306580 0.000000
196.67999268 139.16000366 132.50000000 -0.591778 -0.756778 0.277644 0.000000
129.88299561 166.99200439 61.25000000 0.824117 -0.472494 -0.312380 0.000000
111.32800293 151.77699280 37.50000000 0.761701 -0.583600 -0.281464 0.000000
210.41000366 166.25000000 207.50000000 0.366923 0.363826 0.856153 0.000000
168.47700500 164.76600647 136.25000000 -0.436557 -0.763566 0.475798 0.000000
98.71089935 201.13299561 48.75000000 0.083406 0.860923 -0.501852 0.000000
65.31250000 215.23399353 168.75000000 -0.943821 -0.116471 0.309252 0.000000
84.98049927 241.95300293 115.00000000 -0.598970 0.598970 -0.531480 0.000000
165.50799561 140.27299500 98.75000000 0.000978 -0.999999 0.000978 0.000000
176.64100647 149.92199707 198.75000000 -0.877034 0.177164 0.446570 0.000000
87.94920349 167.73399353 202.50000000 -0.908841 0.139497 0.393127 0.000000
101.68000031 141.01600647 83.75000000 -0.489573 -0.690081 0.533016 0.000000
203.35899353 132.85200500 123.75000000 -0.403060 -0.839054 0.365420 0.000000
129.88299561 218.20300293 123.75000000 0.627826 0.486439 -0.607628 0.000000
95.00000000 154.37500000 36.25000000 -0.817940 -0.350999 -0.455823 0.000000
73.84770203 213.00799561 187.50000000 -0.846664 0.072087 0.527222 0.000000
121.71900177 193.71099854 211.25000000 0.000978 0.000978 0.999999 0.000000
169.21899414 173.67199707 151.25000000 -0.548717 -0.240938 0.800536 0.000000
150.66400146 161.79699707 198.75000000 -0.032176 -0.351365 0.935686 0.000000
182.57800293 134.70700073 102.50000000 -0.365930 -0.749750 0.551335 0.000000
138.04699707 177.01199341 80.00000000 0.986110 0.153969 -0.062293 0.000000
198.16400146 182.20700073 205.00000000 0.228424 0.823245 0.519702 0.000000
156.60200500 175.15600586 161.25000000 -0.248215 0.323695 0.913023 0.000000
204.10200500 158.08599854 168.75000000 -0.617217 -0.623944 0.479310 0.000000
70.87889862 218.20300293 110.00000000 -0.841033 0.364917 -0.399373 0.000000
93.14450073 155.85899353 37.50000000 -0.610195 -0.100968 -0.785791 0.000000
120.23400116 202.61700439 208.75000000 -0.000978 -0.000978 0.999999 0.000000
161.79699707 148.43800354 108.75000000 -0.001215 -0.958392 0.285453 0.000000
67.16799927 201.13299561 167.50000000 -0.948705 -0.235475 0.210975 0.000000
138.78900146 139.90199280 165.00000000 -0.213787 -0.916845 0.337181 0.000000
118.75000000 232.30499268 123.75000000 0.760243 0.085764 -0.643953 0.000000
183.69099426 155.85899353 142.50000000 -0.568852 -0.612740 0.548596 0.000000
75.33200073 184.06199646 80.00000000 -0.877786 -0.359301 -0.316852 0.000000
114.66799927 156.60200500 37.50000000 0.837737 -0.479809 -0.260732 0.000000
179.60899353 150.66400146 131.25000000 -0.430015 -0.692341 0.579441 0.000000
