93.66210175 212.92999268 161.25000000 0.000978 0.000978 0.999999 0.000000
197.43200684 126.00599670 153.75000000 0.000000 0.000000 0.000000 0.000000
50.20019913 207.53900146 107.50000000 -0.990702 0.089013 0.102885 0.000000
146.22099304 174.85800171 107.50000000 0.784121 0.417224 -0.459433 0.000000
196.75799561 102.42199707 133.75000000 0.694716 0.694716 -0.186387 0.000000
86.92379761 235.83999634 113.75000000 0.627367 -0.026548 -0.778271 0.000000
150.26400757 146.22099304 168.75000000 -0.000978 -0.000978 0.999999 0.000000
159.02299500 92.31439972 146.25000000 -0.144048 -0.862835 0.484526 0.000000
150.93699646 175.19500732 128.75000000 -0.510737 0.510737 -0.691589 0.000000
85.23919678 112.52899933 132.50000000 -0.691131 -0.703337 0.166299 0.000000
134.09199524 104.77999878 92.50000000 -0.258139 -0.898325 -0.355495 0.000000
141.50399780 187.32400513 146.25000000 0.576599 -0.753273 -0.316407 0.000000
44.47259903 198.77900696 33.75000000 -0.965696 0.001197 -0.259673 0.000000
198.10499573 134.76600647 153.75000000 0.000978 0.000978 0.999999 0.000000
50.87400055 173.17399597 85.00000000 -0.968533 -0.194221 0.155634 0.000000
162.39300537 187.32400513 151.25000000 -0.199463 -0.876158 -0.438818 0.000000
163.06599426 128.02699280 158.75000000 0.191910 -0.524352 0.829594 0.000000
150.93699646 144.87300110 168.75000000 0.424689 -0.222030 0.877691 0.000000
69.40429688 128.02699280 111.25000000 -0.862261 -0.466127 -0.198067 0.000000
50.20019913 176.54299927 85.00000000 -0.944944 -0.261951 0.196120 0.000000
183.95500183 130.72300720 153.75000000 0.000978 0.000978 0.999999 0.000000
221.01600647 140.83000183 153.75000000 0.285344 0.070376 0.955838 0.000000
179.23800659 90.96679688 146.25000000 0.000978 0.000978 0.999999 0.000000
157.00199890 142.17799377 166.25000000 0.759648 0.305458 0.574134 0.000000
145.54699707 123.31099701 66.25000000 0.001380 0.680398 -0.732842 0.000000
177.21699524 151.61099243 133.75000000 -0.719328 -0.683585 0.123611 0.000000
123.31099701 148.24200439 121.25000000 -0.000978 -0.000978 -0.999999 0.000000
200.12699890 93.66210175 138.75000000 0.512826 -0.718620 -0.469675 0.000000
134.09199524 92.65139771 125.00000000 -0.001197 -0.965696 -0.259673 0.000000
153.29600525 117.91999817 160.00000000 0.393534 -0.310846 0.865162 0.000000
113.87699890 220.34199524 158.75000000 0.297650 0.345513 0.889958 0.000000
136.78700256 181.93400574 166.25000000 0.165885 -0.052942 0.984723 0.000000
125.66899872 200.80099487 105.00000000 0.446701 0.874237 -0.190180 0.000000
48.51559830 185.30299377 86.25000000 -0.994277 -0.041013 0.098652 0.000000
75.13179779 139.48199463 67.50000000 -0.694716 -0.694716 -0.186387 0.000000
126.00599670 130.04899597 173.75000000 0.000978 0.000978 0.999999 0.000000
78.16400146 181.93400574 163.75000000 -0.385311 0.100099 0.917342 0.000000
46.83100128 173.84800720 57.50000000 -0.945148 -0.326641 -0.001242 0.000000
167.10899353 151.61099243 163.75000000 0.841786 0.286796 0.457324 0.000000
84.22850037 111.85500336 106.25000000 -0.521643 -0.849614 0.077752 0.000000
78.16400146 248.30599976 137.50000000 -0.335328 0.778152 0.531069 0.000000
58.62300110 156.32800293 148.75000000 -0.876120 -0.289014 0.385856 0.000000
77.49019623 236.51400757 148.75000000 -0.355744 0.503836 0.787144 0.000000
95.68360138 114.88800049 90.00000000 -0.519156 -0.660286 -0.542678 0.000000
154.64399719 154.97999573 165.00000000 0.355830 0.355830 0.864159 0.000000
86.25000000 177.89100647 53.75000000 0.694716 -0.694716 -0.186387 0.000000
85.57620239 213.60299683 158.75000000 -0.529808 0.460052 0.712500 0.000000
54.91699982 229.10200500 32.50000000 -0.536420 0.833288 -0.133738 0.000000
88.27149963 128.70100403 61.25000000 -0.594607 -0.803485 0.029243 0.000000
96.35739899 179.23800659 168.75000000 -0.361106 0.483080 0.797644 0.000000
109.16000366 140.15600586 178.75000000 -0.075263 -0.425578 0.901787 0.000000
95.68360138 181.25999451 168.75000000 -0.642214 -0.004143 0.766514 0.000000
162.39300537 179.91200256 136.25000000 -0.957975 0.286532 0.013527 0.000000
85.23919678 250.66400146 120.00000000 0.462994 0.670255 -0.579996 0.000000
193.38900757 94.67279816 112.50000000 0.126887 -0.946979 -0.295180 0.000000
125.33200073 125.66899872 117.50000000 -0.873420 0.486136 -0.028437 0.000000
54.91699982 229.10200500 52.50000000 -0.779912 0.621919 0.070379 0.000000
69.40429688 196.08399963 156.25000000 -0.561808 0.448446 0.695175 0.000000
138.80900574 96.35739899 146.25000000 -0.273457 -0.465032 0.842001 0.000000
51.54779816 177.21699524 122.50000000 -0.965696 0.001197 -0.259673 0.000000
190.02000427 112.52899933 153.75000000 0.000978 0.000978 0.999999 0.000000
81.19629669 178.56399536 45.00000000 0.801450 -0.350335 -0.484709 0.000000
195.41000366 132.07000732 133.75000000 -0.111641 -0.329543 0.937517 0.000000
92.98829651 105.11699677 123.75000000 -0.573444 -0.804019 0.157210 0.000000
53.56930161 162.39300537 122.50000000 -0.918266 -0.393543 -0.043727 0.000000
118.25700378 213.60299683 120.00000000 0.015299 0.771880 -0.635584 0.000000
99.72650146 136.78700256 51.25000000 0.346106 0.589843 -0.729586 0.000000
213.60299683 101.74800110 131.25000000 -0.172548 0.679502 0.713095 0.000000
178.90100098 126.68000031 130.00000000 -0.472206 0.388401 0.791307 0.000000
169.13099670 142.17799377 161.25000000 0.000978 0.000978 0.999999 0.000000
115.89800262 231.12300110 151.25000000 0.248011 0.550615 0.797066 0.000000
201.47500610 97.03119659 143.75000000 0.579595 -0.579595 0.572835 0.000000
109.16000366 204.84399414 93.75000000 -0.304739 0.711058 -0.633664 0.000000
100.40000153 187.32400513 168.75000000 0.000978 0.000978 0.999999 0.000000
103.09600067 148.24200439 68.75000000 0.503963 0.840942 -0.197072 0.000000
70.07810211 239.54600525 85.00000000 -0.601878 0.500722 -0.622109 0.000000
88.27149963 253.35899353 131.25000000 0.118161 0.992773 -0.020982 0.000000
202.14799500 149.58999634 146.25000000 -0.607996 0.243512 0.755674 0.000000
66.03510284 214.61399841 20.00000000 0.631806 0.189081 -0.751711 0.000000
66.03510284 214.95100403 18.75000000 0.633593 0.198865 -0.747671 0.000000
225.73199463 126.68000031 148.75000000 0.201947 -0.827527 0.523848 0.000000
111.85500336 171.82600403 96.25000000 0.593497 -0.633848 -0.495982 0.000000
139.81900024 199.45300293 125.00000000 0.894688 0.446689 0.001310 0.000000
182.60699463 91.64060211 146.25000000 0.000978 0.000978 0.999999 0.000000
224.38499451 130.72300720 151.25000000 -0.000978 -0.000978 0.999999 0.000000
111.85500336 139.48199463 178.75000000 -0.255488 -0.386968 0.885992 0.000000
71.42579651 125.66899872 117.50000000 -0.735674 -0.677265 0.009735 0.000000
109.16000366 184.62899780 168.75000000 -0.050109 0.442856 0.895192 0.000000
78.16400146 231.79699707 151.25000000 -0.516388 0.492992 0.700216 0.000000
113.54000092 173.84800720 102.50000000 -0.939530 -0.189010 -0.285584 0.000000
77.15329742 231.12300110 87.50000000 0.862743 0.496041 -0.098071 0.000000
45.48339844 194.73599243 67.50000000 -0.965696 -0.001197 0.259673 0.000000
79.84860229 143.52499390 162.50000000 -0.758027 0.067604 0.648710 0.000000
134.76600647 132.74400330 121.25000000 -0.340590 -0.078190 0.936955 0.000000
179.91200256 109.16000366 68.75000000 -0.001197 -0.965696 -0.259673 0.000000
63.33980179 138.47200012 117.50000000 -0.935602 -0.310946 -0.167220 0.000000
183.95500183 122.97399902 77.50000000 0.660827 0.660827 -0.355830 0.000000
181.93400574 127.35299683 88.75000000 0.795241 0.605831 0.023676 0.000000
55.92770004 160.70799255 50.00000000 -0.785044 -0.589165 -0.191287 0.000000
60.64450073 143.86199951 137.50000000 -0.856357 -0.428947 0.287502 0.000000
45.82030106 195.41000366 68.75000000 -0.965696 0.001197 0.259673 0.000000
77.49019623 212.25599670 158.75000000 -0.745957 0.212466 0.631194 0.000000
78.83789825 157.67599487 63.75000000 -0.000978 -0.000978 -0.999999 0.000000
109.16000366 242.57800293 146.25000000 0.000978 0.000978 0.999999 0.000000
221.68899536 124.65799713 141.25000000 0.000978 0.000978 0.999999 0.000000
196.75799561 138.13499451 153.75000000 0.357815 -0.040335 0.932921 0.000000
64.68750000 216.97300720 18.75000000 0.632420 0.165309 -0.756781 0.000000
80.85939789 181.93400574 41.25000000 0.294292 -0.511470 -0.807336 0.000000
121.96299744 204.50700378 107.50000000 0.486916 0.722896 -0.490240 0.000000
207.87600708 98.37889862 117.50000000 0.488565 -0.858289 0.156986 0.000000
81.53320313 191.36700439 38.75000000 0.364661 -0.283626 -0.886893 0.000000
90.96679688 133.41799927 166.25000000 -0.670845 -0.095416 0.735434 0.000000
196.75799561 134.76600647 153.75000000 0.357815 -0.040335 0.932921 0.000000
89.61910248 223.03700256 158.75000000 0.000978 0.000978 0.999999 0.000000
159.02299500 129.37500000 161.25000000 0.472082 -0.403947 0.783559 0.000000
102.42199707 159.69700623 116.25000000 -0.000978 -0.000978 -0.999999 0.000000
196.42100525 110.50800323 107.50000000 0.707106 0.707106 0.001384 0.000000
105.11699677 165.08799744 101.25000000 0.470839 -0.648450 -0.598183 0.000000
78.83789825 177.21699524 166.25000000 -0.247654 0.293463 0.923335 0.000000
198.10499573 108.82299805 107.50000000 0.642689 0.761651 0.082694 0.000000
84.22850037 218.32000732 38.75000000 0.694716 0.694716 -0.186387 0.000000
154.97999573 93.32520294 117.50000000 -0.050861 -0.935064 -0.350812 0.000000
134.09199524 134.76600647 121.25000000 -0.337330 -0.127011 0.932779 0.000000
148.24200439 95.00980377 146.25000000 -0.459343 -0.689850 0.559563 0.000000
221.01600647 112.52899933 141.25000000 -0.584409 0.415543 0.696986 0.000000
111.85500336 241.90400696 146.25000000 0.237329 0.696270 0.677409 0.000000
87.93460083 234.49200439 115.00000000 0.518224 0.068816 -0.852472 0.000000
87.26069641 174.52099609 67.50000000 0.524375 -0.500920 -0.688556 0.000000
53.56930161 214.27699280 135.00000000 -0.882055 0.195849 0.428511 0.000000
227.08000183 136.78700256 148.75000000 -0.698439 -0.555084 0.451735 0.000000
127.35299683 100.73699951 105.00000000 0.001373 -0.778585 -0.627537 0.000000
76.47949982 132.07000732 150.00000000 -0.596200 -0.582688 0.552287 0.000000
145.54699707 109.16000366 63.75000000 -0.242814 -0.970072 -0.001184 0.000000
123.31099701 197.43200684 163.75000000 0.224962 0.325263 0.918475 0.000000
79.17479706 119.94100189 135.00000000 -0.803173 -0.588219 0.094405 0.000000
204.84399414 89.28220367 132.50000000 -0.295445 0.190028 0.936270 0.000000
169.80499268 117.24600220 63.75000000 0.115512 0.466327 -0.877038 0.000000
111.18199921 197.43200684 166.25000000 0.147405 0.422179 0.894448 0.000000
161.04499817 143.52499390 163.75000000 0.820487 -0.372949 0.433255 0.000000
187.99800110 116.57199860 153.75000000 0.000978 0.000978 0.999999 0.000000
194.39900208 111.85500336 135.00000000 0.076948 0.738993 0.669304 0.000000
121.28900146 198.10499573 163.75000000 0.061887 0.269019 0.961144 0.000000
211.58200073 125.33200073 138.75000000 -0.230552 -0.195498 0.953219 0.000000
206.86500549 89.95600128 132.50000000 0.590561 -0.718162 0.368078 0.000000
64.01370239 219.66799927 18.75000000 0.427947 -0.041587 -0.902847 0.000000
70.07810211 244.93600464 132.50000000 -0.751859 0.647641 0.123573 0.000000
83.55470276 149.58999634 166.25000000 -0.214727 0.024913 0.976356 0.000000
119.94100189 176.54299927 113.75000000 -0.545357 -0.545357 -0.636531 0.000000
128.70100403 227.75399780 148.75000000 0.278557 0.450923 0.847982 0.000000
59.63380051 155.65400696 95.00000000 -0.954637 -0.256967 -0.150452 0.000000
107.47599792 217.64599609 117.50000000 0.586610 0.666830 -0.459594 0.000000
167.78300476 127.35299683 73.75000000 0.502942 0.376802 -0.777862 0.000000
123.31099701 110.50800323 161.25000000 -0.342560 -0.576345 0.741943 0.000000
98.71579742 161.04499817 110.00000000 -0.570954 -0.520427 -0.634955 0.000000
187.99800110 142.17799377 133.75000000 -0.493940 -0.487287 0.720121 0.000000
221.68899536 113.87699890 143.75000000 -0.584409 0.415543 0.696986 0.000000
96.69429779 188.67199707 60.00000000 0.870124 -0.434311 -0.232935 0.000000
75.46869659 229.10200500 151.25000000 0.000978 0.000978 0.999999 0.000000
207.53900146 101.07399750 126.25000000 0.540824 0.746697 -0.387237 0.000000
53.56930161 227.08000183 55.00000000 -0.788116 0.606131 0.107137 0.000000
73.44730377 165.08799744 163.75000000 -0.346453 0.154443 0.925266 0.000000
92.98829651 117.91999817 158.75000000 -0.525389 -0.698851 0.485359 0.000000
76.47949982 124.65799713 95.00000000 -0.786895 -0.550353 -0.279119 0.000000
61.99219894 149.25300598 95.00000000 -0.849679 -0.494277 -0.183674 0.000000
63.33980179 233.81799316 36.25000000 -0.434311 0.870124 -0.232935 0.000000
70.75189972 216.97300720 153.75000000 -0.560594 0.057895 0.826064 0.000000
74.12110138 247.96899414 133.75000000 -0.505090 0.822132 0.262647 0.000000
110.50800323 116.57199860 166.25000000 -0.235491 -0.472501 0.849286 0.000000
113.20300293 176.54299927 111.25000000 -0.000978 -0.000978 -0.999999 0.000000
105.11699677 140.83000183 176.25000000 0.000978 0.000978 0.999999 0.000000
99.72650146 217.64599609 111.25000000 0.531637 0.672513 -0.514867 0.000000
52.22169876 183.28100586 135.00000000 -0.965696 0.001197 0.259673 0.000000
183.28100586 163.74000549 153.75000000 0.104464 0.860037 0.499423 0.000000
95.68360138 125.33200073 166.25000000 -0.383480 -0.610605 0.692896 0.000000
51.54779816 168.45700073 127.50000000 -0.991705 -0.003295 -0.128493 0.000000
193.38900757 109.16000366 153.75000000 0.000978 0.000978 0.999999 0.000000
88.94529724 119.26799774 153.75000000 -0.782932 -0.559237 0.272530 0.000000
158.35000610 120.27799988 65.00000000 0.076638 0.629010 -0.773610 0.000000
115.89800262 143.86199951 90.00000000 0.637595 0.446819 -0.627555 0.000000
66.03510284 221.68899536 18.75000000 0.564423 0.015106 -0.825348 0.000000
138.13499451 138.80900574 173.75000000 0.503808 0.180892 0.844663 0.000000
67.04589844 142.85200500 82.50000000 -0.694716 -0.694716 -0.186387 0.000000
196.08399963 150.93699646 156.25000000 0.000978 0.000978 0.999999 0.000000
206.86500549 141.50399780 153.75000000 0.000978 0.000978 0.999999 0.000000
162.39300537 88.60839844 132.50000000 -0.001098 -0.991141 -0.132811 0.000000
104.44300079 132.74400330 176.25000000 -0.395698 -0.440554 0.805813 0.000000
108.48600006 110.50800323 88.75000000 -0.562344 -0.562344 -0.606250 0.000000
142.51499939 180.58599854 102.50000000 0.772650 0.353258 -0.527467 0.000000
83.21779633 119.94100189 145.00000000 -0.781571 -0.528001 0.332208 0.000000
73.78420258 228.42799377 27.50000000 0.621439 0.510287 -0.594493 0.000000
174.85800171 124.65799713 122.50000000 0.786900 0.616382 -0.029352 0.000000
129.71200562 139.48199463 115.00000000 -0.762250 0.552752 0.336808 0.000000
128.02699280 136.44999695 102.50000000 -0.323010 0.854663 -0.406467 0.000000
194.06199646 105.79100037 153.75000000 0.000978 0.000978 0.999999 0.000000
198.10499573 141.50399780 141.25000000 0.421229 -0.840893 0.339802 0.000000
68.05660248 223.03700256 148.75000000 -0.774710 0.259284 0.576711 0.000000
44.13570023 206.86500549 55.00000000 -0.971528 0.220745 0.086053 0.000000
99.72650146 228.42799377 121.25000000 0.632693 0.514590 -0.578703 0.000000
105.11699677 246.62100220 143.75000000 0.097343 0.800538 0.591323 0.000000
132.07000732 140.83000183 128.75000000 -0.540551 -0.346921 0.766453 0.000000
49.52640152 184.62899780 97.50000000 -0.996580 -0.076494 0.031244 0.000000
123.98400116 113.20300293 71.25000000 -0.603693 -0.741406 -0.293039 0.000000
175.19500732 115.22499847 63.75000000 0.272014 0.257772 -0.927126 0.000000
153.29600525 145.54699707 115.00000000 0.370096 0.411043 -0.833110 0.000000
129.37500000 208.88699341 156.25000000 0.536082 0.264134 0.801779 0.000000
111.18199921 232.47099304 131.25000000 0.609453 0.253545 -0.751187 0.000000
63.67670059 235.16600037 90.00000000 -0.707059 0.704179 -0.064802 0.000000
214.95100403 123.98400116 151.25000000 0.001238 -0.320681 0.947186 0.000000
87.59760284 241.22999573 148.75000000 0.103199 0.565415 0.818325 0.000000
209.56100464 107.13899994 146.25000000 0.660827 -0.660827 0.355830 0.000000
144.87300110 180.58599854 116.25000000 0.550283 0.831823 0.072518 0.000000
76.14260101 140.15600586 61.25000000 -0.726382 -0.665213 -0.172802 0.000000
143.52499390 152.95899963 171.25000000 0.059028 0.085758 0.994566 0.000000
104.44300079 167.78300476 173.75000000 0.000978 0.000978 0.999999 0.000000
80.85939789 202.82200623 161.25000000 -0.126227 0.378681 0.916879 0.000000
107.81199646 229.77499390 156.25000000 0.227204 0.561055 0.795987 0.000000
53.90620041 221.01600647 88.75000000 -0.881905 0.220847 0.416497 0.000000
64.68750000 224.38499451 18.75000000 0.407350 0.348042 -0.844353 0.000000
116.57199860 229.10200500 133.75000000 0.292478 0.328110 -0.898220 0.000000
63.67670059 137.46099854 117.50000000 -0.887637 -0.406157 -0.217109 0.000000
131.39599609 216.63600159 135.00000000 0.466237 0.348485 -0.813131 0.000000
135.43899536 123.31099701 66.25000000 0.000978 0.000978 -0.999999 0.000000
78.83789825 230.44900513 93.75000000 0.750895 0.484713 -0.448565 0.000000
191.70399475 115.89800262 97.50000000 0.705724 0.708486 -0.001381 0.000000
96.35739899 243.92599487 123.75000000 0.708545 0.443048 -0.549247 0.000000
167.78300476 183.28100586 156.25000000 -0.856020 -0.086596 0.509637 0.000000
132.74400330 130.04899597 128.75000000 -0.608292 -0.198657 0.768450 0.000000
146.89500427 194.73599243 136.25000000 0.656200 -0.471591 -0.589070 0.000000
80.52239990 115.89800262 102.50000000 -0.756699 -0.620524 -0.205810 0.000000
87.93460083 148.91600037 67.50000000 0.334269 0.888886 -0.313283 0.000000
203.49600220 102.42199707 133.75000000 0.593976 0.164742 0.787434 0.000000
136.11300659 196.08399963 116.25000000 0.965696 -0.001197 -0.259673 0.000000
111.85500336 191.36700439 81.25000000 0.659204 -0.330416 -0.675481 0.000000
81.53320313 225.05900574 43.75000000 0.805029 0.593107 0.012385 0.000000
142.85200500 196.42100525 155.00000000 -0.116389 0.416477 0.901665 0.000000
55.59080124 225.73199463 20.00000000 -0.476154 0.821877 -0.312722 0.000000
95.00980377 204.16999817 163.75000000 -0.026369 0.587059 0.809115 0.000000
141.16700745 177.21699524 165.00000000 0.849480 -0.129680 0.511436 0.000000
58.62300110 155.65400696 76.25000000 -0.690320 -0.690320 -0.216602 0.000000
107.81199646 140.49299622 65.00000000 0.810567 0.375707 -0.449249 0.000000
87.59760284 230.44900513 156.25000000 -0.105563 0.536493 0.837276 0.000000
168.45700073 95.68360138 151.25000000 -0.006924 -0.740862 0.671622 0.000000
157.67599487 165.08799744 153.75000000 -0.747658 0.049844 0.662211 0.000000
130.72300720 172.50000000 113.75000000 -0.380766 -0.690653 -0.614830 0.000000
171.15199280 98.37889862 103.75000000 -0.001197 -0.965696 -0.259673 0.000000
126.68000031 199.78999329 102.50000000 0.446701 0.874237 -0.190180 0.000000
56.26459885 192.71499634 142.50000000 -0.868467 0.109806 0.483433 0.000000
60.64450073 154.64399719 55.00000000 -0.434311 -0.870124 -0.232935 0.000000
56.60160065 226.06900024 20.00000000 -0.476154 0.821877 -0.312722 0.000000
183.95500183 144.87300110 131.25000000 -0.320151 -0.471553 0.821670 0.000000
77.15329742 177.21699524 165.00000000 -0.272328 0.263773 0.925344 0.000000
96.35739899 196.75799561 51.25000000 0.398181 0.907516 0.133665 0.000000
97.70510101 118.25700378 80.00000000 -0.944690 -0.316649 -0.085403 0.000000
109.16000366 216.29899597 161.25000000 0.000978 0.000978 0.999999 0.000000
138.80900574 108.48600006 156.25000000 0.023873 -0.734433 0.678262 0.000000
109.83399963 173.84800720 93.75000000 0.432826 -0.501947 -0.748806 0.000000
206.86500549 104.44300079 146.25000000 0.710544 -0.494219 0.500875 0.000000
136.11300659 110.50800323 158.75000000 0.130045 -0.710013 0.692076 0.000000
148.24200439 116.57199860 161.25000000 0.222031 -0.222031 0.949423 0.000000
223.03700256 137.79800415 152.50000000 0.396530 -0.152074 0.905338 0.000000
165.08799744 132.74400330 158.75000000 0.000978 0.000978 0.999999 0.000000
136.78700256 101.41100311 150.00000000 0.122895 -0.605590 0.786230 0.000000
112.52899933 207.53900146 103.75000000 0.360672 0.768247 -0.528878 0.000000
78.83789825 188.67199707 163.75000000 0.000978 0.000978 0.999999 0.000000
66.03510284 226.06900024 20.00000000 0.407350 0.348042 -0.844353 0.000000
129.37500000 132.07000732 116.25000000 -0.350956 -0.215195 0.911329 0.000000
133.41799927 127.35299683 116.25000000 -0.789131 -0.613769 0.023660 0.000000
176.54299927 138.13499451 156.25000000 0.105615 -0.324868 0.939844 0.000000
147.56799316 178.90100098 115.00000000 0.546028 0.836498 -0.046084 0.000000
94.33589935 229.77499390 116.25000000 0.632921 0.278995 -0.722200 0.000000
96.02050018 137.46099854 172.50000000 -0.496910 0.150979 0.854568 0.000000
136.78700256 157.00199890 118.75000000 -0.207357 -0.282507 -0.936586 0.000000
53.90620041 166.09899902 42.50000000 -0.802774 -0.540898 -0.250964 0.000000
61.31829834 163.06599426 153.75000000 -0.769948 -0.136049 0.623434 0.000000
73.44730377 153.63299561 161.25000000 -0.426209 -0.104806 0.898533 0.000000
150.26400757 161.71899414 118.75000000 0.639228 -0.004142 -0.769006 0.000000
197.43200684 123.31099701 153.75000000 0.000978 0.000978 0.999999 0.000000
131.73300171 130.72300720 77.50000000 -0.131511 0.897951 -0.419987 0.000000
61.99219894 153.63299561 56.25000000 -0.434311 -0.870124 -0.232935 0.000000
123.98400116 144.87300110 176.25000000 0.423881 0.297487 0.855469 0.000000
213.60299683 97.03119659 133.75000000 0.000978 0.000978 0.999999 0.000000
178.56399536 174.52099609 148.75000000 -0.797066 -0.248011 -0.550615 0.000000
111.85500336 207.53900146 103.75000000 0.360672 0.768247 -0.528878 0.000000
174.52099609 105.11699677 153.75000000 0.000978 0.000978 0.999999 0.000000
137.46099854 186.64999390 141.25000000 0.920710 -0.365229 -0.137482 0.000000
123.98400116 201.13800049 102.50000000 0.506752 0.845578 -0.167927 0.000000
90.29299927 153.63299561 76.25000000 0.659063 0.240660 -0.712543 0.000000
63.33980179 227.41700745 20.00000000 0.389589 0.421392 -0.818932 0.000000
125.33200073 161.71899414 173.75000000 0.000978 0.000978 0.999999 0.000000
145.21000671 201.47500610 135.00000000 0.791875 0.462868 -0.398356 0.000000
208.88699341 158.68600464 155.00000000 -0.677710 -0.387498 0.624944 0.000000
137.46099854 138.13499451 131.25000000 0.100845 -0.907608 -0.407526 0.000000
128.02699280 136.78700256 116.25000000 -0.696206 0.637783 0.329440 0.000000
105.79100037 192.71499634 166.25000000 -0.322291 0.642962 0.694787 0.000000
57.94919968 172.83700562 22.50000000 0.388613 -0.388613 -0.835440 0.000000
126.68000031 216.97300720 131.25000000 0.514358 0.524410 -0.678550 0.000000
112.19200134 175.19500732 95.00000000 0.435625 -0.548258 -0.713894 0.000000
84.22850037 248.64300537 138.75000000 -0.061269 0.899978 0.431608 0.000000
85.57620239 220.67900085 90.00000000 0.694716 0.694716 -0.186387 0.000000
78.83789825 226.74299622 35.00000000 0.850591 0.405858 -0.334327 0.000000
86.25000000 142.17799377 43.75000000 0.384121 0.657787 -0.647895 0.000000
52.22169876 165.08799744 122.50000000 -0.000978 -0.000978 -0.999999 0.000000
208.21299744 132.74400330 141.25000000 -0.001366 -0.597153 0.802126 0.000000
56.93849945 228.42799377 125.00000000 -0.874848 0.483003 0.036735 0.000000
85.57620239 206.86500549 36.25000000 0.641409 -0.136056 -0.755039 0.000000
80.52239990 171.82600403 55.00000000 0.694716 -0.694716 -0.186387 0.000000
103.76999664 134.76600647 176.25000000 -0.493167 -0.383215 0.780982 0.000000
139.48199463 179.57499695 135.00000000 0.718677 0.587711 -0.371617 0.000000
100.06300354 194.73599243 67.50000000 0.965696 -0.001197 -0.259673 0.000000
119.94100189 141.16700745 92.50000000 0.735527 0.441316 -0.514043 0.000000
47.84180069 205.18099976 72.50000000 -0.919384 0.386330 0.074035 0.000000
137.46099854 204.16999817 126.25000000 0.828171 0.328440 -0.454158 0.000000
113.20300293 239.20899963 148.75000000 0.098035 0.621864 0.776965 0.000000
122.63700104 152.28500366 121.25000000 0.899114 -0.084249 -0.429531 0.000000
126.00599670 197.76899719 162.50000000 0.253686 0.293817 0.921583 0.000000
48.85250092 204.16999817 90.00000000 -0.930687 0.339557 -0.136098 0.000000
90.29299927 169.80499268 168.75000000 -0.526082 0.239128 0.816122 0.000000
187.99800110 118.93099976 82.50000000 0.828027 0.534549 0.169199 0.000000
204.16999817 123.98400116 136.25000000 -0.000978 -0.000978 0.999999 0.000000
68.05660248 167.78300476 31.25000000 0.687381 0.006943 -0.726264 0.000000
203.49600220 101.07399750 146.25000000 0.432692 -0.545424 0.717837 0.000000
190.02000427 96.69429779 150.00000000 0.528724 -0.442537 0.724302 0.000000
210.23399353 139.48199463 153.75000000 -0.000978 -0.000978 0.999999 0.000000
84.56539917 251.33799744 120.00000000 0.242765 0.886168 -0.394680 0.000000
132.07000732 126.68000031 171.25000000 0.263706 -0.434430 0.861237 0.000000
179.23800659 169.13099670 136.25000000 -0.944413 -0.224075 0.240571 0.000000
140.83000183 179.91200256 101.25000000 0.638340 -0.454042 -0.621585 0.000000
116.90899658 137.46099854 82.50000000 0.850053 0.485959 -0.203110 0.000000
188.67199707 136.78700256 153.75000000 0.467824 -0.585199 0.662331 0.000000
96.35739899 189.34599304 168.75000000 -0.076832 0.476360 0.875887 0.000000
78.16400146 172.50000000 166.25000000 -0.161003 0.077520 0.983905 0.000000
124.65799713 135.10299683 102.50000000 -0.000978 -0.000978 -0.999999 0.000000
79.51170349 161.71899414 166.25000000 0.000978 0.000978 0.999999 0.000000
138.80900574 91.97750092 137.50000000 -0.050321 -0.970831 0.234423 0.000000
69.40429688 243.25199890 136.25000000 -0.538261 0.767790 0.347526 0.000000
200.12699890 155.65400696 156.25000000 0.000978 0.000978 0.999999 0.000000
78.50099945 208.88699341 32.50000000 0.624078 -0.185537 -0.759014 0.000000
163.06599426 174.52099609 161.25000000 0.368849 -0.924164 -0.099358 0.000000
130.72300720 135.43899536 176.25000000 0.522528 -0.673742 0.522528 0.000000
52.22169876 173.84800720 137.50000000 -0.991258 -0.086146 0.099930 0.000000
149.58999634 105.11699677 153.75000000 -0.072687 -0.825216 0.560121 0.000000
120.61499786 231.12300110 151.25000000 0.104245 0.492667 0.863952 0.000000
95.00980377 247.63200378 125.00000000 0.840893 0.421229 -0.339802 0.000000
79.17479706 245.27299500 107.50000000 0.754231 0.243047 -0.609970 0.000000
182.60699463 140.15600586 156.25000000 0.000978 0.000978 0.999999 0.000000
138.13499451 200.80099487 153.75000000 0.649365 0.248054 0.718884 0.000000
140.15600586 173.17399597 161.25000000 0.870124 -0.434311 0.232935 0.000000
164.41400146 136.44999695 90.00000000 0.241447 0.969465 0.042897 0.000000
78.83789825 127.35299683 146.25000000 -0.579961 -0.653928 0.485823 0.000000
105.79100037 197.43200684 76.25000000 0.883805 -0.205090 -0.420508 0.000000
202.82200623 95.00980377 116.25000000 0.434311 -0.870124 -0.232935 0.000000
138.80900574 133.41799927 123.75000000 -0.686624 -0.210191 0.695965 0.000000
144.53599548 132.74400330 77.50000000 -0.190116 0.845790 -0.498492 0.000000
204.84399414 117.24600220 136.25000000 -0.133325 0.397167 0.908011 0.000000
183.28100586 148.24200439 156.25000000 0.381950 -0.201867 0.901867 0.000000
128.02699280 117.24600220 118.75000000 -0.643975 -0.663739 0.380456 0.000000
61.31829834 150.93699646 148.75000000 -0.826344 -0.407621 0.388588 0.000000
75.80560303 159.02299500 40.00000000 0.949256 0.068637 -0.306922 0.000000
77.82710266 125.33200073 142.50000000 -0.652711 -0.595662 0.468140 0.000000
59.29690170 154.64399719 75.00000000 -0.324857 -0.812936 0.483325 0.000000
166.43600464 138.80900574 118.75000000 0.580704 0.510009 -0.634566 0.000000
153.63299561 161.04499817 121.25000000 0.186836 -0.068707 -0.979985 0.000000
84.90229797 208.21299744 161.25000000 0.000978 0.000978 0.999999 0.000000
58.62300110 157.67599487 68.75000000 -0.634246 -0.773031 -0.012491 0.000000
54.58010101 161.71899414 138.75000000 -0.876480 -0.350896 0.329629 0.000000
112.19200134 142.17799377 75.00000000 0.907902 0.345382 -0.237541 0.000000
85.57620239 252.01199341 121.25000000 0.462994 0.670255 -0.579996 0.000000
224.38499451 140.15600586 146.25000000 -0.889197 -0.349381 0.295399 0.000000
124.65799713 208.21299744 158.75000000 0.280288 0.463018 0.840865 0.000000
192.04100037 124.65799713 153.75000000 -0.000978 -0.000978 0.999999 0.000000
74.79489899 213.60299683 28.75000000 0.680953 -0.206302 -0.702669 0.000000
88.94529724 111.85500336 98.75000000 -0.937505 -0.163823 -0.306995 0.000000
126.34300232 127.35299683 117.50000000 -0.831527 0.472707 0.291737 0.000000
52.22169876 164.41400146 67.50000000 -0.840300 -0.536029 0.081044 0.000000
203.15899658 95.00980377 140.00000000 0.279389 -0.790812 0.544571 0.000000
89.28220367 152.95899963 75.00000000 0.697218 0.344527 -0.628640 0.000000
144.87300110 93.66210175 141.25000000 -0.683981 -0.341174 0.644803 0.000000
93.66210175 149.25300598 60.00000000 0.224784 0.973256 0.047387 0.000000
66.70899963 144.19900513 151.25000000 -0.718240 -0.522507 0.459475 0.000000
131.39599609 112.52899933 163.75000000 0.918860 -0.306287 0.248768 0.000000
223.71099854 131.39599609 151.25000000 0.434567 0.069915 0.897922 0.000000
139.48199463 171.82600403 161.25000000 0.877893 -0.439682 0.189695 0.000000
79.51170349 130.04899597 81.25000000 -0.411146 -0.863560 -0.291929 0.000000
123.98400116 154.97999573 123.75000000 0.561300 -0.305437 -0.769189 0.000000
144.19900513 96.02050018 112.50000000 -0.228667 -0.916105 -0.329338 0.000000
109.49700165 245.94700623 132.50000000 0.487442 0.441488 -0.753319 0.000000
55.92770004 156.32800293 128.75000000 -0.960177 -0.107550 -0.257861 0.000000
212.92999268 93.66210175 133.75000000 0.041584 -0.193661 0.980187 0.000000
99.72650146 124.65799713 168.75000000 -0.612802 -0.558781 0.558781 0.000000
138.13499451 133.75500488 122.50000000 -0.663630 0.136321 0.735535 0.000000
69.40429688 156.32800293 161.25000000 -0.656222 -0.279413 0.700928 0.000000
81.87010193 228.42799377 100.00000000 0.777085 0.603724 -0.177924 0.000000
46.15719986 215.62500000 35.00000000 -0.947708 0.318420 -0.021396 0.000000
173.84800720 126.00599670 156.25000000 0.607460 0.122674 0.784821 0.000000
114.55100250 246.62100220 141.25000000 0.402205 0.806012 0.434253 0.000000
106.80200195 185.30299377 107.50000000 -0.311448 -0.724560 0.614827 0.000000
142.85200500 97.70510101 108.75000000 -0.228667 -0.916105 -0.329338 0.000000
54.24319839 188.67199707 140.00000000 -0.878571 0.155384 0.451629 0.000000
113.87699890 175.53199768 100.00000000 -0.869201 0.068364 -0.489710 0.000000
214.27699280 127.35299683 141.25000000 -0.288643 -0.168261 0.942536 0.000000
104.44300079 118.59400177 166.25000000 -0.112659 -0.580855 0.806174 0.000000
154.97999573 151.61099243 166.25000000 0.288336 0.481599 0.827602 0.000000
196.08399963 91.64060211 126.25000000 0.258172 -0.950233 -0.174367 0.000000
199.45300293 100.73699951 97.50000000 -0.001373 -0.778585 -0.627537 0.000000
190.69299316 93.66210175 116.25000000 0.037867 -0.968651 -0.245522 0.000000
155.99099731 104.44300079 85.00000000 -0.003670 -0.955534 -0.294858 0.000000
70.75189972 149.92700195 42.50000000 -0.502880 -0.862278 -0.059900 0.000000
167.78300476 189.34599304 146.25000000 -0.194943 -0.832662 -0.518336 0.000000
132.07000732 218.32000732 136.25000000 0.644410 0.323017 -0.693106 0.000000
134.76600647 123.64700317 127.50000000 -0.393280 -0.195914 0.898303 0.000000
194.73599243 99.05269623 148.75000000 0.826411 -0.401309 0.394964 0.000000
162.39300537 140.83000183 116.25000000 0.478251 0.609140 -0.632633 0.000000
188.67199707 145.54699707 136.25000000 -0.351721 -0.430583 0.831198 0.000000
123.98400116 123.98400116 116.25000000 -0.947332 0.317477 0.042075 0.000000
44.47259903 186.31300354 45.00000000 -0.880157 -0.410939 0.237598 0.000000
134.76600647 118.59400177 121.25000000 -0.694716 0.694716 0.186387 0.000000
164.41400146 94.33589935 148.75000000 -0.172963 -0.699504 0.693381 0.000000
131.73300171 172.50000000 112.50000000 -0.330052 -0.632465 -0.700752 0.000000
103.09600067 189.34599304 168.75000000 0.000978 0.000978 0.999999 0.000000
154.30700684 162.39300537 151.25000000 -0.263233 0.890830 0.370311 0.000000
113.87699890 154.30700684 176.25000000 -0.108143 0.190183 0.975774 0.000000
103.09600067 220.34199524 116.25000000 0.511089 0.802236 -0.308552 0.000000
59.29690170 181.25999451 21.25000000 0.674319 0.409231 -0.614674 0.000000
52.55860138 164.75100708 122.50000000 -0.000978 -0.000978 -0.999999 0.000000
51.54779816 175.86900330 132.50000000 -0.986537 0.052413 0.154911 0.000000
182.60699463 161.71899414 143.75000000 -0.904472 -0.179744 0.386809 0.000000
205.51800537 150.26400757 148.75000000 -0.418336 -0.418336 0.806219 0.000000
133.75500488 165.76199341 172.50000000 0.292820 0.355888 0.887468 0.000000
93.66210175 176.88000488 72.50000000 0.475295 -0.791085 -0.385070 0.000000
142.85200500 173.51100159 140.00000000 0.549153 0.764949 0.336578 0.000000
57.94919968 181.93400574 21.25000000 0.674319 0.409231 -0.614674 0.000000
60.98139954 142.85200500 127.50000000 -0.911397 -0.372261 -0.175433 0.000000
204.84399414 94.33589935 123.75000000 0.490567 -0.789733 -0.368328 0.000000
132.74400330 219.66799927 151.25000000 0.666831 0.686113 0.290835 0.000000
90.96679688 147.56799316 51.25000000 -0.276601 0.682709 -0.676314 0.000000
140.49299622 179.23800659 100.00000000 0.553441 -0.803184 -0.220452 0.000000
56.60160065 226.74299622 87.50000000 -0.859066 0.316173 -0.402543 0.000000
95.00980377 139.48199463 171.25000000 -0.650054 0.130011 0.748683 0.000000
63.33980179 236.17700195 70.00000000 -0.729606 0.676757 0.098357 0.000000
140.83000183 206.86500549 148.75000000 0.776109 0.405138 0.483237 0.000000
98.37889862 242.24099731 125.00000000 0.599234 0.132337 -0.789561 0.000000
91.30370331 179.23800659 62.50000000 0.894688 -0.446689 0.001310 0.000000
128.02699280 216.29899597 131.25000000 0.370313 0.738994 -0.562810 0.000000
141.50399780 183.61799622 105.00000000 0.871158 0.483977 -0.082767 0.000000
139.48199463 126.00599670 121.25000000 -0.569498 -0.280783 0.772550 0.000000
85.57620239 123.31099701 83.75000000 -0.557384 -0.697146 -0.450899 0.000000
92.98829651 234.49200439 156.25000000 -0.229771 0.370268 0.900059 0.000000
101.07399750 212.25599670 161.25000000 0.000978 0.000978 0.999999 0.000000
70.07810211 156.32800293 161.25000000 -0.627265 -0.496094 0.600358 0.000000
70.07810211 132.40699768 140.00000000 -0.691292 -0.605499 0.394317 0.000000
117.24600220 106.12799835 155.00000000 -0.118668 -0.813099 0.569902 0.000000
221.68899536 140.83000183 153.75000000 0.285344 0.070376 0.955838 0.000000
202.82200623 113.20300293 138.75000000 -0.368457 0.581343 0.725451 0.000000
173.51100159 188.67199707 142.50000000 -0.665057 -0.717766 0.206183 0.000000
84.90229797 241.22999573 113.75000000 0.881706 0.243178 -0.404302 0.000000
87.59760284 128.02699280 161.25000000 -0.642171 -0.428670 0.635499 0.000000
74.45800018 120.61499786 110.00000000 -0.705724 -0.708486 -0.001381 0.000000
77.49019623 198.77900696 161.25000000 -0.486426 -0.059591 0.871687 0.000000
174.52099609 185.97700500 143.75000000 -0.728785 0.044040 0.683325 0.000000
221.01600647 145.21000671 152.50000000 -0.914140 -0.120683 0.387018 0.000000
152.28500366 164.75100708 120.00000000 0.543882 -0.405858 -0.734487 0.000000
103.09600067 141.84100342 57.50000000 -0.001373 0.613750 -0.789499 0.000000
141.50399780 98.37889862 148.75000000 -0.323339 -0.558202 0.764109 0.000000
110.50800323 245.27299500 133.75000000 0.665727 0.272996 -0.694464 0.000000
180.24899292 161.71899414 140.00000000 -0.861941 0.230958 0.451349 0.000000
196.08399963 120.61499786 153.75000000 0.000978 0.000978 0.999999 0.000000
192.04100037 111.18199921 153.75000000 0.000978 0.000978 0.999999 0.000000
80.18550110 243.92599487 143.75000000 -0.445389 0.665582 0.598857 0.000000
75.46869659 136.78700256 153.75000000 -0.484510 -0.678985 0.551570 0.000000
140.83000183 110.84500122 157.50000000 -0.001320 -0.468736 0.883337 0.000000
146.22099304 170.47799683 143.75000000 -0.001373 0.778585 0.627537 0.000000
126.00599670 200.80099487 161.25000000 0.411640 0.373788 0.831165 0.000000
87.26069641 109.83399963 105.00000000 -0.521643 -0.849614 0.077752 0.000000
85.23919678 127.35299683 77.50000000 -0.599850 -0.772557 -0.208174 0.000000
132.74400330 95.68360138 141.25000000 -0.161414 -0.788966 0.592856 0.000000
157.67599487 129.37500000 161.25000000 0.562128 -0.767121 0.309091 0.000000
101.07399750 233.81799316 156.25000000 0.660827 0.660827 -0.355830 0.000000
135.77600098 185.30299377 132.50000000 0.995869 -0.089359 -0.016149 0.000000
102.42199707 248.64300537 131.25000000 -0.000978 -0.000978 -0.999999 0.000000
207.53900146 90.96679688 131.25000000 0.238643 -0.584908 0.775198 0.000000
103.09600067 159.02299500 173.75000000 -0.000978 -0.000978 0.999999 0.000000
99.05269623 213.60299683 161.25000000 0.076295 0.185287 0.979718 0.000000
119.26799774 242.91499329 137.50000000 0.460395 0.431112 -0.776002 0.000000
89.61910248 160.37100220 171.25000000 -0.883644 -0.412959 0.220541 0.000000
89.61910248 186.64999390 48.75000000 0.721725 -0.489445 -0.489445 0.000000
46.49409866 215.96200562 42.50000000 -0.945474 0.314281 0.085474 0.000000
132.07000732 134.76600647 173.75000000 0.337826 -0.313803 0.887356 0.000000
123.98400116 162.39300537 121.25000000 -0.300137 -0.314922 -0.900412 0.000000
171.15199280 92.65139771 147.50000000 0.001373 -0.778585 0.627537 0.000000
69.40429688 134.76600647 96.25000000 -0.886992 -0.428253 -0.172753 0.000000
57.27539825 189.00900269 145.00000000 -0.855379 0.185952 0.483475 0.000000
84.22850037 134.09199524 161.25000000 -0.625055 -0.517229 0.584620 0.000000
76.81639862 162.05599976 45.00000000 0.972738 -0.109198 -0.204589 0.000000
123.98400116 119.26799774 116.25000000 -0.947842 -0.013737 0.318445 0.000000
202.82200623 130.04899597 153.75000000 0.000978 0.000978 0.999999 0.000000
58.95989990 155.65400696 97.50000000 -0.950131 -0.239905 -0.199243 0.000000
46.83100128 181.25999451 67.50000000 -0.965696 -0.001197 0.259673 0.000000
55.25389862 190.69299316 141.25000000 -0.859886 0.179081 0.478043 0.000000
150.26400757 121.96299744 66.25000000 0.165958 0.650127 -0.741480 0.000000
93.66210175 117.24600220 156.25000000 -0.558811 -0.766964 0.315432 0.000000
124.65799713 220.34199524 153.75000000 0.520636 0.418808 0.744001 0.000000
194.39900208 129.37500000 132.50000000 -0.843323 0.040158 0.535905 0.000000
73.44730377 176.88000488 37.50000000 0.495826 -0.449703 -0.742916 0.000000
66.37210083 142.85200500 85.00000000 -0.789426 -0.585605 -0.184047 0.000000
106.46499634 98.37889862 128.75000000 -0.129334 -0.771547 0.622887 0.000000
84.90229797 195.41000366 163.75000000 -0.201613 0.607917 0.767977 0.000000
127.35299683 122.63700104 111.25000000 -0.791085 -0.475295 0.385070 0.000000
140.15600586 136.78700256 88.75000000 -0.131031 0.954276 -0.268680 0.000000
61.99219894 218.99400330 146.25000000 -0.596125 0.218321 0.772639 0.000000
103.76999664 135.43899536 176.25000000 -0.460039 -0.061796 0.885746 0.000000
122.63700104 195.41000366 163.75000000 0.189487 0.321425 0.927783 0.000000
104.44300079 125.33200073 171.25000000 -0.112451 -0.562254 0.819284 0.000000
107.81199646 172.50000000 93.75000000 0.255629 -0.512807 -0.819562 0.000000
168.45700073 132.74400330 81.25000000 0.427300 0.758008 -0.492787 0.000000
92.98829651 211.24499512 55.00000000 0.851247 0.524368 0.020430 0.000000
132.07000732 171.15199280 113.75000000 -0.308558 -0.699506 -0.644580 0.000000
146.89500427 101.07399750 98.75000000 -0.052808 -0.897735 -0.437358 0.000000
184.62899780 136.11300659 156.25000000 0.187000 -0.213525 0.958873 0.000000
53.23239899 182.60699463 138.75000000 -0.946003 0.158344 0.282853 0.000000
177.89100647 169.80499268 153.75000000 -0.846683 -0.394495 -0.357073 0.000000
175.86900330 92.65139771 117.50000000 0.001323 -0.879960 -0.475046 0.000000
103.76999664 225.05900574 121.25000000 0.500631 0.628739 -0.595026 0.000000
162.39300537 182.60699463 143.75000000 -0.995927 0.001061 0.090153 0.000000
76.81639862 127.01699829 90.00000000 -0.001197 -0.965696 0.259673 0.000000
185.30299377 134.09199524 153.75000000 0.463374 -0.358279 0.810506 0.000000
53.23239899 201.47500610 136.25000000 -0.187113 -0.187113 0.964353 0.000000
152.95899963 106.46499634 156.25000000 -0.151314 -0.594768 0.789528 0.000000
163.06599426 90.96679688 143.75000000 -0.230403 -0.691210 0.684940 0.000000
104.44300079 211.91900635 105.00000000 0.436977 0.794943 -0.420852 0.000000
171.82600403 133.08099365 97.50000000 0.195493 0.974977 0.105840 0.000000
50.53710175 217.30999756 67.50000000 -0.694716 0.694716 0.186387 0.000000
90.96679688 221.01600647 106.25000000 0.531944 0.797126 -0.285703 0.000000
148.24200439 196.42100525 140.00000000 0.880940 -0.195601 -0.430911 0.000000
165.08799744 180.58599854 121.25000000 -0.353198 -0.344024 0.869999 0.000000
201.47500610 109.16000366 151.25000000 0.810759 0.166965 0.561063 0.000000
60.64450073 192.04100037 21.25000000 0.767286 -0.637726 -0.067659 0.000000
142.85200500 179.91200256 103.75000000 0.772650 0.353258 -0.527467 0.000000
144.87300110 119.94100189 163.75000000 0.267449 -0.483881 0.833265 0.000000
64.68750000 173.84800720 158.75000000 -0.525093 -0.034455 0.850347 0.000000
116.57199860 96.35739899 116.25000000 -0.182824 -0.919789 -0.347224 0.000000
110.84500122 150.93699646 110.00000000 0.489625 0.746802 0.450060 0.000000
145.21000671 140.15600586 92.50000000 -0.324797 0.860482 -0.392527 0.000000
198.10499573 121.96299744 136.25000000 -0.104138 -0.025212 0.994243 0.000000
164.41400146 101.74800110 153.75000000 -0.437649 -0.476988 0.762198 0.000000
177.89100647 157.67599487 133.75000000 -0.815377 -0.490488 0.307541 0.000000
115.89800262 157.00199890 121.25000000 0.375114 0.001272 -0.926978 0.000000
135.43899536 140.83000183 121.25000000 -0.603167 0.452793 0.656634 0.000000
223.71099854 133.41799927 151.25000000 0.445159 -0.081821 0.891705 0.000000
77.82710266 129.37500000 85.00000000 -0.626419 -0.704518 -0.333548 0.000000
174.52099609 146.22099304 126.25000000 0.000978 0.000978 0.999999 0.000000
176.20599365 163.74000549 130.00000000 -0.784823 0.046665 0.617960 0.000000
165.76199341 98.04199982 105.00000000 0.003920 -0.902878 -0.429880 0.000000
90.29299927 196.08399963 43.75000000 0.719665 -0.378685 -0.581962 0.000000
74.45800018 185.30299377 162.50000000 -0.273352 0.270490 0.923100 0.000000
61.99219894 232.47099304 136.25000000 -0.698029 0.609338 0.376115 0.000000
113.20300293 192.04100037 166.25000000 -0.290210 0.873667 0.390491 0.000000
81.19629669 134.09199524 62.50000000 -0.560268 -0.791242 -0.245020 0.000000
66.70899963 170.47799683 158.75000000 -0.734789 -0.282121 0.616841 0.000000
68.39350128 132.74400330 135.00000000 -0.759051 -0.613139 0.218867 0.000000
179.23800659 173.84800720 143.75000000 -0.938118 -0.328811 0.108709 0.000000
72.09960175 214.27699280 153.75000000 -0.871546 -0.109835 0.477853 0.000000
150.26400757 152.95899963 168.75000000 0.477514 0.415583 0.774126 0.000000
47.84180069 217.64599609 51.25000000 -0.939380 0.339112 0.050672 0.000000
74.12110138 167.78300476 38.75000000 0.820071 0.017918 -0.571982 0.000000
52.22169876 165.76199341 122.50000000 -0.000978 -0.000978 -0.999999 0.000000
155.65400696 117.24600220 61.25000000 0.088878 0.770765 -0.630890 0.000000
118.59400177 146.55799866 102.50000000 0.850494 0.525586 -0.020477 0.000000
127.69000244 150.93699646 125.00000000 0.373363 -0.274399 -0.886174 0.000000
187.99800110 119.26799774 106.25000000 0.723546 0.689957 0.020993 0.000000
45.48339844 188.67199707 32.50000000 -0.924611 -0.338135 -0.175381 0.000000
77.15329742 127.35299683 145.00000000 -0.426542 -0.763199 0.485375 0.000000
117.91999817 144.87300110 111.25000000 0.542578 0.803762 0.244082 0.000000
130.04899597 136.78700256 118.75000000 -0.613922 0.613922 0.496184 0.000000
190.35600281 90.29299927 127.50000000 -0.005846 -0.976308 -0.216308 0.000000
134.76600647 213.94000244 135.00000000 0.520785 0.681541 -0.514086 0.000000
85.57620239 252.34899902 132.50000000 -0.126785 0.887494 0.443035 0.000000
146.89500427 132.07000732 168.75000000 0.351738 -0.274563 0.894928 0.000000
153.63299561 154.97999573 118.75000000 0.398776 0.466584 -0.789479 0.000000
136.11300659 178.90100098 97.50000000 0.129334 -0.771547 -0.622887 0.000000
123.31099701 138.80900574 121.25000000 -0.644218 -0.126463 0.754315 0.000000
117.91999817 225.05900574 131.25000000 0.572623 0.495377 -0.653226 0.000000
163.06599426 194.73599243 143.75000000 -0.945907 -0.268894 -0.181538 0.000000
78.16400146 130.04899597 148.75000000 -0.618097 -0.661414 0.424838 0.000000
77.49019623 212.92999268 31.25000000 0.649592 -0.158991 -0.743473 0.000000
53.23239899 218.65699768 117.50000000 -0.879985 0.440725 -0.177168 0.000000
162.39300537 170.47799683 158.75000000 -0.938128 -0.189843 0.289614 0.000000
114.55100250 178.56399536 111.25000000 -0.000978 -0.000978 -0.999999 0.000000
95.00980377 171.15199280 171.25000000 -0.151459 -0.010097 0.988412 0.000000
59.97069931 155.31700134 62.50000000 -0.781913 -0.587592 0.208202 0.000000
183.95500183 130.72300720 126.25000000 0.134164 0.474624 0.869903 0.000000
168.11999512 186.64999390 150.00000000 -0.404562 -0.755073 -0.515940 0.000000
226.40600586 133.41799927 146.25000000 -0.589188 -0.360694 0.723020 0.000000
110.17099762 154.97999573 102.50000000 -0.791085 0.475295 0.385070 0.000000
89.61910248 194.06199646 166.25000000 -0.203000 0.117261 0.972132 0.000000
158.35000610 149.58999634 118.75000000 0.179050 0.249055 -0.951794 0.000000
97.70510101 230.11199951 120.00000000 0.632693 0.514590 -0.578703 0.000000
201.47500610 106.46499634 103.75000000 0.707188 0.704308 0.061933 0.000000
103.76999664 155.65400696 116.25000000 -0.000978 -0.000978 -0.999999 0.000000
83.55470276 127.69000244 155.00000000 -0.738508 -0.600139 0.307310 0.000000
210.23399353 122.63700104 138.75000000 -0.201126 0.278803 0.939051 0.000000
177.89100647 102.75900269 90.00000000 -0.001373 -0.778585 -0.627537 0.000000
101.74800110 198.77900696 166.25000000 -0.210991 0.187106 0.959413 0.000000
176.20599365 123.98400116 127.50000000 0.001380 -0.680398 0.732842 0.000000
97.70510101 165.08799744 86.25000000 0.918410 -0.249427 -0.307098 0.000000
107.13899994 228.42799377 156.25000000 0.672254 0.330430 0.662488 0.000000
156.32800293 161.04499817 121.25000000 -0.000978 -0.000978 -0.999999 0.000000
111.18199921 212.25599670 161.25000000 0.202442 0.357504 0.911706 0.000000
210.23399353 149.58999634 156.25000000 -0.000978 -0.000978 0.999999 0.000000
218.32000732 112.52899933 141.25000000 -0.255837 0.258664 0.931472 0.000000
101.74800110 204.50700378 80.00000000 0.683858 0.657991 -0.315254 0.000000
142.85200500 99.05269623 148.75000000 0.101177 -0.640785 0.761024 0.000000
173.17399597 174.52099609 156.25000000 -0.000978 -0.000978 -0.999999 0.000000
97.03119659 104.44300079 133.75000000 -0.460924 -0.877335 0.133539 0.000000
186.64999390 98.37889862 101.25000000 0.065516 -0.951902 -0.299316 0.000000
78.50099945 229.10200500 42.50000000 0.796070 0.605013 -0.015229 0.000000
47.16799927 215.62500000 53.75000000 -0.939108 0.342768 0.024210 0.000000
150.93699646 162.05599976 157.50000000 0.591031 0.638178 0.493367 0.000000
161.71899414 121.28900146 158.75000000 0.000978 0.000978 0.999999 0.000000
173.17399597 95.68360138 151.25000000 0.067772 -0.754142 0.653205 0.000000
120.61499786 142.85200500 106.25000000 0.680242 0.708007 0.189727 0.000000
83.55470276 127.35299683 153.75000000 -0.711092 -0.596135 0.372789 0.000000
104.10600281 192.71499634 75.00000000 0.748649 -0.107794 -0.654145 0.000000
131.39599609 189.34599304 96.25000000 -0.049938 0.749069 -0.660607 0.000000
105.79100037 216.97300720 161.25000000 0.000978 0.000978 0.999999 0.000000
203.49600220 132.07000732 138.75000000 -0.510737 -0.510737 0.691589 0.000000
55.25389862 158.35000610 116.25000000 -0.936627 -0.343825 -0.067184 0.000000
105.79100037 116.23500061 77.50000000 -0.306287 -0.918860 -0.248768 0.000000
138.47200012 182.60699463 125.00000000 0.553709 0.831264 0.049063 0.000000
135.43899536 125.33200073 168.75000000 0.112616 -0.568931 0.814638 0.000000
197.43200684 161.71899414 151.25000000 -0.278113 -0.411851 0.867774 0.000000
152.95899963 93.32520294 117.50000000 -0.050861 -0.935064 -0.350812 0.000000
86.58689880 167.78300476 70.00000000 0.586320 -0.576182 -0.569423 0.000000
123.31099701 221.01600647 156.25000000 0.694716 0.694716 0.186387 0.000000
