100.55300140 238.71699524 193.50000000 -0.301769 0.371525 0.878012 0.000000
252.53300476 137.77999878 99.00000000 0.156139 -0.871167 -0.465498 0.000000
115.90399933 229.12199402 204.00000000 0.233543 0.409073 0.882109 0.000000
153.51600647 233.34399414 196.50000000 0.239591 0.846963 0.474605 0.000000
113.21800232 163.49400330 213.00000000 -0.375592 -0.455505 0.807122 0.000000
211.08399963 177.31100464 148.50000000 -0.022553 0.898144 -0.439122 0.000000
163.87800598 245.62500000 174.00000000 0.833677 0.500206 -0.234042 0.000000
90.19039917 161.19099426 117.00000000 -0.853842 -0.446082 -0.268263 0.000000
78.29299927 248.69500732 160.50000000 -0.925931 0.356339 0.125200 0.000000
129.72099304 217.22500610 112.50000000 0.132117 0.154342 -0.979144 0.000000
219.52699280 169.63499451 187.50000000 0.000978 0.000978 0.999999 0.000000
255.60400391 194.19700623 190.50000000 0.000978 0.000978 0.999999 0.000000
123.58000183 288.99301147 153.00000000 0.304464 0.927555 -0.216665 0.000000
156.58599854 263.27899170 172.50000000 0.589471 0.589471 0.552312 0.000000
102.85500336 287.07400513 139.50000000 -0.103975 0.933073 -0.344332 0.000000
280.93399048 164.64599609 108.00000000 0.311426 0.780960 -0.541402 0.000000
148.91000366 269.80398560 174.00000000 0.497096 0.598200 0.628532 0.000000
224.51699829 138.16400146 102.00000000 -0.226980 -0.945063 -0.235234 0.000000
259.05801392 143.53700256 150.00000000 0.388830 -0.881247 0.268728 0.000000
101.70400238 228.73800659 198.00000000 -0.518337 0.403878 0.753796 0.000000
260.97698975 158.88900757 103.50000000 -0.089738 0.966894 -0.238880 0.000000
145.07200623 194.96499634 142.50000000 -0.106506 -0.470048 0.876192 0.000000
110.53099823 194.19700623 103.50000000 0.303434 -0.121641 -0.945056 0.000000
165.79699707 183.83500671 150.00000000 -0.524379 -0.588451 -0.615429 0.000000
216.07299805 161.19099426 186.00000000 0.348983 -0.519454 0.779986 0.000000
280.54998779 158.88900757 144.00000000 0.880536 -0.451077 0.145555 0.000000
84.43360138 270.18798828 154.50000000 -0.723869 0.357849 0.589880 0.000000
113.60199738 142.77000427 193.50000000 -0.344384 -0.846157 0.406716 0.000000
219.52699280 145.83999634 175.50000000 0.217240 -0.793466 0.568523 0.000000
142.00199890 264.81399536 184.50000000 0.103063 0.464488 0.879562 0.000000
122.81199646 164.26199341 121.50000000 0.591528 -0.393803 -0.703572 0.000000
156.20199585 194.19700623 126.00000000 0.293447 -0.500586 -0.814434 0.000000
280.93399048 187.28900146 163.50000000 -0.214151 0.565420 -0.796517 0.000000
79.44429779 211.85200500 180.00000000 -0.866832 -0.095054 0.489455 0.000000
262.51199341 146.22399902 153.00000000 0.386977 -0.853214 0.349678 0.000000
253.68499756 133.55900574 117.00000000 0.210236 -0.975836 -0.059547 0.000000
89.03910065 227.97099304 190.50000000 -0.483113 -0.042426 0.874530 0.000000
94.41210175 257.52200317 111.00000000 0.154387 0.501391 -0.851335 0.000000
122.04499817 145.07200623 199.50000000 -0.036367 -0.890306 0.453908 0.000000
83.66600037 262.51199341 160.50000000 -0.756259 0.457693 0.467536 0.000000
138.93200684 281.70098877 154.50000000 -0.101422 0.949675 -0.296362 0.000000
151.97999573 249.46299744 187.50000000 0.388992 0.469695 0.792510 0.000000
165.79699707 168.48300171 132.00000000 0.680131 0.732984 -0.012518 0.000000
274.02499390 155.05099487 157.50000000 0.987561 0.109992 -0.112357 0.000000
111.29900360 214.15400696 214.50000000 -0.022635 0.448696 0.893398 0.000000
133.55900574 246.77600098 195.00000000 0.132746 0.618985 0.774104 0.000000
139.69900513 132.40699768 141.00000000 -0.312929 -0.906464 0.283546 0.000000
256.37100220 175.77499390 142.50000000 -0.173601 0.801582 -0.572127 0.000000
86.73629761 186.52099609 211.50000000 -0.405967 -0.071961 0.911050 0.000000
99.78520203 287.07400513 151.50000000 -0.496858 0.778465 0.383568 0.000000
234.11099243 161.95899963 181.50000000 0.384281 -0.378007 0.842282 0.000000
92.10939789 161.19099426 112.50000000 -0.815521 -0.449888 -0.364043 0.000000
257.13900757 176.92700195 144.00000000 -0.184225 0.871016 -0.455404 0.000000
189.59199524 204.94299316 145.50000000 -0.126280 0.631399 -0.765107 0.000000
124.34799957 165.02900696 124.50000000 0.723658 -0.279559 -0.631004 0.000000
114.36900330 254.83599854 115.50000000 0.476715 0.182667 -0.859869 0.000000
189.59199524 185.75399780 142.50000000 -0.307108 0.110346 -0.945256 0.000000
274.02499390 184.21899414 184.50000000 0.344408 -0.557844 0.755111 0.000000
68.31449890 232.57600403 169.50000000 -0.967726 0.140083 0.209481 0.000000
270.18798828 208.01400757 190.50000000 -0.568125 0.484330 -0.665326 0.000000
68.69819641 210.31599426 105.00000000 -0.936208 -0.319380 -0.146668 0.000000
168.10000610 162.72700500 148.50000000 -0.697562 0.694495 -0.176307 0.000000
122.04499817 231.04100037 112.50000000 0.201039 0.022338 -0.979329 0.000000
151.97999573 169.63499451 121.50000000 0.522784 0.433729 -0.733877 0.000000
221.83000183 135.09399414 142.50000000 0.317684 -0.317684 0.893394 0.000000
285.15499878 168.10000610 150.00000000 0.697182 -0.694117 0.179275 0.000000
115.13700104 280.54998779 171.00000000 -0.240663 0.737718 0.630757 0.000000
99.78520203 187.28900146 94.50000000 0.446723 0.216638 -0.868047 0.000000
133.55900574 235.64599609 199.50000000 0.046959 0.678772 0.732846 0.000000
179.22900391 174.24000549 159.00000000 -0.423747 0.089719 -0.901326 0.000000
77.52539825 247.16000366 160.50000000 -0.933399 0.341751 0.109414 0.000000
190.35899353 211.08399963 196.50000000 0.119788 0.370378 0.921125 0.000000
224.13299561 177.31100464 187.50000000 0.000978 0.000978 0.999999 0.000000
265.58200073 172.70500183 136.50000000 0.014490 0.902351 -0.430757 0.000000
283.23599243 180.38099670 178.50000000 0.717664 -0.279713 0.637746 0.000000
122.04499817 256.37100220 121.50000000 0.620627 0.094919 -0.778339 0.000000
199.57000732 168.86700439 190.50000000 0.000978 0.000978 0.999999 0.000000
241.02000427 133.17500305 114.00000000 -0.000978 -0.999999 -0.000978 0.000000
234.87899780 148.91000366 85.50000000 0.001349 0.842882 -0.538096 0.000000
100.55300140 211.85200500 211.50000000 -0.332040 0.416220 0.846469 0.000000
69.08200073 214.15400696 121.50000000 -0.962660 -0.221346 0.155859 0.000000
132.79100037 165.79699707 127.50000000 -0.213088 0.183970 -0.959556 0.000000
138.93200684 165.02900696 214.50000000 0.297528 -0.465764 0.833391 0.000000
125.88300323 250.22999573 121.50000000 0.352420 0.570043 -0.742193 0.000000
254.83599854 192.66200256 190.50000000 -0.016449 -0.340376 0.940146 0.000000
161.95899963 193.81300354 132.00000000 -0.330416 -0.659204 -0.675481 0.000000
188.05700684 223.74899292 177.00000000 0.246187 0.944863 0.215929 0.000000
165.79699707 200.33799744 130.50000000 0.633811 0.282581 -0.720022 0.000000
99.78520203 146.60699463 175.50000000 -0.602288 -0.794905 0.073310 0.000000
118.20700073 137.01300049 138.00000000 -0.431844 -0.900239 0.055503 0.000000
94.02829742 153.51600647 129.00000000 0.000978 0.000978 -0.999999 0.000000
284.00399780 194.19700623 172.50000000 0.454185 0.835014 -0.310594 0.000000
186.52099609 185.36999512 144.00000000 -0.226513 -0.805892 -0.547020 0.000000
155.81799316 152.74800110 115.50000000 0.535459 0.006778 -0.844534 0.000000
270.95498657 150.44500732 151.50000000 0.544445 -0.785715 0.293651 0.000000
135.86099243 203.40800476 214.50000000 0.312789 0.355099 0.880947 0.000000
227.97099304 156.20199585 180.00000000 0.307737 -0.272734 0.911545 0.000000
274.40899658 149.67799377 138.00000000 0.695601 -0.695601 0.179659 0.000000
276.32800293 176.15899658 138.00000000 -0.327542 0.929663 -0.168650 0.000000
129.72099304 280.16598511 175.50000000 0.216247 0.729639 0.648741 0.000000
198.80299377 202.64100647 193.50000000 0.698444 -0.156051 0.698444 0.000000
254.06799316 162.72700500 172.50000000 0.438330 -0.451366 0.777262 0.000000
147.37500000 249.46299744 133.50000000 0.813427 0.351795 -0.463224 0.000000
128.18600464 201.87300110 217.50000000 0.000978 0.000978 0.999999 0.000000
108.99600220 260.20901489 115.50000000 0.252784 0.467267 -0.847208 0.000000
109.76399994 218.75999451 211.50000000 -0.114098 0.653470 0.748304 0.000000
163.87800598 203.40800476 204.00000000 0.544707 0.454756 0.704621 0.000000
123.58000183 208.78100586 217.50000000 -0.075010 0.525067 0.847749 0.000000
142.00199890 214.92199707 118.50000000 0.557722 0.043332 -0.828896 0.000000
253.30099487 210.31599426 193.50000000 0.146157 0.646405 0.748865 0.000000
74.83889771 207.24600220 189.00000000 -0.921583 0.293817 0.253686 0.000000
199.57000732 216.07299805 174.00000000 0.701495 0.712608 -0.009724 0.000000
204.94299316 165.79699707 130.50000000 -0.205595 0.856895 -0.472718 0.000000
251.76600647 175.77499390 181.50000000 -0.256245 -0.394107 0.882620 0.000000
129.72099304 231.04100037 112.50000000 -0.000978 -0.000978 -0.999999 0.000000
168.86700439 134.32600403 130.50000000 0.460548 -0.178039 -0.869596 0.000000
164.26199341 141.61799622 126.00000000 0.501402 0.297069 -0.812617 0.000000
139.69900513 183.45100403 217.50000000 0.515025 0.065957 0.854634 0.000000
255.60400391 188.82400513 187.50000000 0.039198 -0.452807 0.890746 0.000000
226.43600464 194.96499634 166.50000000 0.105664 0.548585 -0.829391 0.000000
104.39099884 143.53700256 178.50000000 -0.538614 -0.837365 0.093360 0.000000
208.78100586 158.50500488 117.00000000 -0.038562 0.910870 -0.410889 0.000000
281.70098877 161.57499695 147.00000000 0.890380 -0.431569 0.144812 0.000000
67.93070221 230.27299500 135.00000000 -0.825991 -0.235338 0.512206 0.000000
108.22899628 228.35400391 201.00000000 -0.402275 0.809358 0.427918 0.000000
83.28220367 274.02499390 147.00000000 -0.474576 0.527862 0.704371 0.000000
107.46099854 159.65600586 208.50000000 -0.396094 -0.503675 0.767738 0.000000
207.24600220 150.44500732 181.50000000 0.267995 -0.737383 0.620036 0.000000
103.62300110 143.53700256 154.50000000 -0.542985 -0.839653 -0.012248 0.000000
224.13299561 169.25100708 138.00000000 -0.055685 0.944057 -0.325046 0.000000
155.05099487 253.30099487 184.50000000 0.566251 0.466030 0.679835 0.000000
188.05700684 185.75399780 142.50000000 -0.600158 -0.138498 -0.787800 0.000000
124.34799957 269.42001343 127.50000000 0.431982 0.467844 -0.771047 0.000000
105.15799713 145.45599365 189.00000000 -0.451658 -0.829352 0.328908 0.000000
257.13900757 165.41299438 126.00000000 -0.228814 0.925206 -0.302717 0.000000
69.46579742 247.92799377 117.00000000 -0.753506 0.521407 -0.400454 0.000000
81.36329651 169.25100708 195.00000000 -0.557471 -0.279525 0.781723 0.000000
73.30370331 242.55499268 162.00000000 -0.699946 0.687585 -0.193142 0.000000
89.80660248 256.37100220 175.50000000 -0.565508 0.612775 0.552004 0.000000
119.74199677 158.88900757 214.50000000 -0.845993 0.422217 0.325621 0.000000
71.38480377 236.41400146 175.50000000 -0.767140 0.239048 0.595275 0.000000
128.18600464 141.23399353 196.50000000 -0.134282 -0.816019 0.562212 0.000000
249.46299744 132.79100037 124.50000000 0.112695 -0.982752 0.146625 0.000000
83.66600037 177.69400024 96.00000000 -0.762483 -0.413080 -0.497981 0.000000
151.21299744 247.54400635 138.00000000 0.788362 0.334214 -0.516513 0.000000
187.28900146 221.44599915 183.00000000 0.429568 0.841954 0.326472 0.000000
142.77000427 200.33799744 214.50000000 0.263424 0.312906 0.912523 0.000000
237.18200684 132.40699768 120.00000000 -0.108595 -0.993026 -0.045901 0.000000
224.89999390 150.44500732 85.50000000 -0.074400 0.860518 -0.503958 0.000000
269.80398560 148.14300537 144.00000000 0.502422 -0.791355 0.348324 0.000000
162.72700500 234.49499512 189.00000000 0.638178 0.567457 0.520309 0.000000
138.93200684 132.02299500 139.50000000 -0.257043 -0.920473 0.294379 0.000000
185.75399780 155.81799316 184.50000000 -0.169516 -0.670428 0.722351 0.000000
166.56399536 153.51600647 178.50000000 -0.143553 -0.827282 0.543135 0.000000
112.83399963 280.93399048 169.50000000 -0.256981 0.752023 0.606978 0.000000
103.62300110 222.59800720 103.50000000 0.359114 0.272688 -0.892569 0.000000
267.88500977 180.38099670 151.50000000 0.071450 0.947035 -0.313080 0.000000
111.29900360 158.12100220 208.50000000 -0.483945 -0.497250 0.720097 0.000000
220.29499817 163.87800598 186.00000000 0.102288 -0.312177 0.944501 0.000000
155.05099487 161.95899963 211.50000000 0.347286 -0.217594 0.912165 0.000000
78.67680359 258.67401123 117.00000000 -0.621463 0.712329 -0.326146 0.000000
213.38699341 179.61300659 190.50000000 0.506211 -0.217382 0.834563 0.000000
102.85500336 145.07200623 181.50000000 -0.579987 -0.812549 0.058140 0.000000
151.21299744 128.95300293 136.50000000 -0.001189 -0.968656 0.248404 0.000000
86.73629761 218.75999451 187.50000000 0.354487 0.882447 0.309234 0.000000
98.25000000 150.82899475 189.00000000 -0.714758 -0.661582 0.226783 0.000000
199.95399475 201.87300110 150.00000000 0.744676 0.429052 -0.511246 0.000000
264.04699707 180.76499939 153.00000000 0.037800 0.969377 -0.242649 0.000000
103.62300110 181.53199768 96.00000000 0.379014 0.207659 -0.901791 0.000000
72.53610229 184.21899414 162.00000000 -0.962989 -0.239775 -0.123128 0.000000
195.73199463 162.72700500 187.50000000 0.068507 -0.496328 0.865428 0.000000
111.29900360 208.01400757 217.50000000 0.000978 0.000978 0.999999 0.000000
86.73629761 217.60800171 198.00000000 0.349682 0.821199 0.450948 0.000000
132.02299500 207.24600220 109.50000000 0.320071 0.149733 -0.935486 0.000000
91.34179688 217.99200439 202.50000000 -0.541628 0.642867 0.541628 0.000000
178.07800293 198.80299377 196.50000000 0.575612 0.445474 0.685729 0.000000
151.21299744 201.87300110 211.50000000 0.362371 0.275879 0.890269 0.000000
135.09399414 254.45199585 126.00000000 -0.358127 0.533140 -0.766490 0.000000
248.69500732 150.06199646 87.00000000 0.172160 0.644455 -0.745009 0.000000
254.83599854 208.01400757 184.50000000 0.315726 0.860931 -0.398893 0.000000
79.06050110 244.08999634 178.50000000 -0.586267 0.562613 0.582888 0.000000
129.72099304 244.47399902 120.00000000 0.434808 0.316366 -0.843122 0.000000
158.88900757 213.38699341 139.50000000 0.635314 0.671618 -0.381189 0.000000
95.17970276 237.94900513 193.50000000 -0.345638 0.364072 0.864862 0.000000
125.49900055 203.40800476 108.00000000 0.419505 0.038621 -0.906931 0.000000
211.85200500 156.20199585 105.00000000 -0.001189 0.968656 -0.248404 0.000000
178.84599304 175.77499390 196.50000000 0.175277 -0.754451 0.632520 0.000000
94.41210175 212.61900330 208.50000000 -0.233908 0.490748 0.839317 0.000000
221.83000183 185.75399780 190.50000000 0.226668 -0.173646 0.958368 0.000000
153.51600647 140.85099792 180.00000000 0.776627 -0.473791 -0.415178 0.000000
142.77000427 165.79699707 214.50000000 0.173780 -0.315584 0.932849 0.000000
114.75299835 161.19099426 114.00000000 0.686846 -0.543127 -0.482965 0.000000
276.32800293 175.00799561 178.50000000 0.566266 -0.404476 0.718151 0.000000
261.35998535 136.62899780 108.00000000 0.000978 -0.999999 0.000978 0.000000
270.57101440 153.51600647 96.00000000 0.846549 0.255649 -0.466903 0.000000
96.71479797 153.51600647 193.50000000 -0.695601 -0.695601 0.179659 0.000000
113.60199738 275.56100464 127.50000000 0.336551 0.327496 -0.882881 0.000000
152.74800110 254.06799316 184.50000000 0.374471 0.470901 0.798764 0.000000
275.56100464 175.77499390 178.50000000 0.563958 -0.437525 0.700373 0.000000
207.24600220 193.81300354 177.00000000 0.272733 0.931249 -0.241644 0.000000
254.06799316 186.52099609 160.50000000 -0.169888 0.810349 -0.560779 0.000000
135.86099243 134.71000671 168.00000000 0.001057 -0.996331 0.085581 0.000000
155.05099487 244.85699463 142.50000000 0.968656 0.001189 -0.248404 0.000000
181.91600037 187.28900146 142.50000000 -0.132411 -0.602543 -0.787026 0.000000
220.29499817 142.77000427 169.50000000 0.166304 -0.822532 0.543860 0.000000
118.97499847 230.27299500 202.50000000 -0.175810 0.471290 0.864278 0.000000
264.81399536 176.15899658 183.00000000 0.135051 -0.495186 0.858226 0.000000
67.16310120 231.80900574 165.00000000 -0.956071 0.204586 0.209935 0.000000
267.11700439 204.94299316 193.50000000 0.145177 0.234115 0.961308 0.000000
79.82810211 237.18200684 184.50000000 -0.684771 0.110924 0.720267 0.000000
85.20120239 264.43099976 117.00000000 -0.372089 0.758802 -0.534574 0.000000
105.15799713 198.80299377 217.50000000 -0.130018 0.220129 0.966767 0.000000
206.47900391 186.13800049 153.00000000 0.826470 0.346074 -0.444050 0.000000
260.20901489 192.27799988 168.00000000 -0.029119 0.825025 -0.564345 0.000000
176.92700195 214.15400696 162.00000000 -0.968656 0.001189 -0.248404 0.000000
179.61300659 156.20199585 147.00000000 0.056637 0.960312 -0.273116 0.000000
141.23399353 266.35000610 181.50000000 0.192262 0.622930 0.758283 0.000000
212.61900330 187.28900146 163.50000000 -0.309860 0.855582 -0.414688 0.000000
241.02000427 191.12699890 163.50000000 0.409060 0.537199 -0.737622 0.000000
124.34799957 190.35899353 220.50000000 0.000978 0.000978 0.999999 0.000000
148.14300537 256.37100220 139.50000000 0.765397 0.399834 -0.504281 0.000000
127.41799927 201.87300110 109.50000000 0.105188 0.009760 -0.994404 0.000000
216.45700073 153.51600647 181.50000000 0.006945 -0.720842 0.693064 0.000000
82.89839935 164.64599609 147.00000000 -0.883788 -0.464503 0.056179 0.000000
105.54199982 234.87899780 198.00000000 -0.234657 0.202104 0.950837 0.000000
221.44599915 139.69900513 99.00000000 -0.376116 -0.914231 -0.150728 0.000000
68.69819641 214.92199707 165.00000000 -0.939247 -0.276086 0.203943 0.000000
84.43360138 245.62500000 184.50000000 -0.497042 0.450805 0.741434 0.000000
213.38699341 139.31500244 108.00000000 -0.201456 -0.886700 -0.416146 0.000000
69.84960175 208.01400757 160.50000000 -0.878157 -0.445654 0.173878 0.000000
159.27200317 246.39300537 150.00000000 0.997668 0.005234 -0.068047 0.000000
87.50389862 191.12699890 211.50000000 -0.524717 -0.142570 0.839253 0.000000
110.53099823 146.99099731 198.00000000 -0.388637 -0.765892 0.512221 0.000000
276.32800293 161.95899963 163.50000000 0.558679 -0.695430 0.451946 0.000000
248.69500732 161.95899963 175.50000000 0.138130 -0.428629 0.892859 0.000000
137.39599609 194.19700623 148.50000000 0.828794 -0.334977 -0.448209 0.000000
142.00199890 241.02000427 127.50000000 0.653824 0.233621 -0.719677 0.000000
136.62899780 136.24499512 189.00000000 -0.038049 -0.922370 0.384430 0.000000
270.95498657 161.95899963 106.50000000 -0.260779 0.807321 -0.529365 0.000000
135.86099243 183.83500671 120.00000000 0.625337 -0.457686 -0.632043 0.000000
93.64450073 254.06799316 109.50000000 0.195307 0.525360 -0.828162 0.000000
75.99019623 180.38099670 145.50000000 -0.932734 0.152930 -0.326526 0.000000
75.99019623 244.85699463 157.50000000 -0.861768 0.497119 0.101133 0.000000
208.01400757 161.95899963 187.50000000 0.000978 0.000978 0.999999 0.000000
112.06600189 227.20300293 106.50000000 0.473987 0.121719 -0.872079 0.000000
119.74199677 176.54299927 220.50000000 -0.173780 -0.315584 0.932849 0.000000
109.76399994 181.14799500 97.50000000 -0.000978 -0.000978 -0.999999 0.000000
94.41210175 158.50500488 111.00000000 -0.773338 -0.470515 -0.424929 0.000000
108.99600220 142.77000427 187.50000000 -0.516516 -0.780406 0.352389 0.000000
95.17970276 278.63101196 160.50000000 -0.889912 -0.001314 -0.456129 0.000000
249.46299744 197.26800537 190.50000000 0.000978 0.000978 0.999999 0.000000
112.06600189 287.84201050 142.50000000 0.317939 0.834785 -0.449499 0.000000
181.14799500 145.07200623 175.50000000 0.032414 -0.675050 0.737059 0.000000
135.09399414 140.46699524 196.50000000 -0.101020 -0.771561 0.628083 0.000000
125.11499786 220.29499817 112.50000000 0.358340 0.349112 -0.865860 0.000000
189.59199524 137.01300049 159.00000000 0.239775 -0.962989 0.123128 0.000000
263.27899170 207.24600220 187.50000000 0.328228 0.779741 -0.533170 0.000000
150.44500732 223.36500549 130.50000000 0.768995 0.006903 -0.639218 0.000000
277.09600830 207.63000488 189.00000000 0.346282 0.938109 -0.006296 0.000000
67.54689789 213.77099609 111.00000000 -0.962926 -0.250027 0.101293 0.000000
88.65529633 238.71699524 189.00000000 -0.975066 0.108618 0.193515 0.000000
135.86099243 198.80299377 112.50000000 0.535454 -0.357508 -0.765165 0.000000
217.60800171 142.00199890 96.00000000 -0.412631 -0.888405 -0.201176 0.000000
161.95899963 208.01400757 202.50000000 0.663048 0.478401 0.575760 0.000000
138.16400146 171.93800354 130.50000000 0.714146 -0.133247 -0.687197 0.000000
101.31999969 228.73800659 103.50000000 0.473931 0.150200 -0.867658 0.000000
270.95498657 187.67300415 189.00000000 0.167227 -0.281430 0.944898 0.000000
128.18600464 238.71699524 199.50000000 0.287836 0.580443 0.761732 0.000000
138.16400146 234.11099243 202.50000000 0.132173 0.604433 0.785615 0.000000
119.74199677 229.50599670 112.50000000 0.479700 0.028377 -0.876973 0.000000
128.18600464 281.70098877 142.50000000 0.409577 0.638409 -0.651675 0.000000
184.98599243 167.33200073 148.50000000 -0.854681 0.423491 -0.300293 0.000000
144.30499268 244.85699463 193.50000000 0.366816 0.565712 0.738523 0.000000
69.84960175 242.55499268 109.50000000 -0.846086 0.380035 -0.373779 0.000000
146.60699463 215.68899536 121.50000000 0.664974 0.216467 -0.714808 0.000000
219.52699280 194.19700623 190.50000000 0.697710 -0.047085 0.714832 0.000000
102.08799744 282.46899414 160.50000000 -0.521808 0.582602 0.623130 0.000000
75.22270203 234.87899780 97.50000000 -0.224631 0.580942 -0.782335 0.000000
76.75779724 262.51199341 127.50000000 -0.775338 0.577179 -0.256349 0.000000
117.43900299 137.01300049 144.00000000 -0.343439 -0.939071 -0.013940 0.000000
250.22999573 160.80799866 111.00000000 -0.001189 0.968656 -0.248404 0.000000
108.99600220 141.23399353 181.50000000 -0.542074 -0.813875 0.209195 0.000000
266.35000610 209.16499329 192.00000000 0.049538 0.953916 0.295955 0.000000
130.48800659 211.85200500 214.50000000 0.183437 0.568504 0.801969 0.000000
169.63499451 188.05700684 145.50000000 -0.331907 -0.533937 -0.777656 0.000000
236.41400146 199.57000732 172.50000000 -0.149692 0.831460 -0.535039 0.000000
115.13700104 221.83000183 208.50000000 0.314673 0.452441 0.834433 0.000000
118.97499847 283.23599243 139.50000000 0.237781 0.797266 -0.554822 0.000000
162.72700500 233.34399414 190.50000000 0.465656 0.559121 0.685966 0.000000
115.13700104 246.39300537 193.50000000 -0.212824 0.487533 0.846769 0.000000
115.90399933 262.51199341 184.50000000 -0.064555 0.641245 0.764616 0.000000
134.32600403 143.53700256 199.50000000 -0.124167 -0.831187 0.541951 0.000000
166.56399536 184.21899414 148.50000000 0.136222 -0.743983 -0.654166 0.000000
185.75399780 184.98599243 145.50000000 -0.226513 -0.805892 -0.547020 0.000000
120.89399719 273.25799561 129.00000000 0.527943 0.592039 -0.608906 0.000000
125.88300323 188.05700684 109.50000000 0.718192 0.152710 -0.678881 0.000000
133.55900574 246.39300537 124.50000000 0.516545 0.386187 -0.764226 0.000000
134.71000671 188.82400513 219.00000000 0.343034 0.053477 0.937800 0.000000
92.10939789 175.00799561 211.50000000 -0.469352 -0.327124 0.820182 0.000000
149.67799377 232.19200134 132.00000000 0.844353 0.348042 -0.407350 0.000000
105.15799713 146.60699463 118.50000000 0.001314 -0.889912 -0.456129 0.000000
100.93699646 156.58599854 102.00000000 -0.651781 -0.651781 -0.387768 0.000000
181.53199768 138.16400146 165.00000000 0.078436 -0.934587 0.346980 0.000000
66.39550018 207.24600220 144.00000000 -0.989196 -0.142289 -0.035288 0.000000
99.78520203 166.56399536 208.50000000 -0.206771 -0.552920 0.807171 0.000000
100.55300140 228.73800659 196.50000000 -0.408054 0.200371 0.890698 0.000000
103.23899841 145.07200623 132.00000000 -0.558918 -0.826289 -0.069687 0.000000
159.65600586 244.85699463 184.50000000 0.773761 0.332991 0.538898 0.000000
145.07200623 258.67401123 136.50000000 0.780808 0.426928 -0.456148 0.000000
79.82810211 270.18798828 136.50000000 -0.717645 0.668258 -0.196002 0.000000
132.79100037 267.88500977 133.50000000 0.497042 0.741434 -0.450805 0.000000
201.87300110 195.73199463 151.50000000 0.733483 0.229898 -0.639648 0.000000
199.57000732 176.54299927 190.50000000 -0.019705 -0.419060 0.907745 0.000000
258.67401123 156.58599854 94.50000000 0.049972 0.741015 -0.669626 0.000000
74.07129669 224.89999390 180.00000000 -0.749655 0.205575 0.629092 0.000000
120.51000214 250.22999573 118.50000000 0.507110 0.473857 -0.719930 0.000000
82.51460266 162.72700500 180.00000000 -0.928428 -0.330883 -0.168932 0.000000
199.57000732 180.38099670 145.50000000 0.314536 -0.125544 -0.940907 0.000000
132.79100037 132.40699768 138.00000000 -0.106875 -0.979069 0.173210 0.000000
147.37500000 193.81300354 150.00000000 0.031387 -0.498097 -0.866553 0.000000
142.00199890 193.42999268 142.50000000 -0.008861 -0.353190 0.935510 0.000000
66.77929688 219.14399719 120.00000000 -0.917969 -0.338350 0.207007 0.000000
101.31999969 267.11700439 118.50000000 0.442960 0.502241 -0.742658 0.000000
120.51000214 167.33200073 115.50000000 0.739766 -0.525580 -0.420134 0.000000
116.67199707 137.77999878 183.00000000 -0.230513 -0.947966 0.219601 0.000000
172.70500183 209.54899597 145.50000000 0.205628 0.613793 -0.762217 0.000000
221.06199646 198.03500366 178.50000000 -0.237831 0.949964 -0.202496 0.000000
169.63499451 208.78100586 178.50000000 0.552835 0.753866 0.355047 0.000000
131.25599670 239.48399353 118.50000000 0.780479 0.394296 -0.485163 0.000000
138.93200684 188.05700684 142.50000000 -0.000978 -0.000978 0.999999 0.000000
85.20120239 266.35000610 121.50000000 -0.514998 0.792428 -0.326856 0.000000
102.85500336 277.86300659 166.50000000 -0.454073 0.631680 0.628329 0.000000
138.54800415 271.72299194 180.00000000 0.143043 0.657999 0.739308 0.000000
140.46699524 234.87899780 199.50000000 0.283630 0.556169 0.781172 0.000000
277.09600830 163.11000061 165.00000000 0.563285 -0.660809 0.496027 0.000000
73.68750000 239.48399353 175.50000000 -0.541840 0.372617 0.753370 0.000000
83.28220367 193.42999268 210.00000000 -0.533362 -0.307280 0.788102 0.000000
189.59199524 158.88900757 124.50000000 -0.316001 0.945381 -0.079984 0.000000
106.69300079 236.02999878 198.00000000 -0.366560 0.194061 0.909931 0.000000
116.67199707 236.41400146 112.50000000 0.463299 0.255350 -0.848617 0.000000
201.87300110 202.64100647 154.50000000 0.783724 0.468937 -0.407277 0.000000
270.95498657 155.05099487 97.50000000 0.846549 0.255649 -0.466903 0.000000
86.73629761 271.72299194 157.50000000 -0.723869 0.357849 0.589880 0.000000
257.13900757 193.42999268 190.50000000 0.034987 -0.361536 0.931701 0.000000
266.35000610 183.45100403 187.50000000 0.064828 -0.664128 0.744803 0.000000
194.19700623 180.38099670 145.50000000 -0.000978 -0.000978 -0.999999 0.000000
113.60199738 278.63101196 172.50000000 -0.175340 0.751676 0.635799 0.000000
93.64450073 157.35400391 196.50000000 -0.586321 -0.732495 0.345946 0.000000
81.36329651 177.69400024 123.00000000 -0.756873 -0.645179 0.104346 0.000000
150.44500732 247.16000366 136.50000000 0.833731 0.257362 -0.488526 0.000000
212.61900330 139.69900513 106.50000000 -0.845993 -0.422217 0.325621 0.000000
152.74800110 205.71099854 124.50000000 0.636258 0.394975 -0.662699 0.000000
208.78100586 188.05700684 190.50000000 -0.091770 0.141826 0.985629 0.000000
281.70098877 186.13800049 183.00000000 0.530743 -0.503954 0.681427 0.000000
284.77099609 180.76499939 153.00000000 -0.003934 0.898320 -0.439324 0.000000
222.59800720 167.33200073 130.50000000 -0.845993 0.422217 -0.325621 0.000000
118.97499847 198.80299377 106.50000000 0.132453 0.035094 -0.990568 0.000000
132.02299500 261.74398804 127.50000000 0.355101 0.460199 -0.813708 0.000000
252.53300476 171.93800354 136.50000000 -0.118497 0.907546 -0.402889 0.000000
135.86099243 184.21899414 118.50000000 0.617001 -0.373491 -0.692686 0.000000
221.83000183 149.67799377 178.50000000 0.152127 -0.631102 0.760636 0.000000
217.22500610 134.71000671 144.00000000 0.148455 -0.941124 0.303720 0.000000
82.51460266 175.77499390 129.00000000 -0.784807 0.470884 0.402922 0.000000
153.51600647 130.48800659 142.50000000 -0.001280 -0.922811 0.385251 0.000000
248.69500732 158.88900757 172.50000000 0.255135 -0.505631 0.824163 0.000000
159.65600586 225.28399658 198.00000000 0.545692 0.182905 0.817782 0.000000
159.65600586 238.71699524 187.50000000 0.626844 0.538984 0.562639 0.000000
128.95300293 161.57499695 126.00000000 0.209453 0.653183 -0.727655 0.000000
166.18099976 210.31599426 183.00000000 0.523660 0.849368 0.065984 0.000000
114.36900330 150.44500732 115.50000000 0.004047 0.524770 -0.851234 0.000000
75.22270203 263.27899170 133.50000000 -0.843494 0.532659 -0.069231 0.000000
137.39599609 211.08399963 115.50000000 0.655625 0.136526 -0.742642 0.000000
147.75900269 244.85699463 192.00000000 0.386582 0.490102 0.781252 0.000000
87.50389862 258.67401123 169.50000000 -0.673971 0.683576 0.280154 0.000000
137.39599609 136.62899780 190.50000000 -0.035393 -0.921526 0.386700 0.000000
194.19700623 169.63499451 190.50000000 0.000978 0.000978 0.999999 0.000000
122.04499817 186.52099609 220.50000000 0.000978 0.000978 0.999999 0.000000
185.75399780 167.71600342 147.00000000 -0.807425 0.518947 -0.280639 0.000000
200.33799744 183.45100403 145.50000000 0.522301 0.208616 -0.826850 0.000000
266.35000610 184.98599243 160.50000000 0.262234 0.820840 -0.507400 0.000000
168.10000610 168.86700439 196.50000000 0.884442 -0.329971 0.329971 0.000000
185.75399780 149.67799377 178.50000000 -0.006919 -0.662886 0.748688 0.000000
76.37400055 201.87300110 165.00000000 -0.727018 -0.468670 0.501791 0.000000
105.92600250 222.59800720 205.50000000 -0.488258 0.575507 0.656045 0.000000
249.46299744 184.98599243 187.50000000 0.000978 0.000978 0.999999 0.000000
68.31449890 228.73800659 172.50000000 -0.914813 -0.003871 0.403860 0.000000
209.54899597 139.31500244 165.00000000 0.001186 -0.969369 -0.245605 0.000000
254.83599854 134.71000671 129.00000000 0.191703 -0.930527 0.312041 0.000000
96.71479797 255.60400391 109.50000000 0.258425 0.502923 -0.824794 0.000000
221.06199646 168.10000610 187.50000000 0.039165 -0.115258 0.992563 0.000000
250.99800110 151.21299744 166.50000000 0.438332 -0.661664 0.608331 0.000000
71.38480377 237.94900513 154.50000000 -0.765776 0.549746 -0.333717 0.000000
188.05700684 183.83500671 144.00000000 -0.490180 -0.496826 -0.716161 0.000000
125.11499786 250.99800110 193.50000000 0.079106 0.585387 0.806885 0.000000
65.24410248 229.50599670 121.50000000 -0.997783 -0.043753 -0.050156 0.000000
79.06050110 200.33799744 202.50000000 -0.867795 0.165924 0.468404 0.000000
131.63999939 180.38099670 117.00000000 0.742241 -0.363780 -0.562798 0.000000
168.10000610 179.99699402 204.00000000 0.718529 -0.392971 0.573837 0.000000
144.30499268 274.02499390 151.50000000 0.678236 0.662049 -0.318884 0.000000
75.22270203 243.32200623 160.50000000 -0.736255 0.632645 -0.240185 0.000000
94.41210175 155.43499756 192.00000000 -0.598727 -0.751188 0.277924 0.000000
234.11099243 173.85600281 147.00000000 -0.200566 0.499154 -0.842982 0.000000
98.25000000 146.99099731 156.00000000 -0.568594 -0.819402 -0.072677 0.000000
225.66799927 192.27799988 189.00000000 0.003549 0.237799 0.971308 0.000000
191.12699890 221.44599915 168.00000000 0.651781 0.651781 -0.387768 0.000000
286.30700684 181.91600037 175.50000000 0.823392 -0.349270 0.447255 0.000000
77.52539825 188.82400513 142.50000000 -0.786402 -0.527990 0.320622 0.000000
229.50599670 194.19700623 166.50000000 0.052848 0.678459 -0.732735 0.000000
127.41799927 237.94900513 112.50000000 0.359795 0.245248 -0.900223 0.000000
192.66200256 165.79699707 190.50000000 0.065789 -0.393390 0.917015 0.000000
161.19099426 150.44500732 184.50000000 0.726556 -0.236955 -0.644956 0.000000
204.17599487 142.38600159 105.00000000 -0.187803 -0.870994 -0.453982 0.000000
148.14300537 166.56399536 214.50000000 0.033291 -0.267559 0.962966 0.000000
163.87800598 211.08399963 189.00000000 0.939503 0.339875 -0.042646 0.000000
99.01760101 215.68899536 208.50000000 -0.372332 0.585562 0.720060 0.000000
126.65000153 189.59199524 220.50000000 0.000978 0.000978 0.999999 0.000000
75.22270203 209.54899597 175.50000000 -0.800499 -0.573514 0.174021 0.000000
177.69400024 218.75999451 159.00000000 -0.968656 0.001189 -0.248404 0.000000
89.80660248 275.94400024 132.00000000 -0.651781 0.651781 -0.387768 0.000000
191.89500427 171.16999817 145.50000000 -0.887452 0.319843 -0.331856 0.000000
218.75999451 139.31500244 105.00000000 -0.301709 -0.910956 -0.281303 0.000000
194.19700623 138.54800415 120.00000000 0.001189 -0.968656 -0.248404 0.000000
82.13089752 260.97698975 115.50000000 -0.545344 0.602749 -0.582489 0.000000
108.22899628 188.05700684 100.50000000 0.344821 0.681472 -0.645519 0.000000
158.88900757 171.93800354 124.50000000 -0.000978 -0.000978 -0.999999 0.000000
81.74710083 201.87300110 87.00000000 0.153271 0.079606 -0.984973 0.000000
155.05099487 141.23399353 115.50000000 0.489862 -0.244163 -0.836911 0.000000
118.20700073 235.64599609 112.50000000 0.463299 0.255350 -0.848617 0.000000
122.81199646 172.32099915 114.00000000 0.663282 -0.616736 -0.423902 0.000000
74.45510101 218.75999451 178.50000000 -0.640470 -0.129886 0.756920 0.000000
74.45510101 202.64100647 85.50000000 -0.751855 0.158843 -0.639909 0.000000
148.14300537 139.31500244 165.00000000 0.517011 -0.854252 -0.054349 0.000000
90.57420349 172.32099915 210.00000000 -0.534725 -0.471424 0.701305 0.000000
71.00099945 216.45700073 174.00000000 -0.868496 -0.097759 0.485961 0.000000
69.84960175 196.88400269 141.00000000 -0.838381 -0.526014 0.142923 0.000000
82.89839935 221.83000183 94.50000000 0.391645 -0.019517 -0.919910 0.000000
260.20901489 155.81799316 166.50000000 0.040947 -0.619857 0.783646 0.000000
144.30499268 191.12699890 151.50000000 -0.165032 -0.201417 -0.965503 0.000000
118.97499847 248.69500732 193.50000000 -0.295884 0.304717 0.905318 0.000000
228.35400391 170.40199280 186.00000000 0.369736 -0.168577 0.913716 0.000000
181.14799500 226.05200195 171.00000000 0.001189 -0.968656 0.248404 0.000000
219.52699280 163.87800598 126.00000000 -0.058706 0.891515 -0.449171 0.000000
142.00199890 211.08399963 211.50000000 0.035084 0.134677 0.990268 0.000000
272.48999023 206.47900391 196.50000000 0.252635 -0.585296 0.770457 0.000000
271.72299194 184.98599243 163.50000000 0.106663 0.979582 0.170415 0.000000
230.27299500 168.10000610 184.50000000 0.823898 0.072571 0.562072 0.000000
282.85299683 172.70500183 123.00000000 0.427137 0.599987 -0.676439 0.000000
128.18600464 184.21899414 220.50000000 0.000978 0.000978 0.999999 0.000000
74.07129669 182.68400574 168.00000000 -0.697182 -0.694117 0.179275 0.000000
118.20700073 188.05700684 103.50000000 0.587107 0.281621 -0.758943 0.000000
256.37100220 184.98599243 160.50000000 -0.089069 0.754897 -0.649767 0.000000
138.93200684 217.99200439 115.50000000 0.558142 -0.001358 -0.829744 0.000000
267.11700439 172.32099915 180.00000000 -0.035228 -0.632691 0.773602 0.000000
252.53300476 212.61900330 190.50000000 0.230022 0.921516 0.312887 0.000000
69.46579742 234.11099243 141.00000000 -0.919277 0.001282 0.393609 0.000000
115.90399933 137.77999878 159.00000000 -0.262692 -0.964818 0.010895 0.000000
240.25199890 138.93200684 151.50000000 0.136098 -0.930687 0.339557 0.000000
119.74199677 247.16000366 115.50000000 0.370016 0.508974 -0.777196 0.000000
103.23899841 225.66799927 201.00000000 -0.339463 0.719532 0.605837 0.000000
151.21299744 192.27799988 126.00000000 0.405761 -0.898983 -0.164885 0.000000
83.66600037 224.13299561 187.50000000 -0.375262 -0.416430 0.828109 0.000000
157.73699951 231.04100037 168.00000000 0.812893 -0.219742 -0.539368 0.000000
193.42999268 194.19700623 193.50000000 0.198691 -0.041642 0.979177 0.000000
167.33200073 195.73199463 205.50000000 0.782424 0.070346 0.618761 0.000000
72.53610229 200.33799744 105.00000000 -0.000978 -0.000978 -0.999999 0.000000
96.71479797 237.94900513 193.50000000 -0.319552 0.307662 0.896232 0.000000
257.90600586 134.71000671 114.00000000 0.206927 -0.975864 -0.069792 0.000000
97.48239899 270.18798828 118.50000000 0.199513 0.644937 -0.737734 0.000000
80.21189880 169.63499451 159.00000000 -0.894688 -0.446689 0.001310 0.000000
130.48800659 276.32800293 139.50000000 0.451968 0.416329 -0.788920 0.000000
277.86300659 182.68400574 160.50000000 -0.191818 0.771877 -0.606146 0.000000
75.99019623 204.94299316 166.50000000 -0.963234 0.268442 -0.010932 0.000000
156.58599854 228.35400391 156.00000000 0.993415 -0.066378 0.093379 0.000000
156.58599854 166.94799805 213.00000000 0.272014 -0.257772 0.927126 0.000000
107.84500122 141.23399353 147.00000000 -0.445899 -0.893161 0.058635 0.000000
272.48999023 166.56399536 115.50000000 -0.353534 0.531107 -0.770025 0.000000
143.53700256 158.88900757 211.50000000 0.018081 -0.621705 0.783043 0.000000
72.15229797 198.03500366 151.50000000 -0.801998 -0.532050 0.271518 0.000000
80.59570313 241.78700256 100.50000000 0.094530 0.472650 -0.876166 0.000000
242.55499268 211.08399963 181.50000000 0.001162 0.210402 -0.977614 0.000000
87.50389862 186.52099609 211.50000000 -0.533609 -0.063357 0.843355 0.000000
247.16000366 181.14799500 157.50000000 -0.079248 0.791041 -0.606609 0.000000
67.93070221 236.41400146 159.00000000 -0.716027 0.615361 -0.329600 0.000000
196.50000000 149.67799377 181.50000000 -0.239516 -0.523845 0.817446 0.000000
145.83999634 241.40299988 195.00000000 0.260851 0.405601 0.876039 0.000000
118.20700073 150.82899475 207.00000000 -0.152185 -0.634356 0.757913 0.000000
75.60639954 181.91600037 174.00000000 -0.928213 -0.372047 -0.001270 0.000000
195.73199463 151.21299744 181.50000000 -0.239516 -0.523845 0.817446 0.000000
72.15229797 239.48399353 100.50000000 -0.650926 0.489456 -0.580283 0.000000
72.91989899 191.12699890 157.50000000 -0.622347 0.622347 -0.474729 0.000000
153.89900208 211.85200500 129.00000000 0.707673 0.251723 -0.660178 0.000000
126.65000153 180.76499939 111.00000000 0.633269 -0.340240 -0.695131 0.000000
75.99019623 206.47900391 85.50000000 -0.121497 0.051097 -0.991276 0.000000
75.22270203 210.31599426 175.50000000 -0.800499 -0.573514 0.174021 0.000000
151.97999573 182.68400574 214.50000000 0.369700 0.436341 0.820322 0.000000
243.32200623 178.84599304 154.50000000 0.006922 0.762843 -0.646547 0.000000
276.32800293 174.24000549 178.50000000 0.566266 -0.404476 0.718151 0.000000
103.62300110 175.00799561 214.50000000 0.000978 0.000978 0.999999 0.000000
184.98599243 138.54800415 123.00000000 -0.051168 -0.930216 -0.363427 0.000000
97.48239899 238.71699524 193.50000000 -0.197407 0.583039 0.788097 0.000000
257.13900757 158.88900757 169.50000000 0.191251 -0.519539 0.832768 0.000000
148.14300537 238.71699524 196.50000000 0.274959 0.414718 0.867414 0.000000
144.30499268 137.77999878 192.00000000 0.094763 -0.910547 0.402398 0.000000
98.25000000 279.39801025 127.50000000 -0.353534 0.531107 -0.770025 0.000000
284.77099609 176.54299927 136.50000000 0.112014 0.992283 -0.053178 0.000000
92.10939789 250.99800110 184.50000000 -0.380667 0.611374 0.693769 0.000000
155.05099487 247.16000366 187.50000000 0.266978 0.516782 0.813424 0.000000
138.93200684 242.55499268 196.50000000 0.218472 0.587240 0.779371 0.000000
159.65600586 202.64100647 127.50000000 0.523494 0.503424 -0.687400 0.000000
194.19700623 176.54299927 145.50000000 -0.924524 0.247207 -0.290075 0.000000
118.20700073 244.08999634 112.50000000 0.376716 0.315709 -0.870869 0.000000
184.21899414 176.92700195 156.00000000 0.512397 0.465966 -0.721336 0.000000
273.25799561 142.38600159 111.00000000 0.629272 -0.730717 -0.264706 0.000000
225.66799927 188.82400513 190.50000000 0.440829 -0.044487 0.896488 0.000000
104.39099884 198.03500366 217.50000000 -0.130018 0.220129 0.966767 0.000000
76.75779724 262.51199341 145.50000000 -0.845095 0.410832 0.342099 0.000000
169.63499451 167.33200073 193.50000000 0.908960 -0.397932 0.124266 0.000000
117.43900299 274.79299927 175.50000000 0.092406 0.711377 0.696709 0.000000
146.99099731 178.07800293 150.00000000 0.385226 0.515261 -0.765576 0.000000
267.88500977 201.10499573 184.50000000 0.775797 0.304265 -0.552776 0.000000
77.52539825 238.71699524 181.50000000 -0.805145 0.112926 0.582227 0.000000
154.28300476 201.10499573 211.50000000 0.412140 0.035781 0.910418 0.000000
146.60699463 231.80900574 199.50000000 -0.000978 -0.000978 0.999999 0.000000
154.28300476 242.55499268 190.50000000 0.603197 0.361264 0.711085 0.000000
148.14300537 264.43099976 144.00000000 0.600511 0.285123 -0.747055 0.000000
252.53300476 187.28900146 187.50000000 0.000978 0.000978 0.999999 0.000000
236.41400146 181.91600037 157.50000000 -0.009603 0.577572 -0.816283 0.000000
148.14300537 157.35400391 115.50000000 0.468618 0.323457 -0.822054 0.000000
75.22270203 209.54899597 85.50000000 -0.750730 -0.092195 -0.654145 0.000000
184.21899414 221.83000183 187.50000000 0.084317 0.930160 0.357342 0.000000
72.91989899 249.46299744 112.50000000 -0.761078 0.547782 -0.347413 0.000000
126.65000153 244.08999634 196.50000000 0.000978 0.000978 0.999999 0.000000
202.64100647 164.26199341 127.50000000 0.256331 0.765849 -0.589720 0.000000
161.95899963 171.55400085 132.00000000 0.527665 0.833859 0.162015 0.000000
82.89839935 221.06199646 184.50000000 -0.409425 -0.220232 0.885364 0.000000
131.25599670 147.37500000 205.50000000 -0.004159 -0.708486 0.705713 0.000000
229.50599670 136.24499512 147.00000000 0.001189 -0.968656 0.248404 0.000000
256.37100220 202.64100647 178.50000000 0.301261 0.639575 -0.707238 0.000000
95.56349945 149.67799377 168.00000000 -0.583578 -0.806583 -0.094126 0.000000
142.77000427 150.06199646 207.00000000 0.020063 -0.466810 0.884130 0.000000
204.94299316 185.75399780 190.50000000 0.363292 -0.382002 0.849761 0.000000
231.04100037 160.80799866 117.00000000 -0.083795 0.935043 -0.344490 0.000000
189.97599792 213.38699341 195.00000000 0.166232 0.420638 0.891869 0.000000
101.70400238 146.60699463 129.00000000 -0.603715 -0.785575 -0.135650 0.000000
153.51600647 153.51600647 115.50000000 0.650303 -0.020978 -0.759386 0.000000
228.73800659 190.35899353 163.50000000 -0.117509 0.688693 -0.715467 0.000000
129.33700562 287.07400513 153.00000000 0.495732 0.813631 -0.303734 0.000000
199.57000732 214.15400696 181.50000000 0.764418 0.551990 0.333125 0.000000
142.00199890 277.86300659 172.50000000 0.461013 0.652124 0.601832 0.000000
205.32699585 168.86700439 135.00000000 -0.066407 0.909375 -0.410642 0.000000
104.39099884 198.80299377 100.50000000 0.524893 0.133051 -0.840705 0.000000
251.76600647 180.76499939 156.00000000 -0.246514 0.840599 -0.482311 0.000000
142.00199890 152.36399841 111.00000000 -0.158869 0.530057 -0.832947 0.000000
198.03500366 191.89500427 145.50000000 0.236712 0.157367 -0.958751 0.000000
71.76860046 223.36500549 177.00000000 -0.840251 -0.149148 0.521280 0.000000
162.34300232 233.34399414 171.00000000 0.615457 -0.001371 0.788169 0.000000
142.77000427 139.69900513 196.50000000 0.014865 -0.863536 0.504067 0.000000
86.35250092 181.91600037 210.00000000 -0.567828 -0.150527 0.809267 0.000000
171.93800354 183.45100403 202.50000000 0.680038 -0.156000 0.716388 0.000000
110.53099823 247.16000366 112.50000000 -0.000978 -0.000978 -0.999999 0.000000
122.04499817 279.39801025 136.50000000 0.206571 0.722221 -0.660095 0.000000
79.06050110 185.75399780 97.50000000 -0.763893 -0.519578 -0.382761 0.000000
138.93200684 260.20901489 184.50000000 0.079063 0.450800 0.889117 0.000000
164.26199341 240.63600159 180.00000000 0.726070 0.444904 0.524292 0.000000
188.05700684 137.01300049 162.00000000 0.062946 -0.997537 0.030940 0.000000
211.85200500 135.47799683 123.00000000 -0.116158 -0.985543 -0.123342 0.000000
101.31999969 238.71699524 103.50000000 0.439755 0.078577 -0.894674 0.000000
237.94900513 166.56399536 130.50000000 -0.016898 0.919014 -0.393863 0.000000
107.46099854 261.74398804 181.50000000 -0.402210 0.630626 0.663730 0.000000
198.03500366 160.42399597 124.50000000 -0.000978 0.999999 -0.000978 0.000000
121.27700043 170.40199280 115.50000000 0.715033 -0.532542 -0.452909 0.000000
84.81739807 269.42001343 156.00000000 -0.770149 0.152221 0.619435 0.000000
74.07129669 260.20901489 129.00000000 -0.789199 0.569029 -0.231023 0.000000
127.41799927 233.34399414 202.50000000 0.162162 0.531117 0.831636 0.000000
107.46099854 262.51199341 181.50000000 -0.402210 0.630626 0.663730 0.000000
181.91600037 208.78100586 190.50000000 -0.963187 0.020806 0.268028 0.000000
133.55900574 181.91600037 220.50000000 0.000978 0.000978 0.999999 0.000000
87.88770294 171.16999817 105.00000000 -0.695601 -0.695601 -0.179659 0.000000
196.50000000 216.45700073 163.50000000 0.545547 0.767628 -0.336340 0.000000
195.73199463 218.75999451 181.50000000 0.815610 0.576963 0.043518 0.000000
267.11700439 148.91000366 154.50000000 0.465204 -0.863526 0.194702 0.000000
104.39099884 262.51199341 178.50000000 -0.425383 0.561108 0.710075 0.000000
142.00199890 166.56399536 214.50000000 0.166338 -0.336870 0.926742 0.000000
286.30700684 181.14799500 157.50000000 0.784424 0.151485 -0.601441 0.000000
185.75399780 163.49400330 142.50000000 -0.535832 0.576399 -0.616967 0.000000
234.11099243 140.08299255 90.00000000 0.027128 -0.931395 -0.362999 0.000000
123.58000183 136.24499512 168.00000000 -0.260503 -0.961164 0.091112 0.000000
154.28300476 194.19700623 214.50000000 0.000978 0.000978 0.999999 0.000000
75.60639954 181.91600037 171.00000000 -0.920223 -0.346321 0.182348 0.000000
117.43900299 258.67401123 187.50000000 0.004144 0.664444 0.747327 0.000000
145.83999634 172.70500183 217.50000000 0.096990 0.025065 0.994970 0.000000
239.48399353 167.71600342 132.00000000 -0.049391 0.914395 -0.401800 0.000000
97.09860229 244.08999634 105.00000000 0.011691 0.401405 -0.915826 0.000000
196.50000000 192.66200256 145.50000000 0.132063 0.098750 -0.986310 0.000000
237.18200684 168.86700439 181.50000000 0.090952 -0.170989 0.981066 0.000000
158.88900757 162.72700500 211.50000000 0.347830 -0.291102 0.891220 0.000000
128.18600464 204.94299316 217.50000000 0.000978 0.000978 0.999999 0.000000
132.02299500 201.87300110 109.50000000 0.398496 -0.030249 -0.916671 0.000000
97.48239899 240.25199890 103.50000000 0.146697 0.190068 -0.970749 0.000000
159.27200317 250.22999573 153.00000000 0.999999 0.000978 0.000978 0.000000
128.18600464 162.72700500 217.50000000 -0.088973 -0.660733 0.745330 0.000000
100.55300140 260.20901489 112.50000000 0.209403 0.486599 -0.848158 0.000000
71.76860046 201.87300110 105.00000000 0.000978 0.000978 -0.999999 0.000000
97.48239899 258.67401123 112.50000000 -0.001334 0.500299 -0.865851 0.000000
135.09399414 135.47799683 183.00000000 -0.056781 -0.997420 0.043925 0.000000
115.90399933 206.47900391 106.50000000 0.537962 0.069187 -0.840125 0.000000
148.14300537 130.48800659 142.50000000 -0.075065 -0.904878 0.419001 0.000000
95.56349945 285.53900146 147.00000000 -0.731258 0.616049 0.292823 0.000000
99.78520203 241.78700256 103.50000000 0.383839 0.399635 -0.832442 0.000000
123.58000183 221.06199646 112.50000000 0.669398 0.095210 -0.736778 0.000000
135.09399414 224.89999390 115.50000000 0.572809 0.572809 0.586327 0.000000
141.61799622 168.86700439 126.00000000 -0.608494 0.753149 -0.250002 0.000000
168.86700439 181.14799500 202.50000000 0.683216 -0.344054 0.644082 0.000000
162.34300232 145.07200623 168.00000000 -0.402584 -0.537327 0.741084 0.000000
102.08799744 177.31100464 94.50000000 0.240111 0.111709 -0.964296 0.000000
149.67799377 129.33700562 138.00000000 -0.001189 -0.968656 0.248404 0.000000
103.62300110 240.25199890 106.50000000 0.534252 0.226326 -0.814464 0.000000
99.01760101 275.56100464 124.50000000 -0.026749 0.719411 -0.694070 0.000000
270.95498657 168.48300171 177.00000000 0.271654 -0.748239 0.605263 0.000000
224.13299561 136.62899780 112.50000000 -0.446689 -0.894688 0.001310 0.000000
246.39300537 168.10000610 178.50000000 0.423757 -0.583289 0.692967 0.000000
105.92600250 206.47900391 214.50000000 -0.339353 0.423800 0.839781 0.000000
140.46699524 181.91600037 217.50000000 0.574202 -0.055022 0.816863 0.000000
83.66600037 259.82501221 162.00000000 -0.771194 0.438586 0.461412 0.000000
149.67799377 191.12699890 130.50000000 0.439755 -0.894674 0.078577 0.000000
170.40199280 170.78599548 159.00000000 0.396429 0.239045 -0.886398 0.000000
78.29299927 187.67300415 96.00000000 -0.874859 -0.438172 -0.206461 0.000000
161.57499695 214.15400696 177.00000000 0.554045 0.831762 0.034715 0.000000
181.14799500 224.89999390 178.50000000 0.133360 0.928022 0.347836 0.000000
115.13700104 178.84599304 217.50000000 -0.424301 -0.680546 0.597349 0.000000
