168.83399963 145.64599609 138.75000000 0.000978 0.000978 -0.999999 0.000000
165.21099854 136.95100403 131.25000000 -0.000978 -0.000978 -0.999999 0.000000
72.09860229 160.86300659 75.00000000 -0.971963 -0.191851 -0.135948 0.000000
94.19920349 230.78799438 160.00000000 -0.474707 0.615610 0.629029 0.000000
207.96299744 126.80699921 201.25000000 0.416342 -0.001297 0.909207 0.000000
147.09599304 176.80499268 108.75000000 0.667801 -0.237266 -0.705512 0.000000
165.21099854 199.26699829 156.25000000 0.906026 -0.118663 -0.406246 0.000000
165.21099854 164.48599243 146.25000000 -0.660990 -0.677231 -0.323187 0.000000
74.27239990 192.02099609 62.50000000 -0.964012 0.248983 -0.093209 0.000000
199.26699829 94.56150055 160.00000000 0.009222 -0.999075 0.042012 0.000000
107.96700287 231.87500000 166.25000000 -0.212540 0.634516 0.743113 0.000000
139.12500000 110.86499786 176.25000000 0.239228 -0.960835 0.139877 0.000000
201.80400085 111.58999634 157.50000000 0.639474 0.681996 -0.354900 0.000000
142.38600159 158.68899536 125.00000000 0.692828 0.692828 -0.199944 0.000000
87.31539917 147.82000732 52.50000000 -0.533937 -0.777656 -0.331907 0.000000
88.40229797 227.88999939 90.00000000 -0.785941 0.605367 -0.125810 0.000000
101.44499969 212.30999756 176.25000000 0.000978 0.000978 0.999999 0.000000
161.58799744 189.84800720 168.75000000 0.926750 0.008973 0.375571 0.000000
109.05400085 134.77699280 200.00000000 -0.412428 -0.457714 0.787656 0.000000
194.91999817 120.28500366 201.25000000 0.063223 -0.402203 0.913365 0.000000
115.21299744 205.06399536 93.75000000 0.877299 0.017465 -0.479626 0.000000
101.44499969 135.50199890 83.75000000 0.901208 0.315201 -0.297443 0.000000
90.57610321 217.74499512 55.00000000 -0.490855 0.824325 -0.282047 0.000000
189.12300110 178.25399780 171.25000000 0.944754 0.314918 0.090918 0.000000
131.87899780 231.51300049 130.00000000 0.721768 0.424472 -0.546694 0.000000
145.64599609 192.02099609 111.25000000 0.642878 0.095187 -0.760031 0.000000
119.55999756 147.82000732 206.25000000 0.000978 0.000978 0.999999 0.000000
114.48799896 136.58900452 202.50000000 -0.036411 -0.451765 0.891393 0.000000
103.61900330 212.30999756 61.25000000 0.944992 0.221461 -0.240718 0.000000
163.03700256 174.26800537 192.50000000 0.211220 0.901690 0.377282 0.000000
184.77499390 181.87699890 181.25000000 0.629744 0.672718 0.388424 0.000000
79.70700073 154.34199524 153.75000000 -0.237348 -0.683750 0.690037 0.000000
209.41200256 156.87800598 200.00000000 0.488147 0.438839 0.754409 0.000000
105.06800079 113.40100098 115.00000000 -0.000978 -0.000978 -0.999999 0.000000
180.42799377 182.96400452 150.00000000 -0.696143 0.519186 -0.495814 0.000000
165.21099854 101.44499969 176.25000000 -0.259495 -0.866502 0.426422 0.000000
145.64599609 122.45899963 103.75000000 -0.089064 0.676009 -0.731491 0.000000
170.28300476 122.45899963 111.25000000 0.391688 0.880922 -0.265627 0.000000
106.51799774 175.35499573 186.25000000 -0.522369 0.724684 0.449404 0.000000
134.05299377 156.87800598 117.50000000 0.793604 0.261404 -0.549418 0.000000
93.47460175 229.33900452 82.50000000 -0.529236 0.834622 -0.152693 0.000000
76.08390045 189.12300110 163.75000000 0.000978 0.000978 0.999999 0.000000
152.16799927 186.94900513 188.75000000 0.459677 0.357880 0.812785 0.000000
102.16999817 162.31199646 196.25000000 -0.348188 -0.118794 0.929867 0.000000
78.25779724 177.52900696 163.75000000 -0.810954 -0.046380 0.583269 0.000000
92.02529907 132.96600342 170.00000000 -0.175615 -0.755907 0.630686 0.000000
164.48599243 124.99500275 112.50000000 0.349902 0.839450 -0.415803 0.000000
102.16999817 202.89100647 33.75000000 0.787878 0.530027 -0.313560 0.000000
102.16999817 243.46899414 108.75000000 -0.305774 0.914425 -0.265198 0.000000
102.89399719 202.52799988 35.00000000 0.877020 0.390961 -0.279258 0.000000
102.89399719 137.67599487 196.25000000 -0.747207 -0.073709 0.660491 0.000000
102.89399719 138.39999390 196.25000000 -0.894039 -0.087325 0.439396 0.000000
99.27140045 217.38299561 173.75000000 -0.315432 0.558811 0.766964 0.000000
79.70700073 190.57200623 41.25000000 -0.892580 0.234579 -0.385063 0.000000
144.19700623 105.06800079 118.75000000 -0.976730 -0.161329 0.141319 0.000000
117.38700104 147.82000732 206.25000000 -0.250568 0.490375 0.834714 0.000000
89.85150146 203.97700500 35.00000000 -0.406839 0.732969 -0.545197 0.000000
115.93699646 219.55700684 176.25000000 0.143669 0.555423 0.819063 0.000000
149.99400330 160.13900757 211.25000000 -0.292558 0.489683 0.821353 0.000000
202.89100647 156.51600647 191.25000000 -0.241968 0.047902 -0.969101 0.000000
100.35800171 210.86099243 40.00000000 0.213471 0.800132 -0.560553 0.000000
110.50299835 193.47099304 67.50000000 0.851833 0.449707 -0.268596 0.000000
183.32600403 142.02299500 206.25000000 -0.000978 -0.000978 0.999999 0.000000
68.47560120 178.97799683 100.00000000 0.000000 0.000000 0.000000 0.000000
187.67399597 163.03700256 201.25000000 0.343890 0.692669 0.633995 0.000000
83.69229889 144.92199707 172.50000000 -0.938717 -0.100148 0.329819 0.000000
146.37100220 173.54400635 110.00000000 0.711711 -0.491697 -0.501698 0.000000
93.47460175 205.06399536 33.75000000 -0.433948 0.778506 -0.453451 0.000000
101.44499969 205.06399536 33.75000000 0.685256 0.568546 -0.455170 0.000000
155.79100037 153.61700439 133.75000000 0.283720 0.681248 -0.674836 0.000000
105.06800079 194.91999817 41.25000000 0.980134 0.136506 -0.143884 0.000000
134.77699280 231.87500000 133.75000000 0.714936 0.358286 -0.600415 0.000000
124.63300323 166.66000366 201.25000000 -0.397407 0.488243 0.776972 0.000000
96.01069641 123.18399811 125.00000000 -0.831525 -0.516485 -0.204473 0.000000
101.08300018 210.13699341 40.00000000 0.213471 0.800132 -0.560553 0.000000
108.32900238 205.78900146 77.50000000 0.907751 0.148696 -0.392273 0.000000
89.12689972 231.14999390 151.25000000 -0.441945 0.729953 0.521395 0.000000
109.77799988 113.03900146 170.00000000 -0.485162 -0.870479 0.082970 0.000000
142.74800110 97.82219696 146.25000000 0.162295 -0.984429 -0.067524 0.000000
108.69100189 134.77699280 83.75000000 -0.001378 0.753685 -0.657235 0.000000
197.81799316 121.01000214 166.25000000 0.834436 0.473935 -0.281253 0.000000
113.03900146 145.64599609 96.25000000 0.694940 0.073991 -0.715251 0.000000
113.76399994 225.35299683 101.25000000 0.861357 0.289159 -0.417674 0.000000
98.90910339 118.83599854 125.00000000 -0.802605 -0.557066 -0.213312 0.000000
110.86499786 178.97799683 186.25000000 -0.352208 0.553470 0.754732 0.000000
98.18450165 120.28500366 122.50000000 -0.824678 -0.545328 -0.150077 0.000000
83.33000183 227.52699280 106.25000000 -0.679107 0.622928 -0.388297 0.000000
163.03700256 160.86300659 158.75000000 0.229808 -0.931919 -0.280563 0.000000
159.05200195 189.12300110 137.50000000 0.914425 0.305774 -0.265198 0.000000
86.59079742 147.09599304 55.00000000 -0.573283 -0.750920 -0.327821 0.000000
68.11329651 174.26800537 140.00000000 -0.989771 -0.001106 -0.142660 0.000000
130.06700134 102.89399719 157.50000000 -0.398030 -0.907171 0.136427 0.000000
157.96499634 108.69100189 108.75000000 0.121006 -0.881210 -0.456976 0.000000
126.80699921 142.74800110 101.25000000 0.849715 -0.180062 -0.495543 0.000000
160.13900757 186.22500610 161.25000000 0.832862 0.417218 -0.363688 0.000000
115.93699646 156.15299988 90.00000000 0.727347 -0.583512 -0.361222 0.000000
176.08000183 100.72100067 181.25000000 -0.263312 -0.839210 0.475809 0.000000
221.72999573 116.66200256 193.75000000 0.765618 -0.422804 0.484837 0.000000
98.54679871 208.68699646 176.25000000 -0.377833 0.337737 0.862077 0.000000
91.30069733 167.02200317 180.00000000 -0.753786 0.635008 0.169031 0.000000
153.61700439 134.05299377 203.75000000 0.000978 0.000978 0.999999 0.000000
66.66400146 198.54299927 126.25000000 -0.960835 0.239228 -0.139877 0.000000
184.05099487 125.35700226 203.75000000 0.087710 -0.247877 0.964813 0.000000
105.06800079 226.80299377 78.75000000 0.844549 0.473622 -0.249839 0.000000
102.16999817 196.36900330 178.75000000 -0.280783 0.197793 0.939169 0.000000
83.33000183 174.63099670 171.25000000 -0.662488 -0.330430 0.672254 0.000000
72.82319641 181.87699890 57.50000000 -0.918223 0.197881 -0.343088 0.000000
124.63300323 99.99600220 146.25000000 -0.220032 -0.975435 0.010590 0.000000
118.83599854 224.62899780 108.75000000 0.629744 0.388424 -0.672718 0.000000
125.72000122 121.01000214 92.50000000 0.753685 -0.001378 -0.657235 0.000000
110.14099884 205.78900146 178.75000000 -0.079871 0.486231 0.870172 0.000000
115.21299744 179.70300293 191.25000000 -0.398437 0.623282 0.672880 0.000000
98.54679871 233.68600464 160.00000000 -0.405219 0.706239 0.580538 0.000000
205.06399536 110.86499786 161.25000000 0.636208 0.710298 -0.301192 0.000000
171.00799561 179.34100342 165.00000000 -0.300157 0.621180 -0.723907 0.000000
123.90799713 107.96700287 168.75000000 -0.173627 -0.932028 0.318084 0.000000
69.92479706 196.36900330 95.00000000 0.000978 0.000978 -0.999999 0.000000
126.08200073 161.58799744 203.75000000 -0.168251 -0.257088 0.951629 0.000000
138.39999390 157.24000549 121.25000000 0.423757 0.692967 -0.583289 0.000000
213.03500366 139.85000610 203.75000000 0.000978 0.000978 0.999999 0.000000
123.18399811 197.09399414 96.25000000 0.578416 0.378510 -0.722610 0.000000
185.86199951 139.85000610 155.00000000 0.788365 0.227681 -0.571526 0.000000
112.31400299 153.25500488 87.50000000 0.754231 -0.556347 -0.348731 0.000000
162.31199646 169.55900574 143.75000000 -0.729004 -0.257761 -0.634123 0.000000
91.66300201 199.26699829 175.00000000 -0.362151 0.113428 0.925192 0.000000
155.06599426 181.87699890 196.25000000 0.583132 0.653713 0.482303 0.000000
106.87999725 109.41600037 137.50000000 -0.668753 -0.740662 -0.064718 0.000000
72.82319641 160.13900757 70.00000000 -0.959147 -0.262762 -0.104846 0.000000
157.96499634 115.93699646 186.25000000 -0.355916 -0.567190 0.742711 0.000000
205.78900146 113.76399994 198.75000000 -0.282426 -0.419823 0.862545 0.000000
103.25700378 175.35499573 185.00000000 -0.198067 0.862261 0.466127 0.000000
100.72100067 116.30000305 155.00000000 -0.760740 -0.646127 0.061604 0.000000
192.74600220 145.64599609 203.75000000 0.000978 0.000978 0.999999 0.000000
119.55999756 235.49800110 118.75000000 0.676705 0.512147 -0.528938 0.000000
129.70500183 225.35299683 121.25000000 0.514665 0.403563 -0.756476 0.000000
125.72000122 165.21099854 95.00000000 0.810584 -0.417283 -0.410888 0.000000
207.96299744 109.77799988 165.00000000 0.585814 0.778496 -0.225313 0.000000
132.60299683 156.15299988 207.50000000 -0.372700 0.237173 0.897131 0.000000
110.50299835 115.93699646 92.50000000 -0.314908 -0.705718 -0.634661 0.000000
189.12300110 137.31300354 157.50000000 0.822682 0.309882 -0.476621 0.000000
100.72100067 217.38299561 173.75000000 -0.226450 0.481777 0.846529 0.000000
78.98239899 147.45799255 132.50000000 -0.850548 -0.426048 0.308304 0.000000
123.90799713 99.63369751 140.00000000 -0.313049 -0.941834 0.122264 0.000000
171.36999512 136.95100403 135.00000000 0.381313 0.652029 -0.655331 0.000000
92.02529907 152.52999878 37.50000000 0.343136 -0.324996 -0.881269 0.000000
196.36900330 110.14099884 136.25000000 0.488803 0.854291 -0.176801 0.000000
100.35800171 139.85000610 80.00000000 0.831063 -0.267735 -0.487495 0.000000
92.02529907 128.97999573 163.75000000 -0.157814 -0.789072 0.593683 0.000000
71.01170349 163.39900208 110.00000000 -0.964502 -0.262824 0.025671 0.000000
130.79200745 221.72999573 120.00000000 0.496238 0.401872 -0.769576 0.000000
92.02529907 139.85000610 63.75000000 -0.314918 -0.944754 -0.090918 0.000000
187.67399597 101.80799866 187.50000000 0.050640 -0.880044 0.472185 0.000000
147.82000732 101.08300018 130.00000000 0.001209 -0.960928 -0.276796 0.000000
163.03700256 207.96299744 161.25000000 0.832543 0.528717 0.165317 0.000000
139.85000610 195.64399719 186.25000000 0.120569 0.527307 0.841077 0.000000
134.05299377 188.39799500 191.25000000 0.469884 0.283791 0.835866 0.000000
96.37300110 244.19299316 123.75000000 -0.602049 0.602049 -0.524474 0.000000
83.33000183 206.51400757 51.25000000 -0.742505 0.505430 -0.439576 0.000000
151.08099365 202.16600037 132.50000000 0.851038 0.410792 -0.327084 0.000000
124.63300323 169.19599915 200.00000000 -0.346268 0.263753 0.900296 0.000000
97.82219696 196.36900330 178.75000000 -0.314918 -0.090918 0.944754 0.000000
123.18399811 155.42900085 205.00000000 -0.572242 0.312569 0.758181 0.000000
149.26899719 124.63300323 106.25000000 -0.035001 0.805020 -0.592215 0.000000
102.89399719 121.37200165 90.00000000 -0.210166 -0.845199 -0.491395 0.000000
105.79299927 157.96499634 196.25000000 -0.254212 -0.210240 0.944021 0.000000
97.09760284 165.93499756 191.25000000 -0.636438 0.410445 0.653056 0.000000
102.16999817 188.39799500 181.25000000 0.000978 0.000978 0.999999 0.000000
199.26699829 146.37100220 181.25000000 0.837059 0.263604 -0.479421 0.000000
101.44499969 148.54499817 191.25000000 -0.451164 -0.244570 0.858275 0.000000
147.82000732 153.61700439 126.25000000 -0.000978 -0.000978 -0.999999 0.000000
99.63369751 142.74800110 75.00000000 0.936796 -0.320447 0.140451 0.000000
84.41699982 221.00599670 85.00000000 -0.797286 0.566856 -0.207386 0.000000
75.72160339 214.48399353 100.00000000 -0.865466 0.461681 -0.194470 0.000000
97.09760284 124.26999664 90.00000000 -0.620512 -0.699100 -0.355280 0.000000
182.23899841 172.45700073 147.50000000 0.636917 0.107379 -0.763418 0.000000
109.41600037 248.54100037 121.25000000 0.306259 0.857216 -0.413988 0.000000
139.85000610 190.21000671 190.00000000 -0.167775 0.584945 0.793530 0.000000
89.12689972 212.30999756 48.75000000 -0.655439 0.632208 -0.413175 0.000000
99.27140045 208.68699646 176.25000000 -0.377833 0.337737 0.862077 0.000000
131.15400696 148.18299866 110.00000000 0.640381 0.325865 -0.695503 0.000000
204.70199585 95.64839935 167.50000000 0.341390 -0.885808 0.314319 0.000000
177.52900696 154.34199524 148.75000000 0.787478 0.079470 -0.611198 0.000000
115.21299744 177.52900696 63.75000000 0.925631 0.081950 -0.369447 0.000000
198.54299927 159.41400146 201.25000000 0.000978 0.000978 0.999999 0.000000
158.68899536 156.87800598 145.00000000 0.228426 -0.959919 -0.162407 0.000000
205.06399536 127.53099823 203.75000000 0.328035 -0.340128 0.881309 0.000000
73.18550110 183.32600403 158.75000000 -0.790870 0.043702 0.610422 0.000000
92.02529907 185.13800049 177.50000000 -0.729732 0.314123 0.607304 0.000000
98.54679871 212.67300415 42.50000000 0.018007 0.793678 -0.608071 0.000000
73.54779816 155.79100037 105.00000000 -0.949175 -0.314746 -0.001234 0.000000
81.88079834 211.58599854 63.75000000 -0.860874 0.461236 -0.214843 0.000000
220.28100586 99.63369751 175.00000000 -0.265852 0.660651 0.702042 0.000000
105.06800079 171.00799561 43.75000000 0.838381 -0.142923 -0.526014 0.000000
156.51600647 187.67399597 186.25000000 -0.600799 -0.563566 0.566951 0.000000
77.53320313 210.13699341 83.75000000 -0.824562 0.525830 -0.208808 0.000000
121.01000214 143.47300720 96.25000000 0.344185 0.757854 -0.554251 0.000000
110.86499786 210.49899292 87.50000000 0.892997 0.278782 -0.353323 0.000000
163.39900208 130.42999268 122.50000000 0.277747 0.808133 -0.519402 0.000000
185.50000000 107.24199677 193.75000000 0.012497 -0.753978 0.656780 0.000000
192.74600220 95.28610229 140.00000000 -0.014787 -0.986194 -0.164934 0.000000
149.26899719 126.08200073 108.75000000 -0.066318 0.842385 -0.534780 0.000000
139.12500000 134.41499329 112.50000000 0.862116 -0.286351 -0.418042 0.000000
118.47399902 103.61900330 115.00000000 -0.178118 -0.973967 -0.140221 0.000000
104.34400177 120.28500366 91.25000000 -0.210166 -0.845199 -0.491395 0.000000
179.70300293 183.68800354 185.00000000 0.610684 0.680192 0.405467 0.000000
101.44499969 115.21299744 128.75000000 -0.760379 -0.638837 -0.117095 0.000000
194.19500732 94.56150055 155.00000000 -0.000978 -0.999999 -0.000978 0.000000
202.89100647 123.90799713 201.25000000 0.067080 -0.269586 0.960637 0.000000
210.13699341 123.18399811 201.25000000 0.303393 -0.021225 0.952629 0.000000
183.32600403 168.10899353 198.75000000 0.525285 0.804392 0.277539 0.000000
124.63300323 129.70500183 91.25000000 0.687949 0.179265 -0.703271 0.000000
86.22850037 138.03799438 127.50000000 -0.777403 -0.627848 0.038094 0.000000
80.43160248 150.71899414 148.75000000 -0.473149 -0.775575 0.417867 0.000000
102.89399719 143.47300720 188.75000000 -0.710974 -0.394253 0.582306 0.000000
180.42799377 167.38499451 146.25000000 0.610756 0.175155 -0.772203 0.000000
107.96700287 238.03399658 160.00000000 -0.871082 0.216650 0.440771 0.000000
104.34400177 217.02000427 175.00000000 -0.294437 0.342264 0.892279 0.000000
88.40229797 156.15299988 37.50000000 -0.496465 -0.651295 -0.573880 0.000000
189.12300110 165.93499756 196.25000000 0.136381 0.882889 0.449340 0.000000
150.71899414 128.61799622 112.50000000 0.084124 0.842661 -0.531832 0.000000
101.08300018 115.93699646 157.50000000 -0.764161 -0.605415 0.222556 0.000000
186.94900513 131.87899780 151.25000000 0.715287 0.179205 -0.675463 0.000000
173.18200684 122.45899963 201.25000000 -0.573826 -0.563670 0.594138 0.000000
71.01170349 204.33999634 103.75000000 -0.936195 0.302846 -0.178389 0.000000
99.27140045 231.87500000 83.75000000 -0.298688 0.896065 -0.328409 0.000000
211.58599854 142.38600159 195.00000000 0.502033 0.241037 -0.830580 0.000000
163.03700256 201.44099426 153.75000000 0.865145 0.141040 -0.481282 0.000000
178.97799683 180.42799377 148.75000000 -0.583434 0.607110 -0.539465 0.000000
179.70300293 136.22700500 203.75000000 0.514788 0.020374 0.857075 0.000000
96.37300110 148.54499817 188.75000000 -0.703682 0.219998 0.675597 0.000000
83.69229889 135.50199890 160.00000000 -0.821182 -0.411385 -0.395502 0.000000
111.58999634 124.26999664 187.50000000 -0.194756 -0.834884 0.514820 0.000000
153.61700439 133.32800293 203.75000000 0.000978 0.000978 0.999999 0.000000
184.77499390 166.66000366 148.75000000 0.755097 0.168643 -0.633552 0.000000
149.63200378 216.65800476 142.50000000 0.798273 0.284985 -0.530607 0.000000
83.69229889 152.16799927 152.50000000 -0.391652 -0.745614 0.539136 0.000000
98.18450165 121.01000214 157.50000000 -0.874052 -0.477140 0.091487 0.000000
69.92479706 167.38499451 117.50000000 -0.918338 -0.393950 0.038209 0.000000
138.39999390 140.57400513 111.25000000 0.540406 0.328734 -0.774529 0.000000
173.18200684 110.86499786 193.75000000 -0.477187 -0.570951 0.668063 0.000000
173.18200684 174.26800537 142.50000000 0.271419 0.482350 -0.832869 0.000000
132.60299683 101.44499969 158.75000000 -0.499786 -0.417854 0.758691 0.000000
179.70300293 135.50199890 143.75000000 0.736207 0.426572 -0.525391 0.000000
121.73400116 189.84800720 88.75000000 0.589462 0.643202 -0.488699 0.000000
98.90910339 130.42999268 177.50000000 -0.991711 -0.044001 0.120720 0.000000
67.75090027 186.94900513 107.50000000 -0.999999 0.000978 0.000978 0.000000
165.93499756 144.19700623 208.75000000 0.666618 -0.276559 0.692196 0.000000
92.02529907 228.25199890 161.25000000 -0.370724 0.569967 0.733281 0.000000
68.47560120 172.45700073 137.50000000 -0.989771 -0.001106 -0.142660 0.000000
94.92379761 202.89100647 176.25000000 -0.432899 0.055639 0.899724 0.000000
153.61700439 185.50000000 178.75000000 -0.000978 -0.000978 0.999999 0.000000
89.48919678 164.48599243 180.00000000 -0.834092 0.493082 0.247309 0.000000
89.12689972 228.97599792 91.25000000 -0.778496 0.621342 -0.088763 0.000000
186.58700562 186.94900513 162.50000000 0.667225 0.743722 0.041082 0.000000
197.09399414 128.97999573 203.75000000 0.000978 0.000978 0.999999 0.000000
136.22700500 129.70500183 111.25000000 0.868209 -0.362902 -0.338402 0.000000
80.43160248 160.86300659 161.25000000 -0.654300 0.001377 0.756234 0.000000
93.47460175 234.41099548 97.50000000 -0.559921 0.770490 -0.304686 0.000000
128.97999573 155.79100037 111.25000000 0.714242 -0.569085 -0.407432 0.000000
106.51799774 134.77699280 198.75000000 -0.436385 -0.465804 0.769802 0.000000
128.97999573 234.04899597 163.75000000 0.236625 0.236625 0.942347 0.000000
86.95310211 129.34300232 147.50000000 -0.890660 -0.410961 -0.194512 0.000000
154.34199524 138.39999390 123.75000000 0.311814 0.808817 -0.498586 0.000000
87.31539917 238.39599609 132.50000000 -0.692828 0.692828 0.199944 0.000000
118.11100006 147.45799255 100.00000000 0.771276 0.445155 -0.454939 0.000000
181.87699890 188.76100159 152.50000000 0.267941 0.753089 -0.600886 0.000000
100.35800171 232.59899902 162.50000000 -0.351983 0.636844 0.685958 0.000000
147.09599304 214.48399353 138.75000000 0.748281 0.376586 -0.546131 0.000000
186.94900513 134.77699280 203.75000000 0.000978 0.000978 0.999999 0.000000
117.02400208 199.26699829 182.50000000 -0.376751 0.358146 0.854278 0.000000
157.24000549 154.34199524 208.75000000 0.000978 0.000978 0.999999 0.000000
176.80499268 163.76199341 203.75000000 -0.001308 0.443546 0.896251 0.000000
143.47300720 179.34100342 200.00000000 -0.087788 0.816001 0.571345 0.000000
157.96499634 100.35800171 170.00000000 -0.210889 -0.927064 0.309965 0.000000
120.28500366 124.63300323 86.25000000 0.643787 0.206322 -0.736865 0.000000
115.93699646 251.80200195 135.00000000 0.139131 0.985808 -0.093943 0.000000
65.93939972 194.19500732 136.25000000 -0.987913 0.114216 0.104797 0.000000
178.25399780 115.93699646 106.25000000 0.781948 0.493776 -0.380451 0.000000
151.08099365 188.39799500 115.00000000 0.697963 0.301430 -0.649606 0.000000
133.32800293 180.42799377 196.25000000 0.091424 0.593533 0.799600 0.000000
115.93699646 235.49800110 113.75000000 0.842910 0.259475 -0.471354 0.000000
175.35499573 188.39799500 163.75000000 -0.801534 0.223935 -0.554433 0.000000
176.80499268 142.02299500 206.25000000 0.000978 0.000978 0.999999 0.000000
203.61500549 140.57400513 186.25000000 0.791436 0.177731 -0.584842 0.000000
107.96700287 171.73199463 193.75000000 -0.151485 0.601441 0.784424 0.000000
85.86620331 133.32800293 107.50000000 -0.824451 -0.552075 0.124473 0.000000
110.14099884 180.42799377 53.75000000 0.891206 0.163219 -0.423215 0.000000
82.24310303 211.58599854 165.00000000 -0.565579 0.170428 0.806892 0.000000
74.99700165 160.86300659 57.50000000 -0.705479 -0.705479 -0.067807 0.000000
83.69229889 160.86300659 37.50000000 -0.601516 -0.513900 -0.611625 0.000000
92.02529907 176.08000183 176.25000000 -0.440633 -0.292209 0.848797 0.000000
194.19500732 138.39999390 168.75000000 0.754851 0.302902 -0.581764 0.000000
115.93699646 167.38499451 68.75000000 0.895152 -0.221951 -0.386576 0.000000
139.12500000 171.00799561 206.25000000 -0.616005 0.307198 0.725374 0.000000
90.21379852 210.13699341 42.50000000 -0.240780 0.861659 -0.446730 0.000000
106.51799774 153.25500488 72.50000000 0.692828 -0.692828 -0.199944 0.000000
142.74800110 217.38299561 171.25000000 0.237305 0.413419 0.879074 0.000000
156.51600647 149.99400330 131.25000000 0.349555 0.526749 -0.774820 0.000000
130.79200745 230.42599487 127.50000000 0.558000 0.477568 -0.678649 0.000000
152.16799927 139.85000610 123.75000000 0.270806 0.521263 -0.809289 0.000000
76.08390045 164.48599243 158.75000000 -0.901935 -0.276042 0.332136 0.000000
102.16999817 202.16600037 178.75000000 -0.173921 0.055608 0.983188 0.000000
126.08200073 107.96700287 168.75000000 -0.108765 -0.966093 0.234166 0.000000
208.68699646 142.74800110 203.75000000 0.158794 0.042886 0.986380 0.000000
99.99600220 161.58799744 36.25000000 0.760240 -0.361479 -0.539786 0.000000
109.41600037 208.68699646 178.75000000 0.000978 0.000978 0.999999 0.000000
86.95310211 226.44000244 92.50000000 -0.778496 0.621342 -0.088763 0.000000
93.47460175 138.76300049 177.50000000 -0.006849 -0.815008 0.579409 0.000000
92.75000000 236.22300720 148.75000000 -0.539665 0.715679 0.443356 0.000000
108.69100189 122.45899963 183.75000000 -0.097567 -0.790733 0.604336 0.000000
215.93299866 115.57499695 182.50000000 0.602049 0.602049 -0.524474 0.000000
222.45500183 107.24199677 181.25000000 0.832862 -0.417218 -0.363688 0.000000
142.02299500 226.80299377 138.75000000 0.813964 0.276529 -0.510876 0.000000
102.89399719 226.07800293 71.25000000 0.568336 0.755098 -0.326834 0.000000
99.99600220 144.92199707 186.25000000 -0.476280 -0.683504 0.553154 0.000000
178.25399780 189.84800720 158.75000000 -0.909931 0.366560 -0.194061 0.000000
134.77699280 224.99099731 127.50000000 0.877770 0.036744 -0.477670 0.000000
146.00900269 212.30999756 135.00000000 0.780512 0.417030 -0.465711 0.000000
157.24000549 150.71899414 131.25000000 0.349555 0.526749 -0.774820 0.000000
173.18200684 177.16700745 145.00000000 0.230358 0.637794 -0.734952 0.000000
103.61900330 132.60299683 196.25000000 -0.657051 -0.305117 0.689339 0.000000
163.03700256 139.12500000 131.25000000 -0.000978 -0.000978 -0.999999 0.000000
188.76100159 179.70300293 170.00000000 0.944754 0.314918 0.090918 0.000000
123.90799713 99.63369751 130.00000000 -0.445735 -0.892841 0.064460 0.000000
197.81799316 121.73400116 201.25000000 0.016260 -0.313934 0.949306 0.000000
134.05299377 242.01899719 153.75000000 0.261668 0.734256 0.626417 0.000000
139.85000610 132.60299683 206.25000000 0.340995 -0.510692 0.789251 0.000000
118.11100006 214.12199402 102.50000000 0.745638 0.404775 -0.529321 0.000000
112.31400299 229.70100403 101.25000000 0.861357 0.289159 -0.417674 0.000000
168.10899353 179.70300293 191.25000000 0.783814 0.070471 -0.616984 0.000000
128.97999573 107.24199677 166.25000000 -0.314918 -0.944754 -0.090918 0.000000
189.84800720 164.48599243 198.75000000 0.330102 0.758429 0.561978 0.000000
166.66000366 180.42799377 168.75000000 0.035356 0.988823 0.144845 0.000000
93.47460175 189.12300110 176.25000000 -0.657429 0.374026 0.654134 0.000000
101.08300018 164.48599243 37.50000000 0.869596 -0.181596 -0.459158 0.000000
101.44499969 114.12599945 140.00000000 -0.695172 -0.717826 -0.038227 0.000000
167.38499451 97.09760284 163.75000000 -0.161208 -0.968541 0.189581 0.000000
158.68899536 187.67399597 178.75000000 0.984777 -0.163933 -0.057789 0.000000
114.85099792 244.91799927 150.00000000 -0.068800 0.915987 0.395264 0.000000
136.95100403 226.80299377 131.25000000 0.771432 0.412627 -0.484388 0.000000
77.17089844 173.90600586 162.50000000 -0.836228 0.102543 0.538710 0.000000
105.79299927 160.13900757 48.75000000 0.965169 0.181051 0.188866 0.000000
68.47560120 176.08000183 100.00000000 -0.960094 0.001211 0.279674 0.000000
115.21299744 207.23800659 93.75000000 0.842001 0.273457 -0.465032 0.000000
129.34300232 127.53099823 97.50000000 0.733145 0.111083 -0.670939 0.000000
188.76100159 176.80499268 160.00000000 0.984723 0.052942 -0.165885 0.000000
138.76300049 192.02099609 105.00000000 0.617279 0.496178 -0.610552 0.000000
71.01170349 213.39700317 127.50000000 -0.831860 0.499731 -0.241408 0.000000
132.24099731 234.77299500 132.50000000 0.733673 0.364385 -0.573539 0.000000
150.71899414 112.31400299 178.75000000 -0.383515 -0.540184 0.749078 0.000000
136.95100403 175.35499573 201.25000000 -0.329303 0.538130 0.775871 0.000000
141.29899597 152.89300537 118.75000000 0.503813 0.577953 -0.641983 0.000000
151.44299316 218.10699463 146.25000000 0.743397 0.341736 -0.574959 0.000000
194.91999817 146.37100220 173.75000000 0.832862 0.417218 -0.363688 0.000000
173.90600586 155.79100037 206.25000000 0.000978 0.000978 0.999999 0.000000
169.19599915 123.90799713 115.00000000 0.415898 0.886172 -0.204275 0.000000
122.45899963 120.64700317 197.50000000 -0.472082 -0.403947 0.783559 0.000000
113.03900146 110.50299835 97.50000000 -0.320410 -0.745477 -0.584467 0.000000
92.38760376 160.13900757 187.50000000 -0.753685 -0.001378 0.657235 0.000000
199.26699829 97.82219696 178.75000000 0.115376 -0.878854 0.462930 0.000000
86.95310211 155.79100037 161.25000000 -0.758480 -0.126662 0.639269 0.000000
208.68699646 115.93699646 176.25000000 0.572306 0.609447 -0.548671 0.000000
215.20899963 112.31400299 176.25000000 0.634772 0.771099 -0.049703 0.000000
69.56250000 199.99200439 153.75000000 -0.905867 0.170297 0.387820 0.000000
106.51799774 135.50199890 198.75000000 -0.565359 -0.297809 0.769207 0.000000
71.37400055 191.29699707 77.50000000 -0.944754 0.314918 0.090918 0.000000
118.11100006 215.93299866 103.75000000 0.625417 0.527643 -0.574844 0.000000
147.09599304 114.85099792 182.50000000 0.239228 -0.960835 0.139877 0.000000
160.13900757 97.82219696 161.25000000 -0.180151 -0.956804 0.228192 0.000000
147.09599304 124.99500275 107.50000000 -0.313285 0.879315 -0.358688 0.000000
142.02299500 167.38499451 208.75000000 -0.117991 0.392842 0.912005 0.000000
86.22850037 132.60299683 146.25000000 -0.959889 -0.088664 -0.265993 0.000000
161.58799744 158.32699585 157.50000000 0.707188 -0.704308 -0.061933 0.000000
156.51600647 155.79100037 208.75000000 0.000978 0.000978 0.999999 0.000000
82.24310303 148.54499817 60.00000000 -0.800185 -0.532933 -0.275113 0.000000
143.47300720 203.61500549 118.75000000 0.707623 0.511154 -0.487844 0.000000
130.42999268 207.96299744 108.75000000 0.587398 0.389953 -0.709155 0.000000
164.12399292 203.61500549 155.00000000 0.861443 0.135100 -0.489555 0.000000
141.29899597 215.93299866 131.25000000 0.810990 0.273455 -0.517221 0.000000
76.08390045 185.50000000 163.75000000 -0.671326 -0.107707 0.733294 0.000000
165.21099854 196.36900330 176.25000000 0.846748 0.262784 0.462561 0.000000
160.86300659 97.45989990 160.00000000 -0.171926 -0.978371 0.115030 0.000000
146.73300171 163.76199341 142.50000000 0.750170 0.162158 -0.641054 0.000000
166.66000366 97.09760284 163.75000000 -0.161208 -0.968541 0.189581 0.000000
146.37100220 118.83599854 193.75000000 -0.120641 -0.844488 0.521810 0.000000
157.24000549 175.35499573 198.75000000 0.611233 0.677491 0.409145 0.000000
215.20899963 125.35700226 188.75000000 0.720464 0.428966 -0.544903 0.000000
135.50199890 199.26699829 183.75000000 0.028718 0.518300 0.854716 0.000000
207.23800659 151.44299316 193.75000000 0.579674 0.109510 -0.807456 0.000000
69.92479706 172.45700073 77.50000000 -0.996845 -0.065880 -0.044280 0.000000
164.48599243 133.32800293 203.75000000 0.009603 -0.577572 0.816283 0.000000
104.34400177 239.48300171 155.00000000 -0.337449 0.836559 0.431621 0.000000
102.53199768 172.45700073 37.50000000 0.959206 -0.140404 -0.245378 0.000000
113.76399994 143.47300720 206.25000000 -0.246878 -0.479956 0.841839 0.000000
217.74499512 137.67599487 197.50000000 0.349809 0.115696 -0.929649 0.000000
183.32600403 164.84899902 147.50000000 0.597590 0.260165 -0.758419 0.000000
215.20899963 103.61900330 161.25000000 0.686955 0.657861 -0.308726 0.000000
159.41400146 164.48599243 208.75000000 0.179550 0.670628 0.719736 0.000000
72.82319641 205.78900146 97.50000000 -0.978916 0.196265 0.056592 0.000000
141.29899597 168.83399963 121.25000000 0.538130 -0.775871 0.329303 0.000000
149.99400330 210.86099243 138.75000000 0.759949 0.454657 -0.464505 0.000000
99.99600220 170.28300476 188.75000000 -0.402935 0.671559 0.621814 0.000000
179.70300293 173.90600586 193.75000000 0.824888 0.054993 0.562616 0.000000
125.35700226 226.80299377 168.75000000 -0.562402 0.150670 0.813021 0.000000
101.80799866 146.37100220 72.50000000 0.753685 0.001378 0.657235 0.000000
169.55900574 96.73529816 142.50000000 -0.089721 -0.977096 -0.192961 0.000000
182.60099792 94.56150055 160.00000000 -0.116232 -0.992950 0.023246 0.000000
121.73400116 175.35499573 81.25000000 0.683455 -0.139695 -0.716501 0.000000
150.71899414 206.15100098 175.00000000 0.592524 0.619534 0.514872 0.000000
89.12689972 163.76199341 166.25000000 0.404543 -0.889996 0.210363 0.000000
79.34470367 153.61700439 152.50000000 -0.232040 -0.780216 0.580879 0.000000
109.41600037 203.61500549 181.25000000 -0.268360 0.300273 0.915325 0.000000
165.93499756 102.16999817 123.75000000 -0.001211 -0.960094 -0.279674 0.000000
178.25399780 119.55999756 116.25000000 0.591778 0.756778 -0.277644 0.000000
71.37400055 161.58799744 100.00000000 -0.963446 -0.262985 -0.051101 0.000000
217.38299561 102.16999817 181.25000000 0.357004 -0.725419 0.588486 0.000000
111.95200348 212.30999756 90.00000000 0.879765 0.064912 -0.470957 0.000000
160.86300659 157.24000549 161.25000000 0.783368 -0.614777 0.091563 0.000000
166.66000366 195.64399719 173.75000000 0.775179 0.516247 0.364124 0.000000
155.06599426 152.89300537 208.75000000 0.000978 0.000978 0.999999 0.000000
183.32600403 139.12500000 151.25000000 0.784908 0.214346 -0.581356 0.000000
71.37400055 168.83399963 70.00000000 -0.865876 -0.433694 -0.249336 0.000000
167.74699402 97.09760284 140.00000000 -0.001106 -0.989771 -0.142660 0.000000
204.33999634 110.86499786 196.25000000 0.162943 -0.680704 0.714207 0.000000
184.05099487 114.12599945 110.00000000 0.516311 0.795913 -0.316141 0.000000
221.00599670 121.73400116 191.25000000 0.585284 0.438546 -0.681997 0.000000
126.80699921 213.75999451 176.25000000 0.156514 0.544074 0.824310 0.000000
160.13900757 212.30999756 153.75000000 0.807122 0.375592 -0.455505 0.000000
186.22500610 167.02200317 195.00000000 0.444895 0.876575 0.183537 0.000000
73.91010284 180.42799377 53.75000000 -0.918223 0.197881 -0.343088 0.000000
172.45700073 121.73400116 201.25000000 -0.573826 -0.563670 0.594138 0.000000
167.38499451 142.02299500 206.25000000 0.333720 -0.379857 0.862751 0.000000
86.95310211 210.86099243 168.75000000 -0.619110 0.107352 0.777932 0.000000
139.85000610 103.61900330 128.75000000 -0.417218 -0.832862 -0.363688 0.000000
138.03799438 218.83200073 127.50000000 0.775911 0.370947 -0.510255 0.000000
146.73300171 123.18399811 197.50000000 -0.127706 -0.352909 0.926901 0.000000
121.73400116 209.41200256 103.75000000 0.195853 0.655412 -0.729436 0.000000
157.96499634 150.71899414 131.25000000 0.381011 0.557616 -0.737492 0.000000
110.86499786 157.24000549 73.75000000 0.692828 -0.692828 -0.199944 0.000000
157.96499634 155.06599426 136.25000000 0.297281 0.692583 -0.657231 0.000000
121.01000214 194.19500732 93.75000000 0.665915 0.448950 -0.595819 0.000000
86.22850037 132.60299683 108.75000000 -0.836908 -0.535215 0.114585 0.000000
156.51600647 204.33999634 173.75000000 0.377174 0.617643 0.690113 0.000000
80.79389954 200.71699524 167.50000000 -0.688732 -0.012522 0.724908 0.000000
132.24099731 160.13900757 112.50000000 0.795118 -0.595236 -0.116108 0.000000
67.02629852 185.50000000 112.50000000 -0.986527 0.062171 -0.151322 0.000000
195.64399719 103.25700378 187.50000000 0.219868 -0.889800 0.399893 0.000000
107.24199677 160.86300659 196.25000000 0.000978 0.000978 0.999999 0.000000
185.50000000 96.01069641 175.00000000 -0.070338 -0.996630 0.042203 0.000000
126.80699921 99.63369751 150.00000000 -0.304509 -0.922103 0.238746 0.000000
105.06800079 179.70300293 41.25000000 0.986847 -0.122317 -0.105691 0.000000
104.34400177 171.00799561 43.75000000 0.838381 -0.142923 -0.526014 0.000000
69.56250000 183.32600403 86.25000000 -0.991909 0.069628 -0.106154 0.000000
74.99700165 188.39799500 55.00000000 -0.967107 0.202718 -0.153653 0.000000
148.54499817 211.58599854 138.75000000 0.707717 0.497900 -0.501230 0.000000
149.99400330 215.93299866 143.75000000 0.768922 0.319448 -0.553816 0.000000
121.73400116 216.65800476 108.75000000 0.445973 0.495343 -0.745482 0.000000
220.28100586 124.63300323 193.75000000 0.746508 0.658511 -0.095330 0.000000
148.54499817 177.16700745 137.50000000 0.235338 -0.825991 -0.512206 0.000000
136.22700500 218.83200073 171.25000000 0.115436 0.340876 0.932994 0.000000
204.33999634 126.08200073 178.75000000 0.703216 0.405383 -0.584083 0.000000
170.28300476 130.06700134 202.50000000 -0.103419 -0.474596 0.874107 0.000000
163.39900208 194.19500732 165.00000000 0.668034 -0.723067 -0.175798 0.000000
104.34400177 185.50000000 36.25000000 0.969152 -0.060649 -0.238884 0.000000
141.29899597 167.38499451 108.75000000 0.443975 -0.862189 -0.243959 0.000000
159.77600098 214.48399353 157.50000000 0.924136 0.334382 0.184827 0.000000
172.45700073 186.22500610 186.25000000 0.200378 0.977602 0.064364 0.000000
146.37100220 130.79200745 117.50000000 -0.692828 0.692828 -0.199944 0.000000
118.83599854 151.80599976 100.00000000 0.793022 -0.341240 -0.504650 0.000000
83.33000183 144.19700623 138.75000000 -0.617393 -0.735447 0.279183 0.000000
137.67599487 199.26699829 183.75000000 0.064043 0.579237 0.812640 0.000000
129.70500183 152.16799927 206.25000000 -0.405895 0.219921 0.887065 0.000000
113.76399994 169.55900574 61.25000000 0.902331 -0.204877 -0.379241 0.000000
139.85000610 169.55900574 206.25000000 -0.573357 0.242154 0.782703 0.000000
181.15199280 166.29800415 180.00000000 -0.124730 0.875978 0.465946 0.000000
78.98239899 215.57099915 157.50000000 -0.722778 0.547459 0.421758 0.000000
131.87899780 174.26800537 200.00000000 -0.108590 0.534263 0.838315 0.000000
164.48599243 173.90600586 141.25000000 0.058616 -0.627623 -0.776308 0.000000
125.35700226 212.67300415 177.50000000 0.092452 0.510618 0.854823 0.000000
113.03900146 190.21000671 70.00000000 0.848812 0.458942 -0.262472 0.000000
177.89199829 128.25599670 132.50000000 0.756480 0.566150 -0.327432 0.000000
205.78900146 120.28500366 201.25000000 0.190861 -0.299527 0.934802 0.000000
84.05460358 197.81799316 171.25000000 -0.576625 0.177074 0.797589 0.000000
157.96499634 156.87800598 142.50000000 0.303659 -0.943366 -0.133610 0.000000
109.77799988 212.30999756 85.00000000 0.947423 0.200390 -0.249465 0.000000
149.26899719 176.08000183 203.75000000 -0.097387 0.806711 0.582867 0.000000
156.51600647 187.31100464 125.00000000 0.901171 0.357234 -0.245507 0.000000
155.79100037 198.54299927 178.75000000 0.281521 0.749132 0.599623 0.000000
133.69000244 243.46899414 142.50000000 0.493509 0.493509 -0.716169 0.000000
169.55900574 118.11100006 103.75000000 0.046782 0.205120 -0.977618 0.000000
78.25779724 176.08000183 163.75000000 -0.804727 -0.006855 0.593606 0.000000
157.96499634 188.03599548 132.50000000 0.955408 0.229137 -0.186258 0.000000
85.50389862 144.19700623 176.25000000 -0.790847 -0.478374 0.381733 0.000000
165.21099854 107.96700287 111.25000000 0.054524 -0.921586 -0.384327 0.000000
69.20020294 180.42799377 85.00000000 -0.933603 0.234454 -0.270955 0.000000
125.35700226 194.91999817 186.25000000 -0.322393 0.431414 0.842582 0.000000
137.67599487 173.90600586 131.25000000 0.534220 -0.179077 -0.826160 0.000000
118.11100006 130.06700134 85.00000000 0.750982 -0.082797 -0.655112 0.000000
160.13900757 101.44499969 126.25000000 -0.001211 -0.960094 -0.279674 0.000000
216.65800476 138.39999390 196.25000000 0.552752 0.336808 -0.762250 0.000000
113.03900146 206.51400757 88.75000000 0.844848 0.360739 -0.395095 0.000000
128.25599670 225.35299683 171.25000000 -0.782201 -0.540053 0.310650 0.000000
88.40229797 134.41499329 82.50000000 -0.319569 -0.840234 -0.438044 0.000000
127.53099823 212.67300415 177.50000000 0.156514 0.544074 0.824310 0.000000
154.34199524 184.77499390 178.75000000 -0.000978 -0.000978 0.999999 0.000000
145.64599609 192.74600220 111.25000000 0.642878 0.095187 -0.760031 0.000000
211.58599854 142.02299500 193.75000000 0.503012 0.283630 -0.816415 0.000000
102.89399719 136.58900452 85.00000000 0.732294 0.101667 -0.673357 0.000000
215.93299866 126.08200073 198.75000000 0.521002 -0.158824 0.838649 0.000000
179.70300293 128.25599670 203.75000000 0.000978 0.000978 0.999999 0.000000
106.87999725 201.44099426 65.00000000 0.959624 0.210455 -0.186630 0.000000
144.55900574 186.94900513 192.50000000 0.089224 0.671372 0.735730 0.000000
191.65899658 149.99400330 167.50000000 0.935303 -0.120816 -0.332582 0.000000
68.47560120 172.45700073 107.50000000 -0.968946 -0.232497 -0.084201 0.000000
137.67599487 218.83200073 171.25000000 0.197771 0.249601 0.947938 0.000000
210.86099243 107.24199677 163.75000000 0.585814 0.778496 -0.225313 0.000000
70.28710175 167.38499451 141.25000000 -0.962062 -0.169312 0.213937 0.000000
122.09700012 199.26699829 97.50000000 0.525473 0.528831 -0.666495 0.000000
100.35800171 240.57000732 102.50000000 -0.309080 0.843368 -0.439545 0.000000
171.73199463 178.25399780 193.75000000 0.582699 0.100265 -0.806479 0.000000
182.96400452 177.52900696 187.50000000 0.917427 0.246279 0.312530 0.000000
88.40229797 136.95100403 173.75000000 -0.520859 -0.648966 0.554571 0.000000
136.58900452 158.68899536 122.50000000 0.336682 0.771631 -0.539658 0.000000
113.03900146 111.58999634 173.75000000 -0.685311 -0.639515 0.348380 0.000000
78.25779724 209.41200256 78.75000000 -0.889504 0.416270 -0.188417 0.000000
91.30069733 218.10699463 53.75000000 -0.463600 0.775920 -0.427813 0.000000
181.51499939 180.42799377 187.50000000 0.777862 0.562406 0.280411 0.000000
115.57499695 187.67399597 75.00000000 0.844333 0.522820 -0.117309 0.000000
178.97799683 139.12500000 146.25000000 0.639474 0.354900 -0.681996 0.000000
217.38299561 138.39999390 196.25000000 0.466949 0.127872 -0.874990 0.000000
97.09760284 121.73400116 96.25000000 -0.618681 -0.742101 -0.257916 0.000000
104.70600128 221.00599670 70.00000000 0.948828 0.266646 -0.169192 0.000000
141.66099548 188.39799500 105.00000000 0.590693 0.317075 -0.741988 0.000000
192.38400269 150.71899414 170.00000000 0.960094 -0.001211 -0.279674 0.000000
124.99500275 248.54100037 137.50000000 0.559720 0.617214 -0.552956 0.000000
103.98100281 197.09399414 37.50000000 0.971456 0.184615 -0.148965 0.000000
122.45899963 99.63369751 137.50000000 -0.310258 -0.933557 0.179477 0.000000
84.05460358 197.81799316 36.25000000 -0.794901 0.358107 -0.489787 0.000000
126.80699921 113.03900146 181.25000000 0.264868 -0.934747 0.236840 0.000000
73.54779816 153.61700439 82.50000000 -0.927560 -0.336153 -0.163195 0.000000
118.47399902 136.22700500 202.50000000 -0.012082 -0.495380 0.868593 0.000000
85.86620331 141.29899597 137.50000000 -0.780256 -0.584804 0.221822 0.000000
104.34400177 133.32800293 196.25000000 -0.678566 -0.265387 0.684922 0.000000
90.57610321 210.86099243 43.75000000 -0.487757 0.739075 -0.464609 0.000000
122.45899963 206.51400757 101.25000000 0.311983 0.561570 -0.766359 0.000000
133.32800293 171.36999512 102.50000000 0.729953 -0.441945 -0.521395 0.000000
132.60299683 123.90799713 201.25000000 0.509680 -0.570236 0.644249 0.000000
103.61900330 141.29899597 196.25000000 -0.874724 0.187335 0.446950 0.000000
107.24199677 112.67700195 100.00000000 -0.501704 -0.793429 -0.344621 0.000000
94.19920349 229.70100403 161.25000000 -0.428712 0.541270 0.723348 0.000000
165.21099854 154.34199524 208.75000000 0.000978 0.000978 0.999999 0.000000
164.48599243 105.06800079 181.25000000 -0.329600 -0.716027 0.615361 0.000000
67.75090027 174.63099670 115.00000000 -0.984245 -0.173553 -0.033779 0.000000
143.47300720 212.30999756 173.75000000 0.195853 0.729436 0.655412 0.000000
188.39799500 134.77699280 156.25000000 0.911923 0.063309 -0.405449 0.000000
149.26899719 194.55799866 185.00000000 0.291111 0.574268 0.765161 0.000000
201.44099426 107.96700287 193.75000000 0.241307 -0.795534 0.555784 0.000000
111.22699738 187.67399597 60.00000000 0.964502 0.262824 0.025671 0.000000
113.03900146 251.43899536 138.75000000 -0.223856 0.938526 0.262787 0.000000
74.63469696 160.86300659 151.25000000 -0.958988 -0.132500 0.250570 0.000000
142.02299500 176.80499268 138.75000000 0.156073 -0.364171 -0.918161 0.000000
74.63469696 150.35600281 90.00000000 -0.939851 -0.341187 0.016489 0.000000
103.25700378 201.44099426 37.50000000 0.967726 0.140083 -0.209481 0.000000
83.69229889 140.57400513 75.00000000 -0.619433 -0.722404 -0.307303 0.000000
216.65800476 131.87899780 198.75000000 0.710370 0.262217 0.653159 0.000000
85.50389862 157.96499634 171.25000000 -0.483582 0.493552 -0.722880 0.000000
121.01000214 134.05299377 91.25000000 0.544786 0.332657 -0.769771 0.000000
130.06700134 118.83599854 102.50000000 0.925382 -0.202030 -0.320705 0.000000
168.10899353 173.90600586 191.25000000 0.662211 -0.049844 -0.747658 0.000000
110.50299835 192.02099609 65.00000000 0.933557 0.310258 -0.179477 0.000000
186.94900513 155.79100037 166.25000000 0.602049 0.602049 -0.524474 0.000000
67.02629852 178.97799683 130.00000000 -0.894688 -0.446689 0.001310 0.000000
103.61900330 234.04899597 163.75000000 -0.270764 0.442095 0.855125 0.000000
172.45700073 98.90910339 175.00000000 -0.188124 -0.943365 0.273260 0.000000
98.18450165 124.63300323 177.50000000 -0.849658 -0.439478 0.291444 0.000000
222.45500183 118.11100006 191.25000000 0.888048 0.277047 -0.366900 0.000000
175.35499573 138.39999390 141.25000000 0.732133 0.454485 -0.507370 0.000000
184.77499390 167.02200317 175.00000000 0.483136 -0.746965 0.456753 0.000000
121.73400116 231.87500000 118.75000000 0.619945 0.439476 -0.650023 0.000000
149.99400330 225.35299683 151.25000000 0.597346 0.486290 -0.637730 0.000000
168.10899353 196.36900330 168.75000000 0.804652 0.507452 0.308265 0.000000
171.00799561 179.70300293 183.75000000 -0.147473 -0.256416 0.955250 0.000000
161.58799744 121.73400116 103.75000000 0.692828 0.692828 0.199944 0.000000
185.13800049 137.67599487 152.50000000 0.787109 0.207945 -0.580705 0.000000
130.79200745 158.68899536 110.00000000 0.741509 -0.545083 -0.391216 0.000000
158.68899536 186.22500610 176.25000000 0.968011 -0.086857 0.235394 0.000000
159.41400146 152.16799927 208.75000000 0.000978 0.000978 0.999999 0.000000
135.13999939 242.01899719 142.50000000 0.732614 0.474628 -0.487858 0.000000
94.19920349 173.90600586 176.25000000 0.000978 0.000978 0.999999 0.000000
103.25700378 208.68699646 50.00000000 0.933557 0.310258 -0.179477 0.000000
103.61900330 149.26899719 193.75000000 -0.687207 0.172950 0.705574 0.000000
84.05460358 218.83200073 78.75000000 -0.825240 0.548689 -0.133862 0.000000
134.77699280 240.57000732 141.25000000 0.747095 0.470026 -0.470026 0.000000
71.01170349 167.38499451 73.75000000 -0.964188 -0.200164 -0.173999 0.000000
70.28710175 166.29800415 112.50000000 -0.493509 0.493509 -0.716169 0.000000
89.12689972 205.42700195 37.50000000 -0.504441 0.675381 -0.537959 0.000000
141.29899597 168.47200012 120.00000000 0.538130 -0.775871 0.329303 0.000000
129.70500183 239.84599304 156.25000000 0.012413 0.795782 0.605456 0.000000
122.45899963 126.80699921 198.75000000 -0.623028 -0.020907 0.781920 0.000000
87.67769623 152.16799927 181.25000000 -0.755692 -0.145730 0.638507 0.000000
160.86300659 132.60299683 123.75000000 0.328834 0.613932 -0.717604 0.000000
84.41699982 153.61700439 170.00000000 -0.944598 0.284059 -0.164455 0.000000
115.93699646 180.42799377 188.75000000 -0.899746 0.427068 -0.089836 0.000000
89.12689972 192.74600220 173.75000000 -0.561724 -0.096749 0.821648 0.000000
118.83599854 105.43099976 107.50000000 -0.290075 -0.924524 -0.247207 0.000000
120.28500366 245.64199829 151.25000000 -0.096979 0.820706 0.563060 0.000000
181.87699890 135.50199890 146.25000000 0.744178 0.405766 -0.530617 0.000000
161.58799744 167.02200317 147.50000000 -0.556759 -0.600758 -0.573681 0.000000
77.17089844 181.15199280 42.50000000 -0.893420 0.190927 -0.406630 0.000000
92.75000000 183.32600403 178.75000000 -0.531175 0.026078 0.846861 0.000000
86.22850037 135.13999939 115.00000000 -0.000978 -0.000978 0.999999 0.000000
144.92199707 205.06399536 123.75000000 0.753197 0.438134 -0.490645 0.000000
116.30000305 171.00799561 67.50000000 0.947599 -0.163566 -0.274412 0.000000
136.22700500 232.59899902 161.25000000 0.146408 0.729023 0.668648 0.000000
82.96769714 142.02299500 125.00000000 -0.705724 -0.708486 -0.001381 0.000000
213.75999451 122.45899963 198.75000000 0.495991 -0.268986 0.825615 0.000000
202.16600037 123.18399811 173.75000000 0.738484 0.419406 -0.527958 0.000000
72.46089935 204.33999634 96.25000000 -0.940727 0.277660 -0.194776 0.000000
132.60299683 123.18399811 201.25000000 0.218552 -0.767256 0.602954 0.000000
134.05299377 121.73400116 196.25000000 0.537526 -0.769969 0.343823 0.000000
189.48500061 139.85000610 160.00000000 0.901048 0.275771 -0.334759 0.000000
102.16999817 240.20799255 100.00000000 -0.217918 0.899458 -0.378796 0.000000
105.43099976 215.93299866 70.00000000 0.955796 0.108524 -0.273271 0.000000
97.82219696 224.99099731 167.50000000 -0.377670 0.654738 0.654738 0.000000
95.64839935 207.96299744 36.25000000 -0.135017 0.796751 -0.589032 0.000000
83.33000183 151.80599976 50.00000000 -0.812862 -0.581412 -0.034857 0.000000
110.14099884 138.03799438 87.50000000 0.155658 0.763175 -0.627164 0.000000
99.99600220 207.96299744 36.25000000 0.101403 0.759786 -0.642217 0.000000
151.44299316 185.13800049 192.50000000 0.277666 0.836099 0.473117 0.000000
175.35499573 156.51600647 206.25000000 0.000978 0.000978 0.999999 0.000000
107.60399628 198.54299927 65.00000000 0.949169 0.238314 -0.205631 0.000000
203.61500549 115.21299744 198.75000000 0.180851 -0.329458 0.926688 0.000000
