244.62899780 230.46899414 145.00000000 -0.680044 -0.683229 -0.265966 0.000000
145.01899719 186.52299500 87.50000000 0.052885 -0.698934 0.713228 0.000000
208.98399353 282.22601318 141.25000000 -0.806878 -0.271048 0.524862 0.000000
170.89799500 208.98399353 206.25000000 0.285745 -0.309190 -0.907056 0.000000
156.25000000 266.60101318 186.25000000 0.311307 -0.125332 -0.942008 0.000000
121.09400177 214.84399414 68.75000000 -0.417169 0.502238 0.757448 0.000000
214.84399414 267.57800293 176.25000000 -0.590500 -0.463367 -0.660758 0.000000
309.57000732 186.52299500 168.75000000 -0.611010 0.132311 -0.780487 0.000000
124.02300262 214.35499573 70.00000000 -0.344789 0.465545 0.815100 0.000000
261.23001099 167.96899414 125.00000000 -0.529937 -0.543396 0.651066 0.000000
286.62100220 178.71099854 147.50000000 -0.498652 -0.410366 0.763509 0.000000
257.81201172 180.66400146 181.25000000 -0.064941 0.026615 -0.997534 0.000000
272.46099854 196.28900146 181.25000000 -0.171928 0.334072 -0.926734 0.000000
244.14100647 206.05499268 138.75000000 -0.459388 -0.268872 0.846564 0.000000
153.32000732 287.10900879 176.25000000 0.292331 -0.414773 -0.861688 0.000000
185.54699707 299.80499268 168.75000000 -0.243927 -0.621620 -0.744371 0.000000
160.15600586 255.85899353 86.25000000 -0.712619 0.001384 0.701550 0.000000
155.76199341 203.12500000 200.00000000 0.747702 -0.052897 -0.661924 0.000000
109.86299896 216.79699707 70.00000000 0.935992 0.138008 -0.323840 0.000000
271.48400879 208.00799561 183.75000000 -0.344688 0.308563 -0.886555 0.000000
203.12500000 243.65199280 195.00000000 -0.227662 -0.418124 -0.879399 0.000000
166.01600647 257.81201172 193.75000000 0.001299 -0.424733 -0.905318 0.000000
231.44500732 184.57000732 183.75000000 -0.267633 0.350437 -0.897533 0.000000
201.17199707 249.02299500 106.25000000 -0.589980 -0.204876 0.780992 0.000000
123.04699707 236.32800293 166.25000000 0.828792 -0.046122 -0.557653 0.000000
311.03500366 161.13299561 155.00000000 -0.809239 0.566916 -0.154070 0.000000
159.17999268 168.94500732 176.25000000 0.281628 0.959486 0.008534 0.000000
264.16000366 167.96899414 127.50000000 -0.584169 -0.510096 0.631307 0.000000
148.43699646 200.19500732 93.75000000 -0.442503 0.256986 0.859156 0.000000
250.97599792 204.10099792 141.25000000 -0.430159 -0.376191 0.820636 0.000000
180.66400146 228.51600647 96.25000000 -0.677288 0.139662 0.722340 0.000000
144.04299927 177.73399353 147.50000000 0.568190 0.822562 -0.023502 0.000000
123.53500366 274.41400146 155.00000000 0.840887 -0.478091 -0.253650 0.000000
175.78100586 158.69099426 122.50000000 0.424461 0.895769 -0.132023 0.000000
154.29699707 303.22299194 112.50000000 0.356613 -0.870871 0.338247 0.000000
193.84800720 310.54699707 152.50000000 -0.681751 -0.681751 -0.265390 0.000000
281.25000000 140.13699341 145.00000000 0.000978 0.999999 0.000978 0.000000
194.33599854 222.65600586 136.25000000 -0.322014 -0.208529 0.923484 0.000000
189.45300293 219.72599792 131.25000000 -0.735573 -0.046951 0.675817 0.000000
172.85099792 197.26600647 206.25000000 -0.039686 0.329007 -0.943493 0.000000
109.86299896 219.72599792 70.00000000 0.931838 -0.001264 -0.362873 0.000000
245.60499573 237.30499268 172.50000000 -0.790841 -0.498888 -0.354515 0.000000
203.12500000 204.10099792 198.75000000 -0.502893 -0.014831 -0.864221 0.000000
274.41400146 148.92599487 167.50000000 -0.226359 0.282597 -0.932148 0.000000
306.64001465 193.35899353 163.75000000 -0.772498 -0.625355 0.110357 0.000000
159.17999268 255.85899353 191.25000000 -0.136076 -0.262905 -0.955177 0.000000
219.23800659 238.28100586 140.00000000 -0.870893 -0.486307 0.071065 0.000000
301.75799561 197.26600647 163.75000000 -0.168163 -0.519371 0.837839 0.000000
208.98399353 255.85899353 123.75000000 -0.697369 -0.581417 0.419084 0.000000
139.64799500 200.68400574 182.50000000 0.805436 0.091100 -0.585640 0.000000
303.71099854 183.59399414 158.75000000 -0.153212 -0.223926 0.962488 0.000000
240.23399353 216.79699707 136.25000000 -0.666961 0.015316 0.744935 0.000000
119.14099884 228.51600647 113.75000000 0.991746 0.001096 -0.128215 0.000000
261.71899414 185.54699707 181.25000000 -0.066569 0.053473 -0.996348 0.000000
167.96899414 169.92199707 88.75000000 -0.688668 -0.133533 0.712674 0.000000
130.85899353 220.70300293 68.75000000 -0.592294 0.391013 0.704483 0.000000
211.91400146 176.75799561 181.25000000 0.023885 0.689844 -0.723564 0.000000
243.16400146 208.98399353 138.75000000 -0.486351 -0.196037 0.851488 0.000000
278.32000732 214.84399414 181.25000000 -0.297999 0.057553 -0.952830 0.000000
248.04699707 164.06199646 176.25000000 -0.220025 0.371566 -0.901958 0.000000
271.48400879 217.77299500 183.75000000 -0.257571 -0.345880 -0.902233 0.000000
222.65600586 254.88299561 178.75000000 -0.576400 0.433546 -0.692677 0.000000
315.91799927 169.92199707 155.00000000 -0.808321 0.226330 -0.543500 0.000000
140.13699341 239.25799561 187.50000000 0.634617 -0.126329 -0.762432 0.000000
161.13299561 225.58599854 201.25000000 0.237255 0.001180 -0.971447 0.000000
201.66000366 208.00799561 200.00000000 -0.358810 0.053887 -0.931854 0.000000
214.35499573 281.25000000 155.00000000 -0.893267 -0.447309 0.044596 0.000000
123.04699707 273.92599487 105.00000000 0.815189 -0.524382 0.245949 0.000000
296.87500000 206.05499268 178.75000000 -0.302828 -0.011124 -0.952980 0.000000
190.91799927 241.21099854 100.00000000 -0.820079 0.235407 0.521588 0.000000
205.56599426 238.28100586 182.50000000 -0.020257 -0.227597 -0.973545 0.000000
282.22601318 207.51899719 165.00000000 -0.462573 -0.515628 0.721216 0.000000
229.49200439 173.33999634 112.50000000 -0.325182 -0.719930 0.613154 0.000000
137.69500732 233.39799500 186.25000000 0.663897 0.046913 -0.746351 0.000000
240.23399353 229.49200439 138.75000000 -0.615506 -0.406466 0.675232 0.000000
286.13299561 189.45300293 153.75000000 -0.633328 -0.552262 0.542128 0.000000
168.94500732 165.03900146 88.75000000 -0.592143 -0.113139 0.797851 0.000000
193.35899353 248.04699707 196.25000000 0.016949 -0.405475 -0.913949 0.000000
126.46499634 202.14799500 152.50000000 0.915316 0.402635 0.009063 0.000000
138.67199707 190.91799927 120.00000000 0.784890 0.613694 -0.085598 0.000000
204.10099792 233.88699341 112.50000000 -0.470298 0.787063 0.399188 0.000000
166.50399780 168.94500732 182.50000000 0.097114 0.882469 -0.460235 0.000000
133.78900146 224.12100220 70.00000000 -0.618368 0.344263 0.706473 0.000000
195.31199646 270.50799561 116.25000000 -0.722896 -0.486916 0.490240 0.000000
208.00799561 151.85499573 142.50000000 0.295196 0.944896 -0.141532 0.000000
220.21499634 213.86700439 137.50000000 0.931838 0.001264 0.362873 0.000000
161.13299561 291.01501465 93.75000000 -0.346803 -0.457653 0.818708 0.000000
158.20300293 309.57000732 158.75000000 0.174216 -0.847256 -0.501802 0.000000
285.64401245 216.79699707 172.50000000 -0.217088 -0.565044 0.795989 0.000000
264.64801025 172.85099792 131.25000000 -0.509237 -0.505898 0.696236 0.000000
187.50000000 309.08200073 135.00000000 -0.741389 -0.596649 0.307170 0.000000
203.12500000 203.12500000 121.25000000 -0.629029 -0.474707 0.615610 0.000000
195.31199646 308.59399414 143.75000000 -0.644110 0.640782 0.417756 0.000000
198.24200439 215.82000732 136.25000000 -0.647141 -0.046936 0.760924 0.000000
289.06201172 142.08999634 137.50000000 -0.483585 0.843605 0.233402 0.000000
212.89100647 251.95300293 183.75000000 -0.664967 -0.460620 -0.587918 0.000000
234.37500000 187.01199341 185.00000000 -0.150112 0.371774 -0.916106 0.000000
134.76600647 280.27301025 168.75000000 0.652845 -0.287123 -0.700966 0.000000
190.42999268 208.00799561 201.25000000 -0.539717 0.143432 -0.829538 0.000000
287.10900879 191.40600586 178.75000000 -0.162237 0.466249 -0.869650 0.000000
170.89799500 185.54699707 198.75000000 0.085614 0.209692 -0.974012 0.000000
124.51200104 237.30499268 167.50000000 0.843323 -0.040158 -0.535905 0.000000
123.04699707 254.88299561 163.75000000 0.870218 -0.071238 -0.487490 0.000000
305.66400146 197.75399780 170.00000000 -0.427748 -0.844608 0.321978 0.000000
114.74600220 241.21099854 92.50000000 0.999999 0.000978 0.000978 0.000000
314.45300293 169.92199707 151.25000000 -0.730516 -0.297023 0.614918 0.000000
263.67199707 178.71099854 178.75000000 -0.245499 0.173057 -0.953825 0.000000
156.25000000 246.58200073 195.00000000 0.445754 -0.226629 -0.865993 0.000000
286.13299561 212.89100647 181.25000000 -0.000978 -0.000978 -0.999999 0.000000
187.50000000 156.73800659 145.00000000 0.398491 0.874255 -0.277277 0.000000
136.71899414 291.01501465 163.75000000 0.693051 -0.529391 -0.489311 0.000000
116.69899750 249.02299500 135.00000000 0.981204 -0.026963 -0.191083 0.000000
203.12500000 297.36300659 142.50000000 -0.712534 -0.318298 0.625285 0.000000
211.91400146 256.34799194 130.00000000 -0.873083 -0.361118 0.327597 0.000000
263.67199707 141.11300659 152.50000000 0.223706 0.967690 -0.116327 0.000000
196.28900146 231.93299866 135.00000000 -0.337855 0.792599 0.507583 0.000000
113.28099823 224.60899353 78.75000000 0.931838 -0.001264 -0.362873 0.000000
184.57000732 272.94900513 107.50000000 -0.644739 -0.286373 0.708733 0.000000
209.96099854 277.34399414 173.75000000 -0.499865 -0.373685 -0.781342 0.000000
274.41400146 194.33599854 151.25000000 -0.420117 -0.485505 0.766673 0.000000
199.21899414 234.37500000 133.75000000 -0.229922 0.845076 0.482683 0.000000
136.71899414 212.89100647 183.75000000 0.751106 0.152639 -0.642294 0.000000
250.00000000 215.82000732 186.25000000 -0.056850 -0.500554 -0.863837 0.000000
271.48400879 203.12500000 181.25000000 0.133389 0.451802 -0.882090 0.000000
146.48399353 223.63299561 78.75000000 -0.497166 0.358796 0.789995 0.000000
273.43701172 169.92199707 136.25000000 -0.536976 -0.307526 0.785547 0.000000
241.21099854 182.61700439 123.75000000 -0.284011 -0.402476 0.870259 0.000000
226.56199646 192.38299561 123.75000000 -0.045978 -0.374393 0.926130 0.000000
147.46099854 291.01501465 171.25000000 0.311354 -0.637227 -0.704983 0.000000
163.08599854 197.26600647 103.75000000 -0.412787 -0.537774 0.735123 0.000000
198.24200439 297.85101318 138.75000000 -0.667229 -0.373977 0.644164 0.000000
220.70300293 151.85499573 107.50000000 0.340416 0.871648 0.352628 0.000000
182.61700439 155.76199341 125.00000000 0.299689 0.950961 0.076544 0.000000
115.72299957 247.07000732 115.00000000 0.992111 0.099325 -0.076492 0.000000
228.51600647 231.93299866 150.00000000 -0.142675 -0.926693 0.347683 0.000000
122.06999969 269.04299927 95.00000000 0.906281 -0.412448 0.092421 0.000000
172.85099792 297.85101318 173.75000000 0.023682 -0.619922 -0.784306 0.000000
123.53500366 279.29699707 145.00000000 0.909239 -0.382763 -0.163635 0.000000
309.57000732 170.89799500 161.25000000 -0.467844 0.431982 -0.771047 0.000000
193.35899353 205.07800293 118.75000000 0.001384 -0.698755 0.715359 0.000000
222.65600586 207.03100586 151.25000000 -0.087937 0.311062 0.946312 0.000000
137.69500732 286.13299561 168.75000000 0.614196 -0.377080 -0.693235 0.000000
284.66799927 142.57800293 130.00000000 -0.660226 -0.515749 0.545989 0.000000
156.25000000 300.78100586 103.75000000 0.314819 -0.864601 0.391604 0.000000
298.82800293 187.50000000 158.75000000 -0.333243 -0.465908 0.819682 0.000000
202.14799500 264.64801025 186.25000000 -0.267848 -0.481508 -0.834510 0.000000
220.21499634 238.28100586 147.50000000 -0.722662 -0.561339 0.403308 0.000000
288.08599854 210.44900513 170.00000000 -0.353646 -0.578545 0.734997 0.000000
167.96899414 208.98399353 203.75000000 0.480374 -0.160125 -0.862323 0.000000
191.40600586 163.08599854 101.25000000 -0.415165 -0.415165 0.809491 0.000000
167.96899414 159.66799927 100.00000000 0.415559 0.902478 -0.113334 0.000000
196.28900146 299.80499268 166.25000000 -0.294420 -0.667673 -0.683761 0.000000
269.53100586 182.61700439 138.75000000 -0.371617 -0.587711 0.718677 0.000000
167.47999573 212.89100647 102.50000000 -0.574322 0.737020 0.356308 0.000000
213.37899780 283.20300293 155.00000000 -0.900111 -0.434765 0.027921 0.000000
261.71899414 141.11300659 142.50000000 0.049244 0.998496 0.024098 0.000000
175.78100586 215.82000732 106.25000000 -0.637449 0.673687 0.373904 0.000000
115.72299957 231.44500732 95.00000000 0.955770 0.171959 -0.238609 0.000000
144.04299927 272.46099854 180.00000000 0.441635 -0.517722 -0.732750 0.000000
138.67199707 250.00000000 183.75000000 0.642317 -0.205851 -0.738278 0.000000
124.02300262 272.46099854 158.75000000 0.830278 -0.409604 -0.377974 0.000000
204.10099792 261.71899414 186.25000000 -0.272944 -0.510015 -0.815712 0.000000
139.64799500 237.30499268 68.75000000 -0.840547 0.142790 0.522582 0.000000
232.42199707 220.70300293 183.75000000 -0.179013 -0.732883 -0.656382 0.000000
203.12500000 213.86700439 141.25000000 -0.676569 -0.182566 0.713389 0.000000
193.35899353 171.87500000 176.25000000 0.072339 0.838283 -0.540416 0.000000
206.05499268 183.59399414 113.75000000 -0.319665 -0.374727 0.870284 0.000000
156.25000000 213.86700439 88.75000000 -0.423264 0.518787 0.742771 0.000000
224.60899353 176.75799561 181.25000000 0.126908 0.529511 -0.838757 0.000000
247.55799866 231.44500732 170.00000000 -0.958155 -0.276857 -0.072723 0.000000
159.17999268 177.73399353 83.75000000 -0.531715 -0.299982 0.792017 0.000000
219.72599792 195.31199646 196.25000000 -0.313553 0.520466 -0.794229 0.000000
201.17199707 296.87500000 141.25000000 -0.677487 -0.365810 0.638117 0.000000
202.14799500 220.70300293 138.75000000 -0.468496 0.387998 0.793706 0.000000
134.76600647 192.87100220 87.50000000 -0.319149 0.080116 0.944312 0.000000
296.87500000 213.37899780 175.00000000 0.432484 0.384608 0.815496 0.000000
239.25799561 200.19500732 131.25000000 -0.310871 -0.487610 0.815840 0.000000
123.04699707 278.80801392 140.00000000 0.953339 -0.287432 -0.092343 0.000000
173.82800293 205.07800293 116.25000000 -0.434808 -0.316366 0.843122 0.000000
187.50000000 312.98800659 140.00000000 -0.493826 -0.805047 0.328688 0.000000
167.96899414 285.15600586 96.25000000 -0.626484 -0.015280 0.779285 0.000000
246.09399414 184.57000732 128.75000000 -0.604776 -0.493591 0.624991 0.000000
139.64799500 241.21099854 68.75000000 -0.634479 0.070498 0.769719 0.000000
140.62500000 241.21099854 68.75000000 -0.805527 0.072970 0.588049 0.000000
162.10899353 291.01501465 93.75000000 -0.364644 -0.418315 0.831894 0.000000
255.37100220 176.75799561 127.50000000 -0.368627 -0.584888 0.722509 0.000000
195.31199646 232.91000366 130.00000000 -0.522792 0.852408 0.009456 0.000000
171.87500000 166.01600647 173.75000000 0.142659 0.989628 0.016850 0.000000
236.32800293 157.22599792 176.25000000 0.325245 0.450944 -0.831183 0.000000
176.75799561 275.39099121 186.25000000 -0.094160 -0.076009 -0.992651 0.000000
135.74200439 247.07000732 181.25000000 0.587014 -0.184490 -0.788276 0.000000
223.63299561 255.37100220 155.00000000 -0.710166 -0.473998 0.520567 0.000000
120.11699677 215.82000732 93.75000000 0.824281 0.435081 -0.362304 0.000000
186.52299500 224.12100220 110.00000000 -0.675437 0.700511 0.230369 0.000000
194.33599854 232.42199707 128.75000000 -0.516909 0.713035 -0.473695 0.000000
274.90200806 162.10899353 172.50000000 -0.227708 0.316500 -0.920857 0.000000
167.96899414 273.43701172 96.25000000 -0.615119 -0.023712 0.788078 0.000000
166.01600647 313.47601318 153.75000000 0.159775 -0.893879 -0.418871 0.000000
289.06201172 153.32000732 143.75000000 -0.193286 -0.495952 0.846565 0.000000
174.80499268 313.47601318 126.25000000 -0.225739 -0.889676 0.396887 0.000000
180.66400146 301.26901245 117.50000000 -0.909375 -0.410642 0.066407 0.000000
208.00799561 245.11700439 191.25000000 -0.457534 -0.304502 -0.835429 0.000000
223.63299561 222.65600586 131.25000000 0.325122 0.146785 0.934211 0.000000
273.43701172 190.42999268 148.75000000 -0.562264 -0.452147 0.692403 0.000000
228.51600647 166.01600647 103.75000000 -0.215782 -0.849547 0.481360 0.000000
155.27299500 172.36300659 182.50000000 0.680044 0.683229 -0.265966 0.000000
240.23399353 208.00799561 136.25000000 -0.442883 -0.274312 0.853585 0.000000
189.45300293 172.36300659 175.00000000 0.126556 0.845160 -0.519315 0.000000
210.93699646 254.88299561 183.75000000 -0.489687 -0.128561 -0.862368 0.000000
251.95300293 145.01899719 127.50000000 0.118238 0.990673 0.067729 0.000000
174.80499268 283.20300293 183.75000000 -0.014662 -0.467837 -0.883693 0.000000
185.54699707 309.57000732 158.75000000 -0.148493 -0.845381 -0.513109 0.000000
140.62500000 247.07000732 68.75000000 -0.632566 0.055689 0.772502 0.000000
230.46899414 229.49200439 168.75000000 0.192658 -0.713607 -0.673534 0.000000
153.80900574 184.57000732 87.50000000 -0.017389 -0.466833 0.884174 0.000000
171.87500000 250.48800659 92.50000000 -0.530123 -0.546953 0.647929 0.000000
314.45300293 185.54699707 163.75000000 0.705184 0.210154 -0.677164 0.000000
180.66400146 231.44500732 203.75000000 -0.246330 -0.129030 -0.960558 0.000000
202.63699341 207.03100586 125.00000000 -0.541562 -0.735800 0.406583 0.000000
202.14799500 222.65600586 138.75000000 -0.454928 0.231243 0.859981 0.000000
169.43400574 163.08599854 137.50000000 0.447309 0.893267 -0.044596 0.000000
199.21899414 263.67199707 186.25000000 -0.263604 -0.479421 -0.837059 0.000000
167.96899414 210.93699646 106.25000000 -0.678985 0.484510 0.551570 0.000000
176.75799561 164.55099487 160.00000000 -0.152694 0.920364 -0.360021 0.000000
255.85899353 169.92199707 121.25000000 -0.482303 -0.583132 0.653713 0.000000
182.61700439 217.77299500 203.75000000 -0.000978 -0.000978 -0.999999 0.000000
185.54699707 301.75799561 126.25000000 -0.774920 -0.388272 0.498743 0.000000
220.70300293 228.51600647 133.75000000 -0.261999 0.359693 0.895532 0.000000
235.35099792 148.43699646 163.75000000 0.316994 0.903801 -0.287506 0.000000
115.72299957 250.97599792 70.00000000 0.894653 -0.446667 0.009223 0.000000
209.47300720 243.16400146 185.00000000 0.108595 0.045901 -0.993026 0.000000
151.85499573 308.59399414 140.00000000 0.627515 -0.776175 0.061465 0.000000
231.44500732 230.46899414 183.75000000 -0.409167 0.856936 -0.313438 0.000000
152.34399414 302.73400879 166.25000000 0.431435 -0.591349 -0.681301 0.000000
293.94500732 205.07800293 178.75000000 -0.128444 0.068272 -0.989364 0.000000
197.75399780 263.67199707 187.50000000 -0.256014 -0.464504 -0.847758 0.000000
122.06999969 270.50799561 156.25000000 0.830278 -0.409604 -0.377974 0.000000
128.90600586 196.77699280 160.00000000 0.829217 0.538472 -0.149823 0.000000
172.85099792 288.57400513 180.00000000 -0.054245 -0.510462 -0.858188 0.000000
181.64100647 173.33999634 185.00000000 -0.483817 0.773781 -0.408882 0.000000
117.18699646 225.58599854 96.25000000 0.955832 0.191166 -0.223250 0.000000
166.01600647 230.46899414 201.25000000 -0.000978 -0.000978 -0.999999 0.000000
256.83599854 171.87500000 181.25000000 -0.077959 0.269662 -0.959794 0.000000
216.79699707 150.87899780 150.00000000 0.161091 0.982290 -0.095685 0.000000
290.03900146 204.10099792 178.75000000 -0.164459 0.192948 -0.967329 0.000000
128.90600586 202.63699341 100.00000000 0.826077 0.509183 -0.241516 0.000000
180.66400146 183.59399414 101.25000000 -0.739590 -0.196092 0.643860 0.000000
149.41400146 227.53900146 196.25000000 0.301702 -0.062908 -0.951325 0.000000
155.27299500 257.81201172 191.25000000 0.120468 -0.281974 -0.951829 0.000000
213.37899780 280.27301025 147.50000000 -0.911444 -0.310620 0.269787 0.000000
128.90600586 232.42199707 176.25000000 0.798044 -0.106894 -0.593042 0.000000
130.85899353 200.68400574 102.50000000 0.828495 0.531855 -0.175287 0.000000
220.70300293 148.92599487 142.50000000 0.210933 0.971304 -0.109887 0.000000
154.78500366 173.82800293 185.00000000 0.681751 0.681751 -0.265390 0.000000
193.35899353 230.95700073 127.50000000 -0.625223 0.687581 -0.369226 0.000000
218.75000000 197.26600647 196.25000000 -0.006132 0.295545 -0.955309 0.000000
285.15600586 213.86700439 171.25000000 -0.234612 -0.560892 0.793950 0.000000
205.07800293 246.09399414 193.75000000 -0.560964 -0.265554 -0.784092 0.000000
222.65600586 258.78900146 156.25000000 -0.710166 -0.473998 0.520567 0.000000
174.80499268 281.25000000 101.25000000 -0.651829 -0.046864 0.756917 0.000000
167.96899414 208.49600220 205.00000000 0.464795 -0.215099 -0.858893 0.000000
184.57000732 302.73400879 126.25000000 -0.770392 -0.415328 0.483735 0.000000
124.02300262 220.70300293 168.75000000 0.926324 0.145387 -0.347544 0.000000
214.84399414 189.45300293 191.25000000 -0.315972 0.662730 -0.678934 0.000000
172.85099792 232.42199707 91.25000000 -0.608170 0.104048 0.786958 0.000000
201.17199707 244.14100647 106.25000000 -0.625619 -0.029392 0.779575 0.000000
139.16000366 184.57000732 172.50000000 0.865260 0.188487 -0.464539 0.000000
143.55499268 178.71099854 96.25000000 0.753777 0.538877 -0.376074 0.000000
179.68699646 229.49200439 203.75000000 -0.247238 -0.117794 -0.961768 0.000000
126.46499634 284.17999268 115.00000000 0.818718 -0.553269 0.153603 0.000000
252.92999268 168.94500732 181.25000000 0.001263 0.359825 -0.933019 0.000000
296.87500000 166.99200439 166.25000000 -0.449380 0.335852 -0.827805 0.000000
120.60500336 268.55499268 150.00000000 0.941124 -0.303720 -0.148455 0.000000
215.82000732 189.45300293 146.25000000 -0.271391 -0.407844 0.871786 0.000000
153.32000732 173.33999634 127.50000000 0.616830 0.784927 0.058407 0.000000
271.48400879 208.00799561 158.75000000 -0.491111 -0.668783 0.558157 0.000000
224.60899353 207.51899719 140.00000000 0.649624 -0.622904 0.435866 0.000000
148.43699646 296.87500000 103.75000000 0.538758 -0.796356 0.274876 0.000000
123.53500366 212.89100647 125.00000000 0.921981 0.358471 0.146457 0.000000
128.90600586 196.28900146 91.25000000 0.483518 0.847294 -0.219781 0.000000
225.58599854 226.56199646 173.75000000 -0.374408 -0.882641 -0.284189 0.000000
231.44500732 202.14799500 131.25000000 -0.248201 -0.497943 0.830933 0.000000
198.72999573 299.80499268 165.00000000 -0.362444 -0.700287 -0.615006 0.000000
116.69899750 239.25799561 117.50000000 0.970072 0.242814 0.001184 0.000000
152.34399414 301.26901245 110.00000000 0.338781 -0.876577 0.341819 0.000000
157.71499634 166.01600647 100.00000000 0.531882 0.821445 -0.205742 0.000000
200.19500732 233.39799500 108.75000000 -0.470311 0.664461 0.580775 0.000000
285.15600586 166.99200439 143.75000000 -0.542074 -0.209195 0.813875 0.000000
218.26199341 250.97599792 150.00000000 -0.977346 0.158118 0.140688 0.000000
118.16400146 260.25399780 87.50000000 0.865416 -0.448456 0.223478 0.000000
148.43699646 305.17599487 132.50000000 0.634793 -0.772122 0.029428 0.000000
301.75799561 207.03100586 173.75000000 -0.900696 -0.432172 0.044429 0.000000
256.83599854 157.22599792 108.75000000 -0.470929 -0.672037 0.571483 0.000000
189.45300293 201.17199707 113.75000000 -0.049981 -0.430916 0.901007 0.000000
283.69100952 168.94500732 142.50000000 -0.598060 -0.129110 0.790983 0.000000
142.57800293 208.00799561 86.25000000 -0.332967 0.456054 0.825316 0.000000
198.72999573 293.94500732 170.00000000 -0.291810 -0.443119 -0.847639 0.000000
288.08599854 143.55499268 133.75000000 -0.816058 0.137738 0.561318 0.000000
140.62500000 273.43701172 176.25000000 0.645662 -0.195702 -0.738120 0.000000
197.26600647 185.54699707 108.75000000 -0.356465 -0.056561 0.932595 0.000000
142.57800293 262.69500732 68.75000000 -0.671441 0.196030 0.714660 0.000000
215.33200073 160.15600586 167.50000000 0.289765 0.715609 -0.635563 0.000000
189.45300293 208.00799561 201.25000000 -0.539717 0.143432 -0.829538 0.000000
288.08599854 144.04299927 155.00000000 -0.146915 0.919268 -0.365189 0.000000
210.93699646 243.16400146 191.25000000 -0.703716 -0.073999 -0.706618 0.000000
269.53100586 221.67999268 178.75000000 0.158221 -0.968623 -0.191666 0.000000
202.14799500 259.76599121 188.75000000 -0.254481 -0.488912 -0.834389 0.000000
142.57800293 263.67199707 68.75000000 -0.671441 0.196030 0.714660 0.000000
143.06599426 263.67199707 70.00000000 -0.754091 -0.018120 0.656519 0.000000
287.10900879 188.47599792 153.75000000 -0.657280 -0.417664 0.627328 0.000000
206.05499268 224.60899353 138.75000000 -0.047171 0.429926 0.901631 0.000000
141.11300659 297.85101318 115.00000000 0.524260 -0.767725 0.368443 0.000000
275.87899780 213.86700439 167.50000000 -0.240491 -0.624020 0.743480 0.000000
208.98399353 259.76599121 186.25000000 -0.648068 -0.315145 -0.693319 0.000000
172.85099792 237.30499268 201.25000000 0.115258 -0.039165 -0.992563 0.000000
268.55499268 205.07800293 153.75000000 -0.502582 -0.667308 0.549647 0.000000
165.03900146 204.10099792 203.75000000 0.523251 -0.228634 -0.820936 0.000000
284.17999268 196.28900146 158.75000000 -0.281874 -0.481211 0.830050 0.000000
261.71899414 175.78100586 178.75000000 -0.055987 0.124543 -0.990633 0.000000
187.50000000 226.56199646 103.75000000 -0.656294 0.716101 0.237651 0.000000
140.62500000 186.03500366 127.50000000 0.844794 0.527460 -0.090054 0.000000
226.56199646 200.19500732 128.75000000 -0.128952 -0.603258 0.787052 0.000000
281.25000000 207.03100586 181.25000000 -0.000978 -0.000978 -0.999999 0.000000
267.57800293 189.45300293 178.75000000 -0.189637 0.187021 -0.963878 0.000000
247.55799866 231.44500732 165.00000000 -0.979053 -0.202846 0.017588 0.000000
181.64100647 208.98399353 123.75000000 0.000978 0.000978 0.999999 0.000000
172.85099792 261.71899414 191.25000000 -0.073985 -0.244526 -0.966816 0.000000
239.25799561 239.74600220 165.00000000 0.883620 -0.161054 -0.439634 0.000000
122.55899811 231.44500732 165.00000000 0.931838 0.001264 -0.362873 0.000000
187.98800659 300.78100586 130.00000000 -0.747221 -0.408919 0.523876 0.000000
295.89801025 201.17199707 178.75000000 -0.199228 0.111518 -0.973587 0.000000
267.57800293 192.38299561 143.75000000 -0.654631 -0.467115 0.594358 0.000000
130.37100220 197.26600647 95.00000000 0.753370 0.541840 -0.372617 0.000000
164.06199646 189.45300293 198.75000000 -0.102630 0.542060 -0.834049 0.000000
190.42999268 242.18699646 198.75000000 -0.031683 -0.530352 -0.847185 0.000000
172.85099792 310.54699707 118.75000000 -0.288585 -0.847235 0.445995 0.000000
122.55899811 275.39099121 145.00000000 0.934881 -0.340323 -0.100886 0.000000
298.82800293 167.96899414 166.25000000 -0.469057 0.291408 -0.833707 0.000000
267.57800293 179.68699646 178.75000000 -0.218492 0.027461 -0.975452 0.000000
157.22599792 273.92599487 185.00000000 0.223207 -0.438924 -0.870359 0.000000
147.94900513 195.31199646 192.50000000 0.761885 0.113913 -0.637617 0.000000
263.18301392 208.98399353 152.50000000 -0.556631 -0.607388 0.566782 0.000000
115.72299957 211.91400146 80.00000000 0.853839 0.179677 -0.488544 0.000000
291.01501465 212.89100647 173.75000000 -0.209425 -0.628274 0.749275 0.000000
268.55499268 141.11300659 157.50000000 -0.236084 0.948432 -0.211521 0.000000
197.26600647 221.67999268 201.25000000 -0.000978 -0.000978 -0.999999 0.000000
313.96499634 186.52299500 165.00000000 -0.855873 -0.179481 -0.485044 0.000000
166.99200439 162.59800720 110.00000000 0.313843 0.941530 0.122574 0.000000
185.05900574 165.03900146 160.00000000 0.099788 0.886849 -0.451155 0.000000
203.61300659 282.22601318 175.00000000 -0.632043 -0.457686 -0.625337 0.000000
240.23399353 166.99200439 108.75000000 -0.165695 -0.866600 0.470691 0.000000
226.56199646 227.53900146 183.75000000 -0.026695 -0.692665 -0.720765 0.000000
181.64100647 263.67199707 101.25000000 -0.390096 -0.222281 0.893541 0.000000
160.15600586 228.51600647 83.75000000 -0.397609 0.066044 0.915175 0.000000
193.35899353 252.92999268 193.75000000 -0.039556 -0.478764 -0.877052 0.000000
131.34800720 288.08599854 155.00000000 0.844238 -0.422899 -0.329269 0.000000
205.56599426 247.07000732 192.50000000 -0.528771 -0.219172 -0.819979 0.000000
172.36300659 318.35900879 142.50000000 0.149688 -0.987474 -0.049896 0.000000
153.32000732 228.51600647 196.25000000 0.348726 0.133701 -0.927639 0.000000
131.83599854 270.50799561 68.75000000 0.000978 0.000978 0.999999 0.000000
132.81199646 270.50799561 68.75000000 0.100728 -0.478106 0.872507 0.000000
185.54699707 181.15199280 192.50000000 -0.600616 0.624170 -0.499672 0.000000
222.65600586 192.38299561 143.75000000 0.927798 0.127830 -0.350501 0.000000
244.14100647 144.04299927 140.00000000 0.211589 0.976656 0.037058 0.000000
271.97299194 168.94500732 135.00000000 -0.471012 -0.340968 0.813566 0.000000
174.80499268 313.96499634 127.50000000 -0.222935 -0.890265 0.397150 0.000000
165.03900146 297.85101318 98.75000000 -0.237496 -0.646429 0.725070 0.000000
225.58599854 208.00799561 151.25000000 -0.689742 0.355520 -0.630762 0.000000
180.66400146 237.30499268 93.75000000 -0.367628 0.065032 0.927696 0.000000
223.63299561 256.83599854 156.25000000 -0.710166 -0.473998 0.520567 0.000000
247.07000732 192.38299561 183.75000000 -0.186817 0.395357 -0.899329 0.000000
143.55499268 213.86700439 188.75000000 0.479845 0.059462 -0.875336 0.000000
305.66400146 174.80499268 151.25000000 -0.149097 -0.352538 0.923844 0.000000
125.48799896 278.32000732 152.50000000 0.619586 -0.619586 -0.481900 0.000000
136.71899414 271.48400879 68.75000000 0.085214 -0.587834 0.804481 0.000000
185.54699707 170.89799500 171.25000000 -0.272734 0.911545 -0.307737 0.000000
145.01899719 183.59399414 112.50000000 0.813238 0.580082 -0.046350 0.000000
140.62500000 245.11700439 186.25000000 0.601281 -0.208671 -0.771309 0.000000
253.90600586 143.06599426 135.00000000 0.191883 0.974463 0.116635 0.000000
126.95300293 259.27700806 170.00000000 0.860315 -0.217706 -0.460937 0.000000
145.99600220 172.85099792 162.50000000 0.894688 0.446689 -0.001310 0.000000
174.80499268 171.87500000 188.75000000 -0.159281 0.678080 -0.717521 0.000000
140.13699341 264.64801025 180.00000000 0.447429 -0.500262 -0.741313 0.000000
131.83599854 194.33599854 86.25000000 0.333966 0.897999 0.286469 0.000000
166.01600647 199.21899414 108.75000000 -0.311646 -0.686267 0.657202 0.000000
122.06999969 265.13699341 80.00000000 0.874207 -0.484155 -0.036823 0.000000
208.00799561 257.32400513 125.00000000 -0.700056 -0.597931 0.390384 0.000000
195.31199646 269.53100586 186.25000000 -0.307259 -0.392864 -0.866747 0.000000
194.33599854 229.00399780 112.50000000 -0.559709 0.827700 0.040478 0.000000
128.41799927 287.10900879 135.00000000 0.790480 -0.612029 0.023700 0.000000
246.09399414 183.59399414 126.25000000 -0.489219 -0.420499 0.764098 0.000000
169.92199707 166.99200439 91.25000000 -0.631728 -0.168968 0.756551 0.000000
147.46099854 182.61700439 83.75000000 0.009702 -0.658376 0.752627 0.000000
226.56199646 207.51899719 135.00000000 0.543591 -0.787653 0.290021 0.000000
285.15600586 179.19900513 175.00000000 -0.279335 0.137663 -0.950274 0.000000
165.03900146 222.65600586 88.75000000 -0.182069 0.277895 0.943200 0.000000
216.79699707 246.58200073 175.00000000 -0.767163 0.576563 0.281134 0.000000
238.28100586 215.33200073 190.00000000 -0.376118 -0.495572 -0.782907 0.000000
127.93000031 231.44500732 176.25000000 0.798044 -0.106894 -0.593042 0.000000
200.19500732 178.71099854 108.75000000 -0.113657 -0.188596 0.975455 0.000000
161.13299561 180.66400146 86.25000000 -0.681169 -0.326766 0.655158 0.000000
139.64799500 272.94900513 70.00000000 -0.414454 -0.563063 0.714974 0.000000
120.11699677 231.44500732 158.75000000 0.966431 0.050865 -0.251843 0.000000
153.32000732 169.43400574 155.00000000 0.549418 0.793604 0.261404 0.000000
137.69500732 273.92599487 70.00000000 -0.236023 -0.479660 0.845115 0.000000
171.87500000 265.62500000 191.25000000 0.035637 -0.402571 -0.914695 0.000000
180.66400146 264.64801025 101.25000000 -0.406693 -0.223311 0.885851 0.000000
274.41400146 146.48399353 121.25000000 -0.777088 -0.428458 0.461040 0.000000
118.16400146 205.56599426 72.50000000 0.036823 0.484155 0.874207 0.000000
287.10900879 165.03900146 168.75000000 -0.354699 0.456496 -0.815966 0.000000
286.13299561 177.73399353 146.25000000 -0.523104 -0.349273 0.777413 0.000000
131.34800720 196.28900146 137.50000000 0.831389 0.402285 0.383354 0.000000
217.28500366 254.88299561 140.00000000 -0.920253 -0.176700 0.349159 0.000000
125.97699738 203.61300659 147.50000000 0.918920 0.393072 0.032866 0.000000
132.81199646 291.01501465 113.75000000 0.639575 -0.707238 0.301261 0.000000
216.79699707 149.90199280 137.50000000 0.118545 0.992948 -0.001088 0.000000
312.98800659 175.78100586 162.50000000 0.705519 -0.255255 -0.661126 0.000000
265.62500000 221.19099426 177.50000000 0.170434 -0.970064 0.172997 0.000000
249.02299500 155.27299500 98.75000000 -0.466316 -0.553228 0.690281 0.000000
176.75799561 313.96499634 127.50000000 -0.342722 -0.822849 0.453278 0.000000
166.99200439 249.02299500 196.25000000 0.081264 -0.282490 -0.955822 0.000000
166.01600647 219.72599792 88.75000000 0.000978 0.000978 0.999999 0.000000
181.64100647 230.46899414 96.25000000 -0.705175 0.149491 0.693095 0.000000
238.28100586 211.91400146 136.25000000 -0.384385 0.170044 0.907377 0.000000
257.81201172 173.82800293 126.25000000 -0.473998 -0.520567 0.710166 0.000000
263.67199707 146.48399353 168.75000000 -0.225100 0.469840 -0.853569 0.000000
167.96899414 215.82000732 96.25000000 -0.432754 0.802767 0.410231 0.000000
221.19099426 252.92999268 175.00000000 -0.557708 0.819640 -0.130966 0.000000
131.83599854 284.66799927 102.50000000 0.655302 -0.718160 0.234149 0.000000
272.46099854 202.14799500 153.75000000 -0.622400 -0.568425 0.538064 0.000000
121.09400177 207.51899719 72.50000000 -0.309672 0.572814 0.758938 0.000000
132.81199646 200.19500732 83.75000000 -0.431138 0.315961 0.845156 0.000000
125.00000000 223.63299561 171.25000000 0.896318 0.141074 -0.420372 0.000000
228.51600647 147.94900513 132.50000000 -0.001067 0.995277 0.097074 0.000000
289.55099487 184.57000732 152.50000000 -0.426928 -0.456148 0.780808 0.000000
154.29699707 270.50799561 81.25000000 -0.543036 -0.108607 0.832656 0.000000
172.85099792 278.32000732 98.75000000 -0.674467 -0.136696 0.725540 0.000000
291.01501465 191.40600586 176.25000000 -0.253118 0.098935 -0.962363 0.000000
206.05499268 280.27301025 136.25000000 -0.812195 -0.202668 0.547051 0.000000
124.02300262 210.93699646 98.75000000 0.881057 0.441257 -0.170386 0.000000
215.82000732 251.95300293 181.25000000 -0.584843 -0.001363 -0.811146 0.000000
286.13299561 218.75000000 181.25000000 -0.271049 -0.300038 -0.914609 0.000000
208.00799561 154.29699707 156.25000000 0.381288 0.645384 -0.661890 0.000000
134.27699280 280.27301025 85.00000000 0.595467 -0.713576 0.369091 0.000000
209.47300720 247.07000732 117.50000000 -0.879299 -0.174104 0.443307 0.000000
211.42599487 262.69500732 135.00000000 -0.784220 -0.420524 0.456244 0.000000
171.87500000 214.35499573 102.50000000 -0.423134 0.841585 0.335697 0.000000
240.23399353 166.01600647 178.75000000 -0.029723 0.104581 -0.994072 0.000000
121.58200073 221.67999268 162.50000000 0.933270 0.141155 -0.330276 0.000000
116.21099854 209.96099854 71.25000000 0.638206 0.658098 0.399500 0.000000
143.55499268 171.87500000 86.25000000 0.664094 0.634284 -0.395807 0.000000
204.10099792 257.81201172 188.75000000 -0.274876 -0.489185 -0.827733 0.000000
238.28100586 198.72999573 187.50000000 -0.320859 0.251171 -0.913215 0.000000
283.20300293 155.27299500 138.75000000 -0.868249 -0.233238 0.437886 0.000000
169.92199707 215.82000732 98.75000000 -0.392817 0.822212 0.411901 0.000000
166.99200439 312.50000000 123.75000000 0.145376 -0.885213 0.441887 0.000000
197.26600647 248.04699707 103.75000000 -0.536533 -0.057436 0.841923 0.000000
123.04699707 209.96099854 71.25000000 -0.545424 0.432692 0.717837 0.000000
139.64799500 193.35899353 88.75000000 -0.455997 0.041946 0.888992 0.000000
138.67199707 203.61300659 182.50000000 0.713673 0.077036 -0.696231 0.000000
148.43699646 181.15199280 82.50000000 -0.064786 -0.689607 0.721280 0.000000
170.89799500 190.42999268 198.75000000 0.573760 0.560220 -0.597455 0.000000
138.18400574 191.40600586 117.50000000 0.799732 0.596580 -0.067240 0.000000
135.74200439 238.28100586 183.75000000 0.694940 -0.073991 -0.715251 0.000000
171.87500000 161.13299561 131.25000000 0.551546 0.833539 -0.031793 0.000000
201.66000366 261.71899414 187.50000000 -0.265008 -0.454955 -0.850169 0.000000
137.69500732 299.31600952 152.50000000 0.638434 -0.729864 -0.244339 0.000000
145.50799561 184.57000732 86.25000000 0.050031 -0.696144 0.716157 0.000000
316.40600586 178.22300720 155.00000000 0.228096 0.142071 0.963217 0.000000
136.22999573 204.10099792 85.00000000 -0.484709 0.350335 0.801450 0.000000
207.03100586 151.85499573 140.00000000 0.000978 0.999999 0.000978 0.000000
189.94099426 241.21099854 200.00000000 -0.011691 -0.401405 -0.915826 0.000000
149.90199280 179.68699646 187.50000000 0.694827 0.461552 -0.551530 0.000000
146.48399353 301.75799561 116.25000000 0.375361 -0.848845 0.372246 0.000000
210.44900513 291.01501465 152.50000000 -0.823695 -0.475390 0.309082 0.000000
201.17199707 232.42199707 136.25000000 -0.033754 0.460409 0.887065 0.000000
131.83599854 199.70700073 122.50000000 0.737027 0.674783 -0.038195 0.000000
247.07000732 213.37899780 145.00000000 -0.296937 -0.818540 0.491753 0.000000
238.28100586 223.63299561 181.25000000 -0.110311 -0.260853 -0.959055 0.000000
158.20300293 239.25799561 83.75000000 -0.790866 -0.091421 0.605122 0.000000
163.08599854 199.21899414 203.75000000 0.310238 0.148969 -0.938915 0.000000
158.69099426 162.10899353 87.50000000 0.412939 0.867021 -0.278848 0.000000
223.14399719 206.05499268 140.00000000 0.898395 -0.434883 -0.061347 0.000000
223.63299561 178.71099854 181.25000000 0.006888 0.610295 -0.792144 0.000000
236.81599426 149.41400146 100.00000000 0.109509 0.987935 0.109509 0.000000
216.79699707 203.12500000 198.75000000 0.001377 0.648407 -0.761293 0.000000
267.57800293 178.71099854 136.25000000 -0.379489 -0.492528 0.783201 0.000000
202.14799500 252.92999268 108.75000000 -0.564885 -0.338284 0.752641 0.000000
222.65600586 206.05499268 151.25000000 -0.213515 0.972678 0.091150 0.000000
171.87500000 314.45300293 126.25000000 -0.042092 -0.883928 0.465725 0.000000
165.03900146 277.34399414 91.25000000 -0.811518 -0.067032 0.580470 0.000000
170.89799500 245.11700439 198.75000000 -0.037208 -0.525041 -0.850263 0.000000
220.70300293 204.10099792 133.75000000 0.199474 -0.923804 0.326797 0.000000
126.46499634 205.07800293 165.00000000 0.851431 0.353336 -0.387580 0.000000
133.78900146 188.96499634 157.50000000 0.734692 0.655266 -0.175654 0.000000
212.89100647 162.10899353 168.75000000 0.325489 0.710893 -0.623448 0.000000
183.59399414 184.57000732 106.25000000 -0.562293 -0.485083 0.669717 0.000000
259.76599121 191.40600586 181.25000000 -0.103701 -0.018557 -0.994435 0.000000
146.48399353 198.24200439 191.25000000 0.648407 -0.001377 -0.761293 0.000000
138.67199707 277.34399414 173.75000000 0.541175 -0.332413 -0.772419 0.000000
174.80499268 265.62500000 98.75000000 -0.512339 -0.214361 0.831600 0.000000
127.93000031 214.84399414 71.25000000 -0.354682 0.536071 0.766047 0.000000
154.29699707 308.10501099 160.00000000 0.272285 -0.826190 -0.493225 0.000000
128.90600586 214.84399414 71.25000000 -0.136049 -0.623434 0.769948 0.000000
233.39799500 173.82800293 181.25000000 0.010777 0.247871 -0.968733 0.000000
151.36700439 195.31199646 96.25000000 -0.562403 0.031939 0.826246 0.000000
240.23399353 240.72300720 175.00000000 -0.602118 -0.504295 -0.618984 0.000000
201.66000366 208.98399353 200.00000000 -0.322831 0.162108 -0.932470 0.000000
132.81199646 190.91799927 140.00000000 0.851189 0.456922 0.258260 0.000000
238.28100586 158.20300293 176.25000000 0.079784 0.482906 -0.872030 0.000000
233.39799500 176.75799561 116.25000000 -0.403184 -0.648744 0.645426 0.000000
130.85899353 238.28100586 178.75000000 0.780502 -0.107301 -0.615876 0.000000
192.38299561 289.06201172 126.25000000 -0.719439 -0.431663 0.544127 0.000000
192.38299561 172.85099792 176.25000000 0.075275 0.839391 -0.538290 0.000000
311.52301025 165.03900146 156.25000000 -0.709609 0.393495 -0.584480 0.000000
131.34800720 215.82000732 72.50000000 -0.450761 0.506900 0.734757 0.000000
148.43699646 244.14100647 191.25000000 0.447385 -0.108671 -0.887714 0.000000
161.13299561 311.03500366 122.50000000 0.180011 -0.902934 0.390263 0.000000
247.07000732 180.66400146 181.25000000 -0.000978 -0.000978 -0.999999 0.000000
216.79699707 183.10499573 117.50000000 -0.185495 -0.308228 0.933053 0.000000
181.64100647 249.02299500 196.25000000 -0.003419 -0.181190 -0.983442 0.000000
180.66400146 182.61700439 198.75000000 -0.131871 0.591198 -0.795673 0.000000
145.50799561 233.39799500 191.25000000 0.590642 -0.076166 -0.803331 0.000000
168.45700073 170.89799500 90.00000000 -0.716723 -0.153042 0.680357 0.000000
224.12100220 255.85899353 155.00000000 -0.710166 -0.473998 0.520567 0.000000
184.57000732 194.33599854 108.75000000 -0.385139 -0.338737 0.858443 0.000000
143.55499268 179.19900513 175.00000000 0.807513 0.522139 -0.274397 0.000000
211.91400146 151.85499573 117.50000000 0.224868 0.830634 0.509394 0.000000
276.36700439 200.19500732 158.75000000 -0.825240 -0.548689 0.133862 0.000000
205.07800293 236.32800293 196.25000000 -0.514258 -0.204793 -0.832825 0.000000
148.43699646 208.00799561 193.75000000 0.740918 -0.120269 -0.660739 0.000000
182.61700439 299.80499268 171.25000000 -0.299125 -0.876116 -0.378081 0.000000
183.59399414 184.08200073 197.50000000 -0.490951 0.537868 -0.685321 0.000000
128.90600586 287.59799194 132.50000000 0.786775 -0.616887 0.020888 0.000000
219.72599792 233.39799500 131.25000000 -0.648536 0.226597 0.726673 0.000000
221.67999268 187.50000000 188.75000000 -0.138746 0.598247 -0.789209 0.000000
151.36700439 302.73400879 113.75000000 0.331610 -0.879751 0.340695 0.000000
171.38699341 251.95300293 92.50000000 -0.473964 -0.371138 0.798508 0.000000
183.59399414 290.03900146 178.75000000 -0.081303 -0.428564 -0.899846 0.000000
241.69900513 244.14100647 165.00000000 0.951116 -0.284409 -0.120378 0.000000
116.69899750 213.86700439 82.50000000 0.898212 0.205264 -0.388692 0.000000
116.69899750 244.14100647 135.00000000 0.999999 0.000978 0.000978 0.000000
190.42999268 253.90600586 101.25000000 -0.325615 -0.428441 0.842860 0.000000
154.29699707 222.65600586 196.25000000 0.393543 -0.043727 -0.918266 0.000000
260.74200439 217.77299500 183.75000000 -0.008469 -0.264950 -0.964225 0.000000
157.22599792 296.38699341 172.50000000 0.140766 -0.555657 -0.819409 0.000000
289.06201172 155.27299500 166.25000000 -0.177585 0.405702 -0.896588 0.000000
148.43699646 184.57000732 188.75000000 0.732969 0.406839 -0.545197 0.000000
194.33599854 250.00000000 196.25000000 -0.038142 -0.385363 -0.921977 0.000000
131.34800720 201.17199707 110.00000000 0.708486 0.705724 0.001381 0.000000
220.70300293 229.49200439 178.75000000 -0.533362 -0.788102 -0.307280 0.000000
203.61300659 269.53100586 182.50000000 -0.001371 -0.788169 -0.615457 0.000000
223.63299561 210.44900513 142.50000000 0.564443 0.800009 -0.203444 0.000000
126.46499634 248.04699707 172.50000000 0.819076 -0.046363 -0.571808 0.000000
294.92199707 170.89799500 168.75000000 -0.355928 0.278488 -0.892054 0.000000
171.87500000 218.75000000 203.75000000 0.146033 -0.153521 -0.977295 0.000000
199.21899414 301.75799561 163.75000000 -0.380303 -0.745917 -0.546788 0.000000
147.94900513 182.61700439 187.50000000 0.716539 0.431909 -0.547747 0.000000
128.90600586 203.12500000 126.25000000 0.752412 0.653449 -0.082954 0.000000
164.06199646 232.42199707 86.25000000 -0.487308 -0.082856 0.869290 0.000000
215.82000732 250.97599792 171.25000000 -0.876778 0.449367 0.171257 0.000000
137.20700073 291.01501465 107.50000000 0.562573 -0.759232 0.327227 0.000000
234.37500000 148.92599487 107.50000000 0.113533 0.992567 0.043839 0.000000
192.38299561 276.36700439 183.75000000 -0.223382 -0.372303 -0.900828 0.000000
171.87500000 239.25799561 201.25000000 0.115258 -0.039165 -0.992563 0.000000
135.25399780 221.67999268 72.50000000 -0.605741 0.332914 0.722666 0.000000
212.40199280 285.15600586 150.00000000 -0.916936 -0.370974 0.146990 0.000000
110.83999634 222.65600586 72.50000000 0.931838 -0.001264 -0.362873 0.000000
196.28900146 180.66400146 108.75000000 -0.159311 -0.028653 0.986813 0.000000
119.14099884 266.60101318 106.25000000 0.943037 -0.311670 0.116375 0.000000
195.31199646 197.75399780 112.50000000 -0.482412 -0.650499 0.586626 0.000000
165.52699280 235.35099792 87.50000000 -0.305078 0.008646 0.952288 0.000000
276.36700439 219.72599792 173.75000000 -0.296976 -0.869608 0.394446 0.000000
209.96099854 192.38299561 121.25000000 -0.501420 -0.751308 0.429084 0.000000
192.38299561 220.70300293 201.25000000 -0.211746 -0.195765 -0.957517 0.000000
159.66799927 181.64100647 197.50000000 -0.296473 0.132809 -0.945762 0.000000
266.11300659 208.00799561 155.00000000 -0.562691 -0.682909 0.465848 0.000000
153.80900574 242.18699646 195.00000000 0.428262 -0.198678 -0.881543 0.000000
143.06599426 186.52299500 182.50000000 0.717295 0.484299 -0.500942 0.000000
199.21899414 226.56199646 201.25000000 -0.318837 -0.055506 -0.946183 0.000000
190.42999268 254.88299561 193.75000000 -0.266301 -0.515472 -0.814477 0.000000
160.15600586 289.06201172 178.75000000 0.451166 -0.811462 -0.371455 0.000000
163.08599854 229.49200439 201.25000000 0.182211 0.022051 -0.983012 0.000000
148.92599487 305.66400146 127.50000000 0.629524 -0.776830 -0.015286 0.000000
141.60099792 232.42199707 188.75000000 0.564391 0.001360 -0.825507 0.000000
212.40199280 241.21099854 120.00000000 -0.861656 0.204587 0.464428 0.000000
146.97300720 305.66400146 157.50000000 0.540859 -0.750013 -0.380726 0.000000
139.64799500 271.48400879 176.25000000 0.643187 -0.146110 -0.751640 0.000000
299.80499268 169.92199707 166.25000000 -0.446046 0.357154 -0.820661 0.000000
163.08599854 295.89801025 96.25000000 -0.130864 -0.554333 0.821942 0.000000
185.54699707 250.97599792 196.25000000 -0.000978 -0.000978 -0.999999 0.000000
159.17999268 244.14100647 83.75000000 -0.597735 -0.029260 0.801160 0.000000
162.10899353 203.12500000 103.75000000 -0.700566 0.265294 0.662440 0.000000
136.71899414 198.72999573 177.50000000 0.864265 0.172264 -0.472622 0.000000
214.84399414 220.70300293 196.25000000 -0.464233 -0.493971 -0.735174 0.000000
144.53100586 180.17599487 100.00000000 0.777413 0.523104 -0.349273 0.000000
110.35199738 225.58599854 71.25000000 0.931838 -0.001264 -0.362873 0.000000
155.27299500 246.09399414 193.75000000 0.478320 -0.273989 -0.834350 0.000000
271.48400879 185.54699707 143.75000000 -0.537512 -0.487277 0.688216 0.000000
136.71899414 225.58599854 71.25000000 -0.457307 0.380287 0.803898 0.000000
166.99200439 275.39099121 93.75000000 -0.777484 0.043902 0.627369 0.000000
128.90600586 289.06201172 141.25000000 0.862556 -0.312119 0.398221 0.000000
218.75000000 153.32000732 161.25000000 0.203668 0.840318 -0.502380 0.000000
242.18699646 224.60899353 138.75000000 -0.566778 -0.037600 0.823012 0.000000
209.96099854 204.10099792 198.75000000 -0.000978 -0.000978 -0.999999 0.000000
188.47599792 249.02299500 196.25000000 -0.000978 -0.000978 -0.999999 0.000000
128.41799927 287.10900879 115.00000000 0.716290 -0.622509 0.315297 0.000000
146.48399353 302.73400879 118.75000000 0.415654 -0.816975 0.399729 0.000000
194.33599854 280.27301025 181.25000000 -0.245203 -0.425721 -0.870998 0.000000
231.44500732 165.03900146 176.25000000 0.464710 0.201723 -0.862179 0.000000
175.78100586 260.25399780 192.50000000 -0.071450 -0.313080 -0.947035 0.000000
204.10099792 250.00000000 183.75000000 0.003726 0.319205 -0.947678 0.000000
155.76199341 169.92199707 175.00000000 0.281628 0.959486 0.008534 0.000000
154.29699707 189.94099426 92.50000000 -0.283487 -0.648656 0.706315 0.000000
270.50799561 188.47599792 143.75000000 -0.591047 -0.383604 0.709585 0.000000
141.11300659 226.56199646 72.50000000 -0.489229 0.306751 0.816430 0.000000
250.97599792 153.32000732 173.75000000 -0.093215 0.540648 -0.836069 0.000000
208.00799561 290.03900146 166.25000000 -0.558157 -0.491111 -0.668783 0.000000
237.30499268 234.37500000 161.25000000 0.685744 -0.562277 -0.462168 0.000000
301.26901245 162.10899353 162.50000000 -0.351053 0.285324 -0.891825 0.000000
272.46099854 191.40600586 178.75000000 -0.056698 0.199047 -0.978348 0.000000
189.94099426 227.53900146 130.00000000 -0.787454 0.570011 -0.234528 0.000000
210.93699646 208.00799561 146.25000000 -0.391353 0.121166 0.912229 0.000000
200.19500732 221.19099426 137.50000000 -0.522804 -0.006755 0.852426 0.000000
134.27699280 196.28900146 117.50000000 0.705724 0.708486 -0.001381 0.000000
137.69500732 228.51600647 71.25000000 -0.460868 0.358807 0.811701 0.000000
245.11700439 229.49200439 146.25000000 -0.680044 -0.683229 -0.265966 0.000000
