108.95800018 192.93800354 314.50000000 -0.513185 -0.312995 0.799171 0.000000
153.31599426 210.59500122 221.00000000 0.301154 -0.912190 0.277876 0.000000
55.55569839 214.47099304 162.00000000 -0.880643 -0.176713 -0.439591 0.000000
125.75399780 321.27499390 219.25000000 -0.046996 0.903667 -0.425650 0.000000
88.71679688 148.57899475 217.00000000 -0.259947 -0.965344 -0.023188 0.000000
82.25679779 162.79100037 264.00000000 -0.735238 -0.467578 0.490709 0.000000
156.76199341 229.54400635 304.00000000 0.621608 0.513795 0.591285 0.000000
108.52700043 319.12200928 207.00000000 -0.201515 0.969068 -0.142472 0.000000
97.33010101 147.28700256 249.75000000 -0.553816 -0.768922 0.319448 0.000000
112.83399963 180.87899780 224.75000000 0.689862 -0.710904 -0.136770 0.000000
158.48399353 136.95100403 264.75000000 -0.143335 -0.958637 0.245906 0.000000
79.67289734 292.85198975 241.00000000 -0.482421 0.724461 0.492368 0.000000
93.02339935 224.80700684 302.25000000 -0.239866 -0.603585 0.760361 0.000000
103.35900116 257.96798706 301.00000000 -0.304017 0.336964 0.891083 0.000000
52.97169876 223.08399963 213.00000000 -0.982619 0.055844 -0.177038 0.000000
111.11100006 178.72599792 222.00000000 0.754845 -0.588875 -0.288852 0.000000
186.04699707 260.55200195 246.50000000 0.822771 0.567476 -0.031912 0.000000
87.85549927 199.82800293 179.75000000 -0.000978 -0.000978 -0.999999 0.000000
117.14099884 222.22300720 192.25000000 0.447247 -0.111459 -0.887439 0.000000
106.37400055 241.17199707 307.00000000 -0.449086 0.449086 0.772427 0.000000
136.95100403 302.32598877 242.25000000 -0.092377 0.722887 0.684763 0.000000
152.45500183 224.80700684 309.75000000 0.292989 0.390146 0.872894 0.000000
165.37500000 145.99499512 235.50000000 0.245966 -0.844840 -0.475127 0.000000
92.16210175 190.78399658 184.00000000 0.567592 -0.302183 -0.765849 0.000000
54.69430161 218.77699280 162.00000000 -0.905523 -0.182253 0.383161 0.000000
112.83399963 288.97601318 258.50000000 -0.225942 0.850693 0.474629 0.000000
91.30079651 312.23098755 224.00000000 -0.242476 0.934864 0.259295 0.000000
157.62300110 285.10000610 254.75000000 0.471707 0.708393 0.525045 0.000000
155.03900146 304.91000366 230.25000000 0.477491 0.759720 0.441392 0.000000
105.08200073 142.11900330 244.75000000 -0.413598 -0.903788 0.110014 0.000000
157.62300110 204.56500244 308.00000000 0.518439 0.211328 0.828590 0.000000
203.27299500 131.35299683 270.00000000 -0.494850 -0.442241 0.748029 0.000000
54.69430161 227.39100647 191.00000000 -0.998887 -0.034373 0.032289 0.000000
86.13279724 171.83500671 277.00000000 -0.682935 -0.290850 0.670080 0.000000
87.42479706 149.00999451 217.00000000 -0.560102 -0.814014 -0.153841 0.000000
119.29399872 190.35400391 230.00000000 -0.275695 -0.712345 0.645413 0.000000
80.96479797 154.60800171 234.00000000 -0.671844 -0.715090 0.193059 0.000000
117.14099884 142.55000305 270.00000000 -0.046146 -0.961575 0.270638 0.000000
145.13400269 200.68899536 232.00000000 -0.332657 -0.544786 -0.769771 0.000000
54.69430161 243.75599670 240.00000000 -0.932417 0.112650 0.343379 0.000000
251.50799561 138.24299622 273.00000000 0.162903 -0.674450 0.720124 0.000000
186.47799683 236.86500549 227.00000000 0.577040 0.805483 -0.134989 0.000000
66.75289917 172.26600647 184.50000000 -0.861941 -0.451349 -0.230958 0.000000
121.87799835 279.93200684 201.00000000 0.522850 0.198532 -0.828983 0.000000
243.75599670 147.71800232 279.50000000 0.228602 -0.296757 0.927187 0.000000
257.96798706 175.71099854 256.50000000 0.884451 -0.142375 -0.444383 0.000000
165.80599976 217.91600037 211.50000000 0.109438 -0.874085 -0.473285 0.000000
60.29299927 189.06199646 243.50000000 -0.893629 -0.448789 0.003948 0.000000
130.06100464 195.52099609 220.75000000 0.982880 -0.182618 -0.024427 0.000000
63.73830032 251.93800354 263.00000000 -0.877107 0.424407 0.224861 0.000000
138.67399597 308.78601074 232.00000000 0.104429 0.633931 0.766307 0.000000
141.68800354 170.54299927 232.00000000 -0.711095 0.311205 -0.630472 0.000000
164.51400757 294.14401245 238.50000000 0.527990 0.786402 0.320622 0.000000
93.88480377 302.32598877 237.25000000 -0.267848 0.834510 -0.481508 0.000000
84.84079742 282.51599121 254.00000000 -0.185817 0.311559 0.931882 0.000000
160.20700073 146.85600281 234.00000000 0.304470 -0.687877 -0.658880 0.000000
125.75399780 211.02499390 317.25000000 -0.121970 0.224681 0.966769 0.000000
82.68750000 259.69000244 289.50000000 -0.506666 0.590830 0.627862 0.000000
149.87100220 184.32400513 227.75000000 -0.790865 0.512864 -0.333921 0.000000
151.16299438 243.75599670 206.50000000 0.298721 0.523156 -0.798169 0.000000
106.80500031 140.39599609 229.75000000 0.505487 -0.768795 -0.391712 0.000000
100.34500122 155.89999390 271.00000000 -0.587835 -0.684419 0.431301 0.000000
75.79689789 301.03399658 224.50000000 -0.595808 0.701436 0.391154 0.000000
66.75289917 280.79299927 192.50000000 -0.867554 0.475193 -0.146772 0.000000
136.95100403 216.62399292 311.00000000 0.223971 0.373285 0.900275 0.000000
156.76199341 278.64001465 219.00000000 0.713341 0.301117 -0.632829 0.000000
164.51400757 247.20100403 217.25000000 0.709210 0.223879 -0.668505 0.000000
144.70300293 166.66700745 301.00000000 0.528508 -0.423135 0.735959 0.000000
158.48399353 145.56399536 269.75000000 -0.536735 -0.034495 0.843046 0.000000
197.67500305 211.88699341 280.50000000 0.713471 -0.104879 0.692791 0.000000
111.11100006 146.85600281 271.00000000 -0.505801 -0.842002 0.187612 0.000000
54.69430161 217.05499268 187.00000000 -0.993285 -0.050392 0.104144 0.000000
61.58499908 181.74000549 182.00000000 -0.891491 -0.297164 -0.341962 0.000000
116.27899933 282.94601440 270.50000000 -0.051224 0.963266 0.263618 0.000000
146.85600281 295.43600464 248.00000000 0.322507 0.669324 0.669324 0.000000
183.03199768 233.41999817 218.50000000 0.094629 0.793430 -0.601260 0.000000
156.76199341 275.19400024 265.50000000 0.606140 0.548734 0.575748 0.000000
188.63099670 230.40499878 251.00000000 0.886741 0.460345 -0.042096 0.000000
143.84199524 315.24600220 225.75000000 0.856867 0.192236 -0.478355 0.000000
205.85699463 227.82099915 223.50000000 0.029008 0.835716 -0.548395 0.000000
233.85099792 131.78300476 274.50000000 0.588258 0.221955 0.777618 0.000000
74.93550110 177.86399841 267.00000000 -0.703330 -0.694255 0.152766 0.000000
171.83500671 161.06799316 281.00000000 0.039529 -0.317510 0.947430 0.000000
87.85549927 246.77099609 177.50000000 0.788730 0.499582 -0.358221 0.000000
147.28700256 258.82901001 287.50000000 0.610684 0.405467 0.680192 0.000000
100.77500153 186.90800476 307.25000000 -0.533178 -0.175723 0.827552 0.000000
146.42599487 171.40400696 220.75000000 -0.330125 0.086177 -0.939995 0.000000
111.11100006 218.34700012 191.00000000 0.420852 -0.436977 -0.794943 0.000000
141.25799561 194.66000366 232.25000000 0.359529 -0.836807 0.412908 0.000000
232.98899841 181.74000549 238.50000000 -0.296212 -0.734925 -0.610036 0.000000
106.80500031 316.10699463 202.25000000 -0.770792 0.384585 -0.507911 0.000000
152.45500183 288.97601318 251.50000000 0.325620 0.777960 0.537354 0.000000
167.95899963 183.46299744 223.75000000 0.554426 0.635315 -0.537574 0.000000
87.42479706 149.00999451 214.00000000 -0.575215 -0.815007 0.069939 0.000000
65.03029633 286.82199097 213.00000000 -0.743806 0.667300 -0.038253 0.000000
149.44000244 265.28900146 283.50000000 -0.165311 0.406810 0.898431 0.000000
209.30299377 130.06100464 239.75000000 0.144700 -0.198483 -0.969364 0.000000
176.14199829 236.00399780 284.00000000 0.338746 0.778634 0.528187 0.000000
185.18600464 135.22900391 272.25000000 0.014991 -0.840863 0.541041 0.000000
124.03099823 234.28100586 194.75000000 0.238450 0.358407 -0.902600 0.000000
79.24220276 155.47000122 217.00000000 -0.672973 -0.721585 -0.162547 0.000000
157.62300110 281.22399902 259.00000000 0.464575 0.711016 0.527850 0.000000
136.08999634 304.91000366 239.75000000 -0.035401 0.698116 0.715109 0.000000
71.92089844 291.98999023 202.50000000 -0.780126 0.600682 -0.174882 0.000000
146.42599487 196.38299561 231.25000000 -0.391277 0.668638 0.632317 0.000000
164.51400757 217.48500061 212.00000000 0.106364 -0.875021 -0.472256 0.000000
116.70999908 170.54299927 230.50000000 0.745482 0.445973 -0.495343 0.000000
145.99499512 204.99600220 316.50000000 0.326414 0.108805 0.938944 0.000000
111.11100006 174.85000610 307.25000000 -0.552776 -0.304265 0.775797 0.000000
146.42599487 236.43499756 301.00000000 0.206099 0.816762 0.538910 0.000000
185.18600464 233.85099792 278.50000000 0.751459 0.528804 0.394557 0.000000
68.47560120 284.23800659 196.50000000 -0.817465 0.550476 -0.169493 0.000000
72.35160065 283.80801392 186.50000000 -0.235109 0.508635 -0.828260 0.000000
54.26369858 217.48500061 183.00000000 -0.987044 -0.031025 0.157421 0.000000
71.92089844 291.12899780 200.50000000 -0.787188 0.572924 -0.228238 0.000000
149.87100220 244.18699646 297.50000000 0.277868 0.443668 0.852026 0.000000
248.92399597 144.27200317 276.50000000 0.211347 -0.149110 0.965970 0.000000
67.61430359 176.57200623 241.50000000 -0.872862 -0.403907 0.273809 0.000000
221.36099243 128.76899719 274.50000000 -0.023542 -0.810126 0.585783 0.000000
73.64360046 280.79299927 184.50000000 -0.121490 0.548901 -0.827011 0.000000
208.44099426 214.47099304 274.75000000 0.659197 0.049831 0.750317 0.000000
141.25799561 201.11999512 220.50000000 0.221549 -0.776198 -0.590282 0.000000
149.44000244 254.09199524 289.50000000 0.663414 0.522334 0.535770 0.000000
186.47799683 257.53698730 244.50000000 0.800096 0.397633 -0.449148 0.000000
115.41799927 137.38200378 239.50000000 -0.398044 -0.903089 -0.161215 0.000000
230.40499878 155.03900146 240.00000000 -0.363617 -0.446185 -0.817742 0.000000
130.06100464 233.41999817 309.75000000 0.227785 0.454062 0.861360 0.000000
186.04699707 256.67599487 242.25000000 0.794893 0.370950 -0.480147 0.000000
108.95800018 166.23599243 236.50000000 0.449144 -0.404068 -0.796868 0.000000
115.41799927 276.91699219 286.50000000 -0.057209 0.855349 0.514884 0.000000
112.83399963 177.43400574 215.75000000 0.329988 -0.232000 0.915032 0.000000
140.39599609 169.68200684 231.25000000 -0.740898 0.264946 -0.617150 0.000000
164.51400757 292.85198975 239.75000000 0.511509 0.726707 0.458537 0.000000
70.62889862 242.03300476 164.75000000 0.486268 0.243901 -0.839080 0.000000
132.21400452 286.82199097 264.00000000 0.177395 0.878179 0.444221 0.000000
93.88480377 267.01199341 289.75000000 -0.130083 0.743117 0.656395 0.000000
107.23500061 167.09800720 234.00000000 0.805690 -0.392433 -0.443690 0.000000
170.54299927 217.48500061 213.00000000 0.251789 -0.967776 -0.003580 0.000000
73.21289825 161.49899292 226.50000000 -0.859998 -0.490388 -0.141150 0.000000
147.28700256 196.38299561 234.75000000 -0.731408 -0.052959 -0.679880 0.000000
101.63700104 311.36999512 230.50000000 -0.314455 0.895676 0.314455 0.000000
132.64500427 220.93099976 315.50000000 -0.019024 0.341172 0.939808 0.000000
204.13499451 129.63000488 270.00000000 -0.494850 -0.442241 0.748029 0.000000
249.78500366 128.33799744 264.75000000 -0.091975 -0.632142 0.769374 0.000000
109.81900024 156.76199341 291.50000000 -0.792441 -0.550786 0.262055 0.000000
149.00999451 304.04901123 224.75000000 -0.524484 0.850027 -0.048692 0.000000
116.27899933 289.83700562 258.50000000 -0.342738 0.780414 0.522958 0.000000
160.20700073 274.33300781 220.00000000 0.503223 0.269528 -0.821049 0.000000
69.33689880 186.04699707 259.00000000 -0.912274 -0.385369 0.138733 0.000000
161.92999268 204.56500244 239.50000000 0.241725 -0.250109 -0.937558 0.000000
156.76199341 137.38200378 241.50000000 0.602344 -0.615842 -0.507859 0.000000
85.27149963 177.00300598 282.50000000 -0.630683 -0.680084 0.373799 0.000000
84.84079742 229.11300659 173.00000000 0.650875 -0.009715 -0.759123 0.000000
54.69430161 211.88699341 238.50000000 -0.980297 -0.005773 0.197445 0.000000
191.21499634 251.93800354 241.00000000 0.891437 0.420435 -0.169041 0.000000
168.38999939 211.88699341 300.50000000 0.874496 0.174313 -0.452628 0.000000
97.33010101 180.01800537 299.75000000 -0.339808 -0.616206 0.710507 0.000000
162.79100037 286.82199097 224.75000000 0.509442 -0.114011 -0.852919 0.000000
82.25679779 261.84399414 287.00000000 -0.391703 0.735877 0.552317 0.000000
103.79000092 167.09800720 223.00000000 0.941993 -0.217170 -0.255901 0.000000
147.28700256 180.87899780 230.75000000 -0.713366 0.493869 -0.497195 0.000000
165.37500000 248.49299622 219.50000000 0.536570 0.321942 -0.780029 0.000000
61.15430069 247.63200378 162.00000000 -0.720852 0.617643 -0.314466 0.000000
172.26600647 212.31700134 239.50000000 0.000978 0.000978 -0.999999 0.000000
55.55569839 204.13499451 187.50000000 -0.978130 -0.204225 -0.039412 0.000000
74.07420349 195.52099609 282.25000000 -0.707476 -0.169611 0.686083 0.000000
111.11100006 296.29699707 252.25000000 0.164836 0.784863 0.597343 0.000000
150.73199463 263.99700928 284.00000000 -0.292701 0.412234 0.862780 0.000000
152.45500183 173.55799866 302.50000000 0.886041 -0.356522 -0.296350 0.000000
62.44630051 248.92399597 162.00000000 0.017839 0.561244 -0.827458 0.000000
64.59960175 266.58099365 179.00000000 -0.538758 0.230014 -0.810453 0.000000
99.91410065 150.30200195 263.00000000 -0.362941 -0.916532 0.168054 0.000000
65.03029633 179.15600586 222.50000000 -0.943685 -0.312787 -0.107812 0.000000
223.94500732 114.98699951 259.50000000 -0.177907 -0.976620 0.120678 0.000000
53.83300018 214.47099304 178.00000000 -0.948593 -0.304858 -0.085046 0.000000
115.41799927 180.87899780 230.25000000 0.562800 -0.623643 -0.542518 0.000000
162.79100037 244.61700439 214.75000000 0.670157 0.133432 -0.730127 0.000000
172.26600647 148.57899475 234.00000000 0.030827 -0.963042 -0.267580 0.000000
59.00099945 192.07600403 191.50000000 -0.708486 -0.705724 -0.001381 0.000000
156.76199341 274.33300781 218.00000000 0.403051 0.130605 -0.905810 0.000000
174.85000610 187.33900452 288.50000000 0.827214 -0.412816 0.381183 0.000000
135.22900391 198.53599548 222.00000000 0.438260 -0.886579 0.148003 0.000000
169.25100708 204.99600220 300.00000000 0.601565 0.079343 0.794874 0.000000
79.24220276 292.42098999 242.00000000 -0.482421 0.724461 0.492368 0.000000
142.97999573 246.77099609 298.50000000 0.421758 0.547459 0.722778 0.000000
114.98699951 183.46299744 228.00000000 0.573793 -0.792234 -0.207673 0.000000
166.23599243 184.32400513 223.75000000 0.265885 0.698943 -0.663916 0.000000
93.02339935 148.57899475 241.00000000 -0.608190 -0.781532 0.138972 0.000000
121.87799835 180.87899780 313.00000000 0.140067 -0.535203 0.833030 0.000000
76.65820313 307.49398804 214.75000000 -0.961840 0.251757 -0.107158 0.000000
188.19999695 239.44900513 262.50000000 0.998600 0.019826 0.049043 0.000000
181.30999756 260.12100220 238.50000000 0.728797 0.406349 -0.551122 0.000000
55.55569839 203.27299500 188.00000000 -0.978130 -0.204225 -0.039412 0.000000
145.56399536 209.30299377 215.25000000 0.887382 -0.401470 -0.226660 0.000000
99.91410065 251.50799561 302.25000000 -0.210649 0.449683 0.867993 0.000000
51.24900055 253.22999573 230.00000000 -0.977712 0.022408 0.208752 0.000000
267.87298584 187.33900452 260.50000000 0.772829 0.006913 -0.634577 0.000000
97.33010101 162.79100037 279.75000000 -0.782876 -0.581344 0.221686 0.000000
76.22750092 208.44099426 167.50000000 0.598464 0.001369 -0.801148 0.000000
115.41799927 210.16400146 315.75000000 -0.314250 0.167508 0.934445 0.000000
130.06100464 215.33200073 199.75000000 -0.146692 -0.549725 -0.822365 0.000000
108.52700043 198.96699524 314.75000000 -0.619857 0.040947 0.783646 0.000000
54.69430161 215.33200073 181.00000000 -0.988876 -0.040105 0.143232 0.000000
108.52700043 176.57200623 225.75000000 0.813497 -0.509415 -0.280570 0.000000
211.02499390 219.20799255 272.00000000 0.266589 0.902867 0.337286 0.000000
139.10400391 140.39599609 261.50000000 -0.079920 -0.716374 0.693124 0.000000
130.06100464 163.22200012 238.00000000 -0.400341 0.074640 -0.913321 0.000000
211.45599365 158.48399353 230.50000000 0.627870 -0.431349 -0.647856 0.000000
83.11820221 197.24400330 293.50000000 -0.486268 -0.243901 0.839080 0.000000
187.77000427 239.44900513 272.25000000 0.957722 0.237112 -0.162932 0.000000
107.23500061 204.13499451 194.50000000 -0.211426 -0.862199 -0.460339 0.000000
163.65199280 214.90100098 230.00000000 0.151627 -0.986165 -0.066998 0.000000
106.80500031 323.42898560 217.00000000 -0.435329 0.894454 0.102183 0.000000
80.96479797 157.19200134 251.00000000 -0.611489 -0.790598 0.032184 0.000000
121.44699860 306.63299561 206.75000000 0.065205 0.033137 -0.997321 0.000000
170.54299927 290.26800537 235.75000000 0.800716 0.595915 0.061156 0.000000
65.03029633 179.15600586 233.00000000 -0.977160 -0.194942 0.084597 0.000000
71.05960083 166.23599243 187.00000000 -0.055566 -0.773650 -0.631173 0.000000
169.68200684 230.83599854 212.25000000 0.731652 0.406108 -0.547506 0.000000
101.63700104 154.60800171 270.00000000 -0.626715 -0.569280 0.532117 0.000000
164.51400757 289.40600586 244.75000000 0.384955 0.655910 0.649301 0.000000
237.72700500 131.78300476 272.25000000 0.614128 0.405556 0.677031 0.000000
52.54100037 232.98899841 205.50000000 -0.986508 -0.127023 0.103281 0.000000
186.47799683 237.72700500 256.50000000 0.988833 -0.108830 -0.101809 0.000000
59.86230087 225.66799927 269.50000000 -0.961800 -0.185518 0.201307 0.000000
160.20700073 288.11401367 247.50000000 0.311838 0.628523 0.712542 0.000000
75.79689789 288.11401367 188.00000000 -0.282944 0.701766 -0.653809 0.000000
53.83300018 255.81399536 211.00000000 -0.971027 0.238894 0.005943 0.000000
60.72359848 270.45700073 198.00000000 -0.924106 0.363875 -0.116715 0.000000
119.72499847 218.34700012 196.50000000 0.565786 -0.629964 -0.532007 0.000000
155.03900146 195.52099609 231.25000000 0.506899 0.827370 -0.241894 0.000000
111.97299957 173.12699890 217.75000000 0.503023 -0.398837 0.766744 0.000000
208.01100159 140.39599609 279.00000000 0.037295 -0.526274 0.849497 0.000000
135.22900391 296.72799683 210.00000000 -0.130234 0.396303 -0.908836 0.000000
110.68099976 202.41200256 195.50000000 0.077971 -0.419950 -0.904192 0.000000
170.54299927 219.63900757 215.25000000 0.313824 -0.791728 0.524101 0.000000
125.75399780 309.64700317 210.00000000 0.503654 0.275996 -0.818632 0.000000
176.57200623 133.93699646 269.50000000 -0.172938 -0.708588 0.684102 0.000000
108.52700043 291.98999023 197.25000000 0.082277 -0.373617 -0.923927 0.000000
120.58599854 182.60200500 218.25000000 0.546367 -0.576815 0.607262 0.000000
110.25000000 211.02499390 312.75000000 -0.537325 0.189199 0.821880 0.000000
152.45500183 202.41200256 218.25000000 0.224743 0.894564 0.386323 0.000000
100.77500153 267.87298584 292.25000000 -0.366816 0.738523 0.565712 0.000000
117.14099884 248.92399597 192.25000000 0.503455 -0.001335 -0.864020 0.000000
136.95100403 202.41200256 211.25000000 0.579327 -0.649853 -0.492008 0.000000
174.85000610 217.48500061 221.00000000 0.227080 -0.969794 -0.089076 0.000000
217.48500061 176.57200623 233.50000000 0.838470 -0.438753 0.323209 0.000000
94.74610138 170.97399902 287.50000000 -0.687178 -0.677656 0.261858 0.000000
112.83399963 279.93200684 197.25000000 0.378643 -0.027325 -0.925139 0.000000
71.05960083 269.59600830 250.50000000 -0.522217 0.339040 0.782522 0.000000
220.06900024 177.43400574 279.00000000 0.717294 -0.538384 0.442303 0.000000
213.60899353 161.92999268 232.25000000 0.791786 -0.550330 -0.264974 0.000000
72.35160065 177.86399841 253.00000000 -0.874935 -0.476088 0.088477 0.000000
145.56399536 298.88101196 215.75000000 0.693845 0.067798 -0.716925 0.000000
192.07600403 227.82099915 246.50000000 0.295545 0.955309 -0.006132 0.000000
59.00099945 233.41999817 262.00000000 -0.923804 -0.326797 0.199474 0.000000
95.17680359 147.28700256 241.00000000 -0.416477 -0.901665 0.116389 0.000000
211.02499390 112.40299988 253.50000000 -0.399184 -0.677454 0.617825 0.000000
54.26369858 227.82099915 186.50000000 -0.994511 -0.045457 0.094240 0.000000
237.29600525 140.39599609 248.00000000 0.616012 -0.094659 -0.782029 0.000000
250.64599609 129.19900513 264.75000000 -0.091975 -0.632142 0.769374 0.000000
93.45410156 288.54501343 191.50000000 0.636197 0.602625 -0.481764 0.000000
169.68200684 183.46299744 224.75000000 0.681175 0.540588 -0.493726 0.000000
95.60739899 296.72799683 193.50000000 0.225752 0.429078 -0.874602 0.000000
217.05499268 124.46199799 243.50000000 -0.029425 -0.339026 -0.940317 0.000000
138.67399597 295.00500488 251.50000000 0.092718 0.848724 0.520645 0.000000
80.96479797 305.34100342 220.50000000 -0.141836 0.975279 0.169450 0.000000
106.37400055 149.87100220 277.00000000 -0.724475 -0.683495 0.089279 0.000000
54.69430161 217.91600037 207.50000000 -0.972262 -0.229984 -0.042590 0.000000
135.65899658 192.07600403 231.50000000 0.725174 0.629547 -0.278913 0.000000
54.69430161 228.25199890 238.50000000 -0.968654 0.228587 -0.097244 0.000000
55.55569839 231.69700623 249.00000000 -0.982032 0.118038 0.147244 0.000000
114.12599945 278.20901489 283.50000000 -0.046613 0.914947 0.400872 0.000000
77.51950073 298.01998901 229.75000000 -0.646830 0.579627 0.495623 0.000000
66.75289917 176.57200623 210.50000000 -0.883929 -0.353873 0.305686 0.000000
67.18360138 264.85800171 177.00000000 -0.672448 -0.166206 -0.721242 0.000000
81.39550018 203.27299500 293.00000000 -0.503455 0.001335 0.864020 0.000000
137.38200378 315.24600220 228.00000000 0.336269 0.899186 0.279977 0.000000
248.06199646 140.82699585 276.50000000 0.350740 -0.400623 0.846453 0.000000
173.98800659 269.59600830 254.75000000 0.724522 0.611568 0.317886 0.000000
161.92999268 203.27299500 239.75000000 0.295504 -0.244112 -0.923627 0.000000
197.24400330 208.01100159 241.50000000 0.121157 -0.975504 -0.183610 0.000000
151.59399414 309.21701050 220.25000000 0.436892 0.569787 -0.696037 0.000000
53.83300018 220.50000000 181.00000000 -0.912354 -0.239330 -0.332161 0.000000
109.38899994 210.16400146 312.75000000 -0.518770 0.208421 0.829119 0.000000
144.70300293 236.00399780 307.25000000 0.206099 0.816762 0.538910 0.000000
130.49099731 309.21701050 237.00000000 0.074353 0.495219 0.865581 0.000000
163.65199280 187.77000427 227.25000000 0.216583 0.699609 -0.680911 0.000000
62.44630051 189.49200439 218.50000000 -0.958659 -0.187477 -0.214069 0.000000
141.68800354 164.51400757 306.50000000 0.182001 0.008013 0.983266 0.000000
59.43159866 213.17900085 255.50000000 -0.983762 -0.005713 0.179385 0.000000
53.83300018 253.22999573 214.00000000 -0.993791 0.081974 -0.075236 0.000000
105.08200073 164.51400757 230.25000000 0.887694 -0.148189 -0.435934 0.000000
181.30999756 139.53500366 277.00000000 0.129552 0.508018 0.851548 0.000000
60.72359848 264.42800903 180.50000000 -0.776160 0.586398 -0.231759 0.000000
55.12500000 213.17900085 221.00000000 -0.920280 -0.391087 0.011616 0.000000
225.66799927 143.41099548 280.50000000 0.071535 -0.500748 0.862632 0.000000
55.12500000 211.02499390 167.25000000 -0.981737 -0.093211 -0.165842 0.000000
226.52900696 114.12599945 252.00000000 -0.001143 -0.982047 0.188635 0.000000
243.75599670 152.45500183 279.75000000 0.086330 -0.038248 0.995532 0.000000
55.55569839 231.69700623 246.50000000 -0.988357 0.118697 0.095193 0.000000
164.51400757 299.74200439 233.75000000 -0.259451 0.953981 0.150349 0.000000
260.12100220 180.44799805 270.00000000 0.913071 -0.106364 0.393684 0.000000
174.41900635 253.22999573 273.50000000 0.691595 0.558275 0.458286 0.000000
103.35900116 260.98199463 189.75000000 0.203006 0.813549 -0.544910 0.000000
89.57810211 205.85699463 299.75000000 -0.347613 -0.095292 0.932783 0.000000
148.14799500 207.58000183 219.25000000 0.771563 -0.627538 0.104345 0.000000
206.28799438 218.77699280 221.50000000 0.752366 -0.376999 -0.540202 0.000000
174.41900635 239.44900513 280.00000000 0.681541 0.514086 0.520785 0.000000
205.85699463 221.79200745 252.00000000 0.310258 0.933557 0.179477 0.000000
236.86500549 182.60200500 274.75000000 0.450274 -0.216910 0.866143 0.000000
111.97299957 139.96600342 237.00000000 -0.223951 -0.972902 -0.057517 0.000000
78.81150055 303.18798828 222.00000000 -0.546932 0.810440 0.209887 0.000000
170.97399902 233.41999817 215.50000000 0.384921 0.642636 -0.662461 0.000000
86.56349945 279.07000732 255.50000000 -0.399048 0.136776 0.906671 0.000000
124.03099823 153.74699402 238.00000000 -0.257966 -0.213822 -0.942196 0.000000
86.99410248 239.44900513 177.25000000 0.492925 0.062483 -0.867825 0.000000
107.66600037 313.52301025 201.25000000 0.405364 0.280870 -0.869938 0.000000
71.49019623 298.45001221 210.00000000 -0.886731 0.453838 -0.087975 0.000000
149.44000244 131.78300476 252.50000000 -0.001340 -0.861485 0.507781 0.000000
81.39550018 273.04098511 258.00000000 -0.537412 0.811508 0.229440 0.000000
74.93550110 257.96798706 174.50000000 0.603249 0.208283 -0.769876 0.000000
183.46299744 237.29600525 223.50000000 0.285480 0.889322 -0.357223 0.000000
73.64360046 238.58799744 165.50000000 0.619292 0.394695 -0.678744 0.000000
124.46199799 188.63099670 234.00000000 0.556732 -0.476483 -0.680451 0.000000
228.68299866 170.54299927 239.50000000 0.281316 0.089451 -0.955437 0.000000
93.02339935 147.71800232 242.50000000 -0.620627 -0.782529 0.049707 0.000000
150.30200195 302.32598877 237.00000000 -0.069415 0.831566 0.551072 0.000000
80.96479797 303.61801147 225.50000000 -0.198462 0.972086 0.125145 0.000000
148.14799500 260.98199463 284.75000000 -0.034360 0.515404 0.856258 0.000000
134.36700439 310.07800293 213.25000000 0.759639 0.410041 -0.504792 0.000000
116.70999908 245.47900391 191.00000000 0.411780 0.174826 -0.894356 0.000000
65.03029633 184.32400513 207.50000000 -0.945632 -0.325178 -0.006229 0.000000
131.35299683 156.76199341 232.00000000 -0.464505 0.454657 -0.759949 0.000000
215.33200073 182.60200500 277.25000000 0.000978 0.000978 0.999999 0.000000
159.34599304 204.13499451 307.25000000 0.598526 0.263730 0.756448 0.000000
125.75399780 216.19299316 315.75000000 -0.133898 0.232697 0.963288 0.000000
110.25000000 170.54299927 233.75000000 0.738003 -0.480445 -0.473841 0.000000
119.72499847 276.05599976 287.00000000 0.124121 0.880263 0.457965 0.000000
189.49200439 252.80000305 254.50000000 0.781125 0.289951 0.552967 0.000000
84.41020203 313.52301025 211.25000000 0.112821 -0.016430 -0.993480 0.000000
110.25000000 177.43400574 209.75000000 0.413553 -0.548658 -0.726601 0.000000
85.27149963 289.83700562 247.50000000 -0.643128 0.293497 0.707280 0.000000
176.57200623 258.82901001 233.00000000 0.829862 0.171953 -0.530812 0.000000
137.81199646 255.38400269 295.50000000 0.339720 0.392462 0.854730 0.000000
111.97299957 151.59399414 235.25000000 0.536046 0.600304 -0.593540 0.000000
132.64500427 185.18600464 239.25000000 0.150237 -0.326662 -0.933124 0.000000
68.47560120 170.54299927 217.00000000 -0.908011 -0.397167 -0.133325 0.000000
159.34599304 202.41200256 307.25000000 0.500389 0.217494 0.838038 0.000000
53.83300018 226.52900696 180.50000000 -0.996033 -0.085436 0.024874 0.000000
129.19900513 230.83599854 197.25000000 0.694569 0.001381 -0.719425 0.000000
236.86500549 179.15600586 239.75000000 0.453671 -0.255094 -0.853879 0.000000
240.31100464 183.03199768 273.00000000 0.395456 -0.469705 0.789298 0.000000
141.68800354 136.95100403 258.50000000 -0.321532 -0.722236 0.612366 0.000000
139.10400391 170.54299927 231.50000000 -0.871321 0.284358 -0.399926 0.000000
67.61430359 248.92399597 165.50000000 0.126567 0.632837 -0.763871 0.000000
127.90699768 268.73400879 201.50000000 -0.000978 0.999999 -0.000978 0.000000
143.84199524 227.39100647 202.25000000 0.574289 -0.816986 0.052208 0.000000
192.07600403 209.73300171 230.00000000 -0.359615 -0.567899 -0.740384 0.000000
188.63099670 173.55799866 225.50000000 0.251249 0.231815 -0.939753 0.000000
85.27149963 197.24400330 294.75000000 -0.632317 -0.391277 0.668638 0.000000
110.25000000 319.12200928 206.50000000 -0.214999 0.966850 -0.137754 0.000000
217.05499268 165.37500000 232.25000000 0.418328 -0.275336 -0.865559 0.000000
144.70300293 156.33099365 277.50000000 0.708486 -0.705724 -0.001381 0.000000
160.20700073 148.14799500 272.25000000 -0.541507 -0.384454 0.747640 0.000000
110.25000000 139.10400391 238.50000000 -0.217287 -0.969534 -0.113091 0.000000
157.62300110 237.72700500 207.25000000 0.103183 0.467856 -0.877761 0.000000
243.32499695 141.25799561 254.50000000 0.781122 -0.145430 -0.607206 0.000000
88.28610229 147.28700256 227.00000000 -0.612222 -0.758656 0.222768 0.000000
67.18360138 281.22399902 191.00000000 -0.916671 0.398496 -0.030249 0.000000
167.52799988 287.68399048 227.00000000 0.764603 -0.110492 -0.634960 0.000000
188.19999695 239.44900513 271.00000000 0.957722 0.237112 -0.162932 0.000000
159.34599304 192.50700378 230.00000000 0.236459 0.759488 -0.606024 0.000000
102.06700134 216.19299316 185.50000000 0.633468 -0.209091 -0.744983 0.000000
56.84769821 199.39700317 171.50000000 -0.887134 -0.408879 -0.214034 0.000000
153.31599426 130.49099731 245.50000000 0.553762 -0.832674 -0.001354 0.000000
95.60739899 310.07800293 199.75000000 -0.449086 -0.449086 -0.772427 0.000000
136.95100403 297.58898926 248.00000000 0.130116 0.740312 0.659551 0.000000
188.63099670 252.36900330 254.75000000 0.772611 0.294707 0.562334 0.000000
187.77000427 175.27999878 279.50000000 -0.030008 0.226862 0.973465 0.000000
204.13499451 214.03999329 221.00000000 -0.241993 -0.785306 -0.569854 0.000000
161.49899292 240.31100464 290.50000000 0.635092 0.244266 0.732798 0.000000
263.56600952 158.48399353 262.25000000 0.414341 -0.184636 -0.891196 0.000000
270.02600098 172.26600647 264.50000000 0.689850 -0.459343 -0.559563 0.000000
142.97999573 176.14199829 311.50000000 0.145920 -0.309568 0.939614 0.000000
229.97500610 208.87199402 250.00000000 0.387153 0.356056 -0.850492 0.000000
149.00999451 292.42098999 250.00000000 0.373204 0.662561 0.649408 0.000000
260.12100220 203.70399475 259.00000000 0.042977 0.995081 -0.089260 0.000000
81.82620239 216.19299316 172.25000000 0.653735 -0.126577 -0.746062 0.000000
158.48399353 254.09199524 284.75000000 0.356688 0.779549 0.514857 0.000000
78.38089752 261.41299438 280.50000000 -0.921389 0.336470 -0.194500 0.000000
58.57030106 198.53599548 161.00000000 -0.887134 -0.408879 -0.214034 0.000000
73.64360046 174.85000610 251.50000000 -0.730127 -0.645701 0.223572 0.000000
172.26600647 180.44799805 227.00000000 0.558484 0.665820 -0.494753 0.000000
91.73139954 157.62300110 266.50000000 -0.525389 -0.698851 0.485359 0.000000
100.34500122 160.20700073 283.50000000 -0.644075 -0.686470 0.337528 0.000000
145.56399536 294.57400513 249.75000000 0.333262 0.681155 0.651893 0.000000
144.70300293 144.27200317 271.50000000 0.468802 -0.847508 0.248908 0.000000
206.71899414 212.74800110 274.75000000 0.670180 0.064856 0.739360 0.000000
78.38089752 288.97601318 188.00000000 0.096979 0.563060 -0.820706 0.000000
100.77500153 316.10699463 224.75000000 0.255017 0.093549 0.962401 0.000000
125.32299805 190.35400391 220.00000000 0.378949 -0.822907 0.423345 0.000000
194.66000366 166.23599243 227.25000000 -0.098150 0.243463 -0.964931 0.000000
151.59399414 296.29699707 240.25000000 0.113604 0.191004 0.974993 0.000000
67.61430359 199.82800293 278.00000000 -0.647903 -0.756130 0.092140 0.000000
209.30299377 114.12599945 252.00000000 0.291643 -0.572130 0.766558 0.000000
91.30079651 267.01199341 184.75000000 0.530256 0.661557 -0.530256 0.000000
159.34599304 301.46499634 224.25000000 0.654465 0.120208 -0.746476 0.000000
101.63700104 288.11401367 257.00000000 -0.809874 0.538373 0.232935 0.000000
62.01559830 277.77801514 215.50000000 -0.903639 0.427199 -0.030609 0.000000
150.30200195 254.95300293 285.50000000 0.710990 0.241200 0.660542 0.000000
63.30759811 280.79299927 212.00000000 -0.936839 0.348918 -0.024284 0.000000
198.96699524 210.16400146 232.25000000 0.056352 -0.979572 -0.193037 0.000000
130.06100464 319.12200928 218.00000000 0.337250 0.756795 -0.559932 0.000000
93.02339935 171.83500671 287.00000000 -0.661333 -0.711600 0.237200 0.000000
182.17100525 134.36700439 270.50000000 -0.098497 -0.739460 0.665955 0.000000
71.05960083 166.23599243 223.50000000 -0.852902 -0.520062 0.045765 0.000000
225.66799927 203.27299500 267.25000000 0.315254 0.657991 0.683858 0.000000
183.89399719 208.44099426 232.00000000 -0.468880 -0.876849 -0.106242 0.000000
119.72499847 208.44099426 199.75000000 -0.449086 -0.449086 -0.772427 0.000000
170.54299927 236.43499756 281.00000000 0.548758 0.439338 0.711230 0.000000
156.76199341 139.96600342 238.00000000 0.520888 -0.591689 -0.615289 0.000000
155.89999390 290.26800537 219.75000000 0.495114 -0.077142 -0.865397 0.000000
53.83300018 212.74800110 239.00000000 -0.980465 0.039029 0.192781 0.000000
223.94500732 196.38299561 274.75000000 -0.159350 0.651057 0.742114 0.000000
54.69430161 206.71899414 180.50000000 -0.985226 -0.148916 0.084584 0.000000
138.67399597 174.41900635 310.00000000 0.191972 -0.379613 0.905009 0.000000
68.47560120 186.90800476 255.50000000 -0.824810 -0.506028 0.252240 0.000000
155.47000122 279.93200684 219.50000000 0.759039 0.257221 -0.598078 0.000000
220.50000000 209.30299377 267.25000000 0.195970 0.720615 0.665064 0.000000
66.32230377 226.96000671 280.50000000 -0.883372 0.106005 0.456527 0.000000
54.26369858 221.79200745 174.50000000 -0.962415 -0.218671 0.161057 0.000000
265.72000122 190.35400391 258.50000000 0.616897 0.085640 -0.782371 0.000000
107.66600037 169.68200684 230.75000000 0.799433 -0.384436 -0.461645 0.000000
148.14799500 257.53698730 209.25000000 0.299888 0.357153 -0.884595 0.000000
187.77000427 232.12800598 260.00000000 0.891237 0.452968 -0.022715 0.000000
103.35900116 143.41099548 248.00000000 -0.427044 -0.892650 0.144252 0.000000
254.09199524 149.87100220 277.25000000 0.093092 -0.204803 0.974366 0.000000
141.25799561 180.87899780 235.75000000 -0.740647 0.668459 0.067857 0.000000
53.40230179 232.55900574 232.25000000 -0.984838 -0.101963 0.140348 0.000000
140.39599609 311.36999512 211.00000000 0.516740 0.496673 -0.697349 0.000000
68.04489899 260.98199463 172.25000000 -0.336934 0.672240 -0.659218 0.000000
62.01559830 183.89399719 181.00000000 -0.813021 -0.532243 -0.236038 0.000000
138.67399597 129.63000488 243.50000000 0.143604 -0.957798 0.249001 0.000000
138.67399597 225.66799927 312.75000000 0.081159 0.228493 0.970157 0.000000
139.53500366 169.68200684 229.25000000 -0.740898 0.264946 -0.617150 0.000000
142.11900330 288.54501343 212.25000000 0.239370 -0.020449 -0.970713 0.000000
55.55569839 207.58000183 167.00000000 -0.977506 -0.167679 -0.127933 0.000000
257.96798706 179.15600586 251.00000000 0.965634 -0.038133 -0.257092 0.000000
177.43400574 234.71200562 219.50000000 0.038181 0.742401 -0.668868 0.000000
139.53500366 180.01800537 312.75000000 0.245855 -0.279962 0.927996 0.000000
83.54879761 177.86399841 283.50000000 -0.630683 -0.680084 0.373799 0.000000
54.69430161 227.39100647 192.50000000 -0.998923 -0.044420 -0.013429 0.000000
51.24900055 240.31100464 221.00000000 -0.956222 0.226016 0.185895 0.000000
131.78300476 286.82199097 264.75000000 0.351555 0.914043 0.202323 0.000000
60.29299927 187.33900452 178.50000000 -0.929678 -0.366944 -0.032416 0.000000
73.21289825 175.27999878 250.00000000 -0.747873 -0.626597 0.219231 0.000000
193.79899597 137.38200378 277.00000000 -0.082122 -0.197339 0.976890 0.000000
128.33799744 193.79899597 210.25000000 0.743772 -0.666978 -0.044086 0.000000
168.82000732 184.32400513 227.25000000 0.617510 0.607414 -0.499729 0.000000
159.34599304 227.39100647 204.75000000 0.104304 0.350841 -0.930608 0.000000
112.40299988 262.70498657 194.50000000 0.327416 0.232220 -0.915900 0.000000
161.49899292 207.58000183 238.50000000 0.346178 -0.053560 -0.936639 0.000000
213.60899353 193.79899597 232.25000000 0.142660 0.001106 -0.989771 0.000000
214.03999329 181.74000549 233.00000000 -0.070072 -0.160334 -0.984572 0.000000
99.05269623 207.58000183 184.75000000 0.350437 -0.267633 -0.897533 0.000000
83.11820221 221.36099243 298.50000000 -0.358133 -0.098656 0.928444 0.000000
164.94400024 237.72700500 211.00000000 0.727494 0.371104 -0.577091 0.000000
239.44900513 159.77600098 245.50000000 0.581753 0.813364 0.001362 0.000000
93.88480377 177.86399841 292.00000000 -0.707106 -0.707106 0.001384 0.000000
246.77099609 185.18600464 245.50000000 0.229418 -0.528123 -0.817590 0.000000
59.86230087 230.83599854 271.00000000 -0.849263 -0.229407 0.475526 0.000000
112.83399963 173.98800659 236.75000000 0.652029 -0.381313 -0.655331 0.000000
62.44630051 182.60200500 181.00000000 -0.807145 -0.540679 -0.237031 0.000000
77.51950073 182.60200500 179.75000000 0.136770 -0.689862 -0.710904 0.000000
86.13279724 261.41299438 290.00000000 -0.506666 0.590830 0.627862 0.000000
119.72499847 280.79299927 201.25000000 0.605604 0.135405 -0.784161 0.000000
257.53698730 176.57200623 254.75000000 0.921138 -0.173507 -0.348424 0.000000
174.85000610 237.29600525 283.00000000 0.667067 0.495679 0.556169 0.000000
118.43299866 271.31799316 198.00000000 0.366594 0.279809 -0.887308 0.000000
220.50000000 135.22900391 242.25000000 -0.593275 -0.339711 -0.729809 0.000000
149.44000244 213.60899353 313.00000000 0.555399 0.326800 0.764679 0.000000
138.67399597 169.68200684 309.75000000 0.162356 -0.415229 0.895112 0.000000
120.58599854 186.90800476 220.25000000 0.594763 -0.497040 0.631830 0.000000
100.77500153 162.79100037 217.75000000 0.900223 -0.323725 -0.291205 0.000000
196.38299561 225.23699951 254.50000000 0.462574 0.881562 0.094202 0.000000
139.96600342 191.21499634 239.00000000 -0.321558 -0.424083 -0.846613 0.000000
108.52700043 142.97999573 230.25000000 0.862812 -0.119555 -0.491184 0.000000
77.51950073 213.17900085 294.50000000 -0.422933 -0.204835 0.882706 0.000000
107.66600037 171.83500671 215.50000000 0.909340 -0.328413 -0.255433 0.000000
98.62210083 145.56399536 242.50000000 -0.530692 -0.838930 0.120678 0.000000
155.03900146 186.90800476 225.25000000 -0.362902 0.511288 -0.779029 0.000000
155.89999390 282.94601440 257.50000000 0.497141 0.625218 0.601625 0.000000
81.82620239 278.20901489 184.75000000 0.383957 0.292900 -0.875664 0.000000
224.80700684 170.97399902 279.50000000 0.320221 -0.290708 0.901636 0.000000
58.13959885 233.41999817 261.50000000 -0.944869 -0.044872 0.324358 0.000000
223.08399963 187.77000427 232.25000000 0.144447 -0.570343 -0.808606 0.000000
71.92089844 174.85000610 245.50000000 -0.665234 -0.601878 0.441822 0.000000
104.65100098 162.79100037 224.50000000 0.977596 -0.165210 -0.130429 0.000000
161.06799316 237.29600525 290.00000000 0.705713 0.004159 0.708486 0.000000
99.05269623 293.28201294 251.00000000 -0.209742 0.688264 0.694479 0.000000
166.66700745 283.37701416 249.00000000 0.644911 0.604709 0.467351 0.000000
54.69430161 254.95300293 204.50000000 -0.958029 0.219244 -0.184696 0.000000
75.79689789 304.04901123 214.75000000 -0.824815 0.522942 0.214970 0.000000
85.27149963 149.44000244 220.00000000 -0.517871 -0.791945 -0.323470 0.000000
190.35400391 228.68299866 219.50000000 0.495063 0.347666 -0.796267 0.000000
71.05960083 167.09800720 201.00000000 -0.869307 -0.479766 0.118867 0.000000
144.70300293 313.52301025 226.25000000 0.360650 0.929109 -0.081783 0.000000
265.28900146 196.81300354 263.50000000 0.526304 0.833439 0.168477 0.000000
110.25000000 145.13400269 268.00000000 -0.436786 -0.856714 0.274332 0.000000
170.11199951 217.05499268 297.50000000 0.469675 0.512826 0.718620 0.000000
175.27999878 237.72700500 280.50000000 0.681541 0.514086 0.520785 0.000000
131.35299683 244.61700439 198.00000000 0.665039 0.333332 -0.668291 0.000000
225.66799927 194.66000366 274.75000000 0.332271 0.262011 0.906061 0.000000
70.62889862 297.58898926 208.00000000 -0.850881 0.476070 -0.222166 0.000000
94.74610138 269.16500854 288.00000000 -0.308790 0.670932 0.674165 0.000000
86.13279724 212.31700134 299.50000000 -0.472256 -0.106364 0.875021 0.000000
166.23599243 135.65899658 251.50000000 0.358274 -0.757077 -0.546328 0.000000
107.23500061 321.27499390 222.00000000 -0.380823 0.814228 0.438185 0.000000
96.03810120 274.76400757 280.50000000 -0.421183 0.865174 0.272173 0.000000
105.94300079 205.85699463 312.75000000 -0.431829 0.343893 0.833823 0.000000
59.86230087 203.27299500 253.00000000 -0.967893 -0.142677 0.206947 0.000000
229.54400635 152.45500183 241.50000000 0.505334 -0.326793 -0.798651 0.000000
174.41900635 261.84399414 230.50000000 0.532878 0.209181 -0.819930 0.000000
251.07699585 162.79100037 257.00000000 0.149552 -0.405927 -0.901586 0.000000
54.26369858 260.55200195 221.50000000 -0.874891 0.444085 -0.193273 0.000000
99.91410065 319.12200928 210.50000000 -0.212178 0.897002 -0.387774 0.000000
178.72599792 129.19900513 240.50000000 -0.603114 -0.603114 -0.522023 0.000000
87.85549927 157.62300110 262.25000000 -0.400454 -0.753506 0.521407 0.000000
54.69430161 222.22300720 232.00000000 -0.942590 0.150978 0.297875 0.000000
79.67289734 266.14999390 277.00000000 -0.605263 0.748239 0.271654 0.000000
154.17799377 226.52900696 204.75000000 0.037428 -0.134968 -0.990143 0.000000
198.96699524 184.32400513 232.25000000 0.635449 0.635449 -0.438644 0.000000
158.48399353 211.45599365 238.50000000 0.193885 -0.133058 -0.971959 0.000000
127.04599762 167.95899963 307.00000000 -0.145012 -0.602471 0.784857 0.000000
82.68750000 257.10598755 290.50000000 -0.301484 0.343482 0.889453 0.000000
180.87899780 160.20700073 279.75000000 -0.245027 0.022934 0.969245 0.000000
246.33999634 177.00300598 247.50000000 0.760593 -0.326428 -0.561198 0.000000
161.06799316 213.17900085 213.00000000 0.723266 -0.689163 -0.044050 0.000000
172.26600647 220.06900024 292.00000000 0.661003 0.247679 0.708330 0.000000
130.92199707 188.63099670 237.25000000 0.622565 0.165109 -0.764952 0.000000
136.95100403 234.28100586 199.75000000 -0.001211 0.279674 -0.960094 0.000000
56.84769821 264.85800171 240.00000000 -0.838476 0.286725 0.463409 0.000000
176.14199829 211.02499390 239.50000000 -0.438103 -0.019854 -0.898706 0.000000
121.01699829 243.75599670 193.00000000 0.348137 0.375988 -0.858739 0.000000
124.89299774 188.63099670 237.75000000 0.541807 -0.578940 -0.609322 0.000000
55.55569839 203.27299500 180.50000000 -0.894564 -0.224743 -0.386323 0.000000
92.59279633 237.72700500 303.00000000 -0.248455 -0.023028 0.968370 0.000000
113.69499969 225.66799927 189.75000000 0.481902 -0.033937 -0.875568 0.000000
136.95100403 199.82800293 224.25000000 0.359831 -0.929674 0.078922 0.000000
72.35160065 296.29699707 214.75000000 -0.780111 0.610068 -0.138720 0.000000
108.09700012 172.26600647 215.50000000 0.380132 -0.921244 0.082520 0.000000
62.87699890 250.21600342 161.00000000 -0.319192 0.633524 -0.704815 0.000000
178.72599792 252.36900330 231.00000000 0.774800 0.322432 -0.543804 0.000000
135.22900391 160.63800049 234.00000000 -0.761733 0.301819 -0.573296 0.000000
76.22750092 161.06799316 232.00000000 -0.814392 -0.542419 0.206272 0.000000
78.38089752 275.62500000 182.25000000 0.420363 0.433248 -0.797240 0.000000
53.83300018 207.58000183 234.00000000 -0.978348 0.056698 -0.199047 0.000000
65.89160156 180.01800537 203.00000000 -0.922337 -0.310306 0.230227 0.000000
140.39599609 313.09298706 231.00000000 0.084616 0.827519 0.555025 0.000000
266.58099365 182.60200500 267.50000000 0.297873 -0.084549 0.950854 0.000000
223.94500732 127.47699738 272.25000000 -0.076977 -0.733458 0.675362 0.000000
187.33900452 161.06799316 280.00000000 -0.621112 0.104253 0.776757 0.000000
109.38899994 202.41200256 315.25000000 -0.422619 0.125796 0.897535 0.000000
55.55569839 254.09199524 199.00000000 -0.959015 0.205598 -0.194986 0.000000
82.68750000 221.79200745 298.00000000 -0.358133 -0.098656 0.928444 0.000000
170.97399902 255.81399536 225.50000000 0.685586 0.413344 -0.599265 0.000000
147.28700256 208.01100159 223.50000000 0.673762 -0.738465 -0.026725 0.000000
71.05960083 197.24400330 281.50000000 -0.640586 -0.116874 0.758940 0.000000
99.05269623 147.71800232 253.00000000 -0.528006 -0.803760 0.274187 0.000000
115.41799927 147.71800232 283.00000000 -0.198288 -0.929564 0.310792 0.000000
243.75599670 129.63000488 269.00000000 0.205731 -0.358231 0.910684 0.000000
110.25000000 310.50900269 235.50000000 0.051176 0.861692 0.504844 0.000000
107.66600037 282.94601440 268.00000000 -0.372047 0.928213 0.001270 0.000000
66.32230377 255.38400269 266.50000000 -0.837191 0.491295 0.240291 0.000000
152.02400208 312.66198730 221.00000000 0.279586 0.959117 -0.043881 0.000000
142.97999573 308.35501099 216.75000000 0.456353 0.456353 -0.763861 0.000000
113.69499969 148.57899475 284.00000000 -0.198288 -0.929564 0.310792 0.000000
100.34500122 156.76199341 270.00000000 -0.473841 -0.738003 0.480445 0.000000
82.25679779 245.47900391 174.00000000 0.615687 0.145308 -0.774477 0.000000
129.19900513 205.42700195 319.00000000 0.078192 -0.129542 0.988486 0.000000
59.86230087 230.83599854 262.00000000 -0.956573 -0.089074 0.277548 0.000000
119.72499847 294.57400513 204.75000000 0.459905 0.106132 -0.881603 0.000000
255.81399536 203.27299500 257.25000000 -0.017100 0.986095 -0.165299 0.000000
118.00199890 143.84199524 274.75000000 -0.046304 -0.959876 0.276575 0.000000
165.37500000 155.47000122 278.50000000 0.412277 -0.690440 0.594407 0.000000
233.41999817 191.21499634 237.25000000 0.011273 0.037919 -0.999217 0.000000
164.51400757 288.54501343 247.25000000 0.329942 0.468866 0.819331 0.000000
98.19139862 304.91000366 239.75000000 -0.157902 0.795523 -0.584988 0.000000
157.19200134 168.82000732 301.00000000 0.551990 -0.333125 0.764418 0.000000
166.66700745 186.04699707 299.00000000 0.734343 -0.015328 0.678605 0.000000
198.96699524 164.94400024 226.50000000 -0.095624 0.243524 -0.965170 0.000000
55.98630142 202.41200256 224.75000000 -0.867668 0.001333 -0.497143 0.000000
244.61700439 195.52099609 244.75000000 0.398518 0.795423 -0.456602 0.000000
142.55000305 235.14300537 200.00000000 -0.025039 0.412481 -0.910622 0.000000
142.11900330 204.13499451 221.25000000 0.581932 -0.615667 -0.531329 0.000000
70.19819641 286.82199097 198.50000000 -0.814383 0.562206 -0.143889 0.000000
67.18360138 283.80801392 201.00000000 -0.818447 0.539051 -0.198918 0.000000
121.44699860 184.32400513 315.75000000 0.012036 -0.477411 0.878597 0.000000
88.28610229 247.20100403 178.50000000 0.788730 0.499582 -0.358221 0.000000
86.99410248 301.03399658 193.50000000 -0.156016 0.683137 -0.713431 0.000000
57.27830124 243.75599670 170.00000000 -0.894688 0.446689 0.001310 0.000000
151.59399414 300.60400391 217.75000000 0.622539 0.119776 -0.773368 0.000000
130.06100464 221.79200745 199.00000000 0.413294 -0.247976 -0.876183 0.000000
118.86299896 209.30299377 316.75000000 -0.208826 0.172051 0.962699 0.000000
180.44799805 196.38299561 239.50000000 -0.341240 -0.132933 -0.930529 0.000000
71.05960083 181.74000549 258.00000000 -0.922545 -0.373638 0.096466 0.000000
86.13279724 152.02400208 239.50000000 -0.625895 -0.733644 0.264619 0.000000
93.02339935 156.76199341 267.25000000 -0.511958 -0.724031 0.462253 0.000000
211.88699341 137.38200378 239.50000000 0.875205 -0.469726 -0.115647 0.000000
185.18600464 255.38400269 241.00000000 0.755678 0.330307 -0.565550 0.000000
172.69599915 141.25799561 272.50000000 0.496760 -0.797052 0.343419 0.000000
64.59960175 205.42700195 267.50000000 -0.882014 -0.300035 0.363360 0.000000
142.97999573 200.68899536 231.25000000 -0.386003 -0.905456 0.176499 0.000000
137.38200378 202.41200256 230.00000000 -0.660656 -0.733556 0.159469 0.000000
208.44099426 220.06900024 268.50000000 0.126596 0.935177 0.330783 0.000000
59.86230087 210.16400146 259.50000000 -0.996996 -0.033341 0.069908 0.000000
218.77699280 120.58599854 244.75000000 0.262259 -0.237015 -0.935438 0.000000
176.57200623 166.23599243 277.25000000 0.752644 -0.006930 0.658391 0.000000
59.00099945 243.75599670 252.50000000 -0.913332 0.361616 -0.187240 0.000000
210.16400146 167.95899963 282.25000000 0.366365 -0.090577 0.926052 0.000000
82.68750000 310.93899536 211.25000000 -0.003451 0.192131 -0.981363 0.000000
142.11900330 301.03399658 244.50000000 0.272278 0.936914 -0.219218 0.000000
142.11900330 188.63099670 231.25000000 -0.348000 0.436180 0.829845 0.000000
149.44000244 173.98800659 220.00000000 -0.324758 0.156160 -0.932816 0.000000
119.29399872 171.40400696 237.50000000 0.355739 -0.152061 -0.922132 0.000000
223.94500732 121.01699829 266.50000000 -0.365559 -0.624564 0.690135 0.000000
217.91600037 186.90800476 232.25000000 -0.000978 -0.000978 -0.999999 0.000000
134.36700439 193.79899597 213.75000000 0.739276 -0.654267 -0.159392 0.000000
166.23599243 266.58099365 265.50000000 0.690358 0.519858 0.503143 0.000000
