131.73800659 253.27099609 36.25000000 0.818412 -0.460654 0.343511 0.000000
206.88499451 172.55900574 133.75000000 -0.179053 -0.659590 0.729987 0.000000
208.74000549 217.08999634 153.75000000 0.058796 -0.727066 -0.684045 0.000000
248.16900635 221.72799683 120.00000000 -0.844214 -0.155241 0.513034 0.000000
126.63600159 248.63299561 45.00000000 0.888610 -0.379557 0.257503 0.000000
141.01600647 206.88499451 163.75000000 0.549418 -0.315555 -0.773670 0.000000
273.68200684 140.55200195 110.00000000 -0.683659 0.683659 -0.255381 0.000000
131.73800659 171.16700745 82.50000000 0.558398 0.761160 0.329890 0.000000
230.07800293 159.10600281 62.50000000 0.683659 -0.683659 -0.255381 0.000000
177.19700623 212.45100403 56.25000000 -0.572130 -0.291643 0.766558 0.000000
169.77499390 185.54699707 88.75000000 -0.490351 -0.107220 0.864905 0.000000
154.00399780 164.20899963 151.25000000 0.138245 0.857117 -0.496225 0.000000
133.59399414 226.36700439 3.75000000 0.168387 0.133462 0.976644 0.000000
178.58900452 207.81199646 60.00000000 -0.657626 0.604079 0.450131 0.000000
228.22300720 203.17399597 163.75000000 -0.362513 -0.497852 -0.787863 0.000000
260.69299316 205.02900696 148.75000000 -0.344726 -0.687818 0.638804 0.000000
179.05299377 204.56500244 65.00000000 -0.525914 0.784875 0.327697 0.000000
148.43699646 157.71499634 86.25000000 0.334208 0.836304 0.434627 0.000000
205.95700073 217.08999634 153.75000000 -0.179576 -0.673792 -0.716768 0.000000
133.59399414 226.83099365 5.00000000 0.566283 -0.456033 0.686555 0.000000
153.53999329 181.83599854 57.50000000 -0.964394 0.264333 -0.008449 0.000000
231.93400574 147.50999451 63.75000000 -0.296076 0.922556 0.247445 0.000000
234.71699524 208.27600098 117.50000000 -0.199896 0.708158 0.677166 0.000000
215.23399353 175.34199524 161.25000000 -0.000978 -0.000978 -0.999999 0.000000
137.30499268 227.29499817 3.75000000 -0.032469 -0.741145 0.670560 0.000000
217.08999634 231.00599670 128.75000000 0.923807 -0.363757 -0.119422 0.000000
122.92500305 234.71699524 42.50000000 0.984814 -0.099319 0.142397 0.000000
140.08799744 208.74000549 161.25000000 0.590736 -0.489755 -0.641226 0.000000
245.85000610 204.10099792 161.25000000 -0.000978 -0.000978 -0.999999 0.000000
163.28100586 178.12500000 166.25000000 0.127569 0.878650 -0.460109 0.000000
180.90800476 171.63099670 91.25000000 -0.554726 0.182893 0.811683 0.000000
256.98199463 141.47900391 90.00000000 0.082711 0.989038 0.122319 0.000000
151.68499756 269.97100830 127.50000000 0.339320 -0.779953 -0.525866 0.000000
241.21099854 202.24600220 161.25000000 0.000978 0.000978 -0.999999 0.000000
206.42100525 271.82598877 112.50000000 -0.683659 -0.683659 -0.255381 0.000000
215.23399353 145.19000244 77.50000000 0.016946 0.988502 0.150252 0.000000
203.63800049 177.19700623 132.50000000 -0.274588 0.274588 0.921522 0.000000
203.17399597 261.15701294 130.00000000 -0.332687 -0.498234 -0.800676 0.000000
153.53999329 180.90800476 60.00000000 -0.683659 0.683659 0.255381 0.000000
277.39199829 157.71499634 146.25000000 -0.376627 0.629904 -0.679244 0.000000
199.92700195 278.32000732 90.00000000 -0.876321 -0.279999 0.391998 0.000000
178.12500000 144.26300049 115.00000000 0.075559 0.993548 0.084581 0.000000
263.94000244 183.69099426 130.00000000 -0.863875 -0.086246 0.496268 0.000000
185.54699707 271.82598877 66.25000000 -0.806892 0.170428 0.565579 0.000000
192.96899414 165.13699341 151.25000000 0.209971 0.657910 -0.723234 0.000000
256.98199463 160.49800110 98.75000000 -0.562167 -0.750096 0.348317 0.000000
204.56500244 197.60699463 125.00000000 -0.496600 0.261450 0.827667 0.000000
235.64399719 203.63800049 125.00000000 0.120785 -0.534074 0.836765 0.000000
201.31799316 207.81199646 166.25000000 -0.000978 -0.000978 -0.999999 0.000000
218.01699829 144.26300049 82.50000000 0.164897 0.980831 0.103824 0.000000
121.06900024 220.80099487 137.50000000 0.765018 0.129740 -0.630805 0.000000
255.12699890 160.03399658 92.50000000 0.000978 0.000978 0.999999 0.000000
131.27400208 268.11499023 75.00000000 0.757913 -0.634356 0.152185 0.000000
277.39199829 188.33000183 143.75000000 -0.671588 -0.412902 0.615208 0.000000
138.23199463 227.29499817 151.25000000 0.608087 -0.151646 -0.779252 0.000000
121.99700165 192.96899414 142.50000000 -0.001369 -0.803435 -0.595391 0.000000
134.98500061 217.08999634 7.50000000 -0.656013 0.656013 0.373221 0.000000
186.47500610 199.46299744 101.25000000 -0.337120 -0.623753 0.705183 0.000000
122.46099854 227.29499817 138.75000000 0.937612 -0.001255 -0.347682 0.000000
169.77499390 200.39100647 168.75000000 0.129469 -0.124629 -0.983720 0.000000
177.19700623 167.91999817 88.75000000 -0.529497 0.479387 0.699872 0.000000
274.14498901 145.65400696 115.00000000 -0.859102 -0.286367 0.424191 0.000000
135.44900513 217.55400085 7.50000000 -0.656013 0.656013 0.373221 0.000000
134.05799866 260.69299316 45.00000000 0.610803 -0.785735 0.097670 0.000000
135.91299438 218.01699829 7.50000000 -0.678744 0.619292 0.394695 0.000000
196.67999268 194.36000061 105.00000000 0.006394 -0.927129 0.374688 0.000000
153.07600403 236.57200623 153.75000000 0.001356 0.560008 -0.828486 0.000000
270.89801025 166.06399536 133.75000000 -0.842002 -0.505801 0.187612 0.000000
213.37899780 245.85000610 138.75000000 -0.292160 -0.582723 -0.758338 0.000000
127.56300354 193.89599609 52.50000000 0.854742 0.440415 0.274684 0.000000
227.75900269 231.00599670 147.50000000 0.294620 -0.398424 -0.868595 0.000000
163.28100586 239.35499573 36.25000000 -0.796124 0.070288 0.601038 0.000000
183.69099426 262.54901123 136.25000000 -0.061782 -0.685354 -0.725584 0.000000
109.00900269 218.01699829 102.50000000 0.937612 0.001255 0.347682 0.000000
192.96899414 283.42300415 110.00000000 -0.434027 -0.731080 -0.526444 0.000000
149.82899475 277.39199829 60.00000000 0.064177 -0.962659 0.263001 0.000000
170.70300293 188.33000183 171.25000000 -0.276441 0.157774 -0.947991 0.000000
204.10099792 159.57000732 148.75000000 0.227075 0.912640 -0.339890 0.000000
215.23399353 154.93200684 143.75000000 0.447069 0.744015 -0.496560 0.000000
154.93200684 217.08999634 163.75000000 0.467309 -0.304767 -0.829903 0.000000
280.64001465 144.72700500 135.00000000 -0.923262 0.336885 0.184652 0.000000
200.39100647 169.77499390 156.25000000 0.357886 0.495904 -0.791200 0.000000
255.12699890 202.24600220 131.25000000 -0.591232 -0.715702 0.371772 0.000000
189.25799561 215.23399353 166.25000000 -0.000978 -0.000978 -0.999999 0.000000
115.96700287 193.89599609 113.75000000 0.909345 0.399666 -0.115583 0.000000
216.16200256 197.14300537 112.50000000 -0.001255 -0.937612 0.347682 0.000000
138.23199463 222.65600586 6.25000000 -0.555184 0.555184 0.619308 0.000000
196.67999268 246.77699280 78.75000000 -0.692896 -0.383480 0.610605 0.000000
217.08999634 161.42599487 111.25000000 0.209798 -0.276488 -0.937837 0.000000
114.57499695 242.13900757 92.50000000 0.924618 -0.379498 -0.032603 0.000000
200.39100647 159.57000732 111.25000000 0.001379 0.668888 0.743362 0.000000
158.64300537 151.22099304 133.75000000 0.122059 0.925729 -0.357949 0.000000
182.76400757 267.18701172 63.75000000 -0.683659 -0.683659 -0.255381 0.000000
182.76400757 278.32000732 121.25000000 -0.360672 -0.768247 -0.528878 0.000000
218.48100281 151.22099304 137.50000000 0.468937 0.783724 -0.407277 0.000000
249.55999756 219.87300110 141.25000000 -0.937612 0.001255 -0.347682 0.000000
192.96899414 148.43699646 131.25000000 -0.046289 0.921813 -0.384860 0.000000
112.72000122 200.39100647 100.00000000 0.966139 0.241851 -0.089903 0.000000
279.71200562 143.79899597 135.00000000 -0.902349 0.368811 0.223036 0.000000
259.76599121 196.67999268 158.75000000 -0.561720 -0.255043 -0.787034 0.000000
110.40000153 226.36700439 93.75000000 0.959230 -0.088604 0.268379 0.000000
144.26300049 169.77499390 65.00000000 0.455345 0.844318 0.282468 0.000000
206.88499451 243.06599426 146.25000000 -0.381231 -0.561211 -0.734646 0.000000
154.00399780 176.26899719 161.25000000 -0.000978 -0.000978 -0.999999 0.000000
182.76400757 272.75399780 126.25000000 -0.165560 -0.627307 -0.760970 0.000000
181.83599854 274.60900879 61.25000000 -0.274588 -0.274588 0.921522 0.000000
225.43899536 236.10800171 135.00000000 0.456113 -0.832289 -0.315047 0.000000
172.55900574 240.28300476 153.75000000 -0.350490 -0.458334 -0.816754 0.000000
186.93800354 287.59799194 85.00000000 -0.459786 -0.830126 0.315416 0.000000
138.23199463 276.46499634 91.25000000 0.672104 -0.720873 -0.169169 0.000000
138.69599915 228.22300720 7.50000000 -0.424506 -0.466794 0.775821 0.000000
148.43699646 215.23399353 163.75000000 0.779429 -0.497474 -0.380802 0.000000
154.93200684 172.09500122 77.50000000 -0.886860 -0.105746 0.449775 0.000000
199.46299744 243.06599426 78.75000000 -0.262835 -0.288687 0.920640 0.000000
255.12699890 171.63099670 113.75000000 -0.714624 -0.538870 0.446018 0.000000
269.97100830 203.17399597 148.75000000 -0.999999 0.000978 0.000978 0.000000
134.52099609 230.07800293 6.25000000 0.602749 -0.545344 0.582489 0.000000
124.31600189 186.47500610 148.75000000 0.475046 0.001323 -0.879960 0.000000
189.25799561 256.05499268 73.75000000 -0.653486 0.216789 0.725230 0.000000
136.37699890 230.07800293 6.25000000 -0.165104 -0.607401 0.777049 0.000000
147.50999451 162.35299683 146.25000000 0.001255 0.937612 -0.347682 0.000000
154.00399780 149.82899475 102.50000000 0.133147 0.929283 0.344535 0.000000
121.06900024 233.78900146 50.00000000 0.950884 -0.140032 0.276063 0.000000
134.52099609 230.54200745 7.50000000 0.601707 -0.517434 0.608449 0.000000
141.01600647 276.00100708 70.00000000 0.683659 -0.683659 0.255381 0.000000
261.62100220 190.18499756 158.75000000 -0.413202 -0.635568 -0.652163 0.000000
123.38899994 198.53500366 136.25000000 0.832436 -0.466976 -0.298302 0.000000
161.42599487 287.59799194 101.25000000 0.340686 -0.850937 -0.399800 0.000000
261.15701294 202.24600220 145.00000000 -0.327949 -0.850180 0.411879 0.000000
168.84800720 179.97999573 88.75000000 -0.368901 -0.287592 0.883857 0.000000
172.09500122 271.82598877 45.00000000 -0.818044 -0.272681 0.506408 0.000000
167.91999817 210.59599304 166.25000000 -0.000978 -0.000978 -0.999999 0.000000
156.78700256 288.06100464 80.00000000 0.193075 -0.970487 0.144486 0.000000
170.70300293 174.87800598 160.00000000 -0.351373 0.674964 -0.648815 0.000000
247.70500183 163.28100586 91.25000000 0.820113 -0.205409 0.534062 0.000000
206.88499451 238.42799377 148.75000000 -0.206148 -0.720741 -0.661842 0.000000
161.42599487 147.50999451 121.25000000 0.178829 0.978012 -0.107298 0.000000
143.79899597 167.91999817 148.75000000 0.722221 0.206571 -0.660095 0.000000
239.35499573 192.96899414 161.25000000 -0.555184 -0.555184 -0.619308 0.000000
123.38899994 249.09700012 55.00000000 0.708486 -0.705724 0.001381 0.000000
219.40899658 238.42799377 110.00000000 -0.978850 -0.194322 0.063969 0.000000
123.38899994 206.88499451 51.25000000 0.863762 0.391224 0.317582 0.000000
230.07800293 147.04600525 135.00000000 -0.001255 0.937612 -0.347682 0.000000
205.95700073 190.18499756 116.25000000 0.537483 0.362111 -0.761569 0.000000
231.93400574 234.71699524 141.25000000 0.038025 -0.615445 -0.787262 0.000000
161.88999939 217.08999634 37.50000000 -0.704162 0.301323 0.642931 0.000000
188.79400635 265.33200073 132.50000000 -0.261836 -0.728382 -0.633168 0.000000
164.20899963 276.92898560 45.00000000 -0.105707 -0.940658 0.322473 0.000000
211.52299500 167.45599365 125.00000000 0.424028 -0.864775 0.269007 0.000000
265.33200073 205.49299622 150.00000000 0.175785 -0.887644 0.425662 0.000000
195.75199890 232.86099243 73.75000000 -0.478716 -0.491968 0.727185 0.000000
117.35800171 212.45100403 67.50000000 0.945039 0.099408 0.311479 0.000000
199.92700195 279.24798584 90.00000000 -0.876321 -0.279999 0.391998 0.000000
122.46099854 249.55999756 61.25000000 0.941947 -0.314876 0.116571 0.000000
123.38899994 189.72200012 72.50000000 0.705752 0.702830 0.089132 0.000000
194.82400513 222.19200134 105.00000000 -0.115609 0.818047 0.563413 0.000000
179.05299377 211.52299500 106.25000000 0.006932 0.661331 0.750063 0.000000
244.45799255 234.71699524 132.50000000 -0.779249 -0.626455 -0.018057 0.000000
260.69299316 160.49800110 106.25000000 -0.696896 -0.635166 0.333016 0.000000
208.74000549 201.31799316 166.25000000 0.941947 -0.314876 -0.116571 0.000000
135.44900513 211.98699951 10.00000000 -0.173114 0.549448 0.817398 0.000000
130.81100464 257.44601440 47.50000000 0.791242 -0.560268 0.245020 0.000000
245.85000610 210.13200378 147.50000000 -0.485748 -0.489063 -0.724477 0.000000
159.57000732 289.91699219 90.00000000 -0.299191 -0.894596 0.331938 0.000000
208.74000549 200.85400391 167.50000000 0.319079 -0.322075 -0.891323 0.000000
142.87100220 217.08999634 153.75000000 0.682178 0.685344 -0.254828 0.000000
198.53500366 247.70500183 81.25000000 -0.692896 -0.383480 0.610605 0.000000
189.25799561 146.11799622 125.00000000 -0.001255 0.937612 -0.347682 0.000000
192.04100037 163.28100586 86.25000000 0.778284 -0.424075 0.463071 0.000000
242.13900757 179.97999573 103.75000000 -0.664461 -0.580775 0.470311 0.000000
278.32000732 141.94299316 131.25000000 0.603114 0.603114 -0.522023 0.000000
170.70300293 199.92700195 75.00000000 -0.803435 0.001369 -0.595391 0.000000
217.08999634 230.54200745 140.00000000 -0.255652 0.958368 0.127171 0.000000
270.89801025 201.31799316 156.25000000 -0.000978 -0.000978 -0.999999 0.000000
132.66600037 214.30700684 8.75000000 0.141742 0.504134 0.851914 0.000000
121.53299713 195.75199890 131.25000000 0.942146 -0.268988 -0.200016 0.000000
183.69099426 256.05499268 143.75000000 -0.683659 0.683659 -0.255381 0.000000
199.46299744 216.62600708 162.50000000 -0.632167 -0.544507 -0.551250 0.000000
242.13900757 179.05299377 103.75000000 -0.667554 -0.453401 0.590593 0.000000
153.07600403 219.87300110 161.25000000 0.237144 -0.629766 -0.739701 0.000000
218.48100281 179.97999573 127.50000000 0.658287 -0.165712 -0.734301 0.000000
164.20899963 250.48800659 33.75000000 -0.749107 0.123610 0.650814 0.000000
177.66099548 234.71699524 55.00000000 -0.830691 0.178756 0.527256 0.000000
113.18399811 202.24600220 91.25000000 -0.000978 -0.000978 0.999999 0.000000
172.55900574 199.46299744 106.25000000 0.048583 -0.962931 0.265336 0.000000
232.86099243 232.86099243 141.25000000 0.035183 -0.623450 -0.781071 0.000000
179.05299377 275.53698730 56.25000000 -0.795152 -0.119494 0.594520 0.000000
133.13000488 255.12699890 35.00000000 0.818412 -0.460654 0.343511 0.000000
245.85000610 141.01600647 91.25000000 -0.032686 0.990728 0.131872 0.000000
123.85199738 178.12500000 97.50000000 0.831146 0.553630 -0.051859 0.000000
180.90800476 247.70500183 61.25000000 -0.920534 -0.111123 0.374524 0.000000
169.77499390 239.35499573 156.25000000 -0.172745 -0.378326 -0.909411 0.000000
203.17399597 262.54901123 88.75000000 -0.828481 0.201440 0.522534 0.000000
202.24600220 213.37899780 113.75000000 -0.206433 0.650343 0.731054 0.000000
123.38899994 210.13200378 47.50000000 0.894596 0.299191 0.331938 0.000000
177.66099548 256.98199463 57.50000000 -0.855379 0.185952 0.483475 0.000000
161.42599487 246.77699280 31.25000000 -0.937612 -0.001255 0.347682 0.000000
192.96899414 193.89599609 98.75000000 -0.462168 -0.699092 0.545592 0.000000
238.42799377 200.39100647 161.25000000 -0.000978 -0.000978 -0.999999 0.000000
270.89801025 191.11300659 141.25000000 -0.184943 -0.765755 0.615967 0.000000
229.14999390 141.94299316 118.75000000 0.162855 0.820252 -0.548329 0.000000
125.24400330 168.38400269 122.50000000 0.763062 0.635638 0.117052 0.000000
118.28600311 187.40199280 117.50000000 0.626041 0.626041 0.464915 0.000000
128.95500183 227.29499817 143.75000000 0.068364 0.489710 -0.869201 0.000000
275.53698730 192.04100037 143.75000000 -0.743267 -0.324071 0.585262 0.000000
116.89399719 223.58399963 131.25000000 0.720794 0.123863 -0.681993 0.000000
129.41900635 179.05299377 72.50000000 0.701844 0.643760 0.304939 0.000000
156.32299805 287.59799194 77.50000000 0.214738 -0.969497 0.118169 0.000000
198.53500366 192.96899414 101.25000000 0.233827 -0.883181 0.406591 0.000000
217.08999634 197.60699463 113.75000000 0.001255 -0.937612 0.347682 0.000000
224.97500610 237.50000000 130.00000000 0.555184 -0.555184 -0.619308 0.000000
205.02900696 167.91999817 131.25000000 0.446106 -0.257310 0.857194 0.000000
233.78900146 140.55200195 95.00000000 0.088658 0.987064 0.133579 0.000000
253.73500061 168.84800720 107.50000000 -0.783741 -0.386214 0.486404 0.000000
218.94500732 186.47500610 163.75000000 -0.390707 0.585236 -0.710526 0.000000
231.93400574 189.25799561 163.75000000 -0.000978 -0.000978 -0.999999 0.000000
160.49800110 149.82899475 92.50000000 0.284059 0.944598 0.164455 0.000000
236.57200623 140.55200195 102.50000000 0.187140 0.980995 -0.051255 0.000000
218.01699829 174.41400146 161.25000000 -0.000978 -0.000978 -0.999999 0.000000
205.02900696 263.47601318 91.25000000 -0.829927 0.198034 0.521539 0.000000
263.01300049 157.71499634 105.00000000 -0.758315 -0.650591 0.041105 0.000000
132.66600037 174.87800598 147.50000000 0.426586 0.705444 -0.566015 0.000000
138.23199463 219.87300110 8.75000000 -0.572939 0.462694 0.676502 0.000000
142.87100220 171.63099670 148.75000000 0.594441 0.288455 -0.750622 0.000000
179.97999573 239.35499573 61.25000000 0.000978 0.000978 0.999999 0.000000
228.22300720 201.78199768 120.00000000 -0.935602 0.310946 0.167220 0.000000
170.70300293 179.97999573 91.25000000 -0.818426 -0.029180 0.573871 0.000000
168.84800720 278.78399658 120.00000000 0.084871 -0.818500 -0.568203 0.000000
130.34700012 220.80099487 10.00000000 0.874306 0.314750 0.369489 0.000000
139.16000366 220.80099487 8.75000000 -0.566650 0.469701 0.676971 0.000000
176.26899719 201.78199768 75.00000000 -0.708486 0.705724 -0.001381 0.000000
243.06599426 145.19000244 72.50000000 0.001255 0.937612 0.347682 0.000000
145.65400696 192.04100037 163.75000000 0.311925 0.242928 -0.918525 0.000000
275.53698730 163.28100586 136.25000000 -0.513499 -0.389607 0.764543 0.000000
111.79199982 231.93400574 95.00000000 0.957481 -0.265169 0.113644 0.000000
166.99200439 262.54901123 36.25000000 -0.802126 -0.001366 0.597153 0.000000
164.20899963 274.60900879 126.25000000 -0.001255 -0.937612 -0.347682 0.000000
144.72700500 173.48599243 151.25000000 0.751188 0.277924 -0.598727 0.000000
153.07600403 207.81199646 31.25000000 -0.778362 0.204994 0.593405 0.000000
231.00599670 147.04600525 62.50000000 -0.293622 0.931442 0.214948 0.000000
179.97999573 210.59599304 106.25000000 0.000978 0.000978 0.999999 0.000000
249.55999756 145.65400696 138.75000000 0.121456 0.878770 -0.461533 0.000000
132.66600037 175.34199524 148.75000000 0.482510 0.647269 -0.590108 0.000000
233.78900146 204.56500244 162.50000000 -0.124715 -0.190222 -0.973787 0.000000
281.10299683 147.04600525 140.00000000 -0.474747 0.832753 -0.284848 0.000000
141.47900391 156.78700256 97.50000000 -0.000978 -0.000978 0.999999 0.000000
137.30499268 162.35299683 136.25000000 0.685344 0.682178 -0.254828 0.000000
120.60500336 186.01100159 85.00000000 0.882563 0.440555 0.164299 0.000000
179.97999573 175.34199524 158.75000000 0.098304 0.667587 -0.738014 0.000000
151.22099304 282.03100586 106.25000000 0.438044 -0.840234 -0.319569 0.000000
181.37199402 191.11300659 92.50000000 -0.199635 -0.490832 0.848074 0.000000
186.47500610 257.91000366 141.25000000 -0.220462 -0.705167 -0.673896 0.000000
266.72399902 177.19700623 132.50000000 -0.821608 -0.026325 0.569445 0.000000
155.85899353 168.84800720 158.75000000 0.247944 0.494348 -0.833153 0.000000
283.88699341 166.99200439 148.75000000 -0.737112 0.338586 -0.584830 0.000000
118.75000000 249.55999756 111.25000000 0.790226 -0.558635 -0.251933 0.000000
191.11300659 166.99200439 153.75000000 0.101606 0.740691 -0.664118 0.000000
194.82400513 277.39199829 116.25000000 0.427607 -0.761829 -0.486588 0.000000
222.65600586 231.93400574 143.75000000 -0.213722 0.838215 -0.501716 0.000000
194.82400513 229.14999390 158.75000000 0.000978 0.000978 0.999999 0.000000
124.77999878 213.37899780 37.50000000 0.967251 0.195522 0.161856 0.000000
266.72399902 151.22099304 87.50000000 -0.894842 -0.215289 0.391036 0.000000
159.57000732 168.84800720 81.25000000 -0.512826 -0.469675 0.718620 0.000000
241.21099854 139.62399292 110.00000000 0.000978 0.999999 0.000978 0.000000
175.34199524 229.14999390 161.25000000 -0.189695 -0.439682 -0.877893 0.000000
272.75399780 157.71499634 131.25000000 -0.820113 -0.205409 0.534062 0.000000
180.90800476 218.94500732 58.75000000 -0.687818 0.344726 0.638804 0.000000
134.05799866 270.89801025 100.00000000 0.652178 -0.745133 -0.139431 0.000000
126.17199707 175.34199524 88.75000000 0.801946 0.577101 0.154393 0.000000
243.99400330 195.75199890 161.25000000 0.000978 0.000978 -0.999999 0.000000
108.54499817 217.08999634 103.75000000 0.953974 0.070617 0.291456 0.000000
130.81100464 176.26899719 76.25000000 0.689425 0.653904 0.311614 0.000000
148.43699646 185.54699707 161.25000000 -0.044540 0.438653 -0.897552 0.000000
198.53500366 186.01100159 95.00000000 0.683659 -0.683659 0.255381 0.000000
183.69099426 205.02900696 168.75000000 -0.090076 -0.358961 -0.928996 0.000000
154.93200684 181.83599854 68.75000000 -0.910869 0.074661 0.405886 0.000000
131.73800659 228.22300720 8.75000000 0.714473 -0.484643 0.504628 0.000000
195.28799438 239.35499573 152.50000000 -0.043313 -0.376693 -0.925325 0.000000
194.82400513 284.35000610 92.50000000 -0.683659 -0.683659 0.255381 0.000000
140.08799744 193.89599609 163.75000000 0.209878 0.651398 -0.729131 0.000000
128.02699280 202.71000671 35.00000000 0.970487 0.193075 0.144486 0.000000
168.38400269 218.01699829 45.00000000 -0.712821 0.092213 0.695257 0.000000
119.67800140 237.50000000 131.25000000 0.765488 -0.266737 -0.585559 0.000000
195.75199890 194.82400513 106.25000000 -0.207024 -0.904826 0.372064 0.000000
270.89801025 143.33500671 137.50000000 -0.024769 0.921671 -0.387180 0.000000
148.90100098 283.88699341 75.00000000 0.524362 -0.788934 0.320355 0.000000
188.33000183 166.06399536 151.25000000 0.009448 0.854343 -0.519624 0.000000
222.65600586 161.88999939 115.00000000 -0.286742 -0.777847 -0.559226 0.000000
160.49800110 204.10099792 43.75000000 -0.710223 0.315475 0.629332 0.000000
189.25799561 213.37899780 166.25000000 -0.000978 -0.000978 -0.999999 0.000000
182.76400757 179.05299377 161.25000000 0.026248 0.556739 -0.830273 0.000000
215.23399353 187.40199280 123.75000000 0.804794 0.147819 -0.574853 0.000000
146.58200073 152.61199951 105.00000000 0.395245 0.913058 -0.100533 0.000000
114.57499695 228.22300720 127.50000000 0.859981 -0.231243 -0.454928 0.000000
179.05299377 206.88499451 96.25000000 -0.607267 0.376868 -0.699427 0.000000
213.37899780 168.84800720 123.75000000 0.683659 -0.683659 0.255381 0.000000
176.26899719 231.00599670 158.75000000 -0.040708 -0.596579 -0.801521 0.000000
117.82199860 231.93400574 63.75000000 0.980433 -0.103782 0.167272 0.000000
253.27099609 192.50500488 122.50000000 -0.634460 -0.230286 0.737854 0.000000
121.53299713 252.80799866 112.50000000 0.797305 -0.571682 -0.193609 0.000000
180.90800476 218.94500732 166.25000000 -0.000978 -0.000978 -0.999999 0.000000
277.39199829 164.67300415 150.00000000 -0.563565 0.683970 -0.463227 0.000000
183.69099426 267.18701172 131.25000000 -0.158280 -0.785370 -0.598449 0.000000
162.35299683 281.56698608 57.50000000 0.177647 -0.947901 0.264436 0.000000
151.22099304 284.81399536 73.75000000 0.435399 -0.791487 0.428924 0.000000
280.17599487 197.60699463 146.25000000 -0.745076 0.373353 0.552693 0.000000
197.14300537 173.48599243 117.50000000 -0.809583 -0.192902 0.554405 0.000000
274.60900879 195.75199890 156.25000000 -0.000978 -0.000978 -0.999999 0.000000
184.61900330 289.91699219 92.50000000 -0.369381 -0.926786 0.068009 0.000000
123.85199738 254.19900513 62.50000000 0.783536 -0.369958 0.499201 0.000000
141.01600647 231.93400574 8.75000000 -0.250167 -0.146924 0.956990 0.000000
217.08999634 225.43899536 123.75000000 0.908401 0.367103 -0.200107 0.000000
278.32000732 155.39500427 135.00000000 -0.162774 -0.416299 0.894539 0.000000
186.47500610 227.29499817 161.25000000 0.000978 0.000978 0.999999 0.000000
217.08999634 187.40199280 131.25000000 0.824530 0.564152 -0.043396 0.000000
135.44900513 232.86099243 8.75000000 0.409482 -0.661471 0.628315 0.000000
153.07600403 202.24600220 168.75000000 -0.159602 -0.293286 -0.942608 0.000000
263.94000244 189.25799561 132.50000000 -0.894688 -0.446689 -0.001310 0.000000
141.01600647 232.86099243 8.75000000 0.000978 0.000978 0.999999 0.000000
143.79899597 250.48800659 143.75000000 0.195935 -0.661858 -0.723570 0.000000
169.77499390 288.98901367 102.50000000 -0.309512 -0.931337 -0.191869 0.000000
151.22099304 220.80099487 156.25000000 0.802864 -0.040776 -0.594766 0.000000
199.92700195 273.68200684 117.50000000 -0.427733 -0.647425 -0.630782 0.000000
213.37899780 232.86099243 86.25000000 -0.894596 -0.299191 0.331938 0.000000
252.34399414 150.29299927 146.25000000 0.049024 0.833413 -0.550473 0.000000
207.81199646 246.77699280 88.75000000 -0.744015 -0.447069 0.496560 0.000000
152.14799500 286.20599365 82.50000000 0.445057 -0.891500 0.084575 0.000000
140.08799744 233.78900146 8.75000000 0.000978 0.000978 0.999999 0.000000
201.31799316 162.35299683 151.25000000 0.272840 0.500467 -0.821639 0.000000
203.17399597 264.40399170 126.25000000 -0.624226 -0.614131 -0.482892 0.000000
129.88299561 263.47601318 63.75000000 0.764711 -0.588118 0.263313 0.000000
159.57000732 160.49800110 146.25000000 0.001366 0.802126 -0.597153 0.000000
283.42300415 179.97999573 145.00000000 0.035137 -0.628244 0.777223 0.000000
268.57901001 150.29299927 95.00000000 -0.676080 -0.721454 0.149736 0.000000
181.83599854 220.80099487 58.75000000 -0.765729 0.117007 0.632430 0.000000
211.05900574 259.76599121 120.00000000 -0.761420 -0.341103 -0.551261 0.000000
141.94299316 176.73300171 55.00000000 0.558989 0.761965 0.327017 0.000000
196.67999268 156.78700256 146.25000000 0.009526 0.839678 -0.543001 0.000000
209.20399475 143.79899597 105.00000000 0.196078 0.977952 -0.071855 0.000000
148.43699646 245.85000610 148.75000000 0.458910 -0.184449 -0.869126 0.000000
271.82598877 140.08799744 113.75000000 -0.593288 0.780320 -0.197763 0.000000
114.57499695 194.82400513 97.50000000 0.863546 0.489965 0.119258 0.000000
276.00100708 141.01600647 127.50000000 -0.241851 0.966139 -0.089903 0.000000
221.26499939 189.25799561 100.00000000 -0.317490 -0.789737 0.524896 0.000000
153.53999329 176.26899719 72.50000000 -0.849163 0.423805 0.315137 0.000000
276.46499634 141.01600647 126.25000000 -0.799563 0.547070 0.247818 0.000000
158.64300537 279.24798584 116.25000000 0.298191 -0.803064 -0.515917 0.000000
204.10099792 187.40199280 126.25000000 -0.650660 0.644037 0.402316 0.000000
132.66600037 189.25799561 158.75000000 0.487638 0.393675 -0.779249 0.000000
229.14999390 141.47900391 112.50000000 0.196078 0.977952 -0.071855 0.000000
116.89399719 242.60200500 125.00000000 -0.001263 0.359825 -0.933019 0.000000
170.70300293 147.04600525 125.00000000 0.348184 0.907609 -0.234551 0.000000
217.08999634 147.97399902 60.00000000 0.342158 0.515646 0.785517 0.000000
183.69099426 174.41400146 93.75000000 -0.716703 0.378852 0.585499 0.000000
223.58399963 158.17900085 57.50000000 0.012949 -0.975911 0.217785 0.000000
182.76400757 231.93400574 61.25000000 -0.614821 -0.161636 0.771925 0.000000
189.25799561 286.67001343 86.25000000 -0.465847 -0.840381 0.277032 0.000000
213.37899780 225.43899536 151.25000000 -0.954408 -0.239606 -0.178031 0.000000
147.50999451 283.42300415 80.00000000 0.400821 -0.914831 0.049270 0.000000
177.19700623 243.06599426 153.75000000 0.001173 -0.224003 -0.974588 0.000000
218.94500732 158.17900085 115.00000000 0.802126 -0.001366 -0.597153 0.000000
183.69099426 284.35000610 72.50000000 -0.361743 -0.840934 0.402458 0.000000
209.66799927 204.10099792 166.25000000 0.911700 -0.301955 -0.278615 0.000000
169.77499390 219.87300110 46.25000000 -0.711939 0.156353 0.684615 0.000000
193.89599609 215.23399353 111.25000000 -0.193661 0.041584 0.980187 0.000000
211.52299500 182.76400757 93.75000000 -0.001366 -0.802126 0.597153 0.000000
212.45100403 192.04100037 121.25000000 0.878131 -0.006663 -0.478375 0.000000
172.55900574 215.23399353 51.25000000 -0.674536 0.269496 0.687294 0.000000
125.24400330 258.83801270 71.25000000 0.846815 -0.506907 0.161087 0.000000
236.57200623 166.99200439 158.75000000 0.001379 0.668888 -0.743362 0.000000
179.97999573 224.51199341 161.25000000 -0.000978 -0.000978 -0.999999 0.000000
181.83599854 225.43899536 58.75000000 -0.756880 -0.379254 0.532258 0.000000
269.97100830 205.95700073 156.25000000 0.469534 -0.436814 -0.767288 0.000000
179.05299377 167.45599365 152.50000000 0.026640 0.752917 -0.657576 0.000000
160.49800110 288.06100464 75.00000000 0.035343 -0.968888 0.244964 0.000000
115.96700287 202.71000671 125.00000000 0.604045 0.553285 -0.573589 0.000000
229.14999390 207.81199646 161.25000000 -0.000978 -0.000978 -0.999999 0.000000
129.41900635 266.26000977 97.50000000 0.849163 -0.423805 0.315137 0.000000
189.72200012 276.46499634 72.50000000 -0.814826 -0.090857 0.572541 0.000000
131.73800659 173.02200317 145.00000000 0.382858 0.708205 -0.593183 0.000000
204.10099792 181.83599854 163.75000000 -0.102454 0.535357 -0.838389 0.000000
116.89399719 191.57699585 105.00000000 0.838844 0.544370 0.001351 0.000000
121.53299713 230.07800293 136.25000000 0.937612 -0.001255 -0.347682 0.000000
141.47900391 239.35499573 10.00000000 0.433423 0.519119 0.736655 0.000000
237.50000000 168.38400269 160.00000000 -0.001379 0.668888 -0.743362 0.000000
128.95500183 245.85000610 33.75000000 0.857647 -0.344604 0.381692 0.000000
110.40000153 216.16200256 93.75000000 0.937307 -0.001258 0.348502 0.000000
282.95901489 156.78700256 138.75000000 -0.930443 -0.171068 0.324056 0.000000
251.41600037 159.10600281 82.50000000 -0.552091 -0.827412 0.102883 0.000000
190.64900208 212.45100403 110.00000000 -0.683659 0.683659 0.255381 0.000000
123.85199738 245.85000610 50.00000000 0.903997 -0.302316 0.302316 0.000000
208.74000549 192.50500488 100.00000000 -0.154971 -0.786892 0.597315 0.000000
166.06399536 166.06399536 83.75000000 -0.545617 -0.354570 0.759330 0.000000
202.24600220 184.61900330 128.75000000 -0.494119 0.688417 0.530969 0.000000
169.77499390 163.28100586 148.75000000 0.486261 0.842954 -0.230174 0.000000
171.16700745 247.70500183 47.50000000 -0.937612 -0.001255 0.347682 0.000000
222.65600586 232.86099243 146.25000000 -0.293999 0.838443 -0.458888 0.000000
175.80599976 201.31799316 72.50000000 -0.512760 0.855537 0.071646 0.000000
192.96899414 200.39100647 166.25000000 -0.000978 -0.000978 -0.999999 0.000000
161.42599487 289.91699219 95.00000000 0.000978 -0.999999 0.000978 0.000000
165.13699341 254.19900513 146.25000000 0.020786 -0.588951 -0.807902 0.000000
247.24099731 212.45100403 117.50000000 -0.689288 0.283072 0.666898 0.000000
133.13000488 254.19900513 35.00000000 0.818412 -0.460654 0.343511 0.000000
148.43699646 154.00399780 93.75000000 0.453439 0.836758 0.306967 0.000000
218.01699829 213.37899780 153.75000000 -0.800220 -0.400915 -0.445998 0.000000
143.79899597 276.92898560 107.50000000 0.537392 -0.816040 -0.212813 0.000000
119.67800140 199.46299744 71.25000000 0.916587 0.319001 0.241055 0.000000
204.10099792 218.94500732 153.75000000 -0.342384 -0.194633 -0.919180 0.000000
113.64700317 238.42799377 105.00000000 0.708486 -0.705724 -0.001381 0.000000
199.46299744 146.11799622 92.50000000 0.562304 0.811217 -0.160444 0.000000
224.51199341 142.87100220 118.75000000 -0.001255 0.937612 -0.347682 0.000000
136.37699890 208.27600098 12.50000000 -0.049658 0.414708 0.908599 0.000000
177.19700623 255.12699890 56.25000000 -0.873043 0.168174 0.457726 0.000000
142.87100220 223.58399963 151.25000000 -0.000978 -0.000978 -0.999999 0.000000
112.72000122 237.50000000 102.50000000 0.928387 -0.332660 -0.165634 0.000000
237.96400452 227.29499817 120.00000000 -0.555184 -0.555184 -0.619308 0.000000
170.70300293 277.39199829 121.25000000 -0.081308 -0.837326 -0.540624 0.000000
214.77000427 229.14999390 142.50000000 -0.844940 0.534721 -0.012246 0.000000
164.20899963 191.11300659 171.25000000 0.683659 0.683659 -0.255381 0.000000
239.35499573 220.80099487 153.75000000 -0.519356 -0.546248 -0.657178 0.000000
240.28300476 139.62399292 100.00000000 0.111763 0.992317 0.053059 0.000000
201.31799316 217.08999634 161.25000000 -0.723183 -0.230603 -0.651021 0.000000
220.80099487 178.12500000 163.75000000 -0.162015 0.527665 -0.833859 0.000000
133.59399414 258.37399292 40.00000000 0.718585 -0.621697 0.311656 0.000000
279.24798584 195.75199890 146.25000000 -0.745076 0.373353 0.552693 0.000000
210.59599304 148.90100098 130.00000000 0.096126 0.927409 -0.361486 0.000000
225.43899536 163.74499512 77.50000000 -0.001255 -0.937612 0.347682 0.000000
159.57000732 288.06100464 75.00000000 0.124331 -0.967730 0.219181 0.000000
133.59399414 210.59599304 11.25000000 0.230183 0.551513 0.801779 0.000000
199.46299744 167.91999817 156.25000000 0.362171 0.494163 -0.790339 0.000000
158.64300537 227.29499817 158.75000000 0.709541 0.189313 -0.678758 0.000000
228.22300720 196.67999268 163.75000000 -0.478685 -0.059318 -0.875980 0.000000
222.65600586 217.08999634 108.75000000 -0.001255 0.937612 0.347682 0.000000
183.69099426 205.49299622 77.50000000 -0.316468 0.946821 -0.058127 0.000000
255.12699890 205.95700073 148.75000000 -0.001366 -0.802126 0.597153 0.000000
203.17399597 275.53698730 93.75000000 -0.842123 -0.481431 0.243008 0.000000
127.09999847 259.30200195 65.00000000 0.844473 -0.493994 0.206964 0.000000
134.52099609 211.52299500 11.25000000 0.001340 0.507781 0.861485 0.000000
176.26899719 244.45799255 152.50000000 0.014192 -0.385767 -0.922487 0.000000
179.97999573 149.82899475 135.00000000 -0.001255 0.937612 -0.347682 0.000000
266.72399902 161.42599487 120.00000000 -0.849163 -0.423805 0.315137 0.000000
253.73500061 154.93200684 67.50000000 -0.500206 -0.833677 0.234042 0.000000
162.35299683 152.14799500 136.25000000 0.199413 0.817441 -0.540394 0.000000
130.81100464 212.45100403 11.25000000 0.188508 0.608436 0.770890 0.000000
164.20899963 177.19700623 166.25000000 0.707106 0.707106 0.001384 0.000000
239.35499573 204.10099792 123.75000000 0.779222 -0.324809 0.536015 0.000000
202.24600220 145.65400696 118.75000000 -0.894688 0.446689 -0.001310 0.000000
138.23199463 212.45100403 11.25000000 -0.239606 0.954408 0.178031 0.000000
141.94299316 193.89599609 163.75000000 0.212135 0.431687 -0.876724 0.000000
218.94500732 143.79899597 118.75000000 0.154298 0.958757 -0.238700 0.000000
213.37899780 176.26899719 88.75000000 -0.288837 -0.535058 0.793906 0.000000
268.11499023 170.70300293 156.25000000 -0.505966 0.266216 -0.820443 0.000000
206.42100525 229.14999390 155.00000000 -0.322231 -0.278089 -0.904894 0.000000
282.03100586 164.20899963 148.75000000 -0.274332 0.436786 -0.856714 0.000000
221.72799683 155.85899353 51.25000000 0.055149 -0.815920 0.575528 0.000000
250.48800659 159.57000732 81.25000000 -0.227521 -0.971006 0.073354 0.000000
214.30700684 215.23399353 113.75000000 0.178274 0.766424 0.617101 0.000000
200.39100647 231.00599670 156.25000000 -0.000978 -0.000978 -0.999999 0.000000
144.72700500 275.53698730 113.75000000 0.584183 -0.733890 -0.346605 0.000000
138.23199463 259.76599121 33.75000000 0.747822 -0.562894 0.352012 0.000000
140.08799744 268.57901001 55.00000000 0.683659 -0.683659 0.255381 0.000000
127.56300354 264.40399170 100.00000000 0.708486 -0.705724 0.001381 0.000000
188.33000183 157.71499634 143.75000000 0.001255 0.937612 -0.347682 0.000000
185.54699707 227.29499817 61.25000000 -0.762074 -0.058621 0.644831 0.000000
165.13699341 188.33000183 86.25000000 -0.744178 0.530617 0.405766 0.000000
118.75000000 250.02400208 80.00000000 0.899024 -0.366378 0.239838 0.000000
163.74499512 194.82400513 75.00000000 -0.648216 0.648216 0.399540 0.000000
149.36500549 151.22099304 103.75000000 0.446689 0.894688 0.001310 0.000000
150.75700378 285.74200439 92.50000000 0.407086 -0.881274 -0.240076 0.000000
189.25799561 158.64300537 146.25000000 0.346074 0.826470 -0.444050 0.000000
126.17199707 208.74000549 36.25000000 0.942538 0.314179 -0.113639 0.000000
220.80099487 227.29499817 103.75000000 -0.837225 -0.546843 0.004071 0.000000
170.23899841 264.40399170 40.00000000 -0.685344 0.682178 0.254828 0.000000
195.28799438 143.79899597 107.50000000 -0.460108 0.882225 0.099901 0.000000
188.33000183 209.20399475 77.50000000 -0.674019 0.730311 0.111102 0.000000
173.94999695 227.29499817 50.00000000 -0.854207 0.212422 0.474560 0.000000
269.97100830 144.72700500 91.25000000 -0.493585 0.789415 0.364964 0.000000
145.19000244 265.33200073 32.50000000 0.389624 -0.715133 0.580326 0.000000
211.52299500 263.01300049 102.50000000 -0.784819 -0.618556 -0.038043 0.000000
153.07600403 155.39500427 85.00000000 0.683659 0.683659 0.255381 0.000000
275.53698730 192.96899414 143.75000000 -0.805090 -0.274641 0.525741 0.000000
249.55999756 170.70300293 101.25000000 -0.566074 -0.726871 0.388868 0.000000
233.78900146 190.18499756 163.75000000 -0.000978 -0.000978 -0.999999 0.000000
117.82199860 212.45100403 133.75000000 -0.000978 -0.000978 -0.999999 0.000000
124.77999878 210.59599304 42.50000000 0.626041 0.626041 0.464915 0.000000
110.86399841 232.86099243 115.00000000 0.940911 -0.338120 0.018996 0.000000
242.13900757 234.71699524 131.25000000 -0.821199 -0.568523 -0.049132 0.000000
135.44900513 174.41400146 68.75000000 0.661414 0.618097 0.424838 0.000000
201.31799316 183.69099426 116.25000000 -0.443045 0.382266 -0.810916 0.000000
239.35499573 208.27600098 122.50000000 0.874314 -0.056630 0.482047 0.000000
192.04100037 229.14999390 68.75000000 -0.805932 -0.179936 0.564001 0.000000
137.30499268 192.04100037 161.25000000 0.675850 -0.107959 -0.729090 0.000000
243.06599426 180.90800476 141.25000000 0.446689 -0.894688 0.001310 0.000000
156.78700256 276.46499634 46.25000000 0.216098 -0.927948 0.303667 0.000000
117.82199860 203.17399597 73.75000000 0.921535 0.185440 0.341152 0.000000
126.63600159 189.25799561 152.50000000 0.793139 0.231267 -0.563424 0.000000
179.97999573 200.85400391 102.50000000 -0.170431 -0.919763 0.353538 0.000000
198.99899292 145.65400696 112.50000000 -0.174761 0.873804 0.453790 0.000000
126.17199707 205.95700073 138.75000000 0.335192 -0.341259 -0.878173 0.000000
181.83599854 238.42799377 61.25000000 0.000978 0.000978 0.999999 0.000000
141.94299316 219.87300110 11.25000000 -0.409782 0.738924 0.534856 0.000000
216.16200256 193.43299866 130.00000000 -0.814577 0.543559 0.202502 0.000000
157.25100708 212.45100403 35.00000000 -0.665629 0.416641 0.619151 0.000000
261.62100220 154.00399780 81.25000000 -0.634410 -0.699311 0.329374 0.000000
210.13200378 213.37899780 115.00000000 0.373580 0.689560 0.620439 0.000000
141.01600647 274.14498901 110.00000000 0.597877 -0.742137 -0.302946 0.000000
180.44400024 226.36700439 57.50000000 -0.696432 -0.347400 0.627930 0.000000
121.53299713 240.74699402 52.50000000 0.961555 -0.204446 0.183342 0.000000
147.50999451 214.30700684 163.75000000 0.779429 -0.497474 -0.380802 0.000000
124.31600189 222.65600586 141.25000000 0.700104 -0.058941 -0.711604 0.000000
128.95500183 193.43299866 50.00000000 0.822744 0.502356 0.265953 0.000000
153.53999329 220.80099487 160.00000000 0.607777 -0.671053 -0.424612 0.000000
161.42599487 158.64300537 143.75000000 0.229758 0.754921 -0.614252 0.000000
250.48800659 220.80099487 123.75000000 -0.844214 -0.155241 0.513034 0.000000
125.24400330 205.95700073 43.75000000 0.988523 0.141877 0.051906 0.000000
245.85000610 161.42599487 156.25000000 0.015332 0.684371 -0.728973 0.000000
208.27600098 252.34399414 92.50000000 -0.707482 -0.481088 0.517710 0.000000
245.85000610 191.11300659 161.25000000 -0.000978 -0.000978 -0.999999 0.000000
158.64300537 287.13400269 72.50000000 -0.001255 -0.937612 0.347682 0.000000
211.52299500 166.06399536 156.25000000 0.368328 0.490567 -0.789733 0.000000
127.56300354 171.63099670 97.50000000 0.000978 0.000978 0.999999 0.000000
109.00900269 217.08999634 102.50000000 0.953974 0.070617 0.291456 0.000000
118.75000000 224.51199341 133.75000000 0.802126 -0.001366 -0.597153 0.000000
178.12500000 147.04600525 127.50000000 0.001255 0.937612 -0.347682 0.000000
184.61900330 218.94500732 96.25000000 -0.462090 0.231802 -0.856003 0.000000
119.21399689 250.48800659 110.00000000 0.768989 -0.594290 -0.235532 0.000000
180.90800476 212.45100403 166.25000000 -0.080461 -0.054008 -0.995293 0.000000
279.24798584 186.47500610 153.75000000 -0.385919 -0.579700 -0.717645 0.000000
126.17199707 262.54901123 106.25000000 0.754189 -0.643674 -0.129930 0.000000
243.99400330 184.61900330 163.75000000 0.000978 0.000978 -0.999999 0.000000
145.19000244 153.07600403 105.00000000 0.000978 0.000978 0.999999 0.000000
219.87300110 215.23399353 148.75000000 -0.487967 -0.805860 -0.335378 0.000000
124.77999878 216.16200256 32.50000000 0.402107 0.200323 0.893409 0.000000
171.63099670 211.52299500 166.25000000 -0.000978 -0.000978 -0.999999 0.000000
154.93200684 151.68499756 95.00000000 0.497943 0.830933 0.248201 0.000000
161.42599487 194.82400513 168.75000000 0.802126 -0.001366 -0.597153 0.000000
208.74000549 168.84800720 156.25000000 0.539519 0.482728 -0.689850 0.000000
202.24600220 201.31799316 118.75000000 -0.705327 0.439792 0.555964 0.000000
147.50999451 156.78700256 88.75000000 0.424585 0.792667 0.437500 0.000000
186.47500610 227.29499817 63.75000000 -0.873977 -0.085574 0.478373 0.000000
227.29499817 235.64399719 136.25000000 0.415143 -0.862456 -0.289528 0.000000
127.56300354 167.91999817 112.50000000 0.815229 0.565520 0.124855 0.000000
271.82598877 195.75199890 156.25000000 -0.232630 -0.436744 -0.868986 0.000000
161.42599487 243.06599426 31.25000000 -0.960616 0.115378 0.252794 0.000000
144.72700500 269.97100830 43.75000000 0.556344 -0.556344 0.617221 0.000000
283.88699341 163.28100586 146.25000000 -0.671554 0.463892 -0.577771 0.000000
180.90800476 235.64399719 156.25000000 0.000978 0.000978 -0.999999 0.000000
158.64300537 272.29000854 37.50000000 -0.001255 -0.937612 0.347682 0.000000
206.88499451 163.28100586 76.25000000 0.207629 -0.885000 0.416731 0.000000
226.36700439 201.78199768 122.50000000 -0.270423 0.934571 -0.231191 0.000000
126.63600159 256.98199463 60.00000000 0.862318 -0.461796 0.207733 0.000000
134.05799866 271.82598877 95.00000000 0.683659 -0.683659 -0.255381 0.000000
213.37899780 166.99200439 111.25000000 -0.378491 0.090892 -0.921131 0.000000
128.49099731 200.39100647 35.00000000 0.903857 0.375761 0.204565 0.000000
282.03100586 159.57000732 146.25000000 -0.611999 0.384355 -0.691179 0.000000
192.50500488 169.77499390 90.00000000 0.458337 -0.435501 0.774768 0.000000
167.91999817 238.42799377 43.75000000 -0.767229 -0.040975 0.640064 0.000000
283.88699341 181.83599854 146.25000000 -0.632727 -0.315554 0.707165 0.000000
227.29499817 207.81199646 116.25000000 -0.066438 0.549881 0.832596 0.000000
255.12699890 188.33000183 161.25000000 -0.000978 -0.000978 -0.999999 0.000000
245.85000610 143.33500671 77.50000000 0.268988 0.942146 0.200016 0.000000
253.27099609 141.47900391 92.50000000 0.082711 0.989038 0.122319 0.000000
176.73300171 185.54699707 167.50000000 -0.536237 -0.048749 -0.842658 0.000000
155.85899353 207.81199646 36.25000000 -0.423189 0.350822 0.835365 0.000000
281.10299683 170.70300293 151.25000000 -0.455740 0.279624 -0.845051 0.000000
258.83801270 155.85899353 151.25000000 -0.004025 0.505784 -0.862651 0.000000
133.59399414 176.26899719 68.75000000 0.666909 0.610363 0.427421 0.000000
245.85000610 227.29499817 123.75000000 -0.676396 -0.646916 0.352119 0.000000
170.23899841 217.08999634 47.50000000 -0.764788 0.152354 0.626010 0.000000
126.17199707 185.54699707 71.25000000 0.849163 0.423805 0.315137 0.000000
182.76400757 167.91999817 153.75000000 0.231203 0.460894 -0.856809 0.000000
174.41400146 253.27099609 51.25000000 -0.764788 0.152354 0.626010 0.000000
132.66600037 232.86099243 11.25000000 0.487748 -0.682177 0.544736 0.000000
212.45100403 196.67999268 108.75000000 -0.019576 -0.984572 0.173883 0.000000
116.89399719 191.57699585 97.50000000 0.833916 0.551876 -0.004068 0.000000
134.52099609 256.98199463 131.25000000 0.547362 -0.641677 -0.537257 0.000000
218.94500732 150.29299927 136.25000000 0.468937 0.783724 -0.407277 0.000000
213.37899780 196.67999268 111.25000000 -0.122470 -0.940731 0.316269 0.000000
235.18099976 166.06399536 85.00000000 -0.249701 -0.811139 0.528869 0.000000
166.99200439 166.06399536 151.25000000 0.423805 0.849163 -0.315137 0.000000
206.88499451 218.48100281 110.00000000 -0.006634 0.884928 0.465682 0.000000
191.11300659 215.23399353 166.25000000 -0.000978 -0.000978 -0.999999 0.000000
161.42599487 241.21099854 33.75000000 -0.872192 0.180910 0.454481 0.000000
237.50000000 222.19200134 107.50000000 -0.024137 -0.336641 0.941324 0.000000
223.58399963 189.25799561 101.25000000 -0.301046 -0.772525 0.559085 0.000000
242.13900757 139.62399292 105.00000000 -0.000978 0.999999 -0.000978 0.000000
236.57200623 144.72700500 73.75000000 -0.001255 0.937612 0.347682 0.000000
206.88499451 254.19900513 133.75000000 -0.681427 -0.503954 -0.530743 0.000000
213.37899780 243.52999878 95.00000000 -0.857801 0.122956 0.499058 0.000000
200.39100647 193.89599609 101.25000000 0.399884 -0.801374 0.444851 0.000000
175.34199524 173.48599243 88.75000000 0.000978 0.000978 0.999999 0.000000
113.64700317 206.88499451 85.00000000 0.883280 0.393067 0.255568 0.000000
249.55999756 222.65600586 141.25000000 -0.850780 -0.001344 -0.525521 0.000000
143.79899597 235.64399719 11.25000000 -0.629504 -0.101249 0.770372 0.000000
280.17599487 160.49800110 136.25000000 -0.294023 0.132914 0.946512 0.000000
263.47601318 206.88499451 153.75000000 -0.359246 -0.932485 0.037611 0.000000
237.03599548 226.36700439 150.00000000 -0.427921 -0.427921 -0.796095 0.000000
155.85899353 152.14799500 136.25000000 -0.106168 0.821711 -0.559927 0.000000
192.04100037 174.87800598 92.50000000 0.404124 -0.181059 0.896605 0.000000
120.14199829 255.12699890 87.50000000 0.855024 -0.507266 0.107776 0.000000
275.53698730 192.04100037 156.25000000 0.000978 0.000978 -0.999999 0.000000
185.54699707 209.66799927 166.25000000 0.001379 -0.668888 -0.743362 0.000000
233.78900146 214.77000427 110.00000000 -0.015271 0.770516 0.637238 0.000000
212.45100403 177.19700623 91.25000000 -0.281566 -0.477573 0.832253 0.000000
123.38899994 198.53500366 61.25000000 0.980573 0.141134 0.136225 0.000000
241.21099854 210.13200378 160.00000000 -0.279268 -0.646306 -0.710139 0.000000
130.81100464 235.64399719 143.75000000 0.681189 -0.159298 -0.714566 0.000000
178.12500000 288.06100464 105.00000000 0.035685 -0.913284 -0.405757 0.000000
145.19000244 237.50000000 12.50000000 -0.564238 -0.066799 0.822906 0.000000
211.98699951 262.54901123 117.50000000 -0.761420 -0.341103 -0.551261 0.000000
134.05799866 238.42799377 12.50000000 0.721155 -0.417511 0.552830 0.000000
137.30499268 209.66799927 158.75000000 0.559720 -0.617214 -0.552956 0.000000
189.25799561 220.80099487 91.25000000 -0.824163 0.255135 -0.505631 0.000000
173.48599243 259.76599121 141.25000000 0.000000 0.000000 0.000000 0.000000
183.69099426 200.39100647 168.75000000 -0.000978 -0.000978 -0.999999 0.000000
184.15499878 216.16200256 62.50000000 -0.841191 -0.508313 -0.184432 0.000000
181.37199402 269.97100830 60.00000000 -0.912960 0.071684 0.401703 0.000000
200.39100647 229.14999390 156.25000000 -0.000978 -0.000978 -0.999999 0.000000
199.46299744 259.76599121 83.75000000 -0.668888 -0.001379 0.743362 0.000000
205.95700073 242.13900757 83.75000000 -0.726874 -0.339858 0.596784 0.000000
185.54699707 190.18499756 166.25000000 0.450479 0.879231 -0.154988 0.000000
179.97999573 256.05499268 61.25000000 -0.815194 0.032050 0.578300 0.000000
212.45100403 219.40899658 97.50000000 0.022526 0.899696 0.435935 0.000000
239.35499573 174.41400146 161.25000000 -0.221100 0.793176 -0.567438 0.000000
117.35800171 203.17399597 75.00000000 0.921535 0.185440 0.341152 0.000000
256.05499268 156.78700256 78.75000000 -0.411974 -0.897156 0.159335 0.000000
259.76599121 150.75700378 147.50000000 0.001379 0.745961 -0.665988 0.000000
234.71699524 144.26300049 75.00000000 -0.001255 0.937612 0.347682 0.000000
167.91999817 204.10099792 168.75000000 0.330793 -0.091666 -0.939241 0.000000
228.22300720 231.00599670 136.25000000 0.019012 -0.335874 -0.941715 0.000000
201.31799316 237.50000000 151.25000000 -0.166304 -0.543860 -0.822532 0.000000
