67.38279724 119.38500214 331.25000000 0.535172 -0.636466 -0.555430 0.000000
62.25590134 209.47300720 323.75000000 0.276676 0.570743 -0.773112 0.000000
90.82029724 173.58399963 438.75000000 -0.244929 0.569421 0.784709 0.000000
130.37100220 127.44100189 396.25000000 0.917197 -0.123496 -0.378812 0.000000
78.36910248 159.66799927 438.75000000 -0.502061 0.495389 0.708890 0.000000
90.08789825 229.97999573 408.75000000 -0.078419 0.554636 0.828390 0.000000
223.38900757 93.75000000 416.25000000 -0.210549 0.015291 0.977464 0.000000
94.48239899 201.41600037 426.25000000 -0.015260 0.617321 0.786564 0.000000
90.08789825 225.95199585 412.50000000 -0.064281 0.598531 0.798517 0.000000
144.28700256 202.88099670 391.25000000 0.917137 0.249866 -0.310527 0.000000
89.35549927 173.94999695 437.50000000 -0.463600 0.427813 0.775920 0.000000
123.77899933 87.89060211 401.25000000 0.877716 -0.022920 -0.478632 0.000000
97.41210175 229.97999573 411.25000000 0.029373 0.608433 0.793061 0.000000
106.93399811 183.10499573 436.25000000 -0.022351 0.411519 0.911127 0.000000
45.04389954 208.74000549 347.50000000 -0.917252 0.343791 -0.201139 0.000000
96.67970276 189.33099365 342.50000000 0.480579 0.418674 -0.770556 0.000000
249.75599670 120.11699677 426.25000000 -0.516492 0.469991 0.715782 0.000000
52.73440170 119.38500214 381.25000000 -0.876398 -0.396717 -0.273026 0.000000
84.22850037 249.38999939 387.50000000 -0.412231 0.829200 -0.377483 0.000000
124.51200104 92.28520203 401.25000000 0.955298 -0.204994 -0.213033 0.000000
105.46900177 155.27299500 448.75000000 -0.075605 0.346191 0.935113 0.000000
219.72700500 139.16000366 418.75000000 -0.152126 -0.014649 0.988253 0.000000
73.97460175 151.61099243 311.25000000 0.591215 0.119422 -0.797624 0.000000
87.89060211 110.59600067 438.75000000 -0.153468 -0.815018 0.558742 0.000000
86.79199982 194.09199524 427.50000000 -0.238974 0.390373 0.889101 0.000000
116.45500183 102.53900146 376.25000000 0.463577 -0.011955 -0.885976 0.000000
55.66410065 208.00799561 321.25000000 -0.391857 0.357511 -0.847723 0.000000
65.91799927 123.77899933 433.75000000 -0.603877 -0.113135 0.789007 0.000000
217.52900696 128.17399597 416.25000000 -0.314251 -0.052589 0.947882 0.000000
109.86299896 202.88099670 426.25000000 0.028771 0.524721 0.850788 0.000000
82.76370239 203.61300659 338.75000000 0.581417 0.419084 -0.697369 0.000000
109.13099670 85.69339752 378.75000000 0.552567 -0.209700 -0.806657 0.000000
49.07229996 171.38699341 316.25000000 -0.899859 0.101530 -0.424199 0.000000
123.77899933 119.38500214 443.75000000 -0.032286 -0.619048 0.784689 0.000000
50.53710175 213.13499451 333.75000000 -0.882132 0.322288 -0.343472 0.000000
166.25999451 76.17189789 438.75000000 0.104440 -0.654591 0.748734 0.000000
184.57000732 98.87699890 398.75000000 -0.475777 0.195382 0.857591 0.000000
199.21899414 104.00399780 446.25000000 0.682500 0.101712 0.723774 0.000000
91.55269623 102.17299652 430.00000000 -0.283630 -0.781172 0.556169 0.000000
86.42579651 180.90800476 331.25000000 0.491237 0.151037 -0.857831 0.000000
86.42579651 248.29100037 383.75000000 0.511049 0.831408 -0.218149 0.000000
172.85200500 159.30200195 417.50000000 -0.049902 -0.731423 0.680095 0.000000
115.72299957 165.52699280 341.25000000 0.079250 -0.068088 -0.994527 0.000000
177.24600220 112.06099701 393.75000000 -0.415158 -0.009110 0.909704 0.000000
142.82200623 190.06300354 397.50000000 0.765269 -0.611291 -0.201711 0.000000
219.72700500 124.51200104 441.25000000 0.394704 0.077313 0.915550 0.000000
139.89300537 144.28700256 451.25000000 0.437716 -0.120407 0.891014 0.000000
81.66500092 95.21479797 417.50000000 -0.428178 -0.729059 0.533982 0.000000
240.23399353 156.00599670 431.25000000 -0.504301 -0.807830 0.305110 0.000000
140.99099731 186.76800537 400.00000000 0.932532 -0.354177 -0.070305 0.000000
76.90429688 243.16400146 393.75000000 -0.462529 0.679600 0.569395 0.000000
109.86299896 179.07699585 342.50000000 0.216150 0.224307 -0.950245 0.000000
79.46779633 200.68400574 335.00000000 0.470620 0.418510 -0.776767 0.000000
202.14799500 113.52500153 446.25000000 0.000978 0.000978 0.999999 0.000000
135.49800110 177.97900391 358.75000000 0.724644 0.543071 -0.424222 0.000000
93.01760101 208.74000549 421.25000000 -0.043621 0.392587 0.918680 0.000000
201.41600037 65.91799927 423.75000000 0.073670 -0.654360 0.752586 0.000000
168.45700073 112.06099701 451.25000000 -0.458306 -0.011956 0.888714 0.000000
142.45599365 191.16200256 392.50000000 0.848724 -0.520645 -0.092718 0.000000
180.17599487 90.45410156 445.00000000 -0.292218 -0.794516 0.532310 0.000000
156.00599670 161.13299561 446.25000000 0.357504 0.202442 0.911706 0.000000
45.77640152 186.76800537 405.00000000 -0.870117 0.291055 0.397724 0.000000
49.07229996 132.20199585 320.00000000 -0.860675 -0.485321 -0.153954 0.000000
171.38699341 122.31400299 391.25000000 -0.457677 0.070518 0.886318 0.000000
75.07319641 246.09399414 387.50000000 -0.427218 0.764409 0.482871 0.000000
166.25999451 181.64100647 393.75000000 -0.168191 0.876058 -0.451923 0.000000
145.75199890 160.39999390 448.75000000 0.361203 0.235440 0.902275 0.000000
130.37100220 139.16000366 453.75000000 0.000978 0.000978 0.999999 0.000000
199.95100403 129.63900757 446.25000000 0.000978 0.000978 0.999999 0.000000
161.86500549 79.10160065 391.25000000 -0.535634 0.306758 0.786763 0.000000
101.07399750 90.08789825 423.75000000 -0.392666 -0.346105 0.852071 0.000000
49.07229996 166.25999451 411.25000000 -0.741276 0.089187 0.665248 0.000000
134.39900208 224.12100220 395.00000000 0.853977 0.519514 0.028786 0.000000
183.10499573 141.72399902 445.00000000 0.056048 0.457957 0.887206 0.000000
188.23199463 145.38600159 442.50000000 0.227097 0.376542 0.898133 0.000000
157.47099304 54.93159866 418.75000000 -0.062860 -0.856290 0.512656 0.000000
199.21899414 76.90429688 406.25000000 -0.355889 0.149334 0.922520 0.000000
182.37300110 58.59379959 401.25000000 -0.300897 -0.033993 0.953051 0.000000
67.38279724 202.88099670 326.25000000 0.585872 0.321180 -0.744041 0.000000
127.80799866 191.16200256 357.50000000 0.870936 0.344395 -0.350517 0.000000
47.24119949 200.68400574 400.00000000 -0.594111 0.560259 0.577185 0.000000
86.42579651 93.01760101 418.75000000 -0.467328 -0.815843 0.340595 0.000000
231.81199646 133.30099487 420.00000000 -0.242942 0.240166 0.939840 0.000000
156.73800659 109.13099670 448.75000000 0.000978 0.000978 0.999999 0.000000
137.69500732 83.49610138 436.25000000 -0.280300 -0.505793 0.815846 0.000000
89.35549927 81.29879761 401.25000000 -0.500563 -0.834271 0.231147 0.000000
63.72069931 110.96199799 350.00000000 0.554433 -0.801534 -0.223935 0.000000
68.11519623 180.90800476 423.75000000 -0.412587 0.451419 0.791197 0.000000
94.11620331 175.04899597 335.00000000 0.224824 0.017843 -0.974236 0.000000
234.37500000 149.41400146 426.25000000 -0.426452 -0.375722 0.822783 0.000000
173.58399963 138.79400635 395.00000000 -0.383087 -0.274921 0.881852 0.000000
103.27100372 147.94900513 451.25000000 0.184381 0.370192 0.910473 0.000000
48.70610046 133.30099487 342.50000000 -0.960967 -0.209594 0.180593 0.000000
128.90600586 101.07399750 441.25000000 -0.393116 -0.151853 0.906863 0.000000
164.79499817 58.59379959 396.25000000 -0.000978 -0.000978 0.999999 0.000000
54.56539917 123.04699707 357.50000000 -0.918025 -0.326121 0.225555 0.000000
122.68099976 158.93600464 370.00000000 0.200589 -0.969727 0.139262 0.000000
162.59800720 52.36819839 415.00000000 -0.139551 -0.881903 0.450303 0.000000
118.65200043 75.43949890 421.25000000 -0.428728 -0.497718 0.753969 0.000000
73.97460175 249.02299500 353.75000000 0.490619 0.490619 -0.720129 0.000000
147.94900513 154.54100037 448.75000000 0.407276 0.118964 0.905524 0.000000
120.84999847 231.44500732 383.75000000 0.305734 0.796809 -0.521173 0.000000
119.38500214 90.82029724 381.25000000 0.482703 -0.309747 -0.819179 0.000000
91.55269623 90.08789825 418.75000000 -0.865594 -0.432039 0.253160 0.000000
55.29790115 216.06399536 327.50000000 -0.489038 0.525758 -0.696003 0.000000
101.80699921 217.52900696 418.75000000 0.120252 0.434322 0.892695 0.000000
63.72069931 104.73600006 408.75000000 -0.754451 -0.632520 0.175277 0.000000
120.84999847 184.57000732 348.75000000 0.629717 0.468509 -0.619641 0.000000
48.33980179 159.66799927 408.75000000 -0.777918 -0.104015 0.619697 0.000000
100.34200287 106.20099640 436.25000000 -0.263455 -0.809072 0.525351 0.000000
71.77729797 247.55900574 351.25000000 0.490619 0.490619 -0.720129 0.000000
37.35350037 195.19000244 367.50000000 -0.922867 0.346953 -0.167155 0.000000
108.39800262 100.34200287 433.75000000 -0.196750 -0.491124 0.848579 0.000000
97.04589844 233.64300537 375.00000000 0.625189 0.721620 -0.297327 0.000000
139.89300537 172.85200500 361.25000000 0.740248 0.519328 -0.427003 0.000000
95.94730377 75.80570221 397.50000000 -0.521690 -0.824607 0.218773 0.000000
127.44100189 95.94730377 406.25000000 0.692396 -0.692396 -0.202917 0.000000
238.03700256 99.60939789 421.25000000 -0.456438 0.152146 0.876651 0.000000
94.48239899 220.45899963 416.25000000 0.087909 0.577897 0.811361 0.000000
79.46779633 188.96499634 330.00000000 0.580942 0.224631 -0.782335 0.000000
150.14599609 107.66600037 386.25000000 0.000978 0.000978 0.999999 0.000000
176.14700317 76.17189789 397.50000000 -0.281079 0.213955 0.935531 0.000000
122.31400299 155.63999939 347.50000000 0.102800 -0.829641 -0.548751 0.000000
126.70899963 204.34599304 368.75000000 0.558559 0.528184 -0.639558 0.000000
103.27100372 197.75399780 348.75000000 0.339304 0.363869 -0.867451 0.000000
87.89060211 130.37100220 371.25000000 0.579940 -0.689613 -0.433709 0.000000
244.62899780 139.89300537 433.75000000 0.000978 0.000978 0.999999 0.000000
172.85200500 125.24400330 391.25000000 -0.496764 -0.119511 0.859618 0.000000
99.60939789 233.27600098 407.50000000 -0.001368 0.603278 0.797530 0.000000
67.01660156 103.27100372 415.00000000 -0.668277 -0.668277 0.326821 0.000000
237.30499268 114.25800323 433.75000000 0.593252 -0.239492 0.768567 0.000000
81.29879761 125.24400330 443.75000000 -0.543589 -0.176177 0.820654 0.000000
105.46900177 104.00399780 436.25000000 -0.171012 -0.582652 0.794526 0.000000
72.50980377 170.65400696 316.25000000 0.677454 0.399184 -0.617825 0.000000
172.85200500 56.03030014 420.00000000 -0.818044 -0.272681 0.506408 0.000000
92.28520203 105.83499908 435.00000000 -0.256606 -0.596648 0.760372 0.000000
72.87599945 180.90800476 427.50000000 -0.526150 0.539598 0.657267 0.000000
91.55269623 99.97560120 427.50000000 -0.293424 -0.788278 0.540851 0.000000
117.18800354 70.31250000 413.75000000 -0.439646 -0.786820 0.433157 0.000000
72.14360046 109.86299896 370.00000000 0.860095 -0.263357 -0.436898 0.000000
218.99400330 129.63900757 416.25000000 -0.205555 -0.019968 0.978442 0.000000
96.67970276 90.08789825 371.25000000 0.237255 -0.001180 -0.971447 0.000000
114.25800323 72.50980377 413.75000000 -0.502241 -0.742658 0.442960 0.000000
146.48399353 192.99299622 405.00000000 0.812710 -0.530971 -0.239943 0.000000
118.28600311 73.97460175 420.00000000 -0.428728 -0.497718 0.753969 0.000000
46.50880051 183.10499573 325.00000000 -0.959249 0.001213 -0.282560 0.000000
43.57910156 213.86700439 377.50000000 -0.910468 0.403892 0.088993 0.000000
168.82299805 127.44100189 390.00000000 -0.367159 -0.014072 0.930052 0.000000
84.22850037 128.90600586 368.75000000 0.660089 -0.701445 -0.268808 0.000000
88.62300110 174.31599426 436.25000000 -0.463600 0.427813 0.775920 0.000000
72.14360046 110.59600067 370.00000000 0.861105 -0.175766 -0.477079 0.000000
84.22850037 118.65200043 443.75000000 -0.560672 -0.352654 0.749188 0.000000
64.45310211 217.52900696 328.75000000 0.514253 0.221266 -0.828604 0.000000
93.01760101 224.12100220 413.75000000 -0.001357 0.563126 0.826370 0.000000
122.31400299 72.50980377 421.25000000 -0.436751 -0.446493 0.780956 0.000000
36.25490189 172.11900330 360.00000000 -0.979662 0.005797 -0.200570 0.000000
166.99200439 106.20099640 451.25000000 -0.173897 -0.070758 0.982218 0.000000
131.10400391 163.33000183 448.75000000 0.012382 0.581974 0.813113 0.000000
139.16000366 147.58299255 395.00000000 0.623643 -0.542518 -0.562800 0.000000
86.42579651 125.61000061 345.00000000 0.587778 -0.745593 -0.314019 0.000000
123.04699707 234.00900269 390.00000000 0.458154 0.819604 -0.344012 0.000000
69.58010101 166.25999451 311.25000000 0.750850 0.263983 -0.605423 0.000000
70.31250000 229.24800110 336.25000000 0.678190 0.298017 -0.671747 0.000000
141.35699463 121.58200073 446.25000000 -0.350635 -0.201794 0.914513 0.000000
145.75199890 129.63900757 448.75000000 0.000978 0.000978 0.999999 0.000000
194.82400513 100.70800018 445.00000000 0.154387 -0.501391 0.851335 0.000000
137.69500732 202.51499939 377.50000000 0.782403 0.282929 -0.554795 0.000000
84.96089935 156.73800659 321.25000000 0.643187 0.254430 -0.722202 0.000000
195.55700684 152.34399414 438.75000000 0.135835 0.387901 0.911637 0.000000
104.00399780 88.98930359 425.00000000 -0.400609 -0.475217 0.783378 0.000000
83.49610138 225.58599854 411.25000000 0.001339 0.504619 0.863341 0.000000
125.97699738 193.35899353 428.75000000 0.196437 0.716143 0.669740 0.000000
103.27100372 153.80900574 338.75000000 0.607777 -0.424612 -0.671053 0.000000
125.97699738 130.37100220 451.25000000 -0.533678 -0.402311 0.743864 0.000000
141.35699463 58.59379959 418.75000000 -0.462565 -0.752285 0.469149 0.000000
93.75000000 100.34200287 428.75000000 -0.299261 -0.756953 0.580917 0.000000
72.50980377 94.11620331 377.50000000 -0.692396 -0.692396 -0.202917 0.000000
124.51200104 94.84860229 397.50000000 0.802900 -0.566128 -0.186686 0.000000
106.20099640 210.93800354 356.25000000 0.563676 0.276312 -0.778410 0.000000
47.97359848 175.04899597 320.00000000 -0.889317 0.120561 -0.441113 0.000000
109.13099670 134.76600647 451.25000000 -0.321966 -0.143857 0.935758 0.000000
83.12989807 80.56639862 380.00000000 -0.674625 -0.728238 0.120628 0.000000
73.97460175 207.27499390 418.75000000 -0.359851 0.558502 0.747384 0.000000
180.17599487 97.41210175 396.25000000 -0.344493 0.204409 0.916265 0.000000
170.65400696 120.11699677 451.25000000 0.000978 0.000978 0.999999 0.000000
124.51200104 199.95100403 426.25000000 0.229655 0.610852 0.757706 0.000000
175.04899597 125.97699738 393.75000000 -0.522898 0.077939 0.848824 0.000000
155.27299500 125.24400330 448.75000000 0.056560 0.135051 0.989223 0.000000
233.64300537 150.14599609 433.75000000 0.001292 0.406977 0.913437 0.000000
183.83799744 135.49800110 398.75000000 -0.684763 -0.092377 0.722887 0.000000
169.92199707 63.72069931 396.25000000 -0.414613 0.833954 0.364165 0.000000
82.76370239 220.45899963 413.75000000 -0.134953 0.486121 0.863409 0.000000
145.75199890 131.10400391 408.75000000 -0.000978 -0.000978 -0.999999 0.000000
150.14599609 131.83599854 448.75000000 0.000978 0.000978 0.999999 0.000000
131.10400391 164.06199646 348.75000000 0.334257 -0.203399 -0.920273 0.000000
105.46900177 164.06199646 446.25000000 -0.112264 0.397776 0.910588 0.000000
188.96499634 113.52500153 401.25000000 -0.880129 0.250395 0.403330 0.000000
130.37100220 218.26199341 411.25000000 0.547027 0.395896 0.737583 0.000000
65.18550110 243.89599609 381.25000000 -0.396403 0.918054 -0.006456 0.000000
110.59600067 115.72299957 376.25000000 -0.000978 -0.000978 -0.999999 0.000000
183.10499573 52.36819839 412.50000000 0.228289 -0.854193 0.467160 0.000000
36.25490189 188.23199463 362.50000000 -0.950345 0.185202 -0.250091 0.000000
141.35699463 95.94730377 443.75000000 0.000978 0.000978 0.999999 0.000000
62.98830032 214.60000610 408.75000000 -0.628523 0.311838 0.712542 0.000000
91.55269623 151.61099243 448.75000000 -0.152550 0.317470 0.935917 0.000000
186.76800537 61.52339935 423.75000000 0.414613 -0.833954 0.364165 0.000000
112.06099701 125.24400330 378.75000000 -0.620439 -0.373580 -0.689560 0.000000
123.41300201 84.22850037 400.00000000 0.908118 0.030492 -0.417602 0.000000
169.18899536 104.00399780 448.75000000 0.243623 -0.611415 0.752874 0.000000
145.02000427 144.28700256 448.75000000 0.390542 -0.154797 0.907477 0.000000
115.72299957 108.39800262 376.25000000 0.342697 0.166453 -0.924582 0.000000
100.34200287 182.37300110 341.25000000 0.422098 0.412468 -0.807282 0.000000
67.38279724 172.11900330 311.25000000 0.652287 0.304401 -0.694162 0.000000
42.84669876 143.55499268 392.50000000 -0.692396 -0.692396 -0.202917 0.000000
156.00599670 169.92199707 441.25000000 0.288984 0.608304 0.739225 0.000000
241.69900513 106.93399811 423.75000000 -0.435164 -0.052870 0.898797 0.000000
172.11900330 153.80900574 441.25000000 0.168704 0.636820 0.752329 0.000000
166.99200439 130.37100220 448.75000000 -0.336660 0.021597 0.941378 0.000000
170.65400696 75.43949890 436.25000000 0.046748 -0.630383 0.774875 0.000000
131.47000122 111.32800293 385.00000000 0.925806 0.373244 -0.059772 0.000000
81.29879761 206.54299927 338.75000000 0.616874 0.379994 -0.689254 0.000000
47.60739899 135.86399841 325.00000000 0.001365 -0.806665 0.591008 0.000000
122.31400299 125.61000061 447.50000000 0.009470 -0.520825 0.853611 0.000000
112.79299927 156.00599670 343.75000000 0.394296 -0.485163 -0.780479 0.000000
60.05860138 202.14799500 411.25000000 -0.449340 0.136381 0.882889 0.000000
95.94730377 98.14450073 373.75000000 -0.215807 0.436080 -0.873648 0.000000
91.55269623 88.62300110 416.25000000 -0.551695 -0.642801 0.531450 0.000000
166.25999451 131.83599854 388.75000000 -0.392725 -0.266331 0.880247 0.000000
42.11429977 196.28900146 345.00000000 -0.944299 0.246040 -0.218550 0.000000
199.95100403 81.29879761 406.25000000 -0.228536 0.270597 0.935173 0.000000
132.56799316 88.62300110 438.75000000 -0.627609 -0.765414 0.142298 0.000000
101.80699921 106.93399811 376.25000000 -0.578386 0.335367 -0.743639 0.000000
123.04699707 136.96299744 453.75000000 -0.336720 -0.370545 0.865631 0.000000
217.52900696 77.27050018 427.50000000 0.086078 -0.660901 0.745520 0.000000
213.86700439 151.61099243 423.75000000 -0.158843 -0.639909 0.751855 0.000000
63.72069931 101.44000244 395.00000000 -0.701680 -0.701680 0.123651 0.000000
95.94730377 133.30099487 356.25000000 0.687838 -0.601651 0.406073 0.000000
38.81840134 171.38699341 393.75000000 -0.971148 0.073177 0.226973 0.000000
144.28700256 137.69500732 448.75000000 0.213579 -0.205520 0.955063 0.000000
79.83399963 101.80699921 423.75000000 -0.415006 -0.719234 0.557200 0.000000
125.24400330 221.92399597 411.25000000 0.131622 0.581206 0.803041 0.000000
90.82029724 150.14599609 328.75000000 0.792890 -0.395638 -0.463461 0.000000
131.83599854 159.66799927 451.25000000 0.102359 0.375315 0.921228 0.000000
59.32619858 167.35800171 422.50000000 -0.709495 0.311919 0.631920 0.000000
188.23199463 74.70700073 401.25000000 0.000978 0.000978 0.999999 0.000000
111.32800293 212.40199280 361.25000000 0.500430 0.343746 -0.794612 0.000000
73.97460175 230.71299744 403.75000000 -0.322284 0.613797 0.720685 0.000000
91.91889954 131.83599854 342.50000000 0.411020 -0.781426 -0.469506 0.000000
101.80699921 87.15820313 423.75000000 -0.392843 -0.219227 0.893092 0.000000
57.12889862 187.50000000 413.75000000 -0.545357 0.545357 0.636531 0.000000
95.94730377 133.30099487 346.25000000 0.690173 -0.492981 -0.529746 0.000000
84.22850037 89.35549927 411.25000000 -0.483582 -0.722880 0.493552 0.000000
188.23199463 156.00599670 416.25000000 -0.208779 -0.768614 0.604685 0.000000
217.52900696 153.80900574 433.75000000 -0.198399 0.343987 0.917775 0.000000
86.42579651 158.93600464 323.75000000 0.642294 0.152639 -0.751106 0.000000
106.20099640 188.96499634 346.25000000 0.210112 0.407000 -0.888934 0.000000
182.37300110 102.53900146 396.25000000 -0.484370 0.119296 0.866692 0.000000
184.57000732 156.00599670 438.75000000 0.086510 0.506296 0.858009 0.000000
64.45310211 121.58200073 326.25000000 0.424472 -0.721768 -0.546694 0.000000
183.10499573 161.86500549 433.75000000 0.200302 0.570326 0.796622 0.000000
65.18550110 176.51400757 311.25000000 0.642840 0.315753 -0.697895 0.000000
86.79199982 220.45899963 350.00000000 0.464030 0.533884 -0.706855 0.000000
242.43200684 106.93399811 423.75000000 -0.495647 -0.122828 0.859795 0.000000
183.10499573 127.44100189 448.75000000 0.550759 -0.090595 0.829733 0.000000
120.11699677 120.84999847 378.75000000 0.445995 0.288585 -0.847235 0.000000
132.93499756 116.45500183 405.00000000 0.798183 -0.271288 -0.537872 0.000000
183.10499573 53.10060120 415.00000000 0.133411 -0.834183 0.535108 0.000000
246.82600403 145.38600159 430.00000000 -0.278753 0.881461 0.381213 0.000000
63.72069931 177.24600220 311.25000000 0.648068 0.315145 -0.693319 0.000000
67.38279724 217.89599609 410.00000000 -0.639049 0.510902 0.574975 0.000000
144.28700256 118.65200043 408.75000000 -0.221721 0.161371 -0.961665 0.000000
86.42579651 235.83999634 403.75000000 -0.000978 -0.000978 0.999999 0.000000
66.28420258 177.24600220 312.50000000 0.569865 0.287314 -0.769873 0.000000
155.27299500 87.89060211 443.75000000 -0.206420 -0.555041 0.805804 0.000000
114.25800323 78.36910248 388.75000000 -0.000978 -0.999999 -0.000978 0.000000
90.82029724 210.20500183 348.75000000 0.410041 0.504792 -0.759639 0.000000
153.07600403 73.97460175 436.25000000 -0.326259 -0.209433 0.921788 0.000000
224.12100220 155.27299500 433.75000000 0.000978 0.000978 0.999999 0.000000
83.49610138 178.71099854 433.75000000 -0.613805 0.395416 0.683293 0.000000
124.87799835 202.14799500 365.00000000 0.699071 0.383255 -0.603668 0.000000
122.31400299 229.24800110 381.25000000 0.344050 0.611464 -0.712559 0.000000
111.32800293 82.76370239 381.25000000 0.619243 -0.321748 -0.716252 0.000000
87.89060211 133.30099487 336.25000000 0.567959 -0.645485 -0.510658 0.000000
183.83799744 87.52439880 442.50000000 0.104022 -0.485909 0.867797 0.000000
80.56639862 83.86229706 382.50000000 -0.751050 -0.650318 0.114065 0.000000
93.01760101 238.03700256 378.75000000 0.590884 0.657839 -0.467016 0.000000
54.19919968 119.38500214 376.25000000 -0.878149 -0.344283 -0.332150 0.000000
81.66500092 142.82200623 320.00000000 0.695733 -0.153092 -0.701796 0.000000
166.25999451 158.93600464 413.75000000 0.590217 -0.805355 -0.055200 0.000000
84.96089935 103.27100372 378.75000000 0.307660 0.633039 -0.710357 0.000000
120.84999847 194.45799255 430.00000000 0.246168 0.812819 0.527945 0.000000
63.72069931 179.44299316 311.25000000 0.610551 0.307692 -0.729762 0.000000
146.48399353 75.80570221 435.00000000 -0.250337 -0.539547 0.803878 0.000000
71.77729797 95.94730377 406.25000000 -0.609443 -0.756712 0.236570 0.000000
59.69240189 235.10699463 342.50000000 -0.761417 0.608822 -0.222664 0.000000
78.36910248 111.32800293 378.75000000 0.609538 -0.119546 -0.783691 0.000000
125.97699738 168.45700073 446.25000000 -0.054220 0.515782 0.855002 0.000000
85.69339752 169.18899536 438.75000000 -0.380708 0.182453 0.906517 0.000000
116.45500183 150.87899780 453.75000000 -0.234614 -0.148109 0.960739 0.000000
138.79400635 63.72069931 422.50000000 -0.442492 -0.672921 0.592772 0.000000
214.60000610 139.16000366 441.25000000 0.284220 0.195488 0.938618 0.000000
148.68200684 173.21800232 387.50000000 0.446426 0.894193 -0.033515 0.000000
70.31250000 242.43200684 343.75000000 0.247050 0.608970 -0.753738 0.000000
163.33000183 158.20300293 443.75000000 0.379269 0.079633 0.921853 0.000000
181.64100647 125.24400330 451.25000000 0.211424 0.190148 0.958720 0.000000
238.77000427 146.48399353 436.25000000 -0.127561 -0.825479 0.549830 0.000000
62.98830032 180.90800476 311.25000000 0.635912 0.336659 -0.694461 0.000000
196.28900146 97.41210175 403.75000000 -0.353968 0.282279 0.891642 0.000000
138.42799377 98.14450073 443.75000000 -0.354987 -0.073125 0.932007 0.000000
78.00289917 243.89599609 392.50000000 -0.389797 0.725318 0.567426 0.000000
104.00399780 97.41210175 431.25000000 -0.315857 -0.512673 0.798373 0.000000
142.08999634 84.22850037 438.75000000 -0.245726 -0.520815 0.817540 0.000000
182.37300110 57.49509811 420.00000000 0.187763 -0.780056 0.596873 0.000000
44.31150055 191.89500427 335.00000000 -0.947717 0.158178 -0.277150 0.000000
47.60739899 150.14599609 316.25000000 -0.959249 0.001213 -0.282560 0.000000
142.45599365 175.78100586 440.00000000 0.393329 0.712600 0.580942 0.000000
72.50980377 221.92399597 336.25000000 0.443832 0.330913 -0.832772 0.000000
73.97460175 248.65699768 382.50000000 -0.422013 0.770703 0.477412 0.000000
75.43949890 197.02099609 331.25000000 0.531778 0.413239 -0.739220 0.000000
36.62110138 189.69700623 383.75000000 -0.959249 0.001213 0.282560 0.000000
49.43849945 128.17399597 335.00000000 -0.947359 -0.316641 0.047432 0.000000
48.70610046 131.10400391 340.00000000 -0.960967 -0.209594 0.180593 0.000000
120.11699677 224.12100220 378.75000000 0.001378 0.751123 -0.660161 0.000000
111.69400024 124.51200104 450.00000000 0.335475 -0.299691 0.893108 0.000000
41.74800110 204.71200562 357.50000000 -0.927914 0.324279 -0.183898 0.000000
156.73800659 140.62500000 403.75000000 -0.580730 0.573957 -0.577344 0.000000
161.49899292 148.68200684 445.00000000 0.085616 0.317437 0.944407 0.000000
199.21899414 136.96299744 411.25000000 -0.478234 -0.455226 0.751041 0.000000
106.20099640 236.20599365 387.50000000 0.215195 0.911329 -0.350956 0.000000
53.10060120 183.10499573 312.50000000 -0.576449 0.485696 -0.657119 0.000000
58.59379959 204.34599304 321.25000000 0.356293 0.438637 -0.825017 0.000000
52.36819839 231.44500732 355.00000000 -0.775255 0.523821 -0.352975 0.000000
57.12889862 221.92399597 398.75000000 -0.552426 0.545668 0.630137 0.000000
61.88959885 108.39800262 360.00000000 -0.691610 -0.717818 -0.080081 0.000000
155.27299500 163.33000183 368.75000000 -0.275940 0.943138 0.185333 0.000000
106.93399811 152.34399414 343.75000000 0.487644 -0.668625 -0.561377 0.000000
238.77000427 95.94730377 423.75000000 -0.819573 0.296175 0.490490 0.000000
71.77729797 117.55400085 345.00000000 0.522731 -0.852011 -0.028812 0.000000
234.37500000 120.84999847 421.25000000 -0.493986 0.001331 0.869469 0.000000
111.32800293 86.42579651 426.25000000 -0.197983 -0.600087 0.775048 0.000000
205.81100464 156.00599670 433.75000000 -0.209813 -0.890605 -0.403487 0.000000
208.74000549 87.15820313 408.75000000 -0.500056 0.220389 0.837480 0.000000
56.76269913 239.50199890 372.50000000 -0.600043 0.600043 0.529052 0.000000
221.19099426 126.70899963 416.25000000 -0.094825 -0.054664 0.993992 0.000000
39.18460083 158.93600464 372.50000000 -0.921642 -0.362818 0.137621 0.000000
62.62210083 183.83799744 312.50000000 0.715356 0.326047 -0.618029 0.000000
200.68400574 71.77729797 428.75000000 0.141386 -0.575962 0.805157 0.000000
54.19919968 184.57000732 311.25000000 -0.576449 0.485696 -0.657119 0.000000
98.14450073 139.89300537 451.25000000 0.191266 0.273827 0.942569 0.000000
58.95999908 139.89300537 422.50000000 -0.852902 -0.045765 0.520062 0.000000
216.06399536 68.84770203 416.25000000 0.585136 -0.784789 -0.204260 0.000000
110.59600067 197.75399780 428.75000000 -0.000978 -0.000978 0.999999 0.000000
57.12889862 184.57000732 311.25000000 -0.124167 0.541951 -0.831187 0.000000
117.18800354 152.34399414 348.75000000 0.325338 -0.804617 -0.496736 0.000000
40.28319931 183.10499573 346.25000000 -0.960830 0.059186 -0.270745 0.000000
193.35899353 126.70899963 448.75000000 0.000978 0.000978 0.999999 0.000000
129.63900757 169.18899536 446.25000000 -0.033183 0.420762 0.906564 0.000000
164.79499817 82.03119659 441.25000000 -0.015104 -0.572567 0.819719 0.000000
61.52339935 184.57000732 311.25000000 0.433227 0.479002 -0.763460 0.000000
217.52900696 119.38500214 413.75000000 -0.455125 -0.011942 0.890347 0.000000
76.53810120 122.31400299 355.00000000 0.703437 -0.703437 0.101755 0.000000
61.15719986 232.91000366 390.00000000 -0.607227 0.683338 0.405370 0.000000
224.85400391 146.48399353 436.25000000 0.000978 0.000978 0.999999 0.000000
84.22850037 104.00399780 378.75000000 0.311575 0.650593 -0.692567 0.000000
98.87699890 118.65200043 383.75000000 -0.626635 0.370060 -0.685845 0.000000
177.24600220 155.27299500 411.25000000 -0.001377 -0.648407 0.761293 0.000000
132.56799316 157.47099304 363.75000000 0.017659 -0.857119 0.514815 0.000000
112.79299927 176.88000488 342.50000000 0.193669 0.332206 -0.923110 0.000000
109.86299896 128.90600586 378.75000000 -0.433548 0.192525 -0.880324 0.000000
249.38999939 113.52500153 427.50000000 0.570981 -0.792601 0.213925 0.000000
106.20099640 183.83799744 436.25000000 -0.067596 0.279311 0.957819 0.000000
227.78300476 114.25800323 418.75000000 0.000978 0.000978 0.999999 0.000000
127.44100189 104.73600006 381.25000000 0.563126 0.001357 -0.826370 0.000000
106.93399811 193.35899353 431.25000000 -0.110045 0.594241 0.796723 0.000000
58.59379959 190.42999268 413.75000000 -0.571720 0.514379 0.639179 0.000000
107.66600037 115.72299957 446.25000000 0.279550 -0.682103 0.675713 0.000000
93.01760101 110.59600067 383.75000000 -0.374963 0.764535 -0.524299 0.000000
134.76600647 127.44100189 403.75000000 0.827015 -0.374766 -0.419042 0.000000
163.33000183 135.49800110 393.75000000 -0.728385 0.486143 -0.482825 0.000000
166.25999451 147.94900513 403.75000000 -0.021362 -0.948718 0.315402 0.000000
62.25590134 222.65600586 328.75000000 0.110277 0.496964 -0.860736 0.000000
188.23199463 120.84999847 448.75000000 0.309488 -0.011186 0.950837 0.000000
150.14599609 164.79499817 366.25000000 -0.024868 0.211971 -0.976960 0.000000
204.34599304 157.47099304 426.25000000 -0.181944 -0.753767 0.631452 0.000000
99.60939789 145.75199890 341.25000000 0.635851 -0.330122 -0.697648 0.000000
88.62300110 177.97900391 333.75000000 0.617729 0.254359 -0.744119 0.000000
57.86130142 161.86500549 423.75000000 -0.788821 0.145191 0.597228 0.000000
128.90600586 98.14450073 383.75000000 0.428995 -0.215240 -0.877288 0.000000
185.66900635 153.07600403 412.50000000 -0.189482 -0.654715 0.731741 0.000000
58.22750092 111.32800293 405.00000000 -0.881745 -0.438686 0.173434 0.000000
65.91799927 249.02299500 373.75000000 -0.600043 0.600043 0.529052 0.000000
148.68200684 145.02000427 448.75000000 0.538548 0.105399 0.835977 0.000000
148.68200684 59.32619858 421.25000000 -0.348559 -0.659481 0.666027 0.000000
63.35449982 134.76600647 430.00000000 -0.820240 0.112182 0.560910 0.000000
117.18800354 116.45500183 376.25000000 0.241286 0.055681 -0.968855 0.000000
102.17299652 189.69700623 345.00000000 0.312563 0.401866 -0.860702 0.000000
243.16400146 125.24400330 423.75000000 -0.447719 0.177620 0.876355 0.000000
223.38900757 112.06099701 441.25000000 0.318754 -0.176776 0.931207 0.000000
149.41400146 75.07319641 435.00000000 -0.270422 -0.477487 0.835989 0.000000
71.04489899 241.33299255 390.00000000 -0.463907 0.634732 0.617985 0.000000
153.07600403 147.21699524 411.25000000 -0.283482 0.194980 -0.938947 0.000000
88.62300110 151.61099243 446.25000000 -0.452419 0.378881 0.807320 0.000000
70.31250000 216.06399536 331.25000000 0.751123 0.001378 -0.660161 0.000000
60.05860138 218.26199341 326.25000000 0.010287 0.177166 -0.984127 0.000000
101.80699921 239.86799622 392.50000000 0.274849 0.927080 -0.254912 0.000000
83.86229706 186.76800537 332.50000000 0.577404 0.320065 -0.751108 0.000000
214.60000610 131.10400391 413.75000000 -0.344315 -0.170049 0.923326 0.000000
194.82400513 133.30099487 406.25000000 -0.564060 -0.187006 0.804279 0.000000
178.71099854 101.80699921 396.25000000 -0.285295 0.262357 0.921833 0.000000
177.97900391 133.30099487 448.75000000 -0.141386 0.575962 0.805157 0.000000
96.67970276 231.44500732 366.25000000 0.535522 0.695678 -0.478800 0.000000
114.98999786 234.37500000 386.25000000 0.040473 0.822021 -0.568018 0.000000
40.64939880 157.47099304 392.50000000 -0.914048 -0.303714 0.268838 0.000000
133.30099487 164.06199646 348.75000000 -0.000978 -0.000978 -0.999999 0.000000
56.39649963 178.71099854 416.25000000 -0.632996 0.229754 0.739276 0.000000
132.56799316 135.49800110 396.25000000 0.744080 -0.356572 -0.564979 0.000000
42.84669876 155.27299500 342.50000000 -0.963591 -0.155165 -0.217753 0.000000
146.48399353 84.96089935 388.75000000 0.059507 0.363654 0.929631 0.000000
75.80570221 100.34200287 420.00000000 -0.524379 -0.615429 0.588451 0.000000
139.89300537 66.65039825 426.25000000 -0.379305 -0.707708 0.596051 0.000000
59.69240189 216.06399536 405.00000000 -0.590610 0.296105 0.750667 0.000000
54.93159866 194.82400513 316.25000000 -0.176986 0.258049 -0.949782 0.000000
205.07800293 121.58200073 408.75000000 -0.424802 -0.185395 0.886099 0.000000
94.48239899 225.58599854 358.75000000 0.573539 0.364385 -0.733673 0.000000
147.21699524 137.32899475 410.00000000 0.059910 0.216411 -0.974462 0.000000
207.27499390 139.16000366 413.75000000 -0.388917 -0.367050 0.844996 0.000000
147.94900513 72.50980377 433.75000000 -0.258932 -0.510111 0.820208 0.000000
119.38500214 185.30299377 436.25000000 0.120608 0.671533 0.731093 0.000000
59.32619858 108.03199768 377.50000000 -0.813361 -0.513619 -0.273202 0.000000
152.34399414 156.00599670 376.25000000 -0.127651 -0.944617 -0.302331 0.000000
59.32619858 238.77000427 381.25000000 -0.594763 0.497040 0.631830 0.000000
116.45500183 140.62500000 386.25000000 0.208202 0.587592 -0.781913 0.000000
73.24220276 156.00599670 436.25000000 -0.587354 0.100564 0.803058 0.000000
160.39999390 98.87699890 388.75000000 -0.538846 0.321389 0.778688 0.000000
164.06199646 77.63670349 393.75000000 -0.298893 0.244549 0.922420 0.000000
142.82200623 125.24400330 408.75000000 -0.000978 -0.000978 -0.999999 0.000000
64.45310211 238.77000427 386.25000000 -0.608615 0.520947 0.598499 0.000000
139.16000366 197.02099609 421.25000000 0.438405 0.658440 0.611766 0.000000
189.69700623 56.76269913 417.50000000 0.265224 -0.795673 0.544573 0.000000
89.35549927 171.38699341 438.75000000 -0.441875 0.458181 0.771244 0.000000
169.18899536 128.17399597 391.25000000 -0.382655 0.014172 0.923783 0.000000
53.10060120 128.90600586 412.50000000 -0.863477 -0.246492 0.440056 0.000000
123.77899933 102.53900146 378.75000000 0.454235 -0.368169 -0.811247 0.000000
111.32800293 87.15820313 426.25000000 -0.197983 -0.600087 0.775048 0.000000
60.05860138 150.87899780 426.25000000 -0.720288 -0.052983 0.691648 0.000000
188.23199463 60.05860138 406.25000000 -0.464710 0.201723 0.862179 0.000000
151.61099243 142.82200623 411.25000000 -0.257658 0.189495 -0.947473 0.000000
112.79299927 229.24800110 408.75000000 0.112096 0.557571 0.822526 0.000000
117.91999817 169.92199707 341.25000000 0.319380 0.069090 -0.945105 0.000000
150.14599609 125.97699738 448.75000000 0.000978 0.000978 0.999999 0.000000
87.15820313 130.00500488 340.00000000 0.657280 -0.607106 -0.446549 0.000000
50.17089844 209.47300720 332.50000000 -0.892513 0.222025 -0.392588 0.000000
62.98830032 110.22899628 352.50000000 0.461796 -0.862318 -0.207733 0.000000
134.03300476 214.96600342 410.00000000 0.512288 0.436515 0.739605 0.000000
63.72069931 116.82099915 427.50000000 -0.683970 -0.563565 0.463227 0.000000
85.69339752 81.29879761 368.75000000 -0.225703 -0.273367 -0.935055 0.000000
175.04899597 145.75199890 401.25000000 -0.000978 -0.000978 0.999999 0.000000
53.46680069 127.80799866 315.00000000 -0.596368 -0.488853 0.636685 0.000000
159.66799927 78.36910248 438.75000000 -0.020774 -0.585819 0.810175 0.000000
208.00799561 66.65039825 411.25000000 -0.339442 0.864732 0.370160 0.000000
148.68200684 60.79100037 423.75000000 -0.266886 -0.762757 0.589044 0.000000
156.73800659 157.47099304 446.25000000 0.238795 -0.275533 0.931160 0.000000
96.67970276 153.07600403 333.75000000 0.544185 -0.544185 -0.638533 0.000000
89.35549927 129.63900757 343.75000000 0.536479 -0.654201 -0.533115 0.000000
227.05099487 125.97699738 418.75000000 -0.542800 0.272187 0.794533 0.000000
106.93399811 184.57000732 436.25000000 -0.067596 0.279311 0.957819 0.000000
87.52439880 78.36910248 385.00000000 -0.582652 -0.794526 0.171012 0.000000
80.56639862 201.78199768 422.50000000 -0.308626 0.282298 0.908327 0.000000
91.55269623 184.57000732 433.75000000 -0.209512 0.399977 0.892257 0.000000
71.77729797 168.45700073 431.25000000 -0.440522 0.389262 0.808959 0.000000
93.01760101 212.40199280 351.25000000 0.407152 0.341633 -0.847062 0.000000
175.04899597 98.14450073 448.75000000 0.190771 -0.273118 0.942875 0.000000
81.29879761 211.66999817 418.75000000 0.324327 0.388885 0.862311 0.000000
78.36910248 101.07399750 423.75000000 -0.414454 -0.714974 0.563063 0.000000
45.04389954 205.81100464 342.50000000 -0.953875 0.247499 -0.169905 0.000000
62.98830032 128.53999329 315.00000000 0.816968 -0.549159 -0.176032 0.000000
73.60839844 204.34599304 332.50000000 0.679225 0.162589 -0.715694 0.000000
161.86500549 73.24220276 393.75000000 -0.165972 0.183985 0.968815 0.000000
222.65600586 149.41400146 436.25000000 0.000978 0.000978 0.999999 0.000000
54.93159866 237.67100525 365.00000000 -0.781532 0.608190 0.138972 0.000000
238.77000427 131.10400391 433.75000000 -0.000978 -0.000978 0.999999 0.000000
191.16200256 78.73539734 435.00000000 0.240213 -0.369898 0.897482 0.000000
142.82200623 201.41600037 386.25000000 0.925009 0.163731 -0.342855 0.000000
39.91699982 179.44299316 347.50000000 -0.959249 -0.001213 -0.282560 0.000000
98.14450073 240.96699524 391.25000000 0.421787 0.845131 -0.328403 0.000000
232.91000366 101.07399750 433.75000000 0.501148 -0.329326 0.800247 0.000000
78.36910248 217.52900696 416.25000000 -0.257749 0.486174 0.834985 0.000000
113.52500153 183.10499573 343.75000000 0.207342 0.375536 -0.903317 0.000000
115.72299957 234.00900269 405.00000000 0.212307 0.624523 0.751597 0.000000
65.91799927 247.19200134 352.50000000 -0.385869 0.730688 -0.563205 0.000000
66.65039825 124.51200104 323.75000000 0.491528 -0.704801 -0.511522 0.000000
121.58200073 217.52900696 413.75000000 0.241964 0.461101 0.853721 0.000000
139.89300537 159.66799927 366.25000000 0.011406 -0.998536 0.052882 0.000000
107.66600037 72.14360046 405.00000000 -0.426811 -0.839551 0.336133 0.000000
108.39800262 158.20300293 341.25000000 0.460442 -0.025506 -0.887323 0.000000
43.94530106 199.95100403 341.25000000 -0.952713 0.198089 -0.230430 0.000000
143.18800354 177.24600220 392.50000000 0.735455 0.627904 -0.254641 0.000000
172.85200500 75.43949890 396.25000000 -0.280058 -0.126092 0.951666 0.000000
154.54100037 96.31349945 447.50000000 -0.125848 -0.372012 0.919657 0.000000
156.00599670 67.74900055 395.00000000 -0.116912 0.503732 0.855912 0.000000
177.97900391 112.79299927 393.75000000 -0.297176 0.033855 0.954222 0.000000
235.10699463 96.67970276 421.25000000 -0.413538 0.140688 0.899552 0.000000
123.41300201 115.72299957 380.00000000 0.392695 0.189827 -0.899865 0.000000
81.29879761 144.28700256 446.25000000 -0.426313 -0.058195 0.902702 0.000000
50.17089844 131.83599854 315.00000000 -0.835376 -0.472708 -0.280525 0.000000
61.52339935 164.79499817 426.25000000 -0.703369 0.318537 0.635457 0.000000
206.54299927 157.47099304 426.25000000 -0.132806 -0.771471 0.622250 0.000000
140.99099731 136.22999573 450.00000000 0.447295 -0.278214 0.850014 0.000000
143.55499268 191.16200256 423.75000000 0.927432 0.340661 -0.154340 0.000000
248.29100037 122.31400299 423.75000000 -0.489896 0.523336 0.697224 0.000000
201.41600037 62.25590134 418.75000000 0.119879 -0.768112 0.628994 0.000000
163.69599915 79.83399963 392.50000000 -0.294050 0.296976 0.908482 0.000000
92.28520203 236.57200623 376.25000000 -0.363380 0.846848 -0.388334 0.000000
194.09199524 109.86299896 403.75000000 -0.626232 0.058486 0.777440 0.000000
144.28700256 84.22850037 438.75000000 -0.314847 -0.492047 0.811641 0.000000
224.48699951 140.62500000 437.50000000 0.298915 0.264258 0.916961 0.000000
167.35800171 118.65200043 390.00000000 -0.357342 0.084317 0.930160 0.000000
56.76269913 186.76800537 415.00000000 -0.527737 0.510984 0.678520 0.000000
214.96600342 140.62500000 417.50000000 -0.265725 -0.285834 0.920700 0.000000
149.41400146 123.77899933 448.75000000 0.000978 0.000978 0.999999 0.000000
134.03300476 133.66700745 400.00000000 0.789600 -0.254861 -0.558192 0.000000
178.34500122 107.66600037 395.00000000 -0.878109 -0.028413 0.477616 0.000000
93.75000000 199.58500671 345.00000000 0.442073 0.451860 -0.774851 0.000000
78.36910248 251.58700562 377.50000000 0.403407 0.910076 -0.095000 0.000000
105.10299683 145.02000427 377.50000000 0.942321 -0.331295 -0.047696 0.000000
172.11900330 73.24220276 436.25000000 0.035178 -0.769703 0.637432 0.000000
164.79499817 132.56799316 448.75000000 -0.217269 0.496833 0.840209 0.000000
101.07399750 119.38500214 381.25000000 -0.625285 0.318298 -0.712534 0.000000
47.97359848 134.03300476 337.50000000 -0.982486 -0.140007 0.122963 0.000000
82.76370239 224.85400391 411.25000000 -0.039290 0.459289 0.887417 0.000000
244.26300049 152.34399414 430.00000000 -0.728337 -0.476157 0.492747 0.000000
112.06099701 149.04800415 452.50000000 0.064719 -0.645748 0.760803 0.000000
176.14700317 57.86130142 400.00000000 -0.652098 0.369577 0.661953 0.000000
82.76370239 119.38500214 443.75000000 -0.485730 -0.375997 0.789109 0.000000
84.96089935 225.22000122 412.50000000 -0.165886 0.474171 0.864664 0.000000
158.20300293 106.20099640 388.75000000 -0.345934 -0.100954 0.932812 0.000000
173.58399963 64.45310211 398.75000000 -0.305523 -0.063167 0.950087 0.000000
177.24600220 125.97699738 451.25000000 0.000978 0.000978 0.999999 0.000000
197.38800049 150.87899780 417.50000000 -0.376362 -0.489431 0.786644 0.000000
52.36819839 117.18800354 385.00000000 -0.870891 -0.470948 -0.140560 0.000000
202.51499939 84.22850037 435.00000000 -0.001282 -0.393609 0.919277 0.000000
115.72299957 178.71099854 343.75000000 0.316367 0.263882 -0.911196 0.000000
95.94730377 72.87599945 387.50000000 0.600043 -0.600043 -0.529052 0.000000
42.48049927 160.39999390 398.75000000 -0.959249 0.001213 0.282560 0.000000
79.10160065 86.42579651 368.75000000 -0.628960 -0.554767 -0.544649 0.000000
102.53900146 129.63900757 451.25000000 0.000978 0.000978 0.999999 0.000000
140.62500000 210.20500183 388.75000000 0.824340 0.498330 -0.268570 0.000000
212.40199280 112.79299927 443.75000000 0.000978 0.000978 0.999999 0.000000
116.45500183 117.91999817 376.25000000 0.261370 0.211585 -0.941763 0.000000
53.10060120 126.70899963 357.50000000 -0.000978 -0.000978 0.999999 0.000000
176.51400757 101.80699921 448.75000000 0.129595 -0.250027 0.959527 0.000000
235.10699463 145.38600159 425.00000000 -0.342888 -0.318720 0.883655 0.000000
48.70610046 136.22999573 315.00000000 -0.940783 -0.242470 -0.236928 0.000000
155.27299500 51.63570023 412.50000000 -0.116564 -0.897406 0.425530 0.000000
136.22999573 154.54100037 386.25000000 0.156322 -0.717865 -0.678405 0.000000
161.13299561 52.73440170 413.75000000 -0.074325 -0.862456 0.500645 0.000000
106.93399811 100.34200287 433.75000000 -0.268139 -0.485130 0.832316 0.000000
164.79499817 157.47099304 411.25000000 0.895384 -0.230830 -0.380795 0.000000
182.37300110 108.39800262 448.75000000 0.383865 -0.195554 0.902445 0.000000
169.18899536 112.06099701 391.25000000 -0.177372 0.043462 0.983184 0.000000
151.97799683 53.46680069 415.00000000 -0.149294 -0.874024 0.462378 0.000000
76.90429688 240.96699524 346.25000000 0.436415 0.545934 -0.715190 0.000000
141.35699463 208.00799561 408.75000000 0.600043 0.600043 0.529052 0.000000
225.58599854 140.62500000 436.25000000 0.298915 0.264258 0.916961 0.000000
92.65139771 139.16000366 337.50000000 0.747503 -0.324510 -0.579597 0.000000
155.63999939 175.04899597 410.00000000 -0.441395 0.878391 -0.183304 0.000000
47.97359848 136.96299744 350.00000000 -0.892841 -0.445735 0.064460 0.000000
114.98999786 95.94730377 378.75000000 0.525788 -0.063095 -0.848272 0.000000
134.76600647 160.03399658 367.50000000 0.091789 -0.868461 0.487186 0.000000
233.64300537 130.37100220 436.25000000 0.000978 0.000978 0.999999 0.000000
87.15820313 125.24400330 378.75000000 0.523499 -0.661527 -0.536965 0.000000
111.32800293 210.93800354 361.25000000 0.415634 0.567978 -0.710387 0.000000
173.21800232 113.52500153 392.50000000 -0.378142 -0.035328 0.925073 0.000000
96.67970276 96.67970276 426.25000000 -0.165109 -0.622565 0.764952 0.000000
119.38500214 193.35899353 353.75000000 0.578328 0.288368 -0.763139 0.000000
82.03119659 86.42579651 368.75000000 -0.169169 -0.672104 -0.720873 0.000000
104.37000275 142.82200623 352.50000000 0.894193 -0.446426 0.033515 0.000000
131.83599854 88.62300110 438.75000000 -0.627609 -0.765414 0.142298 0.000000
137.69500732 120.11699677 408.75000000 0.762186 -0.107620 -0.638349 0.000000
204.34599304 90.08789825 406.25000000 0.000978 0.000978 0.999999 0.000000
194.09199524 76.53810120 432.50000000 0.229075 -0.477873 0.848034 0.000000
202.88099670 151.24499512 437.50000000 0.185624 0.422405 0.887197 0.000000
67.38279724 234.37500000 396.25000000 -0.703232 0.350800 0.618388 0.000000
220.45899963 128.90600586 441.25000000 0.371844 0.079201 0.924911 0.000000
45.77640152 135.49800110 387.50000000 -0.959249 0.001213 -0.282560 0.000000
206.54299927 141.35699463 416.25000000 -0.440558 -0.470038 0.764835 0.000000
218.99400330 78.00289917 427.50000000 0.194115 -0.585403 0.787161 0.000000
44.31150055 181.64100647 405.00000000 -0.608858 0.264102 0.748025 0.000000
47.60739899 163.33000183 318.75000000 -0.889357 -0.003953 -0.457196 0.000000
112.06099701 232.91000366 406.25000000 0.094732 0.607743 0.788463 0.000000
75.43949890 243.16400146 391.25000000 -0.459138 0.692881 0.555975 0.000000
132.56799316 112.79299927 406.25000000 0.478017 -0.353317 -0.804156 0.000000
143.55499268 171.38699341 443.75000000 0.600043 0.600043 0.529052 0.000000
79.10160065 183.83799744 328.75000000 0.546168 0.156261 -0.822972 0.000000
49.80469894 191.16200256 321.25000000 -0.904024 0.158026 -0.397201 0.000000
95.94730377 228.51600647 411.25000000 0.009648 0.613339 0.789761 0.000000
215.33200073 135.49800110 416.25000000 -0.310934 -0.313909 0.897096 0.000000
149.77999878 121.58200073 405.00000000 -0.670090 0.446170 -0.593222 0.000000
80.56639862 219.72700500 343.75000000 0.592515 0.786484 0.174269 0.000000
112.79299927 153.07600403 346.25000000 0.292712 -0.612617 -0.734180 0.000000
144.28700256 150.87899780 396.25000000 0.395006 -0.659445 -0.639612 0.000000
85.32710266 82.03119659 395.00000000 -0.485047 -0.870273 0.085762 0.000000
123.77899933 175.78100586 441.25000000 -0.200669 0.508461 0.837376 0.000000
189.69700623 109.86299896 448.75000000 0.255354 0.053562 0.965363 0.000000
130.00500488 106.20099640 400.00000000 -0.301172 0.812061 -0.499851 0.000000
89.35549927 170.65400696 438.75000000 -0.441420 0.454451 0.773707 0.000000
114.25800323 184.57000732 346.25000000 0.211632 0.469793 -0.857034 0.000000
107.66600037 131.83599854 451.25000000 0.000978 0.000978 0.999999 0.000000
42.48049927 156.00599670 343.75000000 -0.946126 -0.184310 -0.266226 0.000000
211.66999817 136.96299744 441.25000000 0.293331 0.115474 0.949012 0.000000
220.45899963 72.14360046 422.50000000 0.534251 -0.722810 0.438317 0.000000
59.32619858 127.44100189 423.75000000 -0.892654 0.030874 0.449683 0.000000
221.19099426 128.90600586 416.25000000 -0.074973 -0.040203 0.996375 0.000000
50.53710175 203.61300659 403.75000000 -0.617118 0.145646 0.773274 0.000000
48.33980179 143.55499268 313.75000000 -0.959249 0.001213 -0.282560 0.000000
202.14799500 84.96089935 436.25000000 0.065128 -0.370831 0.926414 0.000000
101.07399750 90.82029724 423.75000000 -0.392666 -0.346105 0.852071 0.000000
137.69500732 125.24400330 446.25000000 -0.209477 -0.480743 0.851473 0.000000
76.17189789 143.18800354 315.00000000 0.711640 -0.322589 -0.624103 0.000000
41.01559830 154.54100037 378.75000000 -0.914940 -0.376905 -0.144317 0.000000
54.19919968 195.55700684 408.75000000 -0.339353 0.423800 0.839781 0.000000
69.58010101 98.14450073 373.75000000 -0.573837 -0.718529 -0.392971 0.000000
104.73600006 93.75000000 428.75000000 -0.460217 -0.577363 0.674427 0.000000
126.70899963 217.52900696 413.75000000 0.196104 0.480529 0.854772 0.000000
194.82400513 87.89060211 438.75000000 0.280941 -0.585691 0.760288 0.000000
52.73440170 124.51200104 408.75000000 -0.827164 -0.434933 0.355855 0.000000
173.58399963 157.10400391 400.00000000 0.432039 -0.865594 0.253160 0.000000
125.61000061 122.31400299 382.50000000 0.703232 0.350800 -0.618388 0.000000
152.34399414 119.38500214 391.25000000 -0.504295 0.602118 -0.618984 0.000000
153.80900574 91.55269623 386.25000000 -0.373783 0.749197 0.546800 0.000000
134.03300476 150.87899780 388.75000000 0.373232 -0.376355 -0.847971 0.000000
78.36910248 221.92399597 341.25000000 0.549517 -0.199409 -0.811337 0.000000
109.13099670 105.46900177 373.75000000 0.222274 0.008232 -0.974949 0.000000
