275.09799194 156.44500732 417.50000000 -0.070728 -0.981806 0.176222 0.000000
145.89799500 247.85200500 467.50000000 -0.000978 -0.000978 -0.999999 0.000000
123.92600250 256.64099121 462.50000000 -0.000978 -0.000978 -0.999999 0.000000
131.83599854 237.30499268 467.50000000 -0.000978 -0.000978 -0.999999 0.000000
85.25389862 231.15199280 452.50000000 -0.001246 -0.943059 -0.332624 0.000000
168.75000000 211.81599426 397.50000000 0.634511 0.714829 0.293963 0.000000
120.41000366 288.28100586 452.50000000 -0.457506 -0.608332 -0.648552 0.000000
87.89060211 265.42999268 352.50000000 -0.737020 -0.574322 0.356308 0.000000
263.67199707 151.17199707 407.50000000 0.000978 0.000978 0.999999 0.000000
110.74199677 179.29699707 327.50000000 0.728152 0.605448 0.321291 0.000000
108.10500336 170.94700623 442.00000000 0.211659 0.588628 -0.780203 0.000000
84.37500000 219.72700500 447.50000000 0.667860 0.300939 -0.680734 0.000000
174.02299500 201.27000427 472.50000000 -0.000978 -0.000978 -0.999999 0.000000
147.65600586 165.23399353 437.50000000 0.516247 0.775179 -0.364124 0.000000
91.40619659 222.00000000 452.50000000 -0.658356 0.474083 -0.584647 0.000000
221.48399353 244.33599854 452.50000000 -0.978521 0.162056 -0.127418 0.000000
90.96679688 257.51998901 450.00000000 0.469977 -0.421191 -0.775706 0.000000
246.09399414 205.66400146 407.50000000 -0.613974 -0.446679 0.650779 0.000000
75.58589935 249.60899353 442.50000000 0.330125 -0.086177 -0.939995 0.000000
161.71899414 155.56599426 372.50000000 -0.439792 -0.555964 0.705327 0.000000
83.49610138 218.84800720 447.50000000 0.573149 0.037652 -0.818586 0.000000
201.27000427 172.26600647 447.50000000 -0.000978 -0.000978 -0.999999 0.000000
239.94099426 211.81599426 452.50000000 -0.000978 -0.000978 -0.999999 0.000000
87.01170349 202.14799500 337.50000000 0.761078 0.547782 0.347413 0.000000
168.75000000 276.85501099 417.50000000 0.000978 0.000978 0.999999 0.000000
175.78100586 275.53698730 420.00000000 -0.434265 -0.593995 0.677188 0.000000
120.41000366 187.20700073 462.50000000 -0.280581 0.315837 -0.906378 0.000000
173.14500427 152.05099487 422.50000000 0.347967 0.811923 -0.468722 0.000000
184.57000732 235.98599243 442.00000000 -0.504627 -0.781930 -0.365975 0.000000
165.23399353 181.05499268 377.50000000 -0.712664 -0.067942 0.698208 0.000000
62.84180069 241.69900513 422.00000000 0.987098 -0.142020 0.073944 0.000000
152.92999268 293.99398804 442.00000000 -0.483299 -0.466804 -0.740619 0.000000
74.70700073 189.40400696 390.00000000 0.935568 0.312775 0.163966 0.000000
114.25800323 320.80099487 427.50000000 0.943059 -0.001246 -0.332624 0.000000
189.84399414 161.71899414 442.50000000 0.073058 0.594493 -0.800775 0.000000
234.66799927 188.96499634 442.50000000 -0.181872 0.168973 -0.968695 0.000000
250.48800659 143.26199341 417.50000000 -0.213237 0.906621 -0.364099 0.000000
145.02000427 208.30099487 337.50000000 -0.741372 -0.339052 0.579146 0.000000
210.05900574 174.02299500 447.50000000 -0.000978 -0.000978 -0.999999 0.000000
191.60200500 160.83999634 377.50000000 0.129420 -0.377128 0.917074 0.000000
98.43750000 167.87100220 372.50000000 0.701680 0.701680 0.123651 0.000000
255.76199341 228.07600403 430.00000000 -0.379254 -0.756880 0.532258 0.000000
226.75799561 246.09399414 412.50000000 -0.721634 -0.584180 0.371453 0.000000
146.33799744 164.35499573 352.00000000 -0.891062 0.288065 0.350753 0.000000
77.78320313 270.70300293 432.00000000 0.638944 -0.088783 -0.764113 0.000000
121.28900146 244.33599854 377.50000000 -0.704931 -0.640407 0.304879 0.000000
102.83200073 185.44900513 452.50000000 -0.000978 -0.000978 -0.999999 0.000000
129.19900513 195.11700439 317.50000000 -0.158272 -0.987206 0.019357 0.000000
248.72999573 166.99200439 437.50000000 -0.000978 -0.000978 -0.999999 0.000000
272.46099854 166.55299377 422.00000000 -0.304527 0.668671 -0.678338 0.000000
120.41000366 159.96099854 427.50000000 0.029666 0.932535 -0.359858 0.000000
138.86700439 184.57000732 462.50000000 -0.420229 0.823015 -0.382171 0.000000
164.35499573 296.19100952 437.50000000 -0.701680 -0.701680 -0.123651 0.000000
273.33999634 146.77699280 412.50000000 -0.909570 0.157507 0.384545 0.000000
126.56199646 195.99600220 317.50000000 -0.486143 -0.728385 0.482825 0.000000
137.10899353 259.27700806 462.50000000 -0.000978 -0.000978 -0.999999 0.000000
127.44100189 290.03900146 452.50000000 0.386937 -0.313526 -0.867168 0.000000
128.75999451 195.99600220 320.00000000 -0.000978 -0.999999 -0.000978 0.000000
131.83599854 213.57400513 467.50000000 -0.000978 -0.000978 -0.999999 0.000000
142.38299561 257.51998901 462.50000000 -0.000978 -0.000978 -0.999999 0.000000
79.98049927 257.51998901 337.50000000 -0.876349 -0.257042 0.407359 0.000000
257.51998901 159.08200073 407.50000000 -0.092889 -0.527322 0.844573 0.000000
119.53099823 294.43399048 447.50000000 -0.000978 -0.000978 -0.999999 0.000000
92.28520203 184.57000732 352.50000000 0.775098 0.622138 -0.110308 0.000000
216.21099854 157.32400513 442.50000000 -0.000978 -0.000978 -0.999999 0.000000
276.85501099 176.66000366 417.50000000 -0.375135 -0.159963 0.913064 0.000000
165.23399353 159.96099854 377.50000000 0.000978 0.000978 0.999999 0.000000
80.85939789 183.69099426 427.50000000 0.721913 0.594804 -0.353623 0.000000
125.24400330 222.00000000 332.00000000 -0.693523 -0.590902 0.412142 0.000000
129.19900513 196.87500000 317.50000000 -0.158272 -0.987206 0.019357 0.000000
170.94700623 193.35899353 470.00000000 -0.500569 0.591581 -0.632031 0.000000
222.80299377 217.08999634 452.00000000 -0.470333 0.377229 -0.797800 0.000000
166.99200439 210.93800354 397.50000000 0.844770 0.525283 0.102178 0.000000
113.37899780 275.97698975 407.50000000 0.000978 0.000978 0.999999 0.000000
78.66210175 199.51199341 362.00000000 0.686533 0.433862 0.583470 0.000000
163.03700256 145.02000427 390.00000000 0.218622 0.878948 -0.423858 0.000000
78.22270203 217.96899414 342.50000000 0.938434 0.255176 0.232866 0.000000
152.92999268 197.75399780 337.50000000 0.000978 0.000978 0.999999 0.000000
134.47300720 244.33599854 387.50000000 0.133432 -0.670157 0.730127 0.000000
171.38699341 243.45700073 387.50000000 -0.070365 -0.791246 0.607436 0.000000
103.71099854 305.85900879 402.50000000 0.000978 0.000978 0.999999 0.000000
163.47700500 207.42199707 387.50000000 -0.818540 -0.491753 -0.296937 0.000000
113.37899780 301.46499634 407.50000000 -0.767955 0.091805 0.633891 0.000000
227.63699341 248.29100037 420.00000000 -0.781163 -0.548882 0.297510 0.000000
83.49610138 217.08999634 447.50000000 0.547572 0.130654 -0.826496 0.000000
166.55299377 209.17999268 380.00000000 -0.984919 -0.001131 -0.173011 0.000000
261.03500366 221.48399353 452.50000000 -0.000978 -0.000978 -0.999999 0.000000
156.44500732 198.63299561 347.50000000 -0.701680 -0.701680 -0.123651 0.000000
148.97500610 310.25399780 432.00000000 -0.511887 -0.679719 -0.525313 0.000000
119.53099823 269.82400513 457.50000000 -0.000978 -0.000978 -0.999999 0.000000
232.03100586 206.54299927 452.50000000 -0.180128 0.060838 -0.981760 0.000000
72.50980377 190.72300720 412.00000000 0.883935 0.441244 -0.154797 0.000000
97.99800110 199.51199341 320.00000000 0.790841 0.498888 0.354515 0.000000
122.16799927 252.24600220 462.50000000 -0.000978 -0.000978 -0.999999 0.000000
230.71299744 238.18400574 422.00000000 -0.984919 -0.001131 -0.173011 0.000000
93.60350037 172.26600647 432.00000000 0.384753 0.629146 -0.675382 0.000000
124.80500031 312.01199341 417.50000000 0.000978 0.000978 0.999999 0.000000
257.51998901 165.23399353 407.50000000 0.000978 0.000978 0.999999 0.000000
222.00000000 190.72300720 392.50000000 -0.075931 -0.448682 0.890460 0.000000
168.75000000 163.47700500 377.50000000 0.000978 0.000978 0.999999 0.000000
194.23800659 234.22900391 440.00000000 -0.158460 -0.954752 -0.251671 0.000000
253.12500000 149.41400146 397.50000000 -0.345251 -0.753716 0.559209 0.000000
70.31250000 234.22900391 432.00000000 0.591494 0.285384 -0.754116 0.000000
179.29699707 276.85501099 427.50000000 -0.878559 0.469405 0.088276 0.000000
68.11519623 237.30499268 352.00000000 0.947390 0.302583 0.104385 0.000000
120.41000366 276.85501099 412.50000000 -0.488544 -0.423187 0.763044 0.000000
226.75799561 170.50799561 392.50000000 0.000978 0.000978 0.999999 0.000000
283.88699341 190.72300720 437.50000000 -0.152289 0.622726 -0.767476 0.000000
132.71499634 216.21099854 332.50000000 -0.253913 -0.755431 0.604030 0.000000
109.42400360 271.58200073 400.00000000 -0.124872 -0.556783 0.821218 0.000000
195.99600220 195.99600220 457.50000000 -0.256209 0.130076 -0.957829 0.000000
79.98049927 208.30099487 442.50000000 0.425670 -0.188699 -0.884984 0.000000
217.96899414 201.27000427 397.50000000 0.000978 0.000978 0.999999 0.000000
242.57800293 144.14100647 427.50000000 -0.234810 0.877922 -0.417274 0.000000
161.71899414 214.45300293 392.50000000 0.146088 0.875079 -0.461405 0.000000
165.23399353 216.21099854 477.50000000 0.000978 0.000978 -0.999999 0.000000
156.44500732 232.91000366 372.50000000 -0.493986 -0.001331 0.869469 0.000000
138.86700439 299.70700073 422.50000000 0.000978 0.000978 0.999999 0.000000
72.07029724 258.39801025 337.50000000 0.651912 -0.020939 0.758005 0.000000
80.85939789 217.96899414 447.50000000 0.755099 -0.079713 -0.650747 0.000000
112.50000000 234.66799927 462.50000000 -0.000978 -0.000978 -0.999999 0.000000
158.20300293 216.21099854 362.50000000 -0.464831 -0.612503 0.639353 0.000000
169.62899780 161.71899414 377.50000000 0.000978 0.000978 0.999999 0.000000
128.32000732 244.33599854 467.50000000 0.352195 -0.355271 -0.865876 0.000000
181.05499268 208.30099487 402.50000000 -0.110962 -0.094609 0.989311 0.000000
124.80500031 202.14799500 317.50000000 -0.701577 -0.351606 0.619808 0.000000
144.14100647 291.79699707 447.50000000 0.131173 -0.274272 -0.952664 0.000000
76.46479797 244.33599854 327.50000000 0.654519 -0.220256 0.723251 0.000000
71.63089752 230.27299500 350.00000000 0.000978 0.000978 0.999999 0.000000
63.72069931 224.12100220 420.00000000 0.983626 0.075296 -0.163738 0.000000
90.52729797 263.23199463 352.00000000 -0.764263 -0.562382 0.315639 0.000000
183.69099426 145.02000427 412.50000000 0.181154 0.925428 -0.332817 0.000000
129.19900513 300.58599854 442.50000000 0.076730 -0.874720 -0.478515 0.000000
86.13279724 174.46299744 392.00000000 0.701680 0.701680 0.123651 0.000000
187.20700073 233.78900146 447.50000000 -0.368596 -0.839145 -0.399966 0.000000
226.75799561 224.12100220 452.50000000 -0.000978 -0.000978 -0.999999 0.000000
166.11300659 275.97698975 417.50000000 0.000978 0.000978 0.999999 0.000000
66.79689789 231.15199280 432.50000000 0.802957 0.157590 -0.574827 0.000000
246.97300720 152.05099487 397.50000000 -0.534626 -0.770443 0.347265 0.000000
141.50399780 174.02299500 452.50000000 -0.001378 0.751123 -0.660161 0.000000
117.77300262 255.32200623 390.00000000 -0.000978 -0.000978 0.999999 0.000000
147.65600586 146.77699280 382.50000000 0.845095 0.376466 -0.379590 0.000000
238.62300110 173.14500427 440.00000000 -0.496238 -0.401872 -0.769576 0.000000
233.78900146 172.26600647 397.50000000 0.000978 0.000978 0.999999 0.000000
189.84399414 206.54299927 462.50000000 -0.000978 -0.000978 -0.999999 0.000000
137.10899353 169.18899536 442.00000000 -0.312842 0.825338 -0.470050 0.000000
100.19499969 287.40200806 392.50000000 -0.851643 -0.148048 0.502777 0.000000
93.16410065 170.50799561 377.50000000 0.549962 0.822719 0.143791 0.000000
149.41400146 147.65600586 352.50000000 0.107696 0.899334 0.423792 0.000000
122.16799927 282.12899780 452.50000000 0.259384 -0.074652 -0.962885 0.000000
64.59960175 266.30899048 382.00000000 0.998013 -0.043484 -0.045605 0.000000
278.61300659 154.68800354 417.50000000 -0.003208 -0.995457 0.095162 0.000000
277.73400879 213.57400513 442.50000000 -0.828989 0.275293 -0.486817 0.000000
254.00399780 162.59800720 432.50000000 -0.000978 -0.000978 -0.999999 0.000000
160.83999634 163.47700500 442.50000000 -0.094535 0.938693 -0.331539 0.000000
232.03100586 188.96499634 442.50000000 -0.223915 0.288696 -0.930869 0.000000
104.58999634 282.12899780 447.50000000 -0.000978 -0.000978 -0.999999 0.000000
87.89060211 177.53900146 372.50000000 0.801413 0.586722 0.116168 0.000000
115.13700104 289.16000366 447.50000000 0.166075 -0.477650 -0.862710 0.000000
209.17999268 167.87100220 447.50000000 0.185862 0.668182 -0.720408 0.000000
274.21899414 187.64599609 432.00000000 -0.328734 0.540406 -0.774529 0.000000
161.71899414 270.70300293 457.50000000 -0.532898 -0.532898 -0.657297 0.000000
71.19139862 283.88699341 362.50000000 0.469328 -0.696477 0.542818 0.000000
168.31100464 194.23800659 380.00000000 -0.927537 0.198456 0.316686 0.000000
191.60200500 211.81599426 402.50000000 0.083883 0.140592 0.986508 0.000000
213.57400513 236.42599487 397.50000000 -0.281601 -0.803901 0.523873 0.000000
185.44900513 210.93800354 402.50000000 0.000978 0.000978 0.999999 0.000000
246.09399414 214.45300293 452.50000000 -0.000978 -0.000978 -0.999999 0.000000
123.92600250 277.73400879 457.50000000 -0.009189 -0.431902 -0.901874 0.000000
91.40619659 243.45700073 452.50000000 -0.000978 -0.000978 -0.999999 0.000000
62.40230179 261.91400146 392.50000000 0.947717 -0.158178 0.277150 0.000000
176.66000366 171.38699341 382.50000000 0.000978 0.000978 0.999999 0.000000
173.14500427 263.67199707 457.50000000 -0.179321 -0.312770 -0.932748 0.000000
261.03500366 161.71899414 427.50000000 -0.369236 0.293882 -0.881645 0.000000
73.38870239 188.96499634 402.00000000 0.793779 0.595704 0.122688 0.000000
95.80079651 173.14500427 437.50000000 0.409766 0.685156 -0.602207 0.000000
280.37100220 212.69500732 437.50000000 -0.214001 -0.973519 0.080405 0.000000
67.23629761 270.70300293 422.00000000 0.600702 -0.325448 -0.730233 0.000000
201.27000427 217.96899414 397.50000000 0.798318 0.433833 0.417706 0.000000
159.96099854 246.97300720 392.50000000 0.499409 -0.703181 0.506090 0.000000
281.25000000 194.23800659 427.50000000 0.000978 0.000978 0.999999 0.000000
205.22500610 248.72999573 420.00000000 0.986763 -0.140292 0.081346 0.000000
239.06199646 201.27000427 447.50000000 -0.276042 0.332136 -0.901935 0.000000
83.49610138 180.17599487 432.50000000 0.690961 0.480159 -0.540388 0.000000
165.23399353 239.94099426 382.50000000 0.041847 -0.894990 0.444120 0.000000
214.45300293 150.29299927 437.50000000 -0.000978 -0.000978 -0.999999 0.000000
112.50000000 162.59800720 347.50000000 -0.001131 0.984919 0.173011 0.000000
72.94920349 291.35699463 372.00000000 0.834264 -0.513277 0.201374 0.000000
92.72460175 207.42199707 320.00000000 0.901279 0.306346 0.306346 0.000000
140.62500000 160.83999634 427.50000000 0.204959 0.899782 -0.385206 0.000000
280.37100220 199.51199341 427.50000000 -0.340608 -0.034703 0.939565 0.000000
164.79499817 188.08599854 372.00000000 -0.892683 0.363906 0.265874 0.000000
170.50799561 145.89799500 402.50000000 0.196132 0.950901 -0.239416 0.000000
137.98800659 174.02299500 452.50000000 -0.015260 0.775472 -0.631198 0.000000
183.69099426 271.14300537 440.00000000 -0.849679 -0.494277 -0.183674 0.000000
83.49610138 276.85501099 437.50000000 0.708633 -0.110955 -0.696798 0.000000
94.04299927 247.85200500 452.50000000 -0.000978 -0.000978 -0.999999 0.000000
92.28520203 208.30099487 317.50000000 0.818708 0.457653 0.346803 0.000000
129.19900513 309.37500000 417.50000000 -0.148066 0.037877 0.988252 0.000000
210.49800110 203.90600586 410.00000000 0.898137 -0.364269 0.246287 0.000000
162.59800720 179.73599243 372.00000000 -0.737806 0.303802 0.602782 0.000000
149.41400146 248.72999573 397.50000000 0.026127 -0.837434 0.545914 0.000000
175.78100586 264.55099487 457.50000000 -0.000978 -0.000978 -0.999999 0.000000
96.67970276 189.40400696 340.00000000 0.745535 0.626750 0.226630 0.000000
222.36300659 231.15199280 397.50000000 0.000978 0.000978 0.999999 0.000000
131.83599854 159.08200073 422.50000000 0.130624 0.943998 -0.302995 0.000000
61.52339935 256.64099121 392.50000000 0.943573 -0.147560 0.296474 0.000000
83.49610138 298.82800293 427.50000000 0.922118 -0.313091 -0.227313 0.000000
105.90799713 162.59800720 362.00000000 0.490909 0.861625 0.128882 0.000000
236.42599487 174.90199280 442.50000000 -0.094627 0.052323 -0.994137 0.000000
70.75199890 232.03100586 432.00000000 0.804104 -0.134758 -0.579014 0.000000
71.19139862 281.68899536 422.00000000 0.652662 -0.248106 -0.715874 0.000000
152.92999268 160.83999634 367.50000000 -0.821987 -0.421328 0.383170 0.000000
282.12899780 183.69099426 422.50000000 -0.150966 0.042639 0.987619 0.000000
73.82810211 213.57400513 357.50000000 0.883935 0.441244 0.154797 0.000000
280.37100220 178.41799927 427.50000000 -0.379083 0.391667 -0.838387 0.000000
161.27900696 281.25000000 450.00000000 0.001381 -0.688930 -0.724826 0.000000
196.87500000 165.23399353 442.50000000 -0.000978 -0.000978 -0.999999 0.000000
200.39100647 198.63299561 457.50000000 -0.000978 -0.000978 -0.999999 0.000000
203.90600586 200.39100647 412.50000000 0.279990 -0.423810 0.861389 0.000000
195.11700439 195.99600220 457.50000000 -0.579884 0.228534 -0.781989 0.000000
92.28520203 210.05900574 317.50000000 0.788822 0.488779 0.372633 0.000000
119.53099823 290.03900146 447.50000000 0.485406 -0.354042 -0.799397 0.000000
130.07800293 231.59199524 360.00000000 -0.273438 -0.908047 0.317305 0.000000
114.25800323 323.43798828 412.50000000 -0.512867 -0.385871 0.766858 0.000000
67.23629761 243.45700073 350.00000000 0.981869 0.115873 0.150025 0.000000
160.83999634 233.35000610 372.00000000 -0.169516 -0.670428 0.722351 0.000000
64.16020203 214.45300293 422.50000000 -0.000978 -0.000978 -0.999999 0.000000
215.33200073 237.30499268 457.50000000 -0.000978 -0.000978 -0.999999 0.000000
262.79299927 219.72700500 427.50000000 -0.448782 -0.515023 0.730306 0.000000
217.96899414 197.75399780 392.50000000 0.000978 0.000978 0.999999 0.000000
111.62100220 314.64801025 432.50000000 0.236426 -0.530026 -0.814355 0.000000
177.97900391 215.33200073 462.00000000 -0.487070 -0.677880 -0.550673 0.000000
124.80500031 162.59800720 437.50000000 0.001246 0.943059 0.332624 0.000000
115.13700104 166.11300659 442.50000000 -0.000978 -0.000978 -0.999999 0.000000
96.67970276 304.10198975 392.50000000 -0.748635 -0.073850 0.658857 0.000000
94.04299927 289.16000366 387.50000000 0.000978 0.000978 0.999999 0.000000
98.43750000 247.85200500 457.50000000 -0.000978 -0.000978 -0.999999 0.000000
131.83599854 210.93800354 467.50000000 -0.000978 -0.000978 -0.999999 0.000000
137.98800659 211.81599426 467.50000000 -0.000978 -0.000978 -0.999999 0.000000
239.06199646 210.05900574 407.50000000 -0.493776 -0.380451 0.781948 0.000000
146.77699280 267.18798828 412.50000000 0.313975 -0.214526 0.924877 0.000000
95.80079651 264.55099487 367.50000000 -0.693106 -0.593854 0.408585 0.000000
231.15199280 175.78100586 442.50000000 -0.000978 -0.000978 -0.999999 0.000000
173.58399963 207.42199707 400.00000000 -0.477844 0.242738 0.844241 0.000000
247.85200500 195.11700439 407.50000000 0.000978 0.000978 0.999999 0.000000
272.46099854 174.90199280 427.50000000 -0.076749 0.661775 -0.745764 0.000000
195.99600220 202.14799500 457.50000000 0.576876 0.721506 -0.382940 0.000000
103.71099854 243.45700073 457.50000000 0.390730 0.088493 -0.916242 0.000000
194.23800659 208.30099487 462.50000000 -0.354987 0.073125 -0.932007 0.000000
174.02299500 273.33999634 417.50000000 -0.389607 -0.764543 0.513499 0.000000
122.16799927 290.03900146 412.50000000 0.000978 0.000978 0.999999 0.000000
176.66000366 269.82400513 412.50000000 0.000978 0.000978 0.999999 0.000000
116.01599884 211.81599426 467.50000000 0.001307 0.435151 -0.900357 0.000000
100.19499969 199.51199341 457.50000000 0.558242 0.297411 -0.774540 0.000000
67.67579651 256.64099121 427.50000000 0.657007 -0.290754 -0.695560 0.000000
207.42199707 261.91400146 422.50000000 0.278630 0.067431 0.958028 0.000000
90.96679688 180.17599487 360.00000000 0.754621 0.481708 0.445539 0.000000
79.10160065 301.46499634 377.50000000 0.616769 -0.746117 0.250809 0.000000
175.78100586 143.70100403 370.00000000 -0.001131 -0.984919 -0.173011 0.000000
269.82400513 158.64300537 410.00000000 -0.334375 -0.573444 0.747901 0.000000
78.22270203 255.76199341 332.50000000 -0.199180 -0.628419 0.751942 0.000000
79.10160065 227.63699341 442.50000000 0.770700 0.162014 -0.616257 0.000000
228.51600647 225.87899780 452.50000000 -0.000978 -0.000978 -0.999999 0.000000
269.82400513 182.81199646 417.50000000 -0.186543 -0.081689 0.979045 0.000000
218.84800720 178.41799927 447.50000000 0.025955 0.141058 -0.989661 0.000000
179.29699707 143.70100403 392.00000000 0.076690 0.994747 -0.067798 0.000000
103.71099854 300.58599854 402.50000000 0.000978 0.000978 0.999999 0.000000
80.41989899 178.41799927 412.00000000 0.831185 0.555502 -0.023433 0.000000
67.67579651 200.39100647 402.50000000 0.883935 0.441244 0.154797 0.000000
283.00799561 187.20700073 422.50000000 -0.155358 0.017010 0.987712 0.000000
180.17599487 165.23399353 382.50000000 0.511983 -0.485300 0.708772 0.000000
254.00399780 228.95500183 430.00000000 -0.321389 -0.778688 0.538846 0.000000
254.00399780 189.84399414 442.50000000 -0.000978 -0.000978 -0.999999 0.000000
183.69099426 143.70100403 400.00000000 0.000978 0.999999 0.000978 0.000000
174.90199280 243.45700073 387.50000000 -0.221970 -0.856168 0.466589 0.000000
204.34599304 260.15600586 422.00000000 0.729059 0.428178 0.533982 0.000000
203.90600586 164.35499573 382.50000000 0.000978 0.000978 0.999999 0.000000
132.71499634 185.44900513 327.50000000 0.484725 0.831621 0.271012 0.000000
94.04299927 180.17599487 442.50000000 0.702620 0.443498 -0.556448 0.000000
163.47700500 285.64498901 422.50000000 -0.486399 -0.828276 0.278164 0.000000
232.03100586 175.78100586 442.50000000 -0.000978 -0.000978 -0.999999 0.000000
113.37899780 303.22299194 442.50000000 -0.017905 -0.822259 -0.568832 0.000000
74.26760101 275.97698975 430.00000000 0.748376 -0.226544 -0.623387 0.000000
116.01599884 283.88699341 452.50000000 0.191662 -0.199593 -0.960952 0.000000
89.20899963 292.67599487 380.00000000 -0.943207 -0.024120 0.331328 0.000000
244.33599854 192.47999573 442.50000000 -0.000978 -0.000978 -0.999999 0.000000
77.34380341 192.47999573 432.50000000 0.915891 0.201467 -0.347210 0.000000
102.83200073 187.20700073 327.50000000 0.732641 0.579259 0.357346 0.000000
172.26600647 205.66400146 472.50000000 -0.129662 0.103491 -0.986143 0.000000
188.96499634 159.96099854 377.50000000 0.042843 -0.349236 0.936055 0.000000
121.28900146 283.88699341 452.50000000 -0.088909 -0.224152 -0.970490 0.000000
152.92999268 290.91799927 422.50000000 0.000978 0.000978 0.999999 0.000000
134.47300720 245.21499634 467.50000000 -0.000978 -0.000978 -0.999999 0.000000
94.04299927 216.21099854 457.50000000 0.801357 -0.567184 -0.190075 0.000000
127.44100189 241.69900513 382.50000000 -0.466397 -0.820542 0.330430 0.000000
255.76199341 205.66400146 412.50000000 -0.551481 -0.451514 0.701430 0.000000
186.32800293 179.29699707 457.50000000 0.064791 0.718460 -0.692544 0.000000
256.64099121 190.72300720 412.50000000 -0.797948 -0.480053 0.364455 0.000000
248.72999573 176.66000366 402.50000000 0.000978 0.000978 0.999999 0.000000
69.43360138 201.70899963 390.00000000 0.891657 0.401026 0.210061 0.000000
271.58200073 167.87100220 427.50000000 -0.222243 0.522655 -0.823067 0.000000
190.72300720 143.70100403 380.00000000 0.212663 0.478116 0.852162 0.000000
92.28520203 206.54299927 452.50000000 0.273167 0.122727 -0.954106 0.000000
126.56199646 253.12500000 462.50000000 -0.000978 -0.000978 -0.999999 0.000000
239.94099426 194.23800659 402.50000000 0.000978 0.000978 0.999999 0.000000
130.07800293 167.87100220 442.50000000 0.379236 0.855989 -0.351373 0.000000
263.67199707 188.08599854 412.50000000 -0.702102 -0.220482 0.677083 0.000000
175.34199524 179.29699707 460.00000000 -0.071714 0.516063 -0.853543 0.000000
279.49200439 155.56599426 412.50000000 0.667203 -0.716740 -0.202792 0.000000
132.71499634 200.39100647 467.50000000 -0.000978 -0.000978 -0.999999 0.000000
124.80500031 254.88299561 462.50000000 -0.000978 -0.000978 -0.999999 0.000000
178.41799927 206.54299927 467.50000000 -0.000978 -0.000978 -0.999999 0.000000
66.35739899 242.57800293 352.00000000 0.945338 0.288064 0.152823 0.000000
150.29299927 159.08200073 427.50000000 0.228493 0.918283 -0.323339 0.000000
215.33200073 215.33200073 457.50000000 0.253276 0.480458 -0.839650 0.000000
88.76950073 217.08999634 317.50000000 0.796775 0.210324 0.566493 0.000000
94.92189789 255.76199341 452.50000000 0.335102 -0.118032 -0.934759 0.000000
71.19139862 232.47099304 340.00000000 0.925344 0.272328 0.263773 0.000000
161.71899414 223.24200439 367.50000000 -0.104669 0.697301 0.709095 0.000000
265.42999268 146.77699280 417.50000000 0.152973 0.416029 -0.896392 0.000000
156.44500732 148.53500366 397.50000000 0.370365 0.923878 -0.096322 0.000000
153.80900574 208.30099487 472.50000000 0.375477 0.029882 -0.926350 0.000000
235.10699463 204.78500366 450.00000000 -0.488105 0.296629 -0.820832 0.000000
98.43750000 219.72700500 457.50000000 -0.000978 -0.000978 -0.999999 0.000000
195.99600220 181.93400574 382.50000000 0.000978 0.000978 0.999999 0.000000
133.59399414 290.91799927 452.50000000 -0.534077 -0.534077 -0.655381 0.000000
137.10899353 269.82400513 457.50000000 0.237604 -0.719106 -0.653017 0.000000
163.47700500 242.57800293 467.50000000 -0.000978 -0.000978 -0.999999 0.000000
254.00399780 154.68800354 427.50000000 -0.367493 0.739885 -0.563489 0.000000
110.30300140 285.64498901 402.00000000 -0.917661 0.016921 0.397002 0.000000
102.83200073 312.89099121 432.50000000 0.597346 -0.486290 -0.637730 0.000000
115.13700104 257.51998901 462.50000000 0.433636 -0.260182 -0.862708 0.000000
116.89499664 224.12100220 467.50000000 0.198248 -0.084963 -0.976463 0.000000
161.71899414 258.39801025 462.50000000 -0.000978 -0.000978 -0.999999 0.000000
116.45500183 169.62899780 332.00000000 0.637947 0.513387 0.573984 0.000000
243.45700073 156.44500732 437.50000000 -0.686203 0.686203 -0.241354 0.000000
75.14649963 247.85200500 440.00000000 0.512940 -0.077718 -0.854899 0.000000
224.12100220 222.36300659 407.50000000 -0.600043 -0.600043 0.529052 0.000000
121.28900146 265.42999268 407.50000000 -0.115482 -0.062886 0.991317 0.000000
226.75799561 239.06199646 407.50000000 -0.875870 -0.339685 0.342732 0.000000
97.55860138 299.70700073 392.50000000 -0.699052 -0.210183 0.683483 0.000000
268.94500732 191.60200500 417.50000000 0.000978 0.000978 0.999999 0.000000
184.57000732 234.66799927 382.50000000 -0.657937 -0.560340 0.503128 0.000000
255.32200623 156.44500732 402.00000000 -0.215900 -0.531328 0.819194 0.000000
83.05660248 181.05499268 430.00000000 0.307485 0.854467 0.418735 0.000000
178.41799927 255.32200623 402.00000000 -0.242485 -0.900868 0.360053 0.000000
129.19900513 266.74798584 460.00000000 0.210839 -0.567881 -0.795649 0.000000
119.53099823 218.40800476 320.00000000 -0.780077 -0.623206 0.055618 0.000000
72.94920349 292.67599487 377.50000000 0.827807 -0.512598 0.227991 0.000000
163.47700500 150.73199463 412.00000000 0.379254 0.756880 -0.532258 0.000000
189.84399414 186.32800293 457.50000000 -0.000978 -0.000978 -0.999999 0.000000
132.71499634 153.80900574 347.50000000 0.226772 0.931031 0.285929 0.000000
190.72300720 176.66000366 382.50000000 -0.100615 -0.474733 0.874360 0.000000
116.01599884 228.51600647 467.50000000 0.489717 0.059654 -0.869838 0.000000
181.93400574 155.56599426 432.50000000 0.243432 0.286139 -0.926750 0.000000
252.24600220 149.41400146 397.50000000 -0.345251 -0.753716 0.559209 0.000000
168.75000000 243.45700073 387.50000000 0.000978 0.000978 0.999999 0.000000
150.29299927 278.61300659 452.50000000 -0.000978 -0.000978 -0.999999 0.000000
234.66799927 141.06399536 400.00000000 0.104155 0.993394 0.048158 0.000000
224.12100220 234.66799927 447.50000000 -0.595633 -0.697930 0.397638 0.000000
272.46099854 217.08999634 452.50000000 0.000978 0.999999 0.000978 0.000000
184.57000732 176.22099304 452.00000000 -0.469334 0.683123 -0.559526 0.000000
135.35200500 181.93400574 332.50000000 -0.221656 0.854961 0.468947 0.000000
219.72700500 174.90199280 447.50000000 -0.403613 0.445421 -0.799185 0.000000
90.96679688 314.64801025 420.00000000 0.567146 -0.580690 -0.584076 0.000000
143.26199341 266.74798584 412.00000000 0.311891 -0.548608 0.775728 0.000000
123.92600250 235.98599243 362.00000000 -0.810214 -0.577477 0.100368 0.000000
207.42199707 165.67399597 442.00000000 0.072795 0.566660 -0.820730 0.000000
252.24600220 142.38299561 417.50000000 -0.076456 0.924178 -0.374232 0.000000
159.96099854 174.02299500 457.50000000 0.756880 0.379254 -0.532258 0.000000
137.10899353 204.78500366 467.50000000 -0.000978 -0.000978 -0.999999 0.000000
139.74600220 288.28100586 452.50000000 0.033937 -0.481902 -0.875568 0.000000
250.48800659 219.72700500 417.50000000 -0.425303 -0.258814 0.867256 0.000000
101.95300293 173.14500427 347.50000000 0.524965 0.521610 0.672558 0.000000
257.51998901 208.30099487 447.50000000 -0.727773 0.264789 -0.632640 0.000000
222.36300659 240.82000732 452.50000000 -0.762692 -0.095153 -0.639724 0.000000
190.72300720 185.44900513 382.50000000 0.000978 0.000978 0.999999 0.000000
88.33010101 192.47999573 352.00000000 0.600043 0.600043 0.529052 0.000000
70.75199890 288.28100586 410.00000000 0.918156 -0.393496 0.046372 0.000000
101.95300293 316.40600586 397.50000000 0.000978 0.000978 0.999999 0.000000
134.91200256 148.53500366 360.00000000 0.348093 0.924054 0.157970 0.000000
103.71099854 256.64099121 457.50000000 -0.000978 -0.000978 -0.999999 0.000000
102.83200073 271.58200073 387.50000000 -0.239831 -0.140229 0.960634 0.000000
146.77699280 163.47700500 432.50000000 -0.071861 0.944651 -0.320110 0.000000
193.35899353 148.53500366 427.50000000 0.055433 0.901797 -0.428590 0.000000
145.02000427 242.57800293 387.50000000 0.000978 0.000978 0.999999 0.000000
124.80500031 239.06199646 467.50000000 0.153233 -0.097731 -0.983345 0.000000
220.60499573 240.82000732 452.50000000 -0.762692 -0.095153 -0.639724 0.000000
263.67199707 221.92399597 430.00000000 -0.508687 -0.488674 0.708827 0.000000
152.92999268 252.24600220 402.50000000 0.220944 -0.795706 0.563947 0.000000
87.01170349 217.96899414 452.50000000 0.423100 0.311513 -0.850850 0.000000
164.35499573 142.82200623 380.00000000 0.000000 0.000000 0.000000 0.000000
219.72700500 254.00399780 417.50000000 -0.307838 -0.926351 0.217047 0.000000
156.44500732 194.23800659 472.50000000 -0.000978 -0.000978 -0.999999 0.000000
219.72700500 226.75799561 397.50000000 0.000978 0.000978 0.999999 0.000000
108.98400116 173.14500427 337.50000000 0.000978 0.000978 0.999999 0.000000
138.86700439 250.48800659 397.50000000 0.067047 -0.803137 0.592010 0.000000
68.99410248 222.36300659 362.00000000 0.924656 0.199658 0.324267 0.000000
113.37899780 162.59800720 347.50000000 -0.001131 0.984919 0.173011 0.000000
261.03500366 171.38699341 407.50000000 -0.750486 -0.397316 0.528120 0.000000
178.41799927 174.90199280 382.50000000 0.000978 0.000978 0.999999 0.000000
173.14500427 246.97300720 467.50000000 -0.104884 -0.512925 -0.852002 0.000000
163.47700500 207.42199707 477.50000000 -0.435935 0.406980 -0.802700 0.000000
105.90799713 244.33599854 460.00000000 0.618368 -0.344263 -0.706473 0.000000
105.46900177 208.30099487 462.50000000 -0.000978 -0.000978 -0.999999 0.000000
239.06199646 193.35899353 442.50000000 -0.050865 0.251843 -0.966431 0.000000
76.46479797 219.72700500 347.50000000 0.899597 0.403169 0.167867 0.000000
213.57400513 156.44500732 442.50000000 0.751144 0.110679 -0.650794 0.000000
143.26199341 276.85501099 457.50000000 -0.000978 -0.000978 -0.999999 0.000000
185.44900513 162.59800720 377.50000000 0.000978 0.000978 0.999999 0.000000
100.19499969 319.92199707 402.50000000 -0.409433 -0.624924 0.664707 0.000000
195.99600220 205.66400146 407.50000000 0.000978 0.000978 0.999999 0.000000
188.08599854 214.45300293 462.50000000 -0.000978 -0.000978 -0.999999 0.000000
161.71899414 211.81599426 387.50000000 -0.946219 -0.302098 0.115782 0.000000
83.05660248 224.12100220 320.00000000 0.728395 0.243847 0.640296 0.000000
174.02299500 217.96899414 392.50000000 -0.611306 0.490055 0.621410 0.000000
120.41000366 180.17599487 457.50000000 0.141833 0.439825 -0.886813 0.000000
88.76950073 315.52700806 417.50000000 0.454142 -0.734885 -0.503685 0.000000
210.05900574 255.76199341 442.50000000 -0.308125 -0.771110 -0.557179 0.000000
165.23399353 175.78100586 377.50000000 -0.210549 0.163470 0.963819 0.000000
100.19499969 255.32200623 360.00000000 -0.719447 -0.643215 0.262050 0.000000
268.06600952 197.75399780 417.50000000 -0.812863 0.476943 0.334335 0.000000
130.07800293 271.58200073 412.50000000 0.000978 0.000978 0.999999 0.000000
224.12100220 179.29699707 392.50000000 0.000978 0.000978 0.999999 0.000000
276.85501099 195.99600220 437.50000000 -0.000978 -0.000978 -0.999999 0.000000
219.72700500 224.12100220 457.50000000 -0.000978 -0.000978 -0.999999 0.000000
235.54699707 155.56599426 437.50000000 0.000978 0.000978 -0.999999 0.000000
113.37899780 249.60899353 462.50000000 -0.000978 -0.000978 -0.999999 0.000000
254.88299561 213.13499451 450.00000000 -0.620382 0.015267 -0.784151 0.000000
264.55099487 146.77699280 417.50000000 -0.000978 -0.000978 -0.999999 0.000000
69.87300110 261.91400146 430.00000000 0.896851 -0.069831 -0.436787 0.000000
166.55299377 217.08999634 390.00000000 -0.247003 0.542164 0.803149 0.000000
65.03910065 274.21899414 402.50000000 0.853801 -0.512849 0.089500 0.000000
108.98400116 222.00000000 317.50000000 0.000978 0.000978 0.999999 0.000000
109.86299896 222.00000000 317.50000000 0.000978 0.000978 0.999999 0.000000
82.61720276 256.64099121 442.50000000 0.629668 -0.435924 -0.643030 0.000000
183.69099426 235.54699707 447.50000000 -0.417283 -0.810584 -0.410888 0.000000
223.68200684 252.24600220 440.00000000 -0.730127 -0.649175 -0.213278 0.000000
194.23800659 217.08999634 397.50000000 0.954456 -0.023644 0.297412 0.000000
66.35739899 252.24600220 350.00000000 0.984919 -0.001131 0.173011 0.000000
211.81599426 253.12500000 442.50000000 0.543933 -0.081376 -0.835173 0.000000
220.60499573 248.72999573 407.50000000 -0.638070 -0.570727 0.516853 0.000000
167.87100220 195.99600220 472.50000000 -0.144216 0.030660 -0.989071 0.000000
78.22270203 195.11700439 432.50000000 0.639636 0.279143 -0.716201 0.000000
116.89499664 308.49600220 412.50000000 -0.316117 -0.026448 0.948351 0.000000
272.46099854 148.53500366 407.50000000 -0.966267 0.178168 0.185971 0.000000
179.29699707 248.72999573 462.50000000 -0.710683 -0.554962 -0.432373 0.000000
181.93400574 194.23800659 392.50000000 0.293748 -0.884258 0.363043 0.000000
255.76199341 203.02699280 442.50000000 -0.329596 0.686794 -0.647827 0.000000
228.51600647 244.33599854 412.50000000 -0.683626 -0.654398 0.323139 0.000000
87.89060211 185.00999451 360.00000000 0.648972 0.304357 0.697282 0.000000
233.78900146 173.14500427 442.50000000 -0.161942 -0.065013 -0.984656 0.000000
111.62100220 225.87899780 317.50000000 -0.719880 -0.421999 0.551081 0.000000
235.54699707 215.33200073 452.50000000 -0.000978 -0.000978 -0.999999 0.000000
256.64099121 189.84399414 442.50000000 -0.000978 -0.000978 -0.999999 0.000000
139.74600220 190.72300720 327.50000000 -0.000978 -0.000978 0.999999 0.000000
212.69500732 180.17599487 447.50000000 -0.000978 -0.000978 -0.999999 0.000000
164.35499573 268.94500732 412.50000000 0.000978 0.000978 0.999999 0.000000
84.37500000 226.75799561 317.50000000 0.565335 0.072625 0.821658 0.000000
254.00399780 200.39100647 442.50000000 -0.000978 -0.000978 -0.999999 0.000000
163.47700500 277.73400879 417.50000000 0.000978 0.000978 0.999999 0.000000
250.48800659 232.03100586 432.50000000 -0.316958 -0.788413 0.527202 0.000000
145.89799500 224.56100464 360.00000000 -0.600480 -0.637485 0.482739 0.000000
178.41799927 198.63299561 467.50000000 -0.000978 -0.000978 -0.999999 0.000000
261.91400146 168.75000000 432.50000000 0.158863 0.954516 0.252313 0.000000
128.32000732 201.27000427 467.50000000 -0.000978 -0.000978 -0.999999 0.000000
247.85200500 188.52499390 402.00000000 -0.532026 -0.306510 0.789304 0.000000
171.38699341 187.20700073 387.50000000 0.000978 0.000978 0.999999 0.000000
182.37300110 257.51998901 430.00000000 -0.929088 0.369856 -0.001271 0.000000
132.71499634 306.73800659 422.50000000 -0.648395 0.244528 0.720965 0.000000
191.60200500 169.18899536 380.00000000 -0.577450 -0.284748 0.765161 0.000000
239.06199646 189.84399414 442.50000000 -0.000978 -0.000978 -0.999999 0.000000
259.27700806 232.91000366 452.50000000 -0.169722 -0.886328 -0.430834 0.000000
246.97300720 221.48399353 417.50000000 -0.408948 -0.604315 0.683787 0.000000
139.74600220 166.11300659 332.50000000 -0.761568 -0.198469 0.616947 0.000000
166.99200439 260.15600586 462.50000000 -0.101723 -0.685525 -0.720907 0.000000
130.07800293 226.31799316 342.00000000 0.662761 -0.662761 0.348563 0.000000
83.49610138 220.60499573 447.50000000 -0.554247 0.749290 -0.362455 0.000000
159.08200073 155.12699890 370.00000000 -0.573477 -0.644111 0.506207 0.000000
78.22270203 203.02699280 362.50000000 0.815840 0.487610 0.310871 0.000000
145.02000427 152.05099487 397.50000000 0.132500 0.958988 -0.250570 0.000000
81.73829651 228.07600403 320.00000000 0.633936 0.040945 0.772301 0.000000
125.68399811 152.92999268 357.50000000 0.446689 0.894688 -0.001310 0.000000
151.17199707 203.46699524 340.00000000 -0.373176 -0.606617 0.701966 0.000000
124.80500031 311.13299561 417.50000000 0.000978 0.000978 0.999999 0.000000
93.16410065 196.43600464 332.00000000 0.756549 0.524519 0.390530 0.000000
140.62500000 279.49200439 422.50000000 0.000978 0.000978 0.999999 0.000000
117.77300262 287.40200806 452.50000000 -0.038688 -0.278304 -0.959713 0.000000
95.80079651 301.46499634 432.50000000 -0.000978 -0.000978 -0.999999 0.000000
130.95700073 245.21499634 467.50000000 0.076150 -0.230948 -0.969981 0.000000
272.46099854 206.54299927 427.50000000 -0.230548 -0.726149 0.647731 0.000000
134.47300720 229.39500427 357.50000000 -0.294552 -0.926344 0.234788 0.000000
234.66799927 183.69099426 442.50000000 -0.000978 -0.000978 -0.999999 0.000000
72.07029724 210.05900574 432.50000000 0.870296 0.115754 -0.478734 0.000000
188.08599854 230.27299500 382.50000000 -0.725923 -0.554730 0.406583 0.000000
63.28120041 260.15600586 417.50000000 0.852726 -0.427134 -0.300690 0.000000
137.10899353 266.30899048 462.50000000 -0.085297 -0.462838 -0.882329 0.000000
97.11910248 268.94500732 450.00000000 0.512670 -0.211458 -0.832139 0.000000
78.66210175 198.63299561 362.00000000 0.686533 0.433862 0.583470 0.000000
159.52099609 171.38699341 372.00000000 -0.850454 0.123149 0.511431 0.000000
160.83999634 199.51199341 472.50000000 -0.000978 -0.000978 -0.999999 0.000000
245.21499634 165.23399353 402.50000000 0.000978 0.000978 0.999999 0.000000
86.13279724 229.39500427 317.50000000 0.709306 0.179242 0.681731 0.000000
154.68800354 195.11700439 342.50000000 -0.728395 -0.243847 0.640296 0.000000
166.99200439 184.57000732 382.50000000 -0.681357 -0.018188 0.731725 0.000000
86.13279724 289.16000366 432.50000000 0.399490 -0.500585 -0.767999 0.000000
219.72700500 209.17999268 397.50000000 0.133237 -0.259878 0.956405 0.000000
119.53099823 272.46099854 407.50000000 -0.149375 -0.278563 0.948731 0.000000
177.53900146 209.17999268 467.50000000 -0.000978 -0.000978 -0.999999 0.000000
108.10500336 229.39500427 317.50000000 -0.771039 -0.490661 0.405896 0.000000
174.90199280 206.54299927 402.50000000 -0.573444 -0.804019 0.157210 0.000000
130.07800293 262.79299927 462.50000000 0.306278 -0.288693 -0.907111 0.000000
163.03700256 194.23800659 352.00000000 -0.967893 0.142677 0.206947 0.000000
98.43750000 281.25000000 447.50000000 -0.423932 -0.887198 -0.182101 0.000000
151.17199707 246.09399414 467.50000000 -0.000978 -0.000978 -0.999999 0.000000
178.41799927 175.78100586 457.50000000 -0.123404 0.655679 -0.744887 0.000000
265.42999268 227.63699341 442.50000000 -0.565486 -0.708101 0.422870 0.000000
239.94099426 193.35899353 442.50000000 -0.137220 0.209036 -0.968233 0.000000
149.41400146 170.50799561 447.50000000 -0.132101 0.788154 -0.601134 0.000000
190.72300720 186.32800293 457.50000000 -0.000978 -0.000978 -0.999999 0.000000
85.69339752 309.37500000 382.00000000 0.062161 -0.879919 0.471040 0.000000
185.44900513 232.03100586 382.50000000 0.000978 0.000978 0.999999 0.000000
87.89060211 284.76599121 437.50000000 0.630041 -0.370128 -0.682681 0.000000
100.19499969 248.72999573 457.50000000 -0.000978 -0.000978 -0.999999 0.000000
68.55470276 283.88699341 372.50000000 0.909365 -0.379969 0.169350 0.000000
88.76950073 220.60499573 452.50000000 0.075112 0.116712 -0.990321 0.000000
109.86299896 169.62899780 342.50000000 0.513653 0.713129 0.477082 0.000000
76.46479797 283.00799561 357.50000000 -0.185796 -0.726292 0.661801 0.000000
169.62899780 180.17599487 382.50000000 0.000978 0.000978 0.999999 0.000000
81.29879761 231.15199280 320.00000000 0.527060 -0.139473 0.838305 0.000000
105.46900177 235.54699707 462.50000000 -0.000978 -0.000978 -0.999999 0.000000
143.26199341 186.32800293 337.50000000 0.842982 -0.200566 0.499154 0.000000
99.31639862 303.22299194 392.50000000 0.000978 0.000978 0.999999 0.000000
242.57800293 187.20700073 402.50000000 0.000978 0.000978 0.999999 0.000000
166.11300659 197.75399780 362.50000000 -0.924230 0.267127 0.272841 0.000000
204.78500366 201.27000427 412.50000000 -0.022419 -0.206494 0.978191 0.000000
61.96289825 236.42599487 400.00000000 0.501575 0.501575 0.704872 0.000000
74.26760101 296.19100952 410.00000000 0.912397 -0.405957 0.052252 0.000000
99.31639862 239.06199646 457.50000000 -0.000978 -0.000978 -0.999999 0.000000
96.67970276 196.87500000 327.50000000 0.758127 0.611794 0.225726 0.000000
245.21499634 207.42199707 452.50000000 -0.390384 0.700056 -0.597931 0.000000
120.41000366 189.84399414 462.50000000 -0.000978 -0.000978 -0.999999 0.000000
192.47999573 144.58000183 412.00000000 0.166843 0.971765 -0.166843 0.000000
83.49610138 196.87500000 442.50000000 0.441700 -0.148193 -0.884839 0.000000
93.16410065 309.37500000 427.50000000 0.634235 -0.587130 -0.503014 0.000000
80.85939789 231.59199524 320.00000000 0.936448 0.196195 0.290814 0.000000
84.81449890 275.09799194 440.00000000 0.749132 -0.281521 -0.599623 0.000000
225.87899780 181.05499268 392.50000000 0.000978 0.000978 0.999999 0.000000
158.20300293 226.75799561 472.50000000 0.397315 -0.167819 -0.902207 0.000000
245.21499634 209.17999268 452.50000000 -0.000978 -0.000978 -0.999999 0.000000
177.53900146 204.34599304 400.00000000 -0.233711 -0.543261 0.806379 0.000000
223.24200439 181.93400574 447.50000000 -0.308626 0.282298 -0.908327 0.000000
112.50000000 268.06600952 457.50000000 0.167823 -0.048117 -0.984642 0.000000
184.57000732 166.99200439 447.50000000 -0.833415 0.498821 -0.237899 0.000000
194.23800659 161.71899414 377.50000000 0.156631 -0.376760 0.912973 0.000000
182.81199646 258.39801025 432.50000000 -0.919404 0.392157 0.030166 0.000000
183.69099426 234.66799927 382.50000000 0.000978 0.000978 0.999999 0.000000
102.83200073 232.03100586 317.50000000 -0.099540 -0.887447 0.450032 0.000000
71.63089752 213.57400513 362.00000000 0.918433 0.281153 0.278269 0.000000
210.93800354 234.66799927 462.50000000 -0.000978 -0.000978 -0.999999 0.000000
208.30099487 176.66000366 447.50000000 -0.000978 -0.000978 -0.999999 0.000000
137.10899353 267.18798828 462.50000000 -0.189753 -0.686504 -0.701931 0.000000
268.06600952 194.23800659 437.50000000 -0.489142 0.446321 -0.749358 0.000000
193.35899353 222.00000000 457.50000000 -0.435866 -0.649624 -0.622904 0.000000
268.94500732 167.87100220 427.50000000 -0.126852 0.255011 -0.958581 0.000000
274.21899414 182.81199646 417.50000000 -0.204355 0.090412 0.974713 0.000000
246.97300720 164.35499573 437.50000000 -0.000978 -0.000978 -0.999999 0.000000
187.20700073 176.66000366 452.50000000 -0.345544 0.810515 -0.472933 0.000000
143.26199341 258.39801025 462.50000000 -0.000978 -0.000978 -0.999999 0.000000
216.21099854 234.66799927 457.50000000 -0.000978 -0.000978 -0.999999 0.000000
174.02299500 173.58399963 452.00000000 0.047023 0.742401 -0.668303 0.000000
131.83599854 314.64801025 417.50000000 0.000978 0.000978 0.999999 0.000000
100.19499969 221.48399353 457.50000000 -0.000978 -0.000978 -0.999999 0.000000
88.76950073 176.66000366 372.50000000 0.801413 0.586722 0.116168 0.000000
181.05499268 156.44500732 432.50000000 0.299477 0.267649 -0.915793 0.000000
112.50000000 298.82800293 407.50000000 -0.756551 0.168968 0.631728 0.000000
236.42599487 159.96099854 397.50000000 0.000978 0.000978 0.999999 0.000000
97.55860138 254.88299561 352.50000000 -0.739135 -0.611423 0.282563 0.000000
183.69099426 261.91400146 417.50000000 -0.984919 -0.001131 0.173011 0.000000
108.54499817 272.46099854 400.00000000 -0.124872 -0.556783 0.821218 0.000000
226.31799316 239.94099426 440.00000000 -0.941369 0.245394 -0.231530 0.000000
111.62100220 222.36300659 462.50000000 0.360149 -0.011454 -0.932824 0.000000
152.05099487 221.48399353 472.50000000 0.000978 0.000978 -0.999999 0.000000
157.32400513 304.54098511 430.00000000 -0.566383 -0.748145 0.345672 0.000000
97.55860138 296.19100952 437.50000000 -0.000978 -0.000978 -0.999999 0.000000
122.16799927 158.20300293 347.50000000 0.603838 0.732657 0.313996 0.000000
241.25999451 154.68800354 392.00000000 -0.055944 -0.724401 0.687105 0.000000
230.27299500 208.30099487 452.50000000 -0.000978 -0.000978 -0.999999 0.000000
134.03300476 175.78100586 452.00000000 -0.136478 0.688390 -0.712386 0.000000
209.17999268 258.39801025 422.50000000 0.344358 -0.142445 0.927969 0.000000
79.10160065 251.36700439 332.50000000 0.187546 -0.590085 0.785255 0.000000
92.28520203 310.69299316 422.00000000 0.679206 -0.442235 -0.585753 0.000000
275.09799194 197.75399780 437.50000000 -0.000978 -0.000978 -0.999999 0.000000
112.50000000 304.98001099 437.50000000 0.031743 -0.837737 -0.545150 0.000000
178.41799927 254.00399780 402.50000000 -0.260532 -0.874965 0.408116 0.000000
120.41000366 262.79299927 462.50000000 -0.350812 -0.498186 -0.792932 0.000000
245.21499634 152.05099487 392.50000000 -0.473519 -0.833703 0.284111 0.000000
128.32000732 159.96099854 337.50000000 0.238110 0.956433 -0.168939 0.000000
198.63299561 166.11300659 382.50000000 0.000978 0.000978 0.999999 0.000000
157.32400513 263.67199707 407.50000000 0.411734 -0.855851 0.313041 0.000000
135.35200500 151.17199707 382.50000000 -0.001131 0.984919 -0.173011 0.000000
68.99410248 259.27700806 340.00000000 0.835959 -0.204077 0.509436 0.000000
170.50799561 275.97698975 417.50000000 -0.146442 -0.044970 0.988197 0.000000
233.35000610 142.38299561 390.00000000 0.083460 0.980956 0.175387 0.000000
215.33200073 143.26199341 402.50000000 0.001131 0.984919 0.173011 0.000000
120.41000366 154.68800354 392.50000000 0.701680 0.701680 0.123651 0.000000
144.14100647 299.70700073 422.50000000 0.000978 0.000978 0.999999 0.000000
103.71099854 159.52099609 392.00000000 0.000978 0.000978 0.999999 0.000000
101.95300293 233.78900146 317.50000000 -0.322177 -0.807824 0.493582 0.000000
218.84800720 173.58399963 442.00000000 -0.597421 0.267809 -0.755888 0.000000
68.55470276 282.12899780 372.50000000 0.961866 -0.214479 0.169741 0.000000
113.37899780 156.88499451 380.00000000 0.370970 0.928075 0.032541 0.000000
85.25389862 267.18798828 442.50000000 0.481712 -0.353682 -0.801787 0.000000
109.86299896 324.31600952 422.50000000 0.337327 -0.154088 -0.928691 0.000000
71.63089752 210.05900574 370.00000000 0.894881 0.343956 0.284397 0.000000
214.45300293 162.59800720 442.50000000 -0.000978 -0.000978 -0.999999 0.000000
251.36700439 188.96499634 407.50000000 -0.323815 -0.472296 0.819805 0.000000
94.48239899 165.23399353 402.00000000 0.504913 0.861811 0.048416 0.000000
116.01599884 300.58599854 442.50000000 -0.421335 -0.440706 -0.792625 0.000000
79.10160065 186.76800537 430.00000000 0.790978 0.488119 -0.368908 0.000000
222.00000000 162.59800720 442.50000000 -0.186570 0.100081 -0.977331 0.000000
239.06199646 195.99600220 402.50000000 -0.350904 -0.084057 0.932631 0.000000
70.31250000 206.54299927 382.50000000 0.984919 0.001131 -0.173011 0.000000
137.10899353 272.46099854 457.50000000 0.161688 -0.602929 -0.781239 0.000000
150.73199463 203.90600586 340.00000000 -0.373176 -0.606617 0.701966 0.000000
91.40619659 281.25000000 442.50000000 -0.000978 -0.000978 -0.999999 0.000000
210.93800354 204.78500366 457.50000000 -0.321430 0.342557 -0.882801 0.000000
