77.80500031 189.69599915 347.00000000 -0.824748 0.121588 0.552274 0.000000
117.81900024 128.93400574 391.00000000 -0.419871 0.055353 0.905894 0.000000
126.71099854 205.25700378 249.00000000 0.338229 -0.338229 -0.878181 0.000000
92.62500000 158.57400513 381.00000000 -0.245394 0.231530 0.941369 0.000000
221.55900574 92.25450134 368.00000000 0.372269 -0.791274 0.485078 0.000000
116.70700073 102.25800323 318.00000000 -0.761249 -0.616103 0.202279 0.000000
153.38699341 117.07800293 305.00000000 -0.275970 -0.630104 0.725816 0.000000
140.78999329 194.88299561 267.00000000 0.000978 0.000978 -0.999999 0.000000
108.18599701 221.92999268 358.00000000 -0.148794 0.131578 0.980075 0.000000
100.03500366 208.96200562 363.00000000 0.000978 0.000978 0.999999 0.000000
114.85500336 241.93600464 310.00000000 -0.373353 0.745076 -0.552693 0.000000
218.59500122 108.18599701 363.00000000 0.000978 0.000978 -0.999999 0.000000
80.02799988 171.17100525 255.00000000 -0.000978 -0.000978 -0.999999 0.000000
162.27900696 87.80850220 336.00000000 -0.034301 -0.998892 0.032222 0.000000
131.52699280 164.50199890 302.00000000 0.617798 0.450373 -0.644586 0.000000
116.33699799 148.19999695 293.00000000 0.365411 0.239205 -0.899586 0.000000
95.58899689 201.55200195 237.00000000 -0.173784 -0.173784 -0.969329 0.000000
92.62500000 214.88999939 281.00000000 -0.513885 0.855542 -0.063010 0.000000
110.77999878 117.07800293 380.00000000 -0.814228 -0.438185 0.380823 0.000000
97.81199646 221.18800354 250.00000000 -0.596134 0.795334 -0.109853 0.000000
171.54200745 102.99900055 316.00000000 -0.593290 -0.404891 0.695752 0.000000
133.38000488 108.18599701 321.00000000 0.706293 -0.350700 -0.614948 0.000000
80.02799988 191.54800415 252.00000000 0.108521 0.981571 -0.157295 0.000000
193.40100098 137.82600403 375.00000000 -0.018992 0.132945 0.990941 0.000000
97.81199646 124.48799896 315.00000000 -0.871385 -0.390831 0.296545 0.000000
205.25700378 114.11399841 377.00000000 -0.000978 -0.000978 0.999999 0.000000
140.04899597 155.61000061 387.00000000 -0.000978 -0.000978 0.999999 0.000000
92.25450134 131.89799500 360.00000000 -0.937612 0.001255 -0.347682 0.000000
101.51699829 170.42999268 381.00000000 -0.266016 0.395266 0.879204 0.000000
130.41600037 228.96899414 353.00000000 -0.079667 0.384831 0.919543 0.000000
79.65750122 200.81100464 328.00000000 -0.999999 -0.000978 -0.000978 0.000000
108.18599701 207.47999573 365.00000000 0.000978 0.000978 0.999999 0.000000
149.31100464 183.76800537 292.00000000 0.437737 -0.849179 -0.295434 0.000000
111.89099884 194.14199829 371.00000000 0.000978 0.000978 0.999999 0.000000
147.45899963 242.30700684 333.00000000 0.941947 0.314876 -0.116571 0.000000
146.71800232 102.25800323 371.00000000 -0.213013 -0.251493 0.944128 0.000000
129.67500305 134.12100220 297.00000000 0.852531 -0.371138 -0.368032 0.000000
97.07099915 127.82299805 378.00000000 -0.739506 -0.625978 0.247553 0.000000
183.02699280 173.02299500 346.00000000 0.739506 0.625978 -0.247553 0.000000
118.55999756 105.22200012 357.00000000 -0.819334 -0.273111 0.504085 0.000000
143.75399780 145.97700500 387.00000000 0.270088 0.206375 0.940459 0.000000
136.34399414 198.58799744 369.00000000 0.804402 0.001366 0.594083 0.000000
111.89099884 156.35099792 287.00000000 0.181139 -0.123674 -0.975650 0.000000
200.81100464 107.44499969 347.00000000 0.941947 -0.314876 -0.116571 0.000000
165.61300659 177.83999634 322.00000000 0.547999 0.425486 -0.720180 0.000000
94.84799957 202.29299927 237.00000000 0.815840 -0.487610 -0.310871 0.000000
81.88050079 195.62399292 252.00000000 -0.836409 0.379613 0.395365 0.000000
127.45200348 206.73899841 365.00000000 0.000978 0.000978 0.999999 0.000000
78.54599762 154.86900330 275.00000000 -0.978185 -0.003481 0.207705 0.000000
81.51000214 209.70300293 333.00000000 -0.886229 0.443828 0.132720 0.000000
154.12800598 113.37300110 375.00000000 0.000978 0.000978 0.999999 0.000000
137.82600403 94.10700226 357.00000000 -0.359301 -0.877786 0.316852 0.000000
77.06400299 164.50199890 311.00000000 -0.639507 -0.768784 0.001375 0.000000
114.48400116 101.51699829 312.00000000 -0.579853 -0.613664 0.535899 0.000000
84.10350037 213.40800476 340.00000000 -0.941947 0.314876 0.116571 0.000000
151.90499878 90.77249908 320.00000000 -0.481338 -0.870385 -0.103651 0.000000
187.47300720 119.30100250 381.00000000 0.000978 0.000978 0.999999 0.000000
148.19999695 135.23199463 330.00000000 0.346789 -0.922430 0.169884 0.000000
151.53500366 91.14299774 316.00000000 0.471595 -0.872953 -0.124708 0.000000
114.11399841 200.81100464 369.00000000 -0.266427 -0.151288 0.951908 0.000000
159.68600464 198.58799744 356.00000000 0.819804 0.040501 0.571210 0.000000
145.23599243 174.13499451 315.00000000 0.151037 -0.491237 -0.857831 0.000000
145.23599243 208.96200562 359.00000000 0.153733 0.200240 0.967611 0.000000
144.12399292 217.11300659 266.00000000 0.812127 -0.260317 -0.522193 0.000000
134.12100220 132.63900757 391.00000000 0.561340 -0.444741 0.697927 0.000000
134.12100220 150.42300415 293.00000000 0.053656 0.184815 -0.981308 0.000000
76.69349670 177.83999634 260.00000000 -0.960304 0.261667 0.096675 0.000000
94.84799957 181.54499817 251.00000000 0.470976 -0.641936 -0.605062 0.000000
80.76899719 169.68899536 351.00000000 -0.668888 -0.001379 0.743362 0.000000
138.56700134 145.23599243 389.00000000 0.173784 0.173784 0.969329 0.000000
85.95600128 162.27900696 373.00000000 -0.888126 -0.220184 0.403425 0.000000
194.51199341 131.15699768 344.00000000 0.849163 0.423805 0.315137 0.000000
187.47300720 128.93400574 379.00000000 0.268379 0.538328 0.798859 0.000000
160.05599976 88.54949951 320.00000000 -0.215125 -0.932207 -0.291051 0.000000
82.25099945 170.42999268 255.00000000 -0.337243 -0.310263 -0.888822 0.000000
142.27200317 100.77600098 369.00000000 -0.467323 -0.428244 0.773444 0.000000
100.03500366 122.26499939 321.00000000 -0.827286 -0.495130 -0.265414 0.000000
160.79699707 189.69599915 315.00000000 0.955110 0.108446 0.275688 0.000000
152.64599609 231.93299866 285.00000000 0.648216 0.648216 -0.399540 0.000000
76.69349670 143.01300049 272.00000000 -0.756234 -0.001377 0.654300 0.000000
214.14900208 143.01300049 371.00000000 0.343379 0.112650 0.932417 0.000000
156.35099792 165.98399353 375.00000000 0.000978 0.000978 0.999999 0.000000
78.54599762 181.54499817 305.00000000 -0.863073 -0.175565 -0.473584 0.000000
151.53500366 217.85400391 274.00000000 0.754005 0.216096 -0.620305 0.000000
196.36500549 150.42300415 371.00000000 -0.105881 0.325686 0.939531 0.000000
120.78299713 120.78299713 389.00000000 -0.001263 -0.359825 0.933019 0.000000
163.76100159 185.61999512 358.00000000 0.548758 0.439338 0.711230 0.000000
126.71099854 112.63200378 293.00000000 0.199733 0.079648 -0.976608 0.000000
169.31799316 187.47300720 346.00000000 0.732133 -0.454485 0.507370 0.000000
111.15000153 219.33599854 359.00000000 -0.368580 0.374801 0.850690 0.000000
102.99900055 119.67199707 324.00000000 -0.646427 -0.753421 -0.120369 0.000000
131.15699768 127.45200348 297.00000000 0.329723 -0.008776 -0.944037 0.000000
141.16000366 100.03500366 366.00000000 -0.582435 -0.475012 0.659646 0.000000
206.73899841 87.80850220 358.00000000 -0.031187 -0.996913 -0.072053 0.000000
88.91999817 141.53100586 269.00000000 -0.297336 -0.663782 -0.686283 0.000000
131.89799500 227.11700439 354.00000000 -0.199942 0.689722 0.695922 0.000000
152.64599609 131.15699768 381.00000000 0.000978 0.000978 0.999999 0.000000
184.50900269 170.42999268 345.00000000 0.846963 0.474605 -0.239591 0.000000
108.18599701 238.97300720 340.00000000 -0.622726 0.767476 0.152289 0.000000
142.27200317 164.50199890 381.00000000 -0.098656 0.358133 0.928444 0.000000
185.61999512 115.59600067 330.00000000 0.721653 -0.529212 -0.446264 0.000000
96.33000183 125.22899628 309.00000000 -0.898732 -0.252353 0.358607 0.000000
90.40200043 202.29299927 359.00000000 -0.804402 -0.001366 0.594083 0.000000
75.95249939 189.69599915 324.00000000 -0.991748 0.122702 -0.037148 0.000000
186.73199463 158.20399475 362.00000000 0.170002 0.966803 0.190765 0.000000
128.19299316 235.26800537 262.00000000 0.197407 0.788097 -0.583039 0.000000
94.47750092 154.12800598 272.00000000 0.710633 -0.699008 -0.079928 0.000000
187.47300720 117.81900024 381.00000000 0.000978 0.000978 0.999999 0.000000
131.89799500 103.36900330 366.00000000 -0.067634 -0.769872 0.634605 0.000000
82.99199677 177.46899414 362.00000000 -0.792295 0.453432 0.408250 0.000000
143.75399780 131.89799500 383.00000000 0.124569 -0.222170 0.967018 0.000000
140.04899597 182.65600586 284.00000000 0.413898 -0.826211 -0.382182 0.000000
143.01300049 157.09199524 383.00000000 0.388179 0.357000 0.849628 0.000000
194.14199829 92.25450134 370.00000000 -0.491295 -0.837191 0.240291 0.000000
126.71099854 187.47300720 261.00000000 -0.000978 -0.000978 -0.999999 0.000000
103.73999786 173.02299500 380.00000000 -0.200468 0.504938 0.839554 0.000000
89.29049683 137.82600403 308.00000000 -0.921961 -0.184957 0.340264 0.000000
131.89799500 180.06300354 375.00000000 0.058916 0.458998 0.886482 0.000000
154.12800598 174.87600708 315.00000000 -0.517315 -0.710268 -0.477393 0.000000
151.90499878 152.64599609 329.00000000 -0.000978 -0.000978 -0.999999 0.000000
128.19299316 164.50199890 383.00000000 0.226866 0.554047 0.800976 0.000000
199.32899475 146.71800232 351.00000000 0.001139 0.983039 -0.183394 0.000000
106.70400238 204.51600647 365.00000000 -0.610436 0.579999 0.539416 0.000000
137.08500671 160.79699707 383.00000000 0.200323 0.402107 0.893409 0.000000
82.99199677 143.38299561 292.00000000 -0.820768 -0.427054 0.379427 0.000000
124.48799896 165.24299622 383.00000000 0.293335 0.387567 0.873926 0.000000
154.86900330 93.36599731 369.00000000 -0.565386 -0.616017 0.548509 0.000000
135.60299683 120.04199982 299.00000000 -0.556344 0.556344 -0.617221 0.000000
99.66449738 123.74700165 332.00000000 -0.883954 -0.435424 0.170383 0.000000
154.12800598 181.91499329 300.00000000 0.771354 -0.546843 -0.325540 0.000000
112.63200378 233.78500366 276.00000000 -0.353904 0.921828 -0.158068 0.000000
92.25450134 139.30799866 320.00000000 -0.836067 -0.541657 0.087180 0.000000
184.50900269 92.62500000 369.00000000 -0.378047 -0.907026 0.185430 0.000000
115.59600067 237.49000549 290.00000000 -0.720787 0.688881 -0.076865 0.000000
148.19999695 139.30799866 309.00000000 0.818047 -0.115609 -0.563413 0.000000
90.40200043 205.25700378 237.00000000 -0.591413 -0.788046 -0.170920 0.000000
102.25800323 225.63499451 262.00000000 -0.538789 0.841944 0.028938 0.000000
120.04199982 207.47999573 365.00000000 0.026652 0.983797 0.177292 0.000000
209.70300293 96.33000183 353.00000000 -0.001366 0.804402 -0.594083 0.000000
80.76899719 197.84700012 309.00000000 -0.478864 0.861956 -0.166497 0.000000
157.09199524 129.67500305 315.00000000 0.244477 -0.149329 0.958087 0.000000
137.82600403 179.69299316 292.00000000 0.477885 -0.836685 -0.267554 0.000000
148.94099426 141.53100586 327.00000000 0.977952 -0.196078 -0.071855 0.000000
81.88050079 154.12800598 326.00000000 -0.492088 -0.815954 0.303428 0.000000
104.48100281 224.89300537 354.00000000 -0.641433 0.377605 0.667816 0.000000
168.94799805 144.49499512 321.00000000 0.001258 -0.348502 0.937307 0.000000
145.97700500 171.17100525 321.00000000 0.314876 -0.941947 -0.116571 0.000000
171.17100525 174.13499451 347.00000000 0.635166 -0.333016 -0.696896 0.000000
169.31799316 181.54499817 346.00000000 -0.259197 0.099295 0.960707 0.000000
152.27499390 225.26400757 276.00000000 0.713410 0.046991 -0.699170 0.000000
83.73300171 157.83299255 369.00000000 -0.713253 0.143254 0.686111 0.000000
176.35800171 157.83299255 367.00000000 0.907365 0.151463 -0.392106 0.000000
171.17100525 171.17100525 351.00000000 0.954106 -0.122727 -0.273167 0.000000
129.67500305 151.90499878 389.00000000 0.428466 0.169934 0.887434 0.000000
161.53799438 164.50199890 375.00000000 0.202612 0.629489 0.750128 0.000000
211.92599487 141.53100586 357.00000000 -0.190058 0.069002 0.979345 0.000000
103.73999786 178.58099365 261.00000000 0.551924 -0.676065 -0.488176 0.000000
88.91999817 139.30799866 359.00000000 -0.787357 -0.604182 0.122609 0.000000
96.70050049 137.08500671 276.00000000 0.708058 -0.361388 -0.606673 0.000000
111.89099884 109.66799927 357.00000000 -0.239606 -0.954408 0.178031 0.000000
99.66449738 179.32200623 256.00000000 0.257963 -0.322089 -0.910886 0.000000
88.91999817 148.19999695 377.00000000 -0.937612 0.001255 -0.347682 0.000000
155.61000061 208.96200562 281.00000000 0.896137 -0.325463 -0.301684 0.000000
176.35800171 153.38699341 329.00000000 0.804402 -0.001366 0.594083 0.000000
139.30799866 160.42599487 308.00000000 0.941947 0.314876 -0.116571 0.000000
214.88999939 103.73999786 363.00000000 -0.000978 -0.000978 -0.999999 0.000000
128.93400574 202.29299927 251.00000000 0.427921 -0.427921 -0.796095 0.000000
179.32200623 121.52400208 323.00000000 0.730897 -0.070919 -0.678793 0.000000
149.68200684 186.73199463 369.00000000 0.398308 0.213117 0.892150 0.000000
128.93400574 247.86500549 320.00000000 -0.001255 0.937612 -0.347682 0.000000
164.13200378 87.43800354 328.00000000 -0.196078 -0.977952 0.071855 0.000000
173.39399719 124.11799622 320.00000000 0.825125 0.416522 -0.381680 0.000000
87.43800354 207.47999573 237.00000000 -0.591413 -0.788046 -0.170920 0.000000
102.25800323 111.89099884 309.00000000 -0.556344 -0.556344 0.617221 0.000000
142.27200317 201.55200195 263.00000000 0.940380 0.053180 -0.335943 0.000000
125.22899628 225.26400757 357.00000000 0.689533 0.343952 0.637370 0.000000
129.67500305 113.37300110 381.00000000 0.294090 -0.551618 0.780531 0.000000
149.68200684 191.91900635 285.00000000 0.684412 -0.684412 -0.251320 0.000000
217.85400391 111.15000153 371.00000000 0.000978 0.000978 0.999999 0.000000
193.03100586 147.45899963 374.00000000 0.648216 -0.648216 0.399540 0.000000
148.94099426 91.88400269 321.00000000 -0.365307 -0.497269 -0.786940 0.000000
111.52100372 108.92700195 322.00000000 -0.578041 -0.811564 -0.085048 0.000000
76.69349670 158.57400513 262.00000000 -0.738170 0.589567 -0.327896 0.000000
207.47999573 126.71099854 357.00000000 0.849163 -0.423805 -0.315137 0.000000
85.95600128 212.29600525 306.00000000 -0.874740 0.448396 -0.183769 0.000000
163.76100159 208.59100342 308.00000000 0.951638 -0.073600 -0.298275 0.000000
88.17900085 143.38299561 316.00000000 -0.863262 -0.131586 0.487302 0.000000
198.58799744 140.04899597 347.00000000 0.804402 0.001366 -0.594083 0.000000
201.92300415 124.48799896 348.00000000 0.363515 -0.518615 -0.773883 0.000000
157.09199524 114.11399841 305.00000000 -0.698613 0.325803 0.637018 0.000000
142.27200317 125.97000122 303.00000000 0.968408 -0.013233 -0.249019 0.000000
123.00599670 168.94799805 383.00000000 0.072832 0.350916 0.933570 0.000000
109.66799927 127.45200348 387.00000000 -0.790035 0.012452 0.612935 0.000000
154.12800598 182.28599548 369.00000000 0.015357 0.677098 0.735733 0.000000
138.56700134 200.81100464 257.00000000 0.838034 -0.545602 -0.004062 0.000000
103.73999786 185.99099731 371.00000000 -0.329499 0.693084 0.641143 0.000000
171.91200256 87.06749725 334.00000000 -0.427921 -0.427921 0.796095 0.000000
90.40200043 174.87600708 373.00000000 -0.278331 0.377627 0.883136 0.000000
130.41600037 157.09199524 297.00000000 -0.000978 -0.000978 -0.999999 0.000000
79.65750122 157.83299255 314.00000000 -0.949016 -0.314667 0.018805 0.000000
137.82600403 146.71800232 297.00000000 -0.000978 -0.000978 -0.999999 0.000000
126.71099854 199.32899475 369.00000000 0.223719 0.491573 0.841609 0.000000
162.27900696 188.95500183 357.00000000 0.570271 0.392780 0.721467 0.000000
140.04899597 246.38200378 324.00000000 0.316745 0.947691 -0.039434 0.000000
110.03800201 143.75399780 290.00000000 0.853759 0.042896 -0.518898 0.000000
92.25450134 136.34399414 318.00000000 -0.895390 -0.421276 0.144233 0.000000
86.69699860 144.86500549 314.00000000 -0.847264 -0.170640 0.503017 0.000000
103.73999786 114.48400116 356.00000000 -0.766475 -0.576046 0.284056 0.000000
149.68200684 128.19299316 381.00000000 -0.000978 -0.000978 0.999999 0.000000
141.53100586 205.25700378 365.00000000 0.135169 0.431117 0.892114 0.000000
209.70300293 153.01600647 368.00000000 0.071238 0.487490 0.870218 0.000000
76.69349670 194.88299561 340.00000000 -0.891705 0.445159 0.081821 0.000000
180.80400085 158.57400513 327.00000000 -0.000978 -0.000978 -0.999999 0.000000
141.90199280 167.46600342 318.00000000 0.676210 -0.104599 -0.729246 0.000000
120.78299713 138.56700134 291.00000000 -0.000978 -0.000978 -0.999999 0.000000
102.25800323 236.00799561 316.00000000 0.004159 0.697330 -0.716738 0.000000
124.48799896 127.45200348 293.00000000 -0.000978 -0.000978 -0.999999 0.000000
158.57400513 234.52699280 332.00000000 0.963611 -0.040926 -0.264156 0.000000
96.33000183 165.24299622 381.00000000 -0.000978 -0.000978 0.999999 0.000000
211.92599487 125.22899628 375.00000000 0.147826 0.231551 0.961526 0.000000
154.12800598 171.91200256 371.00000000 -0.343952 0.689533 0.637370 0.000000
173.39399719 164.13200378 346.00000000 -0.137068 -0.177308 -0.974564 0.000000
117.07800293 221.55900574 359.00000000 0.055638 0.327359 0.943260 0.000000
175.61700439 137.08500671 377.00000000 0.646551 -0.035215 0.762057 0.000000
116.33699799 234.89700317 273.00000000 -0.446689 0.894688 -0.001310 0.000000
99.66449738 229.71000671 306.00000000 -0.762011 0.644337 0.064577 0.000000
130.78599548 248.97599792 326.00000000 0.110582 0.993007 -0.041329 0.000000
184.50900269 87.80850220 348.00000000 -0.251274 -0.967826 0.013225 0.000000
184.50900269 92.25450134 366.00000000 -0.378047 -0.907026 0.185430 0.000000
159.31500244 198.95799255 356.00000000 0.863944 0.020344 0.503176 0.000000
132.63900757 93.36599731 341.00000000 -0.469418 -0.841874 0.266260 0.000000
102.25800323 226.00500488 269.00000000 -0.601387 0.798609 -0.023611 0.000000
93.36599731 169.68899536 257.00000000 0.340216 -0.463643 -0.818100 0.000000
183.02699280 153.38699341 375.00000000 0.000978 0.000978 0.999999 0.000000
209.33299255 148.94099426 354.00000000 -0.747617 0.058834 0.661519 0.000000
114.11399841 211.18499756 237.00000000 0.289457 0.129389 -0.948406 0.000000
134.12100220 159.31500244 299.00000000 0.382599 0.453036 -0.805219 0.000000
80.02799988 158.94500732 328.00000000 -0.969212 -0.241996 0.045451 0.000000
75.21150208 192.66000366 336.00000000 -0.957029 0.227610 -0.179692 0.000000
176.35800171 154.12800598 323.00000000 0.914149 0.165822 -0.369911 0.000000
104.48100281 211.18499756 363.00000000 -0.000978 -0.000978 0.999999 0.000000
164.13200378 177.83999634 364.00000000 0.350194 0.365621 0.862372 0.000000
112.63200378 157.83299255 287.00000000 -0.095390 -0.242926 -0.965343 0.000000
165.98399353 166.35400391 346.00000000 0.409130 0.001291 -0.912475 0.000000
132.63900757 231.19200134 261.00000000 0.302614 0.527595 -0.793769 0.000000
114.11399841 211.92599487 237.00000000 0.346778 -0.037385 -0.937202 0.000000
222.30000305 93.36599731 369.00000000 -0.427921 -0.427921 0.796095 0.000000
102.99900055 200.44099426 366.00000000 -0.527456 0.725872 0.441476 0.000000
152.64599609 135.60299683 381.00000000 -0.355963 -0.380834 0.853379 0.000000
210.44400024 149.68200684 369.00000000 0.108406 0.190645 0.975655 0.000000
120.78299713 140.04899597 291.00000000 -0.000978 -0.000978 -0.999999 0.000000
109.66799927 125.97000122 287.00000000 0.545525 0.121390 -0.829257 0.000000
126.71099854 146.71800232 293.00000000 -0.000978 -0.000978 -0.999999 0.000000
76.69349670 184.50900269 312.00000000 -0.999999 -0.000978 -0.000978 0.000000
154.12800598 199.32899475 359.00000000 0.000978 0.000978 0.999999 0.000000
118.55999756 233.04400635 260.00000000 -0.196078 0.977952 -0.071855 0.000000
111.15000153 127.08100128 388.00000000 -0.546960 -0.355443 0.757954 0.000000
89.29049683 134.86199951 348.00000000 -0.572234 -0.717354 -0.397431 0.000000
196.36500549 147.45899963 371.00000000 -0.232001 0.165715 0.958496 0.000000
165.24299622 177.83999634 333.00000000 0.133293 0.531706 0.836374 0.000000
132.63900757 200.07000732 255.00000000 0.837087 -0.194566 -0.511302 0.000000
117.07800293 225.26400757 357.00000000 0.331373 0.441308 0.833930 0.000000
220.07699585 105.96299744 371.00000000 0.332743 0.320698 0.886812 0.000000
113.37300110 213.40800476 237.00000000 0.336641 0.024137 -0.941324 0.000000
121.89499664 194.14199829 254.00000000 0.421482 -0.885552 -0.195321 0.000000
164.13200378 214.88999939 310.00000000 0.947992 0.315147 -0.044656 0.000000
120.78299713 143.75399780 291.00000000 0.326770 0.228883 -0.916970 0.000000
118.55999756 123.74700165 291.00000000 -0.000978 -0.000978 -0.999999 0.000000
147.45899963 195.99400330 278.00000000 0.257761 -0.729004 -0.634123 0.000000
114.85500336 244.89999390 322.00000000 -0.456874 0.884227 -0.096998 0.000000
201.92300415 96.33000183 348.00000000 0.733695 -0.247721 -0.632713 0.000000
98.92350006 125.97000122 378.00000000 -0.658356 -0.584647 0.474083 0.000000
107.44499969 167.46600342 381.00000000 -0.317174 0.577996 0.751878 0.000000
151.90499878 89.66100311 321.00000000 -0.313985 -0.865373 -0.390567 0.000000
121.52400208 148.19999695 293.00000000 -0.000978 -0.000978 -0.999999 0.000000
162.64999390 225.26400757 322.00000000 0.636067 0.571954 -0.517964 0.000000
122.26499939 188.95500183 257.00000000 -0.000978 -0.000978 -0.999999 0.000000
115.96600342 214.14900208 238.00000000 0.402348 0.014323 -0.915375 0.000000
125.97000122 160.79699707 385.00000000 0.311472 0.317433 0.895668 0.000000
189.69599915 140.78999329 339.00000000 0.322666 -0.211794 -0.922513 0.000000
79.65750122 177.83999634 270.00000000 -0.938766 0.254510 0.232258 0.000000
163.02000427 163.76100159 323.00000000 0.479431 -0.088575 -0.873098 0.000000
175.24699402 140.04899597 378.00000000 0.849497 0.037295 0.526274 0.000000
167.46600342 144.86500549 322.00000000 0.142764 -0.353444 0.924498 0.000000
163.76100159 185.99099731 357.00000000 0.629562 0.578927 0.518165 0.000000
148.94099426 205.62800598 270.00000000 0.841923 -0.536533 0.057436 0.000000
145.23599243 184.88000488 286.00000000 0.817215 -0.489699 -0.303897 0.000000
128.19299316 231.93299866 353.00000000 0.537132 0.236833 0.809567 0.000000
159.68600464 195.62399292 302.00000000 0.970249 -0.120804 -0.209818 0.000000
94.84799957 195.62399292 365.00000000 -0.085911 -0.132985 0.987388 0.000000
114.85500336 218.59500122 363.00000000 -0.140297 0.406718 0.902716 0.000000
218.59500122 117.07800293 371.00000000 0.804402 -0.001366 0.594083 0.000000
209.33299255 110.40899658 358.00000000 0.858113 0.037070 -0.512122 0.000000
114.85500336 215.63099670 237.00000000 0.435061 -0.009201 -0.900354 0.000000
183.02699280 151.16400146 339.00000000 0.298201 0.473062 -0.829029 0.000000
123.37699890 97.07099915 318.00000000 -0.685344 -0.682178 0.254828 0.000000
120.04199982 148.94099426 293.00000000 -0.000978 -0.000978 -0.999999 0.000000
168.94799805 102.99900055 377.00000000 -0.181665 0.218793 0.958711 0.000000
182.65600586 115.59600067 328.00000000 0.549613 -0.099536 -0.829469 0.000000
162.27900696 195.25300598 354.00000000 -0.232339 0.232339 0.944477 0.000000
131.52699280 169.68899536 304.00000000 0.369230 -0.710563 0.598973 0.000000
123.00599670 221.55900574 359.00000000 0.000978 0.000978 0.999999 0.000000
214.88999939 147.45899963 369.00000000 0.332922 0.423577 0.842464 0.000000
94.10700226 216.00100708 284.00000000 -0.763045 0.641421 0.079635 0.000000
153.38699341 208.96200562 357.00000000 0.941947 0.314876 -0.116571 0.000000
186.73199463 118.55999756 333.00000000 0.926726 0.011536 -0.375561 0.000000
98.55300140 169.31799316 380.00000000 -0.232339 -0.232339 0.944477 0.000000
75.58200073 181.17399597 330.00000000 -0.957819 -0.279311 0.067596 0.000000
138.56700134 171.17100525 377.00000000 0.236912 0.375233 0.896144 0.000000
154.12800598 111.15000153 375.00000000 0.000978 0.000978 0.999999 0.000000
148.94099426 140.04899597 383.00000000 0.000978 0.000978 0.999999 0.000000
136.34399414 117.81900024 317.00000000 0.901712 -0.431600 0.025232 0.000000
210.44400024 141.53100586 357.00000000 -0.114261 0.050908 0.992146 0.000000
213.77900696 138.56700134 358.00000000 -0.441631 0.180467 0.878860 0.000000
200.81100464 129.67500305 347.00000000 0.114523 0.168707 -0.978991 0.000000
202.29299927 88.54949951 360.00000000 -0.123381 -0.988226 0.090480 0.000000
100.03500366 224.15199280 256.00000000 -0.682178 0.685344 -0.254828 0.000000
138.56700134 166.35400391 314.00000000 0.909387 0.103811 -0.402788 0.000000
188.95500183 104.48100281 335.00000000 0.951418 -0.291838 -0.098152 0.000000
100.03500366 223.41099548 254.00000000 -0.825271 0.536652 -0.175877 0.000000
115.59600067 216.74200439 238.00000000 0.272733 0.241644 -0.931249 0.000000
81.88050079 153.38699341 294.00000000 -0.877818 -0.374475 0.298670 0.000000
222.30000305 106.70400238 365.00000000 0.816511 0.246348 -0.522133 0.000000
218.59500122 111.15000153 371.00000000 0.000978 0.000978 0.999999 0.000000
169.68899536 175.24699402 330.00000000 0.032055 0.993718 0.107220 0.000000
111.89099884 140.78999329 291.00000000 0.123599 -0.118799 -0.985195 0.000000
154.12800598 217.85400391 279.00000000 0.793005 0.241485 -0.559310 0.000000
110.40899658 165.98399353 285.00000000 0.541511 0.023306 -0.840370 0.000000
148.19999695 164.87199402 378.00000000 0.439574 0.636797 0.633454 0.000000
142.27200317 114.85500336 377.00000000 0.000978 0.000978 0.999999 0.000000
158.57400513 167.46600342 375.00000000 0.439626 0.126624 0.889211 0.000000
125.22899628 124.48799896 293.00000000 0.615891 0.035074 -0.787050 0.000000
148.19999695 87.80850220 344.00000000 0.018992 -0.990941 0.132945 0.000000
87.43800354 208.59100342 290.00000000 -0.942421 0.278474 -0.185192 0.000000
131.89799500 204.51600647 255.00000000 0.775770 0.094962 -0.623830 0.000000
131.15699768 205.99800110 365.00000000 0.295390 0.928571 0.224723 0.000000
84.10350037 217.85400391 332.00000000 -0.836997 0.542419 0.072228 0.000000
134.49200439 126.71099854 388.00000000 0.551122 -0.406349 0.728797 0.000000
162.27900696 103.73999786 375.00000000 -0.475190 0.009317 0.879834 0.000000
154.86900330 182.65600586 302.00000000 0.759966 -0.457949 -0.461232 0.000000
156.35099792 114.11399841 305.00000000 0.001255 -0.937612 0.347682 0.000000
167.46600342 159.31500244 321.00000000 -0.000978 -0.000978 -0.999999 0.000000
77.80500031 199.69900513 320.00000000 -0.398202 0.613000 0.682397 0.000000
171.91200256 173.76400757 338.00000000 0.415006 0.557200 0.719234 0.000000
127.45200348 247.86500549 320.00000000 -0.001255 0.937612 -0.347682 0.000000
92.62500000 226.37600708 342.00000000 -0.783279 0.449210 0.429749 0.000000
148.94099426 229.71000671 275.00000000 0.387589 0.464785 -0.796084 0.000000
145.23599243 129.67500305 329.00000000 0.798111 -0.594585 -0.097402 0.000000
142.27200317 92.99549866 326.00000000 -0.423805 -0.849163 -0.315137 0.000000
118.55999756 178.21000671 378.00000000 -0.006815 0.565648 0.824619 0.000000
133.38000488 93.73650360 346.00000000 -0.464621 -0.879815 0.100268 0.000000
113.74299622 235.63800049 282.00000000 -0.452366 0.877096 -0.161455 0.000000
192.66000366 108.92700195 381.00000000 0.000978 0.000978 0.999999 0.000000
94.10700226 183.02699280 369.00000000 0.420751 0.546152 0.724352 0.000000
162.64999390 217.85400391 306.00000000 0.956900 0.230242 -0.177007 0.000000
140.78999329 242.67799377 336.00000000 0.076462 0.786264 0.613142 0.000000
135.23199463 94.10700226 332.00000000 -0.173210 -0.979069 -0.106875 0.000000
148.94099426 111.15000153 375.00000000 0.000978 0.000978 0.999999 0.000000
144.49499512 235.63800049 345.00000000 0.453985 0.713406 0.533807 0.000000
157.83299255 161.53799438 327.00000000 -0.000978 -0.000978 -0.999999 0.000000
130.41600037 227.48699951 353.00000000 0.683822 0.624503 -0.377338 0.000000
209.70300293 110.40899658 375.00000000 -0.000978 -0.000978 0.999999 0.000000
132.63900757 146.71800232 293.00000000 0.059695 0.150994 -0.986731 0.000000
185.99099731 154.12800598 345.00000000 0.193994 0.581982 -0.789724 0.000000
114.11399841 208.96200562 365.00000000 -0.133913 0.200232 0.970554 0.000000
172.65299988 149.68200684 377.00000000 0.180128 0.060838 0.981760 0.000000
85.95600128 220.44700623 334.00000000 -0.859102 0.286367 0.424191 0.000000
149.68200684 200.81100464 275.00000000 -0.000978 -0.000978 -0.999999 0.000000
166.72500610 88.54949951 350.00000000 -0.073212 -0.988939 0.128992 0.000000
76.69349670 154.12800598 268.00000000 -0.999999 0.000978 0.000978 0.000000
131.15699768 94.47750092 342.00000000 -0.469418 -0.841874 0.266260 0.000000
134.86199951 124.48799896 297.00000000 0.278023 -0.134356 -0.951132 0.000000
108.18599701 220.07699585 237.00000000 -0.071679 0.858740 -0.507373 0.000000
95.58899689 158.57400513 381.00000000 -0.218402 0.265700 0.938991 0.000000
99.29399872 171.91200256 261.00000000 0.579961 -0.485823 -0.653928 0.000000
107.07499695 230.45100403 284.00000000 -0.740451 0.613061 -0.275479 0.000000
86.69699860 201.92300415 264.00000000 -0.489445 0.489445 -0.721725 0.000000
141.90199280 226.74600220 264.00000000 -0.001366 0.804402 -0.594083 0.000000
160.79699707 133.38000488 381.00000000 0.181059 -0.404124 0.896605 0.000000
134.12100220 202.29299927 369.00000000 0.314876 0.941947 0.116571 0.000000
173.39399719 133.38000488 379.00000000 0.632623 -0.073494 0.770965 0.000000
180.06300354 160.05599976 347.00000000 0.000978 0.000978 0.999999 0.000000
100.03500366 220.44700623 238.00000000 -0.569435 0.789761 -0.228084 0.000000
218.22500610 118.55999756 364.00000000 -0.296473 -0.945762 0.132809 0.000000
118.55999756 134.12100220 291.00000000 -0.000978 -0.000978 -0.999999 0.000000
211.92599487 132.63900757 373.00000000 0.079837 0.252184 0.964380 0.000000
170.42999268 129.67500305 377.00000000 0.250451 0.270261 0.929641 0.000000
128.19299316 127.45200348 393.00000000 -0.172669 -0.144941 0.974257 0.000000
110.40899658 178.95100403 266.00000000 0.138899 -0.964507 -0.224576 0.000000
98.55300140 121.15299988 310.00000000 -0.642082 0.275633 -0.715372 0.000000
147.45899963 167.46600342 377.00000000 0.223170 0.253665 0.941195 0.000000
105.22200012 111.15000153 311.00000000 -0.537095 -0.728796 0.424718 0.000000
197.10600281 140.04899597 375.00000000 0.000978 0.000978 0.999999 0.000000
131.52699280 106.70400238 320.00000000 0.706293 -0.350700 -0.614948 0.000000
149.68200684 91.88400269 321.00000000 -0.365307 -0.497269 -0.786940 0.000000
167.46600342 133.38000488 317.00000000 0.181122 0.163138 -0.969836 0.000000
84.84449768 158.57400513 370.00000000 -0.810210 0.001366 0.586138 0.000000
76.69349670 165.24299622 324.00000000 -0.955152 -0.251777 0.155862 0.000000
201.92300415 125.22899628 350.00000000 0.965341 0.079499 -0.248591 0.000000
166.72500610 203.03399658 315.00000000 0.878052 0.350311 -0.326047 0.000000
84.47399902 141.16000366 294.00000000 -0.945035 -0.237978 0.224222 0.000000
142.27200317 233.78500366 272.00000000 0.758216 0.600583 -0.253790 0.000000
140.78999329 153.38699341 299.00000000 0.796356 0.274876 -0.538758 0.000000
156.72099304 227.48699951 294.00000000 0.799350 0.591840 -0.103755 0.000000
105.22200012 227.48699951 353.00000000 -0.424301 0.597349 0.680546 0.000000
174.87600708 139.30799866 379.00000000 0.866795 -0.009407 0.498575 0.000000
147.45899963 88.54949951 348.00000000 -0.192628 -0.975569 0.105635 0.000000
107.44499969 142.27200317 287.00000000 0.302235 -0.441728 -0.844707 0.000000
153.38699341 216.74200439 276.00000000 0.899021 -0.047175 -0.435358 0.000000
121.52400208 184.88000488 262.00000000 0.098273 -0.640973 -0.761247 0.000000
159.31500244 113.37300110 375.00000000 0.000978 0.000978 0.999999 0.000000
161.90800476 223.78199768 312.00000000 0.999999 -0.000978 -0.000978 0.000000
108.18599701 221.55900574 237.00000000 -0.142176 0.621083 -0.770741 0.000000
90.40200043 180.06300354 369.00000000 -0.351171 0.605974 0.713775 0.000000
208.96200562 92.62500000 371.00000000 -0.001255 -0.937612 0.347682 0.000000
157.09199524 190.43699646 299.00000000 0.832143 -0.412124 -0.371069 0.000000
123.00599670 120.78299713 389.00000000 -0.001263 -0.359825 0.933019 0.000000
111.89099884 221.55900574 237.00000000 0.111012 0.661634 -0.741563 0.000000
158.94500732 183.02699280 306.00000000 0.313847 0.026469 -0.949104 0.000000
194.88299561 102.99900055 381.00000000 0.000978 0.000978 0.999999 0.000000
180.80400085 87.06749725 334.00000000 0.061300 -0.988903 0.135324 0.000000
160.05599976 88.91999817 309.00000000 -0.366969 -0.920884 -0.131555 0.000000
145.97700500 237.86099243 285.00000000 0.683659 0.683659 -0.255381 0.000000
186.73199463 153.75700378 370.00000000 0.386261 0.367495 0.846020 0.000000
95.21849823 232.67399597 324.00000000 -0.926548 0.367123 -0.082031 0.000000
188.21400452 166.72500610 345.00000000 0.915151 0.211189 -0.343361 0.000000
114.85500336 157.83299255 291.00000000 0.244938 -0.134913 -0.960106 0.000000
131.15699768 148.19999695 389.00000000 0.428466 0.169934 0.887434 0.000000
168.20700073 154.12800598 377.00000000 0.223103 0.282036 0.933103 0.000000
218.22500610 119.30100250 364.00000000 -0.296473 -0.945762 0.132809 0.000000
86.69699860 172.65299988 373.00000000 -0.687438 0.520178 0.506797 0.000000
79.65750122 200.81100464 330.00000000 -0.999999 -0.000978 -0.000978 0.000000
87.06749725 207.47999573 258.00000000 -0.973721 0.223774 0.042336 0.000000
134.86199951 115.22599792 312.00000000 0.709775 -0.672501 0.209671 0.000000
124.48799896 226.74600220 357.00000000 0.654287 0.395885 0.644348 0.000000
108.18599701 201.55200195 369.00000000 -0.229011 0.300132 0.925999 0.000000
174.87600708 120.78299713 321.00000000 0.544523 0.069303 -0.835878 0.000000
144.49499512 170.80099487 320.00000000 0.459235 -0.835963 -0.300449 0.000000
82.99199677 131.89799500 281.00000000 -0.891809 -0.367741 0.263523 0.000000
78.54599762 177.09899902 255.00000000 -0.884722 -0.220810 -0.410499 0.000000
86.69699860 193.40100098 363.00000000 0.000978 0.000978 0.999999 0.000000
89.66100311 167.46600342 257.00000000 0.999999 0.000978 0.000978 0.000000
96.33000183 174.50500488 256.00000000 0.560008 -0.001356 -0.828486 0.000000
213.40800476 105.22200012 375.00000000 0.661251 0.041063 0.749040 0.000000
149.68200684 92.62500000 363.00000000 -0.346665 -0.769112 0.536927 0.000000
92.62500000 205.99800110 359.00000000 -0.540500 0.431408 0.722320 0.000000
84.10350037 136.34399414 290.00000000 -0.914770 -0.279795 0.291393 0.000000
160.79699707 158.57400513 327.00000000 -0.000978 -0.000978 -0.999999 0.000000
122.26499939 130.41600037 393.00000000 -0.107776 0.507266 0.855024 0.000000
88.91999817 195.25300598 240.00000000 -0.281918 -0.594097 -0.753373 0.000000
144.49499512 241.93600464 302.00000000 0.566778 0.823012 -0.037600 0.000000
100.03500366 228.22799683 299.00000000 -0.683659 0.683659 -0.255381 0.000000
158.94500732 159.31500244 378.00000000 0.556344 0.556344 0.617221 0.000000
216.37199402 140.04899597 359.00000000 -0.437408 0.398955 0.805921 0.000000
102.25800323 205.25700378 365.00000000 -0.247668 0.415781 0.875092 0.000000
134.86199951 131.15699768 389.00000000 0.574832 -0.335184 0.746472 0.000000
85.58550262 143.01300049 350.00000000 -0.956977 -0.289203 0.023583 0.000000
134.12100220 246.01199341 335.00000000 0.561198 0.760593 0.326428 0.000000
210.44400024 120.04199982 359.00000000 0.566290 0.015083 -0.824068 0.000000
92.99549866 130.41600037 350.00000000 -0.663255 -0.742318 0.095169 0.000000
115.59600067 116.33699799 291.00000000 -0.000978 -0.000978 -0.999999 0.000000
210.81399536 129.67500305 374.00000000 0.397167 0.133325 0.908011 0.000000
159.31500244 220.81799316 293.00000000 0.993763 0.082157 -0.075404 0.000000
158.57400513 218.59500122 287.00000000 0.912640 -0.227075 -0.339890 0.000000
218.59500122 97.07099915 359.00000000 0.740320 0.554014 -0.380782 0.000000
178.58099365 105.22200012 381.00000000 -0.252634 0.337332 0.906853 0.000000
184.50900269 162.27900696 347.00000000 0.000978 0.000978 0.999999 0.000000
117.07800293 176.72900391 274.00000000 0.299191 -0.894596 -0.331938 0.000000
163.02000427 181.54499817 321.00000000 -0.001366 0.804402 -0.594083 0.000000
127.08100128 114.11399841 294.00000000 0.199733 0.079648 -0.976608 0.000000
138.56700134 247.12399292 332.00000000 0.193083 0.675017 0.712089 0.000000
185.25000000 169.68899536 347.00000000 0.251212 0.491636 0.833778 0.000000
81.88050079 171.91200256 352.00000000 -0.797067 0.132102 0.589265 0.000000
92.62500000 196.36500549 239.00000000 -0.108260 -0.437259 -0.892796 0.000000
131.15699768 157.83299255 387.00000000 0.271054 0.870706 0.410367 0.000000
80.39849854 163.76100159 344.00000000 -0.983039 -0.001139 0.183394 0.000000
94.84799957 138.56700134 383.00000000 -0.527907 -0.612237 0.588625 0.000000
104.11000061 226.00500488 254.00000000 -0.490571 0.855921 -0.163524 0.000000
79.65750122 201.55200195 330.00000000 -0.999999 -0.000978 -0.000978 0.000000
94.84799957 174.87600708 255.00000000 0.079800 -0.202568 -0.976011 0.000000
142.27200317 137.08500671 299.00000000 0.482654 -0.012033 -0.875729 0.000000
151.53500366 210.44400024 274.00000000 0.724042 -0.152669 -0.672648 0.000000
80.02799988 204.51600647 317.00000000 -0.001366 0.804402 -0.594083 0.000000
102.62899780 236.37899780 316.00000000 0.004159 0.697330 -0.716738 0.000000
160.05599976 171.91200256 317.00000000 0.001255 -0.937612 -0.347682 0.000000
140.78999329 204.51600647 261.00000000 0.843851 0.161652 -0.511649 0.000000
80.76899719 171.17100525 363.00000000 -0.937612 -0.001255 0.347682 0.000000
96.70050049 126.71099854 312.00000000 -0.923153 -0.235425 0.303913 0.000000
86.69699860 147.82899475 324.00000000 -0.983039 -0.001139 0.183394 0.000000
153.38699341 88.54949951 328.00000000 -0.983039 -0.001139 -0.183394 0.000000
87.06749725 205.99800110 288.00000000 -0.915900 0.327416 -0.232220 0.000000
188.21400452 122.26499939 381.00000000 0.286883 -0.049288 0.956697 0.000000
217.11300659 111.89099884 363.00000000 -0.000978 -0.000978 -0.999999 0.000000
126.33999634 171.91200256 296.00000000 0.309512 -0.931337 -0.191869 0.000000
127.45200348 182.28599548 269.00000000 0.403908 -0.828408 -0.388069 0.000000
163.02000427 217.11300659 311.00000000 0.956678 0.288879 -0.036266 0.000000
150.42300415 144.49499512 317.00000000 0.954069 0.262136 0.145040 0.000000
93.73650360 129.67500305 346.00000000 -0.802216 -0.596449 -0.026416 0.000000
137.08500671 142.27200317 393.00000000 0.965244 0.221553 0.138632 0.000000
177.09899902 155.61000061 375.00000000 0.242869 0.363568 0.899351 0.000000
168.20700073 169.68899536 347.00000000 0.782822 -0.585187 0.211532 0.000000
146.34800720 218.59500122 268.00000000 0.576691 0.084850 -0.812544 0.000000
103.36900330 115.59600067 348.00000000 -0.826211 -0.413898 0.382182 0.000000
145.97700500 181.17399597 304.00000000 -0.013324 -0.999268 0.035871 0.000000
163.02000427 165.24299622 323.00000000 0.560008 -0.001356 -0.828486 0.000000
188.95500183 89.66100311 363.00000000 -0.074238 -0.986302 0.147297 0.000000
117.81900024 102.62899780 340.00000000 -0.196558 -0.980491 -0.001149 0.000000
185.99099731 148.19999695 335.00000000 0.849163 0.423805 -0.315137 0.000000
147.45899963 125.22899628 305.00000000 0.676706 -0.449467 -0.583137 0.000000
201.55200195 156.35099792 359.00000000 0.244029 0.650218 -0.719491 0.000000
181.91499329 128.93400574 328.00000000 0.589227 0.001367 -0.807966 0.000000
134.86199951 134.86199951 393.00000000 0.544130 -0.655314 0.523914 0.000000
109.29799652 237.11999512 306.00000000 -0.617644 0.752118 -0.229857 0.000000
144.49499512 165.98399353 379.00000000 0.237266 0.705512 0.667801 0.000000
141.53100586 117.07800293 377.00000000 0.606319 -0.518496 0.602942 0.000000
181.54499817 88.91999817 353.00000000 0.556344 -0.556344 -0.617221 0.000000
125.97000122 200.07000732 369.00000000 -0.014429 0.132077 0.991134 0.000000
81.51000214 163.02000427 363.00000000 -0.889425 0.444008 0.108535 0.000000
201.18200684 132.63900757 348.00000000 0.581982 0.193994 -0.789724 0.000000
156.72099304 226.00500488 288.00000000 0.977952 0.196078 -0.071855 0.000000
131.52699280 109.66799927 304.00000000 -0.001380 -0.732842 0.680398 0.000000
130.78599548 205.25700378 368.00000000 0.439879 0.763656 0.472584 0.000000
163.39100647 182.28599548 328.00000000 0.908988 0.311779 0.276649 0.000000
181.54499817 100.77600098 381.00000000 0.894596 -0.299191 0.331938 0.000000
197.47700500 91.88400269 344.00000000 0.721551 0.317999 -0.615013 0.000000
112.63200378 143.01300049 389.00000000 0.000978 0.000978 0.999999 0.000000
105.96299744 231.93299866 291.00000000 -0.682178 0.685344 -0.254828 0.000000
91.14299774 137.08500671 363.00000000 -0.749069 -0.660607 0.049938 0.000000
154.86900330 159.31500244 379.00000000 0.774549 0.252946 0.579734 0.000000
157.83299255 213.40800476 287.00000000 0.894688 0.446689 0.001310 0.000000
159.31500244 223.04100037 345.00000000 0.617251 0.122858 0.777115 0.000000
198.58799744 120.04199982 381.00000000 0.556344 -0.556344 0.617221 0.000000
79.65750122 165.98399353 294.00000000 -0.999999 -0.000978 -0.000978 0.000000
136.34399414 104.48100281 369.00000000 -0.461272 -0.635717 0.618944 0.000000
184.50900269 134.86199951 377.00000000 0.317963 0.388621 0.864797 0.000000
128.93400574 134.12100220 293.00000000 0.952299 -0.062803 -0.298635 0.000000
84.10350037 207.47999573 304.00000000 -0.848828 0.528668 0.001345 0.000000
144.49499512 205.99800110 267.00000000 0.894596 -0.299191 -0.331938 0.000000
109.66799927 117.44899750 378.00000000 -0.819446 -0.434386 0.373922 0.000000
185.25000000 160.79699707 347.00000000 0.015181 0.199685 0.979742 0.000000
108.92700195 112.63200378 323.00000000 -0.806698 -0.585252 0.081964 0.000000
85.21499634 211.18499756 351.00000000 -0.635457 0.318537 0.703369 0.000000
108.92700195 158.57400513 387.00000000 -0.681274 0.537319 0.497146 0.000000
140.04899597 217.85400391 359.00000000 0.242608 0.366118 0.898387 0.000000
144.49499512 137.08500671 383.00000000 0.258662 0.129988 0.957182 0.000000
92.62500000 160.79699707 263.00000000 0.681155 -0.651893 -0.333262 0.000000
117.07800293 243.78900146 311.00000000 -0.373353 0.745076 -0.552693 0.000000
207.47999573 131.89799500 353.00000000 0.588604 -0.765343 -0.260374 0.000000
123.74700165 237.11999512 351.00000000 0.665955 0.498208 0.555242 0.000000
89.66100311 140.41900635 318.00000000 -0.735465 -0.675252 0.055913 0.000000
176.35800171 148.94099426 329.00000000 -0.237255 -0.001180 0.971447 0.000000
87.43800354 198.58799744 239.00000000 -0.731036 -0.472438 -0.492330 0.000000
157.09199524 215.63099670 351.00000000 -0.000978 -0.000978 0.999999 0.000000
197.10600281 137.82600403 345.00000000 0.775502 0.012486 -0.631222 0.000000
86.69699860 209.70300293 353.00000000 -0.635457 0.318537 0.703369 0.000000
84.10350037 203.03399658 300.00000000 -0.909138 0.331259 -0.252457 0.000000
170.42999268 133.38000488 321.00000000 -0.000978 -0.000978 -0.999999 0.000000
131.89799500 178.58099365 377.00000000 -0.225928 0.527164 0.819179 0.000000
219.33599854 103.73999786 363.00000000 -0.000978 -0.000978 -0.999999 0.000000
126.71099854 166.72500610 299.00000000 0.353072 0.567845 -0.743567 0.000000
157.83299255 224.15199280 346.00000000 0.617251 0.122858 0.777115 0.000000
102.25800323 165.24299622 381.00000000 -0.160832 0.584707 0.795142 0.000000
106.70400238 159.68600464 282.00000000 0.709541 -0.189313 -0.678758 0.000000
196.36500549 126.71099854 345.00000000 0.569959 0.345873 -0.745331 0.000000
145.97700500 90.03150177 332.00000000 -0.275027 -0.936768 -0.216392 0.000000
92.62500000 145.97700500 273.00000000 -0.658132 -0.015305 0.752747 0.000000
81.51000214 182.28599548 353.00000000 -0.975995 0.134058 0.171645 0.000000
185.99099731 90.77249908 366.00000000 -0.378047 -0.907026 0.185430 0.000000
120.78299713 173.76400757 282.00000000 0.775522 -0.545264 0.318204 0.000000
89.29049683 128.93400574 296.00000000 -0.738853 -0.661236 0.129859 0.000000
125.22899628 143.01300049 391.00000000 0.000978 0.000978 0.999999 0.000000
92.25450134 136.34399414 328.00000000 -0.812818 -0.345169 -0.469239 0.000000
101.51699829 208.22099304 363.00000000 -0.480822 0.173096 0.859562 0.000000
162.64999390 195.62399292 306.00000000 0.762304 -0.253054 -0.595698 0.000000
77.06400299 164.50199890 275.00000000 -0.937612 -0.001255 0.347682 0.000000
153.75700378 238.60200500 326.00000000 0.978058 0.195612 0.071684 0.000000
137.45599365 116.33699799 326.00000000 0.931612 -0.062107 -0.358109 0.000000
105.96299744 225.63499451 356.00000000 -0.801374 0.399884 0.444851 0.000000
189.69599915 136.34399414 335.00000000 0.200298 -0.200298 -0.959042 0.000000
184.50900269 92.99549866 328.00000000 0.906091 -0.100984 -0.410854 0.000000
149.31100464 99.29399872 370.00000000 0.054221 -0.276148 0.959584 0.000000
126.71099854 200.81100464 369.00000000 -0.014429 0.132077 0.991134 0.000000
79.65750122 168.94799805 304.00000000 0.000000 0.000000 0.000000 0.000000
131.89799500 241.56599426 341.00000000 0.073367 0.781145 0.620025 0.000000
167.46600342 157.83299255 375.00000000 0.259443 0.580209 0.772040 0.000000
142.27200317 172.28300476 316.00000000 0.395841 -0.660840 -0.637652 0.000000
162.27900696 108.18599701 305.00000000 -0.866261 -0.398755 0.300976 0.000000
214.88999939 120.04199982 363.00000000 0.221689 -0.121737 -0.967488 0.000000
146.71800232 243.41900635 328.00000000 -0.426347 0.848044 0.314722 0.000000
149.31100464 147.45899963 318.00000000 0.873804 0.174761 0.453790 0.000000
107.07499695 199.32899475 240.00000000 -0.151444 -0.848380 -0.507264 0.000000
86.32649994 150.42300415 366.00000000 -0.885697 -0.079254 0.457448 0.000000
158.57400513 177.83999634 311.00000000 0.302039 -0.804909 -0.510777 0.000000
149.68200684 160.05599976 327.00000000 0.513804 -0.517151 -0.684514 0.000000
139.30799866 118.55999756 311.00000000 0.626816 -0.750631 0.208939 0.000000
92.99549866 130.41600037 344.00000000 -0.788791 -0.611277 -0.064420 0.000000
179.69299316 101.51699829 326.00000000 0.975699 -0.082436 -0.203014 0.000000
97.44149780 221.55900574 278.00000000 -0.353111 0.917522 -0.182937 0.000000
94.84799957 205.62800598 362.00000000 -0.448168 0.481001 0.753514 0.000000
104.48100281 200.07000732 239.00000000 0.001366 -0.804402 -0.594083 0.000000
105.22200012 200.07000732 239.00000000 0.001366 -0.804402 -0.594083 0.000000
131.89799500 109.29799652 318.00000000 0.937501 -0.224276 -0.266067 0.000000
205.25700378 137.08500671 351.00000000 -0.631198 0.015260 0.775472 0.000000
221.55900574 110.40899658 365.00000000 -0.000978 -0.000978 -0.999999 0.000000
187.47300720 117.81900024 333.00000000 0.509556 0.509556 -0.693330 0.000000
122.26499939 229.71000671 251.00000000 -0.101099 0.408550 -0.907120 0.000000
140.78999329 222.30000305 263.00000000 0.713333 0.050033 -0.699037 0.000000
144.49499512 223.04100037 353.00000000 0.311779 0.276649 0.908988 0.000000
94.10700226 229.71000671 323.00000000 -0.924911 0.371844 -0.079201 0.000000
163.76100159 87.06749725 322.00000000 -0.408744 -0.909078 0.080655 0.000000
84.47399902 169.68899536 371.00000000 -0.740707 0.295963 0.603124 0.000000
188.21400452 134.86199951 335.00000000 0.200298 -0.200298 -0.959042 0.000000
101.51699829 192.66000366 369.00000000 0.000978 0.000978 0.999999 0.000000
76.69349670 188.21400452 346.00000000 -0.824748 0.121588 0.552274 0.000000
167.46600342 195.62399292 323.00000000 0.824309 -0.392301 -0.408184 0.000000
111.89099884 241.56599426 339.00000000 -0.341172 0.939808 0.019024 0.000000
77.80500031 163.02000427 315.00000000 -0.264154 -0.960907 -0.082947 0.000000
168.94799805 168.20700073 321.00000000 -0.000978 -0.000978 -0.999999 0.000000
143.75399780 128.19299316 327.00000000 0.930148 0.242093 -0.276071 0.000000
118.55999756 131.89799500 391.00000000 -0.255460 0.159161 0.953629 0.000000
81.88050079 133.38000488 280.00000000 -0.956117 -0.289235 0.046732 0.000000
84.84449768 201.55200195 240.00000000 -0.848958 0.095919 -0.519682 0.000000
117.07800293 117.07800293 291.00000000 -0.000978 -0.000978 -0.999999 0.000000
97.07099915 161.53799438 273.00000000 0.161764 -0.979228 0.122249 0.000000
144.49499512 128.93400574 327.00000000 0.930148 0.242093 -0.276071 0.000000
162.27900696 105.96299744 305.00000000 -0.938621 -0.137193 0.316496 0.000000
151.90499878 213.03799438 274.00000000 0.948677 -0.003720 -0.316226 0.000000
134.86199951 94.10700226 353.00000000 -0.369374 -0.918555 0.140780 0.000000
90.40200043 180.06300354 251.00000000 0.156539 -0.292660 -0.943317 0.000000
98.55300140 117.07800293 309.00000000 -0.671844 -0.193059 0.715090 0.000000
