160.27299500 270.70300293 219.00000000 0.605284 0.500751 0.618773 0.000000
148.67199707 266.40600586 227.50000000 0.542688 0.739433 0.398408 0.000000
80.78119659 276.28900146 105.00000000 -0.583132 0.653713 -0.482303 0.000000
225.15600586 110.43000031 217.00000000 0.144568 -0.860109 0.489196 0.000000
181.32800293 151.67999268 177.00000000 0.609031 -0.588786 0.531426 0.000000
264.25799561 184.76600647 248.00000000 0.325182 0.613154 0.719930 0.000000
143.51600647 198.51600647 247.50000000 0.000978 0.000978 0.999999 0.000000
120.31199646 289.60900879 155.50000000 0.444389 0.738446 -0.507165 0.000000
103.55500031 309.37500000 148.00000000 0.386187 0.764226 -0.516545 0.000000
111.71900177 126.75800323 141.00000000 -0.397378 -0.904427 0.155248 0.000000
196.79699707 206.25000000 247.50000000 -0.419077 0.278877 0.864061 0.000000
228.59399414 145.23399353 252.50000000 -0.107614 -0.658949 0.744450 0.000000
276.28900146 153.82800293 230.00000000 -0.432538 -0.442258 0.785696 0.000000
112.14800262 186.48399353 108.00000000 0.803542 -0.444274 -0.396158 0.000000
75.62500000 238.04699707 230.50000000 -0.511909 -0.252088 0.821219 0.000000
163.71099854 136.64100647 125.00000000 0.922921 0.054446 -0.381120 0.000000
67.46089935 212.26600647 74.00000000 -0.792682 0.275784 -0.543689 0.000000
177.89100647 169.29699707 253.50000000 -0.451931 0.299735 0.840189 0.000000
144.37500000 141.36700439 220.00000000 -0.647695 0.172211 0.742182 0.000000
89.80470276 171.01600647 200.00000000 -0.795541 -0.364824 0.483753 0.000000
67.03119659 277.14801025 182.00000000 -0.862980 0.496178 -0.095255 0.000000
88.08589935 141.79699707 133.00000000 -0.626473 -0.778516 0.038011 0.000000
132.34399414 260.82000732 144.00000000 0.394614 0.615861 -0.681905 0.000000
183.90600586 103.55500031 183.00000000 -0.707106 -0.707106 0.001384 0.000000
57.14839935 186.48399353 105.00000000 -0.948930 -0.315485 0.001237 0.000000
86.79689789 165.00000000 82.50000000 0.553473 0.287045 -0.781840 0.000000
83.78910065 212.26600647 231.00000000 -0.351785 -0.013970 0.935977 0.000000
102.69499969 157.26600647 98.00000000 0.826491 0.322725 -0.461261 0.000000
54.57030106 218.28100586 106.00000000 -0.949438 0.237699 -0.205100 0.000000
59.72660065 243.20300293 151.00000000 -0.863691 0.492518 0.107069 0.000000
164.14100647 141.36700439 233.00000000 -0.969909 0.030348 -0.241567 0.000000
215.70300293 97.53910065 182.00000000 0.030025 -0.999098 0.030025 0.000000
170.58599854 250.07800293 197.00000000 0.933654 -0.314917 -0.170638 0.000000
94.53119659 247.50000000 82.50000000 0.772798 0.181387 -0.608179 0.000000
169.72700500 257.81201172 188.00000000 0.973370 0.022692 -0.228115 0.000000
169.72700500 149.53100586 152.00000000 0.938947 -0.289013 0.186683 0.000000
191.64100647 197.22700500 181.00000000 -0.562036 -0.551909 0.616045 0.000000
86.79689789 158.12500000 170.50000000 -0.736361 -0.608019 0.296790 0.000000
66.60160065 199.37500000 177.00000000 -0.917915 -0.167791 0.359552 0.000000
202.81199646 146.09399414 251.50000000 0.226156 -0.609840 0.759571 0.000000
70.89839935 272.42199707 208.00000000 -0.718677 0.371617 0.587711 0.000000
161.56199646 258.24200439 168.00000000 0.778465 0.383568 -0.496858 0.000000
88.94529724 158.12500000 174.00000000 -0.718527 -0.563259 0.407991 0.000000
156.40600586 111.28900146 149.00000000 -0.204183 -0.977422 -0.054368 0.000000
119.02300262 124.60900116 156.00000000 -0.452366 -0.877096 0.161455 0.000000
106.56199646 307.22698975 199.00000000 -0.095448 0.676950 0.729814 0.000000
123.75000000 208.82800293 109.50000000 0.660491 -0.073709 -0.747207 0.000000
57.14839935 231.17199707 145.00000000 -0.991772 0.030257 0.124392 0.000000
219.14100647 173.59399414 259.50000000 -0.093527 0.306927 0.947127 0.000000
61.44530106 252.65600586 199.00000000 -0.930297 -0.003807 0.366788 0.000000
99.68750000 238.90600586 237.50000000 -0.248021 0.135165 0.959279 0.000000
116.01599884 177.03100586 240.50000000 0.127110 -0.707327 0.695364 0.000000
115.58599854 136.64100647 178.00000000 -0.411075 -0.794745 0.446540 0.000000
266.40600586 164.14100647 227.50000000 -0.816035 -0.061025 0.574772 0.000000
84.21880341 302.50000000 197.50000000 -0.417612 0.824110 0.382679 0.000000
143.51600647 115.58599854 169.00000000 -0.318817 -0.925279 0.205460 0.000000
100.54699707 262.10900879 102.50000000 0.841585 0.335697 -0.423134 0.000000
244.06199646 131.48399353 192.50000000 -0.704168 -0.551016 0.447804 0.000000
281.87500000 143.94500732 227.00000000 -0.934901 -0.245289 0.256502 0.000000
204.10200500 169.29699707 175.00000000 -0.460398 -0.376981 0.803691 0.000000
189.06199646 162.42199707 257.50000000 -0.246838 -0.241260 0.938544 0.000000
227.73399353 166.71899414 260.50000000 -0.084532 0.112324 0.990070 0.000000
84.64839935 181.32800293 82.00000000 -0.656470 -0.730266 -0.189100 0.000000
196.79699707 120.31199646 227.50000000 -0.189009 -0.754500 0.628494 0.000000
76.91410065 154.68800354 88.00000000 -0.758770 -0.001377 -0.651358 0.000000
168.00799561 140.07800293 133.00000000 0.850492 0.387153 -0.356056 0.000000
175.31199646 185.62500000 197.50000000 0.518225 -0.837822 0.171746 0.000000
199.80499268 215.70300293 225.00000000 0.178223 -0.938086 0.297038 0.000000
110.00000000 302.07000732 207.00000000 -0.207168 0.572396 0.793375 0.000000
81.64060211 281.01599121 114.50000000 -0.885194 0.459859 -0.070429 0.000000
153.82800293 202.81199646 247.50000000 -0.503455 0.001335 0.864020 0.000000
56.28910065 189.06199646 121.00000000 -0.904490 -0.409607 -0.118828 0.000000
238.90600586 182.61700439 255.00000000 0.148477 0.348296 0.925551 0.000000
68.32029724 222.57800293 74.00000000 -0.647974 0.255071 -0.717683 0.000000
128.90600586 120.74199677 144.00000000 -0.325356 -0.938269 -0.117452 0.000000
162.85200500 225.15600586 161.00000000 0.906371 -0.231321 -0.353528 0.000000
153.39799500 301.64099121 195.00000000 0.636647 0.692007 0.340305 0.000000
179.17999268 195.07800293 248.00000000 -0.894564 0.224743 0.386323 0.000000
174.02299500 125.46900177 223.00000000 -0.202682 -0.657555 0.725632 0.000000
281.01599121 169.29699707 237.50000000 -0.840533 -0.102363 0.532001 0.000000
161.56199646 155.97700500 132.00000000 0.805708 0.001368 -0.592312 0.000000
135.78100586 315.82000732 187.00000000 0.601083 0.690500 0.402378 0.000000
133.20300293 128.04699707 190.50000000 -0.642092 -0.628750 0.438624 0.000000
59.72660065 263.82800293 193.00000000 -0.994772 -0.040760 0.093639 0.000000
146.09399414 113.86699677 147.00000000 0.392100 -0.913052 -0.112226 0.000000
174.88299561 171.87500000 180.00000000 0.708308 0.354972 0.610159 0.000000
168.43800354 190.78100586 157.50000000 0.763262 0.388954 -0.515893 0.000000
173.59399414 215.70300293 182.50000000 0.068800 -0.395264 -0.915987 0.000000
112.57800293 177.89100647 122.50000000 0.470248 0.269814 -0.840278 0.000000
70.46880341 265.54699707 112.50000000 -0.886685 0.295562 -0.355574 0.000000
143.51600647 165.00000000 119.50000000 0.422391 0.307896 -0.852517 0.000000
230.31199646 204.10200500 210.00000000 -0.691818 -0.461767 0.555121 0.000000
85.93750000 293.47698975 134.00000000 -0.540190 0.777424 -0.322190 0.000000
167.57800293 128.04699707 222.50000000 -0.425784 -0.704118 0.568265 0.000000
185.62500000 229.45300293 212.50000000 -0.455313 0.817025 0.353780 0.000000
164.14100647 176.17199707 142.50000000 0.678202 0.584887 -0.444914 0.000000
178.75000000 226.44500732 230.00000000 0.307332 0.834631 0.457097 0.000000
212.26600647 200.23399353 246.50000000 -0.396429 0.239045 0.886398 0.000000
225.15600586 207.10899353 247.50000000 0.267910 0.413218 0.870330 0.000000
153.39799500 203.67199707 160.00000000 0.181051 0.965169 -0.188866 0.000000
116.87500000 231.17199707 245.50000000 -0.239315 0.961183 0.137312 0.000000
146.09399414 226.87500000 132.50000000 0.661148 -0.210012 -0.720263 0.000000
192.50000000 105.27300262 160.00000000 -0.499932 -0.766996 -0.402225 0.000000
85.93750000 145.23399353 94.50000000 -0.487495 -0.831063 -0.267735 0.000000
173.59399414 163.28100586 147.50000000 0.753777 0.376074 -0.538877 0.000000
133.20300293 244.06199646 129.50000000 0.708015 0.436084 -0.555468 0.000000
186.48399353 143.94500732 166.00000000 0.387237 -0.746697 0.540824 0.000000
95.82029724 272.42199707 100.00000000 0.569787 0.436892 -0.696037 0.000000
260.39099121 142.22700500 214.00000000 -0.308018 -0.720860 0.620875 0.000000
147.81199646 143.51600647 222.50000000 -0.197152 -0.793193 0.576173 0.000000
161.13299561 262.10900879 225.00000000 0.388917 0.367050 0.844996 0.000000
268.98400879 209.68800354 235.50000000 -0.859531 -0.218270 0.462130 0.000000
63.59379959 262.10900879 202.50000000 -0.829903 0.467309 0.304767 0.000000
62.30469894 253.51600647 126.00000000 -0.821356 0.567764 -0.054945 0.000000
213.12500000 190.78100586 253.50000000 0.023713 -0.776961 0.629102 0.000000
169.29699707 260.39099121 190.50000000 0.973370 0.022692 -0.228115 0.000000
82.07029724 166.71899414 80.00000000 -0.281974 -0.951829 -0.120468 0.000000
57.14839935 195.07800293 133.00000000 -0.949660 -0.157603 0.270754 0.000000
62.30469894 220.85899353 184.00000000 -0.977381 -0.077065 0.196944 0.000000
146.95300293 114.72699738 143.00000000 -0.305198 -0.915594 -0.261805 0.000000
141.36700439 210.54699707 172.00000000 0.876717 0.276143 0.393844 0.000000
112.57800293 151.67999268 206.00000000 -0.501910 -0.702007 0.505245 0.000000
181.32800293 122.03099823 222.50000000 -0.196200 -0.733819 0.650396 0.000000
116.87500000 239.76600647 112.50000000 0.750171 0.359626 -0.554899 0.000000
264.68798828 144.80499268 245.00000000 0.341072 -0.638083 0.690304 0.000000
165.85899353 112.14800262 191.00000000 -0.390842 -0.887196 0.245205 0.000000
142.22700500 207.96899414 174.00000000 0.597578 0.712182 -0.368370 0.000000
192.50000000 200.23399353 195.50000000 0.625189 -0.297327 0.721620 0.000000
63.16410065 263.82800293 153.00000000 -0.917464 0.331666 0.219675 0.000000
58.86719894 182.18800354 101.00000000 -0.916771 -0.367554 -0.156316 0.000000
60.58589935 240.62500000 103.00000000 -0.901448 0.284745 -0.326056 0.000000
116.01599884 255.23399353 124.50000000 0.614967 0.513877 -0.598119 0.000000
220.85899353 140.07800293 247.50000000 0.073744 -0.666584 0.741773 0.000000
168.00799561 232.89100647 177.00000000 0.886685 0.295562 -0.355574 0.000000
141.79699707 251.36700439 236.00000000 0.160159 0.155115 0.974827 0.000000
63.16410065 176.17199707 90.00000000 -0.708486 0.705724 -0.001381 0.000000
191.64100647 156.40600586 165.50000000 0.009968 -0.131794 0.991227 0.000000
171.44500732 267.26599121 204.00000000 0.866300 0.497193 0.048204 0.000000
110.85900116 244.92199707 107.50000000 0.801335 -0.268157 -0.534746 0.000000
83.78910065 211.40600586 231.00000000 -0.372047 -0.113948 0.921193 0.000000
102.69499969 189.06199646 240.00000000 -0.435070 0.871635 0.225758 0.000000
158.98399353 173.59399414 134.50000000 0.631732 0.387616 -0.671318 0.000000
128.90600586 177.89100647 242.50000000 0.000978 0.000978 0.999999 0.000000
110.00000000 191.64100647 242.50000000 -0.051178 -0.068600 0.996331 0.000000
194.21899414 231.60200500 216.00000000 -0.102769 0.919441 0.379561 0.000000
64.02339935 256.09399414 127.00000000 -0.821356 0.567764 -0.054945 0.000000
101.40599823 304.64801025 201.00000000 -0.162641 0.700725 0.694645 0.000000
137.50000000 204.96099854 132.00000000 0.676535 -0.676535 -0.290862 0.000000
142.22700500 253.51600647 143.00000000 0.657429 0.654134 -0.374026 0.000000
89.37500000 235.46899414 73.50000000 0.683495 -0.089279 -0.724475 0.000000
201.95300293 194.21899414 182.50000000 -0.442809 -0.545634 0.711480 0.000000
110.85900116 312.38299561 157.00000000 0.126541 0.748828 -0.650572 0.000000
145.23399353 192.50000000 247.50000000 -0.076942 0.251006 0.964923 0.000000
278.43798828 186.91400146 237.00000000 -0.798692 -0.347327 0.491380 0.000000
78.63279724 150.39100647 127.00000000 -0.727449 -0.684741 0.044131 0.000000
227.73399353 138.78900146 179.00000000 -0.539416 -0.579999 0.610436 0.000000
246.21099854 166.71899414 215.00000000 -0.779878 -0.046708 0.624186 0.000000
128.90600586 124.18000031 175.00000000 -0.269721 -0.860973 0.431249 0.000000
220.00000000 150.39100647 180.50000000 -0.619675 -0.376407 0.688710 0.000000
257.81201172 117.30500031 218.00000000 0.282277 -0.880039 0.381904 0.000000
146.09399414 206.67999268 172.00000000 -0.342568 0.420780 -0.839995 0.000000
144.37500000 283.16400146 220.00000000 0.293463 0.335174 0.895286 0.000000
59.72660065 208.82800293 156.00000000 -0.988912 -0.056542 0.137317 0.000000
91.09380341 237.18800354 73.50000000 -0.250903 0.250903 -0.934930 0.000000
111.28900146 177.89100647 237.00000000 -0.750684 -0.441869 0.491148 0.000000
60.58589935 203.67199707 160.00000000 -0.973102 -0.093448 0.210569 0.000000
268.55499268 135.78100586 215.00000000 -0.477944 -0.825825 0.299303 0.000000
118.16400146 305.93798828 157.00000000 0.758770 -0.001377 -0.651358 0.000000
195.93800354 101.83599854 167.00000000 -0.089880 -0.983881 -0.154593 0.000000
243.20300293 122.03099823 230.50000000 0.152343 -0.749649 0.644064 0.000000
116.44499969 134.06199646 176.00000000 -0.464030 -0.706855 0.533884 0.000000
118.16400146 258.67199707 132.00000000 0.612279 0.504329 -0.608906 0.000000
252.22700500 143.51600647 208.00000000 -0.341698 -0.478377 0.808949 0.000000
224.29699707 183.47700500 256.00000000 0.122063 0.263814 0.956819 0.000000
178.75000000 128.90600586 230.50000000 -0.629332 -0.315475 0.710223 0.000000
113.00800323 130.62500000 111.00000000 -0.381136 -0.911044 -0.157272 0.000000
256.09399414 163.28100586 222.50000000 -0.735573 0.675817 0.046951 0.000000
60.15620041 256.95300293 196.50000000 -0.882292 0.061939 0.466610 0.000000
137.50000000 138.35899353 210.50000000 -0.526929 -0.791190 0.310427 0.000000
158.12500000 204.10200500 167.00000000 0.284356 0.949190 -0.134836 0.000000
81.64060211 282.73400879 117.50000000 -0.919268 0.365189 -0.146915 0.000000
169.29699707 270.70300293 205.50000000 0.866300 0.497193 0.048204 0.000000
128.90600586 271.99200439 150.00000000 0.339132 0.339132 -0.877485 0.000000
147.81199646 148.24200439 229.00000000 -0.541519 -0.438846 0.717057 0.000000
93.67189789 157.69500732 185.00000000 -0.561904 -0.777168 0.283326 0.000000
136.21099854 214.84399414 124.00000000 0.638256 -0.020949 -0.769539 0.000000
107.85199738 268.12500000 125.00000000 0.897080 0.307953 -0.316879 0.000000
177.03100586 228.59399414 227.50000000 0.339199 0.725463 0.598872 0.000000
128.04699707 203.67199707 117.50000000 0.642399 -0.514256 -0.568211 0.000000
110.00000000 132.77299500 108.00000000 -0.444701 -0.890796 -0.093401 0.000000
152.10899353 234.60899353 237.50000000 0.739905 0.286054 0.608863 0.000000
115.15599823 271.56201172 232.50000000 -0.126503 -0.751579 0.647400 0.000000
128.04699707 192.07000732 134.00000000 0.798139 -0.009649 0.602395 0.000000
121.17199707 162.42199707 107.50000000 0.262487 0.510996 -0.818525 0.000000
154.68800354 259.10198975 158.00000000 0.761489 0.371814 -0.530932 0.000000
176.17199707 106.99199677 180.00000000 -0.367798 -0.929243 0.035090 0.000000
146.95300293 286.17199707 170.50000000 0.638868 0.216065 -0.738352 0.000000
68.32029724 266.40600586 208.00000000 -0.818468 0.376654 0.433868 0.000000
70.03910065 164.14100647 89.00000000 -0.834510 -0.481508 -0.267848 0.000000
255.23399353 220.00000000 237.50000000 0.947462 -0.209180 0.241992 0.000000
140.07800293 204.96099854 163.00000000 0.575015 0.818133 0.004097 0.000000
197.65600586 233.32000732 202.00000000 0.308777 0.939932 0.145547 0.000000
268.55499268 162.42199707 230.00000000 -0.551968 -0.196154 0.810466 0.000000
220.85899353 134.92199707 243.50000000 0.061330 -0.600467 0.797294 0.000000
139.64799500 211.40600586 128.00000000 0.828330 -0.205183 -0.521316 0.000000
135.35200500 117.73400116 161.00000000 -0.379344 -0.920487 0.093816 0.000000
149.96099854 305.07800293 183.00000000 0.714871 0.674900 -0.182946 0.000000
206.25000000 125.03900146 235.00000000 0.605085 -0.605085 -0.517440 0.000000
191.64100647 213.12500000 245.50000000 0.298053 0.200101 0.933340 0.000000
256.95300293 177.03100586 227.50000000 -0.548623 -0.143440 0.823673 0.000000
137.92999268 213.98399353 125.00000000 0.756964 0.032421 -0.652652 0.000000
187.77299500 195.07800293 205.00000000 0.891125 -0.424688 0.159798 0.000000
145.23399353 241.48399353 237.50000000 0.306886 0.133840 0.942289 0.000000
280.15600586 147.81199646 227.50000000 -0.882150 -0.470922 0.006633 0.000000
79.92189789 172.73399353 79.50000000 0.071360 -0.058186 -0.995752 0.000000
127.18800354 169.72700500 237.00000000 -0.409875 -0.605685 0.682018 0.000000
60.58589935 270.70300293 194.00000000 -0.996943 0.057370 -0.053040 0.000000
257.81201172 137.07000732 210.00000000 -0.678229 -0.203313 0.706165 0.000000
56.28910065 223.43800354 137.00000000 -0.976949 -0.039557 0.209774 0.000000
155.54699707 287.46099854 177.00000000 0.467257 0.380550 -0.798030 0.000000
129.76600647 154.68800354 225.50000000 -0.398518 -0.795423 0.456602 0.000000
138.35899353 194.64799500 139.00000000 0.029190 0.810370 -0.585190 0.000000
123.75000000 310.66400146 194.00000000 -0.385429 0.556001 0.736415 0.000000
99.68750000 169.29699707 92.50000000 0.567869 0.075811 -0.819620 0.000000
174.88299561 231.17199707 227.00000000 0.556224 0.552842 0.620468 0.000000
163.71099854 273.28100586 213.00000000 0.150440 0.555584 0.817737 0.000000
122.89099884 225.15600586 109.50000000 0.700616 0.220015 -0.678771 0.000000
177.03100586 201.52299500 184.00000000 0.056204 -0.997878 -0.032874 0.000000
246.64100647 162.42199707 212.50000000 -0.839554 -0.230077 0.492152 0.000000
85.07810211 243.20300293 73.50000000 0.387209 0.076902 -0.918779 0.000000
62.30469894 172.73399353 99.00000000 -0.920675 -0.310710 -0.236254 0.000000
104.41400146 191.64100647 97.00000000 0.757706 -0.229655 -0.610852 0.000000
125.89800262 158.98399353 107.00000000 0.314613 0.363249 -0.876966 0.000000
96.25000000 177.89100647 89.50000000 0.579101 -0.090981 -0.810163 0.000000
92.81250000 234.60899353 237.50000000 -0.170146 0.028936 0.984994 0.000000
206.67999268 135.78100586 158.00000000 0.161654 -0.455835 0.875261 0.000000
257.81201172 190.78100586 245.50000000 0.390755 0.403411 0.827388 0.000000
102.69499969 169.29699707 99.00000000 0.931268 0.218376 -0.291638 0.000000
81.64060211 166.28900146 171.00000000 -0.852522 -0.463492 0.241624 0.000000
227.73399353 203.67199707 202.50000000 -0.835713 0.417070 -0.357263 0.000000
61.87500000 188.20300293 144.50000000 -0.950696 -0.286928 0.117680 0.000000
172.73399353 247.07000732 224.00000000 0.557631 -0.166838 0.813150 0.000000
98.82810211 247.07000732 88.00000000 0.857361 -0.065736 -0.510500 0.000000
62.30469894 173.59399414 120.00000000 -0.904490 -0.409607 0.118828 0.000000
262.10900879 184.76600647 248.50000000 0.175458 0.642327 0.746076 0.000000
146.09399414 186.48399353 250.50000000 -0.538373 0.354065 0.764717 0.000000
206.25000000 216.99200439 229.00000000 0.190700 -0.892359 0.409059 0.000000
248.78900146 142.65600586 207.00000000 -0.453614 -0.597566 0.661172 0.000000
74.76560211 157.26600647 139.50000000 -0.846843 -0.513371 0.138947 0.000000
92.81250000 229.45300293 237.50000000 -0.236234 0.045288 0.970640 0.000000
97.96880341 139.21899414 157.50000000 -0.589286 -0.692203 0.416650 0.000000
63.16410065 237.18800354 211.00000000 -0.237699 -0.949438 -0.205100 0.000000
196.36700439 212.26600647 222.00000000 0.406196 -0.857181 0.316616 0.000000
174.88299561 165.00000000 159.00000000 0.996789 -0.024678 -0.076181 0.000000
236.32800293 152.10899353 197.50000000 -0.900092 -0.412483 0.140329 0.000000
103.12500000 257.81201172 236.50000000 -0.616207 0.514913 0.595948 0.000000
61.87500000 258.24200439 156.00000000 -0.971711 0.233550 -0.035093 0.000000
141.36700439 119.45300293 182.00000000 -0.450982 -0.874053 0.180686 0.000000
74.76560211 164.14100647 81.50000000 -0.598575 -0.222328 -0.769596 0.000000
88.51560211 297.77301025 140.00000000 -0.522262 0.736439 -0.430001 0.000000
117.73400116 237.61700439 112.00000000 0.719334 0.456852 -0.523303 0.000000
281.87500000 184.76600647 240.50000000 -0.846549 -0.466903 0.255649 0.000000
190.78100586 226.87500000 177.50000000 0.651358 0.758770 -0.001377 0.000000
92.81250000 183.04699707 87.50000000 0.657965 0.199712 -0.726084 0.000000
128.90600586 237.61700439 244.00000000 0.421911 0.746963 0.513845 0.000000
168.43800354 133.20300293 132.50000000 0.814985 0.094092 -0.571792 0.000000
95.39060211 303.35900879 202.50000000 0.101791 0.511823 0.853039 0.000000
88.51560211 244.92199707 73.50000000 0.434587 0.450863 -0.779652 0.000000
62.30469894 238.04699707 194.00000000 -0.970397 -0.120507 -0.209301 0.000000
85.93750000 151.25000000 157.50000000 -0.532430 -0.768706 0.354414 0.000000
123.31999969 127.18800354 109.00000000 -0.430931 -0.894358 -0.120095 0.000000
102.69499969 312.81201172 172.00000000 -0.399945 0.915489 -0.043848 0.000000
184.76600647 132.34399414 235.50000000 -0.467180 -0.527033 0.709915 0.000000
128.90600586 309.80499268 167.00000000 0.612805 0.229217 -0.756260 0.000000
229.45300293 103.55500031 198.00000000 0.102125 -0.978190 0.180873 0.000000
129.76600647 255.23399353 237.50000000 -0.898511 0.098906 0.427663 0.000000
207.10899353 116.01599884 151.50000000 -0.510462 -0.054245 0.858188 0.000000
169.72700500 154.68800354 144.00000000 0.822433 -0.205228 -0.530553 0.000000
204.10200500 225.15600586 194.00000000 0.624942 0.648273 -0.434960 0.000000
58.86719894 178.75000000 112.00000000 -0.942023 -0.332857 0.042410 0.000000
68.32029724 275.00000000 204.00000000 -0.808015 0.314667 0.498092 0.000000
153.82800293 206.67999268 174.00000000 0.122317 0.986847 -0.105691 0.000000
180.46899414 193.35899353 172.50000000 -0.070862 -0.015865 0.997360 0.000000
145.23399353 268.98400879 157.50000000 0.440589 0.570272 -0.693304 0.000000
60.58589935 225.15600586 87.00000000 -0.874132 0.124876 -0.469361 0.000000
138.35899353 205.82000732 132.00000000 0.711711 -0.491697 -0.501698 0.000000
76.91410065 293.90600586 167.00000000 -0.808907 0.585857 -0.049410 0.000000
96.25000000 193.78900146 236.00000000 -0.962496 -0.150186 -0.225932 0.000000
83.78910065 184.76600647 201.00000000 -0.862780 -0.412234 0.292701 0.000000
122.89099884 313.67199707 192.50000000 -0.253913 0.604030 0.755431 0.000000
135.78100586 294.76599121 167.50000000 0.367851 0.203400 -0.907366 0.000000
264.68798828 137.92999268 214.00000000 -0.323201 -0.664267 0.674011 0.000000
122.03099823 303.78900146 206.00000000 0.305198 0.915594 -0.261805 0.000000
188.63299561 196.79699707 206.00000000 0.909968 -0.395578 0.124404 0.000000
177.89100647 143.08599854 243.00000000 -0.940089 0.313363 -0.134298 0.000000
96.25000000 303.78900146 144.00000000 -0.562831 0.790457 -0.241659 0.000000
98.82810211 257.81201172 94.50000000 0.845051 0.455740 -0.279624 0.000000
59.72660065 206.25000000 157.00000000 -0.985063 -0.043133 0.166703 0.000000
191.21099854 204.53100586 199.00000000 0.922075 0.090985 -0.376163 0.000000
128.90600586 149.53100586 104.50000000 0.386385 0.373871 -0.843165 0.000000
110.00000000 291.75799561 217.00000000 -0.569727 0.489058 0.660480 0.000000
162.85200500 287.89099121 200.00000000 0.843428 0.456534 0.283206 0.000000
148.67199707 199.80499268 148.00000000 0.404273 0.707891 -0.579183 0.000000
208.82800293 119.02300262 226.00000000 -0.001160 -0.977717 0.209925 0.000000
144.37500000 117.73400116 129.50000000 -0.413969 -0.823180 -0.388592 0.000000
268.12500000 136.64100647 215.50000000 -0.477944 -0.825825 0.299303 0.000000
193.35899353 104.41400146 159.00000000 -0.499932 -0.766996 -0.402225 0.000000
151.25000000 185.62500000 137.50000000 0.658250 0.550506 -0.513469 0.000000
166.28900146 146.09399414 137.00000000 0.915078 0.223365 -0.335769 0.000000
86.79689789 213.98399353 232.50000000 -0.652222 -0.041029 0.756917 0.000000
249.21899414 217.85200500 238.00000000 0.304120 0.866512 0.395814 0.000000
115.15599823 239.33599854 109.00000000 0.745482 0.495343 -0.445973 0.000000
69.60939789 188.63299561 75.00000000 -0.040867 -0.386259 -0.921485 0.000000
213.98399353 212.26600647 202.50000000 -0.117646 -0.937114 0.328598 0.000000
205.82000732 218.28100586 207.00000000 0.845114 -0.200357 0.495620 0.000000
219.14100647 150.39100647 180.50000000 -0.619675 -0.376407 0.688710 0.000000
156.40600586 263.82800293 165.50000000 0.782850 0.363178 -0.505221 0.000000
62.30469894 264.68798828 185.00000000 -0.995277 0.001067 -0.097074 0.000000
61.01559830 252.22700500 146.00000000 -0.995047 0.060876 -0.078585 0.000000
136.64100647 264.68798828 232.50000000 0.471666 0.494836 0.729841 0.000000
184.76600647 152.96899414 172.50000000 0.075587 -0.972719 -0.219326 0.000000
59.72660065 220.00000000 87.00000000 -0.923630 0.256325 -0.284965 0.000000
220.00000000 199.37500000 192.50000000 -0.492557 -0.240908 0.836272 0.000000
167.14799500 110.85900116 147.00000000 -0.049314 -0.989729 -0.134181 0.000000
127.18800354 147.81199646 212.50000000 -0.589673 -0.569397 0.572776 0.000000
135.78100586 150.39100647 109.50000000 0.495087 0.659557 -0.565574 0.000000
270.70300293 196.79699707 232.50000000 -0.459983 -0.200963 0.864887 0.000000
177.46099854 107.42199707 192.00000000 -0.430520 -0.896099 0.107981 0.000000
130.62500000 119.88300323 160.00000000 -0.386331 -0.901439 0.195336 0.000000
75.19529724 268.12500000 103.00000000 -0.768255 0.535353 -0.350971 0.000000
197.65600586 184.76600647 175.50000000 -0.525473 -0.528831 0.666495 0.000000
128.47700500 134.92199707 194.00000000 -0.494169 -0.675085 0.547774 0.000000
166.71899414 110.43000031 157.00000000 0.000978 -0.999999 0.000978 0.000000
69.60939789 190.78100586 74.50000000 -0.040867 -0.386259 -0.921485 0.000000
113.00800323 163.28100586 219.00000000 -0.664397 -0.546656 0.509651 0.000000
80.78119659 169.72700500 173.00000000 -0.869858 -0.391512 0.300109 0.000000
137.50000000 118.59400177 170.50000000 -0.387394 -0.883975 0.261752 0.000000
161.56199646 168.43800354 134.50000000 0.722657 0.233570 -0.650548 0.000000
175.31199646 215.70300293 247.50000000 -0.156000 0.716388 0.680038 0.000000
272.42199707 136.64100647 232.50000000 0.364630 -0.424612 0.828704 0.000000
81.21089935 281.01599121 117.00000000 -0.919268 0.365189 -0.146915 0.000000
146.95300293 144.37500000 225.50000000 -0.441033 -0.700660 0.560861 0.000000
77.34380341 238.04699707 230.50000000 -0.001264 0.362873 0.931838 0.000000
171.44500732 251.79699707 200.00000000 0.933654 -0.314917 -0.170638 0.000000
138.35899353 294.76599121 212.50000000 0.936328 0.312109 -0.160867 0.000000
71.32810211 270.27301025 121.00000000 -0.873818 0.459520 -0.159009 0.000000
93.24220276 280.15600586 106.00000000 0.774633 0.501807 -0.384881 0.000000
119.45300293 214.84399414 247.50000000 -0.704484 -0.704484 0.086055 0.000000
58.86719894 220.00000000 160.00000000 -0.973030 -0.190567 0.129990 0.000000
160.70300293 281.87500000 177.50000000 0.663984 0.192571 -0.722525 0.000000
167.57800293 110.43000031 181.00000000 -0.439925 -0.878379 -0.186858 0.000000
116.01599884 129.33599854 114.00000000 -0.338995 -0.913121 -0.226477 0.000000
67.03119659 192.50000000 74.50000000 -0.809674 -0.362517 -0.461530 0.000000
190.35200500 200.23399353 203.00000000 0.315807 0.134184 0.939287 0.000000
93.24220276 153.82800293 177.00000000 -0.654738 -0.654738 0.377670 0.000000
183.90600586 177.89100647 253.50000000 -0.960928 -0.001209 0.276796 0.000000
283.16400146 157.26600647 236.00000000 -0.636921 0.018118 0.770716 0.000000
111.28900146 155.54699707 209.00000000 -0.492697 -0.657490 0.570049 0.000000
94.10160065 137.50000000 139.00000000 -0.658713 -0.748472 0.076729 0.000000
152.96899414 182.61700439 136.00000000 0.503916 0.581442 -0.638744 0.000000
149.96099854 243.20300293 236.00000000 0.321435 -0.001241 0.946931 0.000000
97.10939789 144.37500000 165.50000000 0.001180 -0.971447 0.237255 0.000000
141.36700439 131.48399353 203.00000000 -0.755625 -0.554988 0.347879 0.000000
115.15599823 270.70300293 231.50000000 -0.126503 -0.751579 0.647400 0.000000
190.78100586 100.97699738 187.00000000 0.000000 0.000000 0.000000 0.000000
104.84400177 182.18800354 235.50000000 -0.339132 -0.339132 0.877485 0.000000
177.46099854 201.09399414 211.00000000 0.877679 -0.039462 -0.477621 0.000000
104.84400177 158.12500000 102.50000000 -0.353319 0.931961 0.081330 0.000000
63.16410065 244.92199707 204.00000000 -0.958321 -0.163034 0.234610 0.000000
159.84399414 110.43000031 153.00000000 -0.111168 -0.991340 -0.069910 0.000000
171.44500732 142.65600586 144.00000000 0.895954 0.420201 -0.143865 0.000000
197.65600586 142.65600586 160.50000000 0.000978 0.000978 0.999999 0.000000
227.73399353 136.64100647 245.50000000 -0.291139 -0.508312 0.810467 0.000000
209.68800354 215.27299500 221.00000000 0.174018 -0.941344 0.289117 0.000000
56.71879959 229.88299561 106.00000000 -0.941638 0.307557 -0.136842 0.000000
134.92199707 129.33599854 194.00000000 -0.568211 -0.642399 0.514256 0.000000
235.89799500 130.62500000 181.00000000 -0.834389 -0.254481 0.488912 0.000000
155.54699707 216.13299561 156.00000000 0.715705 -0.669331 -0.199408 0.000000
170.15600586 221.71899414 177.50000000 0.366900 -0.780672 -0.505901 0.000000
165.85899353 123.75000000 217.50000000 -0.605085 -0.605085 0.517440 0.000000
202.81199646 192.92999268 181.00000000 -0.513258 -0.367538 0.775553 0.000000
128.90600586 128.90600586 185.50000000 -0.537382 -0.722573 0.434866 0.000000
123.75000000 308.08599854 197.00000000 -0.387561 0.674522 0.628344 0.000000
66.17189789 202.81199646 177.50000000 -0.912036 -0.306921 0.272011 0.000000
185.62500000 128.90600586 156.50000000 -0.071601 -0.997075 -0.026717 0.000000
112.57800293 227.30499268 98.00000000 0.692828 0.692828 -0.199944 0.000000
194.64799500 114.29699707 218.00000000 -0.515191 -0.852975 0.083736 0.000000
73.90619659 162.42199707 82.50000000 -0.608761 -0.365913 -0.703931 0.000000
72.61720276 234.60899353 227.00000000 0.113272 -0.792905 0.598724 0.000000
203.67199707 136.64100647 243.50000000 0.764226 -0.386187 0.516545 0.000000
122.03099823 122.46099854 144.00000000 -0.513525 -0.835795 0.194266 0.000000
61.87500000 254.37500000 172.50000000 -0.984064 0.170477 -0.050555 0.000000
277.57800293 164.14100647 235.50000000 -0.385385 -0.417104 0.823106 0.000000
218.28100586 203.67199707 192.50000000 -0.150070 -0.256315 0.954872 0.000000
218.28100586 113.43800354 222.50000000 0.061775 -0.728368 0.682396 0.000000
188.63299561 210.54699707 184.00000000 0.358652 -0.428170 -0.829481 0.000000
190.78100586 100.97699738 179.00000000 -0.368856 -0.922827 -0.111068 0.000000
173.16400146 137.50000000 156.00000000 0.692828 0.692828 0.199944 0.000000
158.12500000 202.38299561 250.00000000 -0.404246 0.372788 0.835233 0.000000
270.70300293 134.92199707 215.50000000 -0.528322 -0.562081 0.636350 0.000000
129.33599854 219.14100647 116.00000000 0.769924 0.061651 -0.635151 0.000000
60.15620041 200.23399353 82.50000000 -0.852716 -0.001343 -0.522373 0.000000
238.47700500 117.73400116 175.00000000 -0.477370 -0.554419 0.681717 0.000000
193.35899353 168.86700439 258.00000000 -0.290088 0.101072 0.951648 0.000000
242.34399414 140.07800293 246.50000000 0.149394 -0.749990 0.644357 0.000000
58.43750000 183.90600586 122.50000000 -0.910169 -0.414185 -0.006492 0.000000
262.53900146 188.20300293 244.00000000 0.322233 0.639608 0.697902 0.000000
251.79699707 155.54699707 215.50000000 -0.566274 -0.026306 0.823797 0.000000
165.85899353 203.67199707 247.50000000 0.240094 -0.220887 0.945285 0.000000
196.79699707 226.44500732 226.00000000 0.412130 0.856674 0.310255 0.000000
164.14100647 142.22700500 129.00000000 0.759415 0.319500 -0.566752 0.000000
152.10899353 149.53100586 119.50000000 0.500886 0.279310 -0.819206 0.000000
156.40600586 279.72698975 216.00000000 0.745288 0.117053 0.656387 0.000000
152.53900146 238.04699707 143.00000000 0.809731 0.119035 -0.574601 0.000000
158.98399353 282.73400879 212.50000000 0.792428 0.326856 0.514998 0.000000
134.06199646 172.30499268 247.00000000 -0.721551 -0.615013 0.317999 0.000000
234.60899353 205.39100647 220.50000000 -0.601885 -0.605257 0.520959 0.000000
219.14100647 122.03099823 230.50000000 0.243258 -0.748607 0.616777 0.000000
244.92199707 123.75000000 187.50000000 -0.934369 0.006339 0.356252 0.000000
65.31250000 272.42199707 175.50000000 -0.955321 0.295548 0.003679 0.000000
95.39060211 310.23400879 182.50000000 -0.451026 0.886597 -0.102570 0.000000
177.89100647 197.22700500 211.00000000 0.681997 0.209726 -0.700639 0.000000
112.57800293 317.53900146 180.00000000 -0.387309 0.707044 0.591676 0.000000
165.00000000 158.12500000 134.50000000 0.726310 -0.018193 -0.687126 0.000000
205.39100647 164.14100647 172.50000000 -0.513034 -0.280835 0.811127 0.000000
198.51600647 191.21099854 178.00000000 0.184775 -0.963189 0.195259 0.000000
199.37500000 202.38299561 250.00000000 0.296990 0.551100 0.779798 0.000000
72.18750000 196.79699707 74.50000000 -0.223287 -0.012996 -0.974666 0.000000
159.41400146 193.35899353 148.00000000 0.228587 0.097244 -0.968654 0.000000
61.01559830 192.07000732 147.00000000 -0.950696 -0.286928 0.117680 0.000000
177.46099854 180.46899414 200.00000000 -0.055358 -0.793462 0.606097 0.000000
56.71879959 215.27299500 141.00000000 -0.993812 -0.045629 0.101273 0.000000
186.05499268 194.21899414 196.00000000 0.530554 -0.310685 -0.788662 0.000000
178.75000000 180.03900146 178.00000000 0.158429 -0.839527 -0.519707 0.000000
98.82810211 288.75000000 122.50000000 0.620426 0.546042 -0.562948 0.000000
55.00000000 220.42999268 129.00000000 -0.995202 0.005368 0.097695 0.000000
98.39839935 263.82800293 101.00000000 0.843121 0.289291 -0.453274 0.000000
130.62500000 150.39100647 220.50000000 -0.601885 -0.605257 0.520959 0.000000
97.53910065 232.03100586 239.00000000 -0.350416 0.281824 0.893188 0.000000
75.19529724 258.67199707 224.00000000 -0.588092 0.187884 0.786669 0.000000
232.89100647 138.35899353 185.50000000 -0.583900 -0.466786 0.664208 0.000000
133.63299561 135.78100586 202.00000000 -0.568527 -0.707758 0.419351 0.000000
255.23399353 113.00800323 211.00000000 0.157619 -0.883536 0.441045 0.000000
184.76600647 230.74200439 206.00000000 0.211585 0.941763 0.261370 0.000000
137.07000732 118.59400177 136.00000000 -0.275368 -0.939572 -0.203413 0.000000
136.64100647 125.89800262 192.00000000 -0.623635 -0.637011 0.453097 0.000000
74.76560211 189.49200439 190.00000000 -0.827015 -0.374766 0.419042 0.000000
194.21899414 155.54699707 165.50000000 0.174669 -0.325583 0.929240 0.000000
75.19529724 162.42199707 151.00000000 -0.740619 -0.483299 0.466804 0.000000
169.29699707 198.94500732 186.00000000 -0.286796 -0.841786 0.457324 0.000000
62.73440170 235.03900146 88.00000000 -0.842217 0.426578 -0.329699 0.000000
126.32800293 262.53900146 140.00000000 0.707106 0.707106 -0.001384 0.000000
250.93800354 207.10899353 242.50000000 0.049204 0.073259 0.996099 0.000000
117.73400116 178.75000000 242.50000000 -0.207238 -0.563380 0.799785 0.000000
101.40599823 256.09399414 99.50000000 0.864433 0.402382 -0.301404 0.000000
88.51560211 275.85900879 225.50000000 -0.174255 0.795510 0.580344 0.000000
202.81199646 137.50000000 245.50000000 0.371873 -0.521272 0.768105 0.000000
71.75779724 256.95300293 97.00000000 -0.782087 0.437383 -0.443887 0.000000
191.21099854 232.03100586 210.00000000 -0.457502 0.879149 0.133378 0.000000
232.46099854 187.34399414 255.00000000 0.266644 0.467013 0.843089 0.000000
187.34399414 224.29699707 232.50000000 -0.153876 0.913373 0.376925 0.000000
129.76600647 250.07800293 132.50000000 0.483192 0.683825 -0.546726 0.000000
71.75779724 270.70300293 211.00000000 -0.930160 0.133273 0.342112 0.000000
158.98399353 193.78900146 149.00000000 0.357708 0.605980 -0.710516 0.000000
96.25000000 306.36700439 155.00000000 -0.602308 0.791896 -0.100628 0.000000
174.45300293 225.58599854 237.00000000 0.916608 0.392832 0.074247 0.000000
58.86719894 218.28100586 86.00000000 -0.902781 0.207887 -0.376522 0.000000
64.88279724 201.09399414 75.00000000 -0.380892 -0.281529 -0.880718 0.000000
53.71089935 215.70300293 107.00000000 -0.940210 0.223595 -0.256926 0.000000
262.10900879 122.89099884 225.50000000 0.220301 -0.720275 0.657778 0.000000
204.96099854 155.54699707 169.00000000 -0.651685 -0.470754 0.594725 0.000000
267.26599121 200.66400146 232.00000000 -0.202338 -0.001156 0.979315 0.000000
259.10198975 177.89100647 251.00000000 0.286124 0.289028 0.913562 0.000000
152.96899414 272.42199707 167.50000000 0.528725 0.401045 -0.748072 0.000000
161.13299561 228.59399414 156.00000000 0.942945 -0.162389 -0.290662 0.000000
80.78119659 256.09399414 82.50000000 -0.449086 0.449086 -0.772427 0.000000
82.92970276 146.09399414 132.00000000 -0.679939 -0.729231 0.076838 0.000000
154.68800354 266.40600586 225.50000000 0.146168 0.527091 0.837144 0.000000
146.09399414 246.64100647 237.50000000 0.268938 -0.048784 0.961921 0.000000
85.50779724 277.57800293 222.00000000 -0.497788 0.531309 0.685506 0.000000
201.95300293 229.88299561 204.00000000 0.578878 0.811578 0.079003 0.000000
140.93800354 212.26600647 129.50000000 0.814721 -0.222476 -0.535476 0.000000
55.42969894 223.43800354 133.00000000 -0.991741 -0.003288 0.128214 0.000000
58.86719894 230.31199646 158.00000000 -0.999999 -0.000978 -0.000978 0.000000
119.45300293 310.23400879 192.50000000 -0.378009 0.477740 0.793016 0.000000
70.89839935 285.31201172 169.00000000 -0.854755 0.507107 -0.110615 0.000000
110.85900116 186.48399353 107.50000000 0.803542 -0.444274 -0.396158 0.000000
91.09380341 141.36700439 106.00000000 -0.408434 -0.906862 -0.103839 0.000000
233.75000000 130.62500000 177.50000000 -0.667678 -0.526406 0.526406 0.000000
66.17189789 260.39099121 209.50000000 -0.815933 0.370589 0.443753 0.000000
160.70300293 134.92199707 225.50000000 -0.955593 -0.169261 0.241231 0.000000
161.99200439 220.00000000 167.00000000 0.675437 -0.700511 -0.230369 0.000000
66.60160065 179.60899353 150.00000000 -0.957764 -0.277483 0.075445 0.000000
271.99200439 202.81199646 233.00000000 -0.209284 0.039465 0.977058 0.000000
62.30469894 175.31199646 93.00000000 -0.937822 -0.271731 -0.215992 0.000000
167.57800293 165.85899353 250.50000000 -0.271011 -0.378816 0.884902 0.000000
178.75000000 199.37500000 172.50000000 0.244188 0.735716 0.631739 0.000000
158.12500000 217.85200500 158.00000000 0.733477 -0.667748 -0.126977 0.000000
122.03099823 164.14100647 230.50000000 -0.019747 -0.998806 -0.044692 0.000000
92.38279724 301.64099121 146.00000000 -0.578262 0.789934 -0.204002 0.000000
61.44530106 256.09399414 187.00000000 -0.820208 -0.252730 -0.513212 0.000000
113.43800354 202.81199646 102.50000000 -0.000978 -0.000978 -0.999999 0.000000
150.39100647 206.67999268 170.00000000 0.057337 0.974724 -0.215928 0.000000
210.54699707 208.39799500 194.00000000 -0.154596 -0.583864 0.796996 0.000000
140.07800293 117.30500031 140.00000000 -0.274399 -0.954490 -0.116850 0.000000
120.74199677 213.12500000 244.00000000 -0.828393 -0.556510 -0.063723 0.000000
145.66400146 292.18798828 172.00000000 0.673387 0.462849 -0.576473 0.000000
62.73440170 256.09399414 200.50000000 -0.889169 0.105352 0.445287 0.000000
101.40599823 239.76600647 89.50000000 0.675778 0.322494 -0.662814 0.000000
245.78100586 153.39799500 255.00000000 0.109331 -0.464300 0.878904 0.000000
245.78100586 113.00800323 214.00000000 0.147896 -0.853695 0.499331 0.000000
261.25000000 131.91400146 207.00000000 -0.726709 -0.139925 0.672544 0.000000
131.05499268 296.48400879 212.00000000 -0.079722 0.769682 0.633430 0.000000
213.55499268 108.28099823 214.00000000 0.001282 -0.919277 -0.393609 0.000000
170.58599854 187.34399414 160.00000000 0.901778 0.335030 -0.273042 0.000000
220.85899353 213.12500000 210.50000000 -0.372131 -0.922831 0.099508 0.000000
151.25000000 229.45300293 240.50000000 0.753777 0.376074 0.538877 0.000000
171.44500732 165.85899353 180.00000000 0.762091 -0.434310 0.480199 0.000000
192.50000000 109.56999969 211.00000000 -0.284177 -0.811711 0.510263 0.000000
170.15600586 215.70300293 182.50000000 -0.001297 -0.421606 -0.906778 0.000000
108.71099854 152.10899353 202.00000000 -0.582227 -0.682324 0.442092 0.000000
207.53900146 188.20300293 181.00000000 -0.382828 -0.141632 0.912898 0.000000
185.62500000 226.01600647 227.50000000 -0.095132 0.908584 0.406726 0.000000
238.47700500 162.42199707 259.00000000 0.298254 -0.437335 0.848400 0.000000
67.46089935 165.00000000 124.00000000 -0.849614 -0.521643 0.077752 0.000000
200.23399353 210.97700500 193.00000000 -0.596966 -0.788474 0.148119 0.000000
158.55499268 258.67199707 165.00000000 0.704652 0.351509 -0.616366 0.000000
96.67970276 182.18800354 91.00000000 0.681731 0.179242 -0.709306 0.000000
99.68750000 285.74200439 217.00000000 -0.336720 0.639280 0.691333 0.000000
200.23399353 226.44500732 220.00000000 0.544957 0.788213 0.285905 0.000000
236.32800293 140.50799561 191.00000000 -0.637459 -0.680066 0.362155 0.000000
197.65600586 131.91400146 238.00000000 -0.198532 -0.522850 0.828983 0.000000
178.75000000 209.68800354 185.50000000 -0.243432 -0.286139 -0.926750 0.000000
104.41400146 168.43800354 217.00000000 -0.512360 -0.488995 0.705955 0.000000
76.91410065 151.25000000 105.00000000 -0.625851 -0.776171 0.076605 0.000000
85.07810211 189.92199707 82.50000000 0.623407 0.018050 -0.781689 0.000000
198.51600647 152.53900146 254.00000000 -0.109405 -0.400228 0.909861 0.000000
74.33589935 219.14100647 223.00000000 -0.786215 -0.275727 0.553029 0.000000
137.50000000 166.71899414 117.50000000 0.485670 0.285780 -0.826108 0.000000
231.17199707 216.13299561 230.00000000 -0.288768 -0.828843 0.479199 0.000000
64.88279724 165.85899353 106.00000000 -0.846434 -0.519436 -0.117199 0.000000
157.26600647 269.84399414 222.50000000 0.456351 0.479416 0.749602 0.000000
97.10939789 306.36700439 152.00000000 -0.597526 0.794254 -0.110109 0.000000
245.78100586 116.87500000 222.50000000 0.092210 -0.495094 0.863932 0.000000
67.89060211 163.71099854 120.00000000 -0.801779 -0.588556 0.103691 0.000000
172.73399353 182.18800354 162.50000000 0.960921 0.241864 -0.134660 0.000000
116.87500000 244.06199646 242.50000000 0.222229 0.470158 0.854146 0.000000
142.65600586 183.90600586 250.50000000 -0.479180 0.637225 0.603598 0.000000
93.24220276 177.89100647 211.00000000 -0.885833 -0.440763 0.145007 0.000000
94.10160065 244.06199646 82.00000000 0.767121 0.155233 -0.622438 0.000000
90.66410065 203.67199707 232.00000000 -0.885271 -0.321231 0.336312 0.000000
114.29699707 207.96899414 102.50000000 0.515901 -0.168002 -0.840012 0.000000
174.02299500 183.90600586 193.00000000 0.460256 -0.865401 0.198104 0.000000
278.43798828 185.62500000 235.50000000 -0.771220 -0.058664 0.633860 0.000000
132.77299500 317.10900879 180.00000000 0.478864 0.861956 -0.166497 0.000000
253.94500732 152.10899353 217.00000000 -0.641640 -0.467409 0.608134 0.000000
128.04699707 310.23400879 197.50000000 -0.258616 0.715557 0.648919 0.000000
231.17199707 124.60900116 235.50000000 -0.261362 -0.174693 0.949301 0.000000
152.96899414 209.25799561 181.00000000 0.417854 0.499786 -0.758691 0.000000
79.49220276 298.20300293 196.00000000 -0.808853 0.579411 0.100199 0.000000
55.85940170 190.35200500 106.00000000 -0.948930 -0.315485 0.001237 0.000000
75.62500000 257.81201172 225.50000000 -0.588092 0.187884 0.786669 0.000000
118.16400146 124.60900116 143.00000000 -0.422757 -0.905527 0.036008 0.000000
200.23399353 104.41400146 204.00000000 -0.311396 -0.931394 0.188513 0.000000
116.87500000 188.20300293 242.50000000 0.000978 0.000978 0.999999 0.000000
132.34399414 196.79699707 247.50000000 0.000978 0.000978 0.999999 0.000000
123.75000000 169.29699707 114.50000000 0.168580 0.630275 -0.757849 0.000000
151.25000000 302.50000000 195.50000000 0.417070 0.835713 0.357263 0.000000
153.82800293 219.57000732 168.00000000 0.410463 -0.649761 0.639790 0.000000
132.77299500 133.20300293 197.00000000 -0.584083 -0.644680 0.493188 0.000000
88.51560211 197.65600586 231.50000000 0.159373 -0.981787 -0.103410 0.000000
89.37500000 305.50799561 173.00000000 -0.000978 -0.000978 -0.999999 0.000000
248.35899353 127.18800354 192.50000000 -0.746575 -0.496069 0.443330 0.000000
116.87500000 306.79699707 155.50000000 0.791495 0.432166 -0.432166 0.000000
92.81250000 266.40600586 231.50000000 -0.377623 0.474037 0.795418 0.000000
135.78100586 238.90600586 129.50000000 0.435579 0.359551 -0.825224 0.000000
242.34399414 140.50799561 247.00000000 0.149394 -0.749990 0.644357 0.000000
80.78119659 296.91400146 159.00000000 -0.605085 0.605085 -0.517440 0.000000
233.32000732 169.29699707 197.00000000 -0.722223 -0.123597 0.680528 0.000000
157.26600647 283.16400146 214.00000000 0.662461 0.384921 0.642636 0.000000
151.25000000 199.80499268 150.00000000 0.363212 0.776466 -0.514954 0.000000
153.39799500 249.21899414 235.00000000 0.390535 0.255868 0.884315 0.000000
161.13299561 202.81199646 163.00000000 0.676535 0.676535 0.290862 0.000000
59.72660065 234.60899353 175.00000000 -0.976854 -0.209754 -0.041951 0.000000
108.71099854 212.26600647 97.00000000 0.591413 -0.170920 -0.788046 0.000000
95.39060211 137.07000732 146.00000000 -0.779225 -0.557043 0.287250 0.000000
264.25799561 162.42199707 251.00000000 0.074355 0.104097 0.991784 0.000000
128.04699707 316.67999268 172.00000000 0.403733 0.891150 -0.207005 0.000000
241.05499268 154.68800354 205.00000000 -0.730316 -0.162461 0.663510 0.000000
156.40600586 168.86700439 130.00000000 0.653291 0.227164 -0.722224 0.000000
174.45300293 229.02299500 228.00000000 0.420498 0.639889 0.643213 0.000000
164.57000732 199.37500000 163.00000000 0.701936 0.701936 -0.120715 0.000000
227.73399353 216.56199646 227.50000000 -0.520959 -0.605257 0.601885 0.000000
92.81250000 223.43800354 79.50000000 0.939378 -0.200604 -0.278078 0.000000
87.22660065 168.43800354 191.00000000 -0.792734 -0.536401 0.289562 0.000000
227.73399353 202.81199646 247.50000000 0.079961 0.047101 0.995685 0.000000
260.39099121 215.70300293 232.50000000 -0.195586 -0.424995 0.883813 0.000000
240.62500000 144.37500000 200.50000000 -0.452127 -0.675688 0.582260 0.000000
195.07800293 163.28100586 167.50000000 -0.232282 -0.518403 0.822984 0.000000
283.59399414 159.84399414 237.50000000 -0.702830 -0.089132 0.705752 0.000000
92.81250000 295.19500732 209.00000000 -0.172963 0.699504 0.693381 0.000000
209.68800354 102.26599884 200.50000000 -0.036595 -0.952734 0.301594 0.000000
174.88299561 172.73399353 172.00000000 0.398555 0.696231 -0.597006 0.000000
199.80499268 231.17199707 206.00000000 0.578878 0.811578 0.079003 0.000000
93.67189789 226.01600647 79.50000000 0.942070 -0.193915 -0.273682 0.000000
111.71900177 142.22700500 183.00000000 -0.571553 -0.707401 0.415826 0.000000
149.53100586 216.56199646 139.50000000 0.862436 -0.240153 -0.445567 0.000000
96.67970276 221.71899414 84.00000000 0.758770 0.001377 -0.651358 0.000000
138.35899353 244.92199707 240.50000000 0.691464 0.524040 0.497252 0.000000
195.93800354 233.32000732 199.00000000 0.166341 0.962680 -0.213492 0.000000
129.76600647 119.88300323 158.00000000 -0.292097 -0.946286 0.138645 0.000000
103.12500000 215.70300293 89.50000000 0.358067 0.119356 -0.926036 0.000000
73.90619659 289.60900879 165.50000000 -0.800643 0.592158 -0.091213 0.000000
196.36700439 199.37500000 189.00000000 0.324849 -0.741819 0.586667 0.000000
207.96899414 182.18800354 180.50000000 -0.582177 -0.295076 0.757628 0.000000
138.78900146 121.17199707 121.00000000 -0.262381 -0.962062 0.074785 0.000000
143.51600647 187.34399414 132.50000000 0.227037 0.557554 -0.798491 0.000000
143.08599854 220.00000000 131.00000000 0.967652 -0.150753 0.202292 0.000000
260.39099121 120.74199677 224.00000000 0.269573 -0.845690 0.460585 0.000000
84.64839935 218.28100586 232.00000000 -0.478106 -0.100728 0.872507 0.000000
155.97700500 190.78100586 143.00000000 0.790019 0.566517 -0.234367 0.000000
236.75799561 134.92199707 187.00000000 -0.623643 -0.562800 0.542518 0.000000
195.07800293 136.21099854 243.00000000 -0.278825 -0.728133 0.626162 0.000000
107.42199707 223.43800354 92.50000000 0.606189 -0.151923 -0.780675 0.000000
83.78910065 222.57800293 232.00000000 -0.536294 -0.185814 0.823324 0.000000
75.19529724 157.26600647 142.00000000 -0.791397 -0.557256 0.251311 0.000000
88.51560211 185.62500000 84.50000000 0.703928 0.237792 -0.669283 0.000000
252.65600586 107.85199738 200.00000000 0.194547 -0.887895 0.416886 0.000000
202.81199646 196.79699707 250.50000000 0.970072 -0.242814 0.001184 0.000000
112.14800262 128.04699707 130.00000000 -0.346928 -0.927444 -0.139600 0.000000
