127.58300018 306.19900513 197.50000000 -0.854543 0.504629 0.122904 0.000000
219.53900146 220.50199890 173.75000000 -0.000978 -0.000978 -0.999999 0.000000
191.61500549 317.75399780 233.75000000 0.182077 0.418048 0.889991 0.000000
165.61700439 285.97900391 251.25000000 -0.499136 0.552915 0.667195 0.000000
289.34899902 186.80099487 172.50000000 0.331289 -0.888934 0.316298 0.000000
154.06300354 259.98098755 253.75000000 0.000978 0.000978 0.999999 0.000000
254.20300293 174.28300476 151.25000000 -0.001093 -0.991782 0.127937 0.000000
172.35699463 173.80200195 175.00000000 0.316336 -0.943714 0.096621 0.000000
280.20098877 197.87399292 142.50000000 0.665217 0.678165 -0.312377 0.000000
138.65600586 315.34698486 170.00000000 0.141417 0.796404 -0.587999 0.000000
234.94500732 247.46299744 163.75000000 0.865355 -0.500853 -0.017550 0.000000
131.91600037 236.87100220 86.25000000 0.596737 0.292769 -0.747122 0.000000
156.95100403 273.46099854 146.25000000 0.492697 0.657490 -0.570049 0.000000
222.42799377 212.31700134 185.00000000 -0.651174 0.641232 -0.405948 0.000000
197.39300537 203.16999817 136.25000000 0.422540 0.741501 -0.521188 0.000000
168.50599670 199.31799316 113.75000000 -0.223719 0.841609 -0.491573 0.000000
235.90800476 223.39100647 223.75000000 0.544370 -0.001351 0.838844 0.000000
157.91400146 213.27999878 140.00000000 0.775341 0.104063 -0.622911 0.000000
211.83599854 292.71899414 228.75000000 0.789172 0.210754 0.576880 0.000000
173.32000732 252.27699280 256.25000000 0.000978 0.000978 0.999999 0.000000
250.83299255 210.87300110 212.50000000 0.577876 -0.356493 0.734147 0.000000
274.42401123 225.31599426 178.75000000 0.441910 0.605334 -0.662032 0.000000
116.99099731 260.94299316 115.00000000 -0.966143 0.148737 -0.210818 0.000000
283.08999634 222.42799377 206.25000000 0.022766 -0.464687 0.885182 0.000000
249.38900757 240.72300720 213.75000000 0.572097 0.455342 0.682179 0.000000
229.16799927 190.65199280 111.25000000 -0.126785 0.887494 -0.443035 0.000000
288.38598633 187.76400757 132.50000000 0.414783 0.901274 -0.125138 0.000000
265.27600098 188.72700500 197.50000000 0.384191 -0.537867 0.750398 0.000000
226.27900696 205.09599304 221.25000000 0.356989 -0.518523 0.776977 0.000000
198.35600281 218.57600403 168.75000000 0.590427 0.795663 -0.135337 0.000000
125.65699768 239.75999451 87.50000000 -0.152980 0.545082 -0.824307 0.000000
180.06100464 200.76300049 240.00000000 0.021031 -0.727668 0.685607 0.000000
233.02000427 176.69000244 122.50000000 0.682323 -0.682323 -0.262432 0.000000
220.50199890 223.39100647 233.75000000 0.467073 -0.453962 0.758789 0.000000
216.64999390 267.68399048 191.25000000 0.883711 -0.339889 -0.321761 0.000000
130.47200012 239.75999451 87.50000000 0.479002 0.763460 -0.433227 0.000000
276.35000610 231.09399414 183.75000000 0.226186 0.744076 -0.628642 0.000000
153.10000610 232.05700684 253.75000000 0.000978 0.000978 0.999999 0.000000
138.65600586 194.98500061 157.50000000 -0.806521 -0.575664 -0.134667 0.000000
127.10199738 240.72300720 86.25000000 0.129687 0.627565 -0.767687 0.000000
230.13099670 206.05900574 221.25000000 0.283182 -0.505347 0.815127 0.000000
205.09599304 200.76300049 232.50000000 0.470174 -0.577260 0.667613 0.000000
117.47299957 288.86700439 156.25000000 -0.889022 0.411557 -0.200652 0.000000
200.28100586 241.20399475 170.00000000 -0.188895 -0.978597 -0.081651 0.000000
146.35899353 298.49600220 161.25000000 0.258870 0.556964 -0.789163 0.000000
138.65600586 200.76300049 132.50000000 -0.752740 -0.645419 -0.129680 0.000000
218.57600403 220.50199890 188.75000000 -0.000978 -0.000978 -0.999999 0.000000
144.91499329 259.01800537 115.00000000 0.817948 0.366885 -0.443121 0.000000
183.91200256 320.64300537 233.75000000 0.385429 0.556001 0.736415 0.000000
294.64498901 195.94799805 185.00000000 0.427050 -0.830463 0.357714 0.000000
234.94500732 174.76499939 190.00000000 0.119738 -0.953958 0.275003 0.000000
197.39300537 226.27900696 248.75000000 0.162739 -0.132924 0.977674 0.000000
185.83799744 239.75999451 256.25000000 0.309691 -0.226916 0.923364 0.000000
227.24200439 267.68399048 208.75000000 0.772650 -0.527467 -0.353258 0.000000
171.39500427 192.57800293 231.25000000 -0.125369 -0.800886 0.585546 0.000000
209.42900085 282.12701416 235.00000000 0.654436 0.272284 0.705390 0.000000
147.80400085 261.90600586 122.50000000 0.789672 0.507761 -0.344380 0.000000
144.43400574 213.76199341 241.25000000 -0.442058 -0.655580 0.612209 0.000000
283.57101440 190.65199280 132.50000000 0.407621 0.826344 -0.388588 0.000000
136.24899292 204.13299561 217.50000000 -0.826160 -0.534220 0.179077 0.000000
277.31298828 182.94900513 176.25000000 0.267114 -0.887895 0.374557 0.000000
135.76800537 322.08700562 187.50000000 -0.660629 0.747364 -0.070833 0.000000
172.35699463 240.24099731 140.00000000 0.617497 -0.049684 -0.785002 0.000000
224.83500671 207.02200317 222.50000000 0.477148 -0.477148 0.738011 0.000000
283.08999634 215.68800354 203.75000000 0.042911 -0.527394 0.848537 0.000000
157.91400146 181.50500488 202.50000000 0.140907 -0.983938 0.109594 0.000000
138.65600586 222.42799377 243.75000000 -0.587778 -0.314019 0.745593 0.000000
137.69299316 211.35499573 90.00000000 -0.533000 -0.712327 -0.456620 0.000000
251.31500244 224.35400391 168.75000000 -0.215299 0.763613 -0.608722 0.000000
215.68800354 285.01599121 206.25000000 0.551924 0.827162 0.105749 0.000000
297.53298950 214.72500610 201.25000000 0.174304 -0.510995 0.841726 0.000000
176.69000244 314.86499023 200.00000000 0.416270 0.188417 -0.889504 0.000000
175.24600220 219.05799866 252.50000000 0.124689 -0.301667 0.945225 0.000000
233.02000427 244.57400513 163.75000000 0.643503 -0.358593 -0.676251 0.000000
291.75601196 186.31900024 135.00000000 0.430428 0.868407 -0.246174 0.000000
255.16600037 230.13099670 173.75000000 0.492760 0.034125 -0.869496 0.000000
159.35800171 221.46499634 140.00000000 0.821856 -0.249188 -0.512306 0.000000
228.20500183 253.72200012 200.00000000 0.076759 0.986062 0.147614 0.000000
258.05499268 202.68899536 205.00000000 0.243918 -0.343238 0.907024 0.000000
193.05999756 300.42199707 240.00000000 0.324231 0.100071 0.940670 0.000000
151.17399597 308.12500000 236.25000000 -0.115061 0.543262 0.831642 0.000000
286.94100952 233.50100708 192.50000000 0.506690 0.722656 -0.470142 0.000000
136.24899292 199.31799316 175.00000000 -0.791509 -0.600607 0.113073 0.000000
261.90600586 227.24200439 213.75000000 0.000978 0.000978 0.999999 0.000000
153.10000610 323.53100586 186.25000000 0.427137 0.676439 -0.599987 0.000000
261.90600586 210.87300110 151.25000000 0.398018 0.835365 -0.379139 0.000000
185.83799744 229.16799927 166.25000000 0.791825 -0.528412 0.306257 0.000000
114.10299683 273.46099854 182.50000000 -0.933019 -0.001263 0.359825 0.000000
172.35699463 330.27200317 223.75000000 -0.132940 0.910987 0.390423 0.000000
265.75799561 190.65199280 198.75000000 0.409265 -0.487530 0.771244 0.000000
292.71899414 200.76300049 162.50000000 0.570454 0.567068 -0.594152 0.000000
234.46400452 173.32000732 167.50000000 -0.001065 -0.995500 -0.094759 0.000000
284.53399658 208.94700623 165.00000000 0.455890 0.766353 -0.452622 0.000000
133.84199524 214.24299622 90.00000000 -0.691803 -0.653101 -0.308006 0.000000
207.02200317 174.76499939 187.50000000 0.001263 -0.933019 0.359825 0.000000
232.05700684 181.50500488 202.50000000 0.079549 -0.782470 0.617587 0.000000
177.17199707 303.31100464 243.75000000 0.078724 0.562521 0.823027 0.000000
206.05900574 251.31500244 246.25000000 0.562403 -0.031939 0.826246 0.000000
199.31799316 216.64999390 246.25000000 0.094244 -0.590114 0.801800 0.000000
200.28100586 202.20700073 236.25000000 0.418336 -0.418336 0.806219 0.000000
258.05499268 232.05700684 176.25000000 0.348261 0.632756 -0.691617 0.000000
283.57101440 227.24200439 185.00000000 0.500978 0.340921 -0.795483 0.000000
285.01599121 225.79800415 185.00000000 0.372043 0.419538 -0.827993 0.000000
207.02200317 240.72300720 181.25000000 -0.280989 -0.885040 -0.371146 0.000000
150.69200134 234.94500732 112.50000000 0.765849 0.256331 -0.589720 0.000000
145.39700317 321.60598755 181.25000000 0.199458 0.709698 -0.675682 0.000000
132.87899780 216.16900635 90.00000000 -0.711000 -0.640382 -0.290499 0.000000
160.80299377 281.16400146 158.75000000 0.547608 0.684929 -0.480622 0.000000
207.98399353 168.50599670 166.25000000 0.065297 -0.972062 0.225459 0.000000
173.32000732 190.65199280 228.75000000 -0.123691 -0.845468 0.519504 0.000000
143.47099304 232.05700684 248.75000000 -0.397930 0.794250 0.459150 0.000000
271.53500366 243.13000488 210.00000000 -0.250418 0.741804 0.622107 0.000000
207.98399353 250.35200500 243.75000000 0.511013 -0.031510 0.858995 0.000000
215.68800354 172.83900452 185.00000000 -0.198556 -0.969720 0.142191 0.000000
157.91400146 222.42799377 251.25000000 -0.525351 -0.263455 0.809072 0.000000
131.43499756 217.61300659 90.00000000 -0.709585 -0.550053 -0.440375 0.000000
145.39700317 245.53700256 251.25000000 -0.405794 0.033045 0.913367 0.000000
280.20098877 191.13400269 130.00000000 0.507271 0.773061 -0.380858 0.000000
207.98399353 295.60800171 231.25000000 0.596834 0.420610 0.683284 0.000000
211.83599854 216.64999390 236.25000000 0.571482 -0.400202 0.716412 0.000000
162.72900391 324.97601318 195.00000000 0.424641 0.752549 -0.503339 0.000000
286.94100952 241.68600464 206.25000000 0.162932 0.957722 -0.237112 0.000000
122.76899719 306.19900513 172.50000000 -0.835104 0.539851 -0.105654 0.000000
138.65600586 197.39300537 143.75000000 -0.732015 -0.669399 -0.126724 0.000000
115.54699707 283.08999634 178.75000000 -0.991782 -0.001093 0.127937 0.000000
275.38699341 238.79699707 193.75000000 0.125582 0.864637 -0.486448 0.000000
179.09800720 208.94700623 133.75000000 0.416088 0.765275 -0.491147 0.000000
275.38699341 194.50399780 196.25000000 0.433412 -0.151190 0.888423 0.000000
270.57199097 221.46499634 171.25000000 0.360188 0.578582 -0.731784 0.000000
157.91400146 184.87500000 211.25000000 -0.266129 -0.911820 0.312666 0.000000
129.50900269 219.53900146 90.00000000 -0.668265 -0.567774 -0.480682 0.000000
141.54499817 269.60900879 118.75000000 0.766233 0.319665 -0.557406 0.000000
285.01599121 208.94700623 166.25000000 0.417495 0.761315 -0.496082 0.000000
120.36100006 235.90800476 108.75000000 -0.955216 -0.286693 -0.073280 0.000000
130.47200012 218.57600403 230.00000000 -0.831256 -0.408530 0.376983 0.000000
129.50900269 216.64999390 225.00000000 -0.752297 -0.644613 0.136101 0.000000
242.64900208 256.12899780 211.25000000 -0.567457 0.520309 0.638178 0.000000
129.50900269 220.50199890 90.00000000 0.000978 0.000978 -0.999999 0.000000
256.12899780 174.76499939 155.00000000 0.029144 -0.996292 0.080955 0.000000
169.46899414 188.24499512 112.50000000 -0.367701 -0.737035 -0.567076 0.000000
194.98500061 272.49798584 247.50000000 0.386135 0.154171 0.909468 0.000000
257.57299805 243.61099243 185.00000000 0.954931 0.294887 -0.033881 0.000000
227.24200439 259.01800537 228.75000000 0.746282 0.158944 0.646374 0.000000
192.57800293 191.61500549 228.75000000 0.333262 -0.681155 0.651893 0.000000
204.61399841 242.64900208 175.00000000 -0.433756 -0.891688 0.129416 0.000000
199.31799316 232.05700684 183.75000000 0.045475 0.346913 -0.936794 0.000000
242.64900208 215.68800354 218.75000000 0.322407 -0.374359 0.869430 0.000000
211.83599854 181.02299500 121.25000000 -0.531117 -0.831636 -0.162162 0.000000
167.54299927 175.72799683 170.00000000 -0.317711 -0.948187 -0.001236 0.000000
138.65600586 289.82998657 143.75000000 0.599318 0.589188 -0.541918 0.000000
170.43200684 272.49798584 156.25000000 0.369601 0.609430 -0.701420 0.000000
279.23800659 227.24200439 211.25000000 0.348522 -0.075535 0.934252 0.000000
180.06100464 275.38699341 166.25000000 0.285565 0.865857 -0.410786 0.000000
190.65199280 314.38400269 210.00000000 0.617825 0.399184 -0.677454 0.000000
249.38900757 222.90899658 167.50000000 -0.336773 0.688189 -0.642635 0.000000
189.20799255 244.57400513 177.50000000 0.321372 -0.946332 0.034297 0.000000
199.31799316 233.98300171 183.75000000 0.045475 0.346913 -0.936794 0.000000
159.83999634 197.39300537 233.75000000 -0.311656 -0.621697 0.718585 0.000000
203.16999817 288.38598633 200.00000000 0.333125 0.764418 -0.551990 0.000000
261.90600586 177.65299988 115.00000000 0.383807 -0.915872 0.117775 0.000000
171.87600708 256.12899780 145.00000000 0.525351 0.263455 -0.809072 0.000000
127.58300018 275.38699341 230.00000000 -0.287672 0.299354 0.909743 0.000000
172.35699463 298.49600220 186.25000000 0.362517 0.461530 -0.809674 0.000000
255.16600037 177.65299988 185.00000000 0.195247 -0.946196 0.258053 0.000000
194.50399780 242.64900208 251.25000000 0.823638 0.352536 0.444227 0.000000
191.61500549 311.01400757 236.25000000 0.332512 0.397468 0.855252 0.000000
157.91400146 233.98300171 256.25000000 -0.520844 -0.191731 0.831841 0.000000
139.13800049 318.71701050 212.50000000 -0.768675 0.597165 0.229199 0.000000
163.69099426 234.94500732 256.25000000 0.028344 -0.269887 0.962475 0.000000
244.57400513 229.16799927 171.25000000 0.570043 -0.352420 -0.742193 0.000000
152.61799622 225.31599426 122.50000000 0.879418 -0.460376 0.121152 0.000000
170.43200684 312.94000244 238.75000000 0.027629 0.403907 0.914383 0.000000
250.35200500 245.53700256 176.25000000 0.538358 0.582236 -0.609239 0.000000
214.72500610 265.75799561 188.75000000 0.873075 -0.306262 -0.379399 0.000000
271.53500366 197.39300537 198.75000000 0.216791 -0.278332 0.935699 0.000000
264.31399536 208.94700623 205.00000000 0.262999 -0.133482 0.955518 0.000000
155.98800659 247.46299744 256.25000000 -0.467990 0.870374 0.153081 0.000000
207.02200317 302.34799194 228.75000000 0.759866 0.413432 0.501675 0.000000
199.31799316 212.31700134 142.50000000 0.226932 0.443343 -0.867150 0.000000
137.69299316 226.27900696 88.75000000 0.565044 0.217088 -0.795989 0.000000
169.46899414 318.71701050 196.25000000 0.639295 0.213098 -0.738844 0.000000
242.64900208 240.72300720 168.75000000 0.387370 0.278846 -0.878743 0.000000
214.72500610 191.61500549 156.25000000 -0.547885 -0.547885 -0.632175 0.000000
149.24800110 259.01800537 251.25000000 -0.239422 -0.063267 0.968852 0.000000
309.08801270 227.72399902 197.50000000 0.154596 0.583864 -0.796996 0.000000
274.42401123 179.09800720 123.75000000 0.103811 -0.909387 -0.402788 0.000000
252.27699280 240.24099731 212.50000000 0.330556 -0.021530 0.943541 0.000000
223.87199402 207.98399353 225.00000000 0.587617 -0.405539 0.700175 0.000000
296.57000732 233.02000427 201.25000000 0.159237 0.723389 -0.671827 0.000000
118.91699982 257.09201050 207.50000000 -0.999999 -0.000978 -0.000978 0.000000
207.02200317 290.79299927 206.25000000 0.560237 0.718888 -0.411502 0.000000
211.35499573 224.35400391 187.50000000 0.640219 -0.132819 -0.756623 0.000000
309.08801270 215.68800354 196.25000000 0.497042 -0.741434 -0.450805 0.000000
119.39800262 226.76100159 162.50000000 -0.915930 -0.388618 0.100244 0.000000
231.09399414 172.83900452 185.00000000 -0.001263 -0.933019 0.359825 0.000000
181.02299500 251.31500244 256.25000000 0.269020 0.148563 0.951608 0.000000
183.43099976 324.49398804 230.00000000 0.104664 0.694323 0.712012 0.000000
189.20799255 202.20700073 240.00000000 0.258679 -0.553417 0.791716 0.000000
141.54499817 194.02299500 185.00000000 -0.890929 -0.446159 0.084784 0.000000
115.54699707 292.23699951 165.00000000 -0.902117 0.404887 -0.149169 0.000000
171.87600708 185.83799744 120.00000000 -0.202786 -0.932814 -0.297885 0.000000
191.61500549 209.91000366 138.75000000 0.393756 0.293416 -0.871128 0.000000
240.72300720 174.76499939 187.50000000 0.273639 -0.946165 0.172896 0.000000
296.08898926 231.09399414 197.50000000 0.271664 0.732382 -0.624352 0.000000
198.35600281 245.53700256 151.25000000 -0.055821 -0.728534 -0.682732 0.000000
241.68600464 218.09500122 220.00000000 0.226851 -0.342444 0.911740 0.000000
262.86898804 198.83700562 127.50000000 0.260906 0.832120 -0.489392 0.000000
161.76600647 213.27999878 142.50000000 0.509752 0.330779 -0.794190 0.000000
216.64999390 233.98300171 186.25000000 -0.212772 -0.121038 -0.969576 0.000000
152.13699341 305.23599243 238.75000000 -0.292252 0.486045 0.823619 0.000000
209.91000366 261.90600586 176.25000000 0.869620 0.426521 -0.248678 0.000000
129.02699280 217.13200378 225.00000000 -0.925457 -0.292325 0.240990 0.000000
245.53700256 236.87100220 168.75000000 0.233543 0.409073 -0.882109 0.000000
305.23599243 208.94700623 181.25000000 0.474681 0.612220 -0.632348 0.000000
196.91099548 277.31298828 175.00000000 0.314981 0.725263 -0.612193 0.000000
121.32399750 280.68301392 125.00000000 -0.700860 0.612227 -0.366023 0.000000
132.87899780 288.38598633 132.50000000 0.293311 0.820331 -0.490944 0.000000
180.06100464 313.90200806 236.25000000 0.361844 0.222338 0.905337 0.000000
189.69000244 195.46699524 233.75000000 0.086191 -0.726047 0.682222 0.000000
161.76600647 242.64900208 256.25000000 -0.876583 0.022891 0.480707 0.000000
174.28300476 311.01400757 196.25000000 0.534251 0.438317 -0.722810 0.000000
129.99000549 274.42401123 111.25000000 -0.001263 0.933019 -0.359825 0.000000
176.20899963 266.72100830 153.75000000 0.384017 0.601571 -0.700459 0.000000
155.02499390 229.64999390 127.50000000 0.803493 -0.538262 -0.254309 0.000000
124.69400024 300.42199707 152.50000000 -0.337636 0.676903 -0.654068 0.000000
127.58300018 214.72500610 127.50000000 -0.896179 -0.399431 -0.193180 0.000000
211.83599854 211.35499573 147.50000000 -0.001334 0.865851 -0.500299 0.000000
189.69000244 285.01599121 183.75000000 0.577837 0.684412 -0.444618 0.000000
124.21299744 233.50100708 90.00000000 -0.827271 -0.301821 -0.473843 0.000000
186.31900024 327.38299561 222.50000000 0.332132 0.937232 -0.106229 0.000000
215.68800354 193.54100037 216.25000000 0.474628 -0.732614 0.487858 0.000000
114.58399963 260.94299316 186.25000000 -0.933019 -0.001263 0.359825 0.000000
203.16999817 270.57199097 171.25000000 -0.218340 0.781997 -0.583788 0.000000
245.53700256 244.09300232 215.00000000 0.372823 0.294334 0.879983 0.000000
201.24400330 218.57600403 173.75000000 0.654738 0.654738 -0.377670 0.000000
173.32000732 176.69000244 145.00000000 -0.187332 -0.974379 -0.124469 0.000000
130.95300293 311.49499512 200.00000000 -0.000978 -0.000978 0.999999 0.000000
140.10099792 197.39300537 210.00000000 -0.911941 -0.408984 0.033089 0.000000
305.23599243 228.20500183 203.75000000 0.435271 0.123350 0.891809 0.000000
152.13699341 223.39100647 118.75000000 0.878495 -0.458658 0.133715 0.000000
228.20500183 180.06100464 201.25000000 -0.058796 -0.684045 0.727066 0.000000
146.35899353 326.90100098 205.00000000 -0.567307 0.786104 0.245364 0.000000
269.60900879 187.76400757 193.75000000 0.185936 -0.643861 0.742207 0.000000
232.05700684 256.12899780 166.25000000 0.246067 -0.919514 0.306505 0.000000
128.06399536 311.97698975 188.75000000 -0.800553 0.433297 0.413968 0.000000
144.43400574 199.31799316 226.25000000 -0.521911 -0.742529 0.419833 0.000000
133.84199524 235.90800476 88.75000000 0.643732 0.325920 -0.692377 0.000000
200.28100586 277.79400635 177.50000000 0.266886 0.762757 -0.589044 0.000000
177.17199707 324.97601318 230.00000000 0.041118 0.681994 0.730201 0.000000
146.35899353 323.04998779 182.50000000 0.313266 0.747018 -0.586369 0.000000
206.05900574 289.82998657 233.75000000 0.566325 0.287128 0.772550 0.000000
188.72700500 303.31100464 203.75000000 0.522589 0.482518 -0.702907 0.000000
196.42999268 316.79098511 231.25000000 0.418368 0.709407 0.567195 0.000000
309.08801270 206.05900574 188.75000000 0.635499 -0.642171 0.428670 0.000000
125.65699768 302.34799194 200.00000000 -0.881603 0.459905 0.106132 0.000000
154.06300354 303.79199219 240.00000000 -0.279253 0.422695 0.862175 0.000000
141.06399536 325.45700073 192.50000000 0.478312 0.478312 0.736502 0.000000
154.06300354 183.43099976 195.00000000 -0.532960 -0.837924 0.117629 0.000000
181.98599243 286.94100952 181.25000000 0.178085 0.893319 -0.412635 0.000000
193.54100037 203.65100098 240.00000000 0.212237 -0.605729 0.766843 0.000000
192.57800293 291.75601196 193.75000000 0.172596 0.694966 -0.698021 0.000000
254.68499756 177.17199707 115.00000000 -0.050833 -0.965824 -0.254164 0.000000
129.50900269 259.01800537 237.50000000 -0.807163 0.193050 0.557870 0.000000
194.50399780 194.98500061 122.50000000 0.531610 0.735696 -0.419692 0.000000
184.39399719 206.05900574 132.50000000 0.408225 0.821215 -0.398695 0.000000
133.84199524 237.83399963 88.75000000 0.642635 0.336773 -0.688189 0.000000
287.90399170 188.24499512 135.00000000 0.446159 0.890929 -0.084784 0.000000
179.09800720 302.34799194 243.75000000 0.424190 0.811564 0.401780 0.000000
168.50599670 293.68200684 178.75000000 0.457144 0.540262 -0.706496 0.000000
156.95100403 271.53500366 251.25000000 0.000978 0.000978 0.999999 0.000000
113.62100220 282.12701416 158.75000000 -0.846313 0.347565 -0.403674 0.000000
219.53900146 251.31500244 166.25000000 0.304155 0.897627 -0.318991 0.000000
170.43200684 300.42199707 243.75000000 -0.017428 0.473228 0.880767 0.000000
226.76100159 273.46099854 215.00000000 0.682323 0.682323 0.262432 0.000000
194.02299500 178.13499451 205.00000000 0.115127 -0.911303 0.395314 0.000000
130.47200012 220.50199890 232.50000000 -0.853950 -0.345609 0.389004 0.000000
233.98300171 229.16799927 173.75000000 -0.592689 -0.295546 -0.749248 0.000000
192.57800293 272.49798584 248.75000000 0.480897 0.236632 0.844241 0.000000
160.80299377 238.79699707 131.25000000 0.755377 -0.107490 -0.646414 0.000000
188.72700500 268.64700317 251.25000000 0.205790 0.171710 0.963414 0.000000
176.20899963 174.76499939 152.50000000 -0.297217 -0.920366 -0.254142 0.000000
249.38900757 216.16900635 215.00000000 0.776175 -0.061465 0.627515 0.000000
260.94299316 210.87300110 206.25000000 0.411452 -0.271771 0.869970 0.000000
137.69299316 199.80000305 190.00000000 -0.816718 -0.574936 0.049200 0.000000
132.39799500 311.01400757 207.50000000 -0.810373 0.579251 0.088115 0.000000
139.13800049 196.42999268 145.00000000 -0.753893 -0.643422 -0.132864 0.000000
225.31599426 175.24600220 193.75000000 0.263455 -0.525351 -0.809072 0.000000
304.27398682 210.39199829 197.50000000 0.116108 -0.595236 0.795118 0.000000
122.76899719 240.72300720 90.00000000 -0.794908 0.067317 -0.602984 0.000000
154.06300354 321.60598755 186.25000000 0.442166 0.619033 -0.649067 0.000000
239.75999451 220.50199890 221.25000000 0.121217 -0.153052 0.980756 0.000000
122.76899719 219.53900146 160.00000000 -0.859320 -0.494145 0.131869 0.000000
129.02699280 240.72300720 88.75000000 0.193149 0.693792 -0.693792 0.000000
145.39700317 301.38500977 236.25000000 -0.736423 0.413517 0.535430 0.000000
123.73100281 292.71899414 142.50000000 -0.340378 0.769480 -0.540410 0.000000
123.73100281 234.94500732 217.50000000 -0.910306 -0.249060 0.330623 0.000000
153.10000610 291.75601196 163.75000000 0.644911 0.467351 -0.604709 0.000000
182.94900513 222.42799377 253.75000000 0.292596 -0.609174 0.737085 0.000000
176.20899963 329.30899048 211.25000000 0.474605 0.846963 -0.239591 0.000000
258.05499268 224.83500671 170.00000000 0.181628 0.776880 -0.602883 0.000000
138.65600586 276.35000610 121.25000000 0.714127 0.627078 -0.311121 0.000000
288.86700439 211.83599854 173.75000000 0.795068 0.503916 -0.337544 0.000000
125.17600250 241.68600464 88.75000000 -0.322534 0.149601 -0.934661 0.000000
205.09599304 264.31399536 167.50000000 0.668831 0.406609 -0.622361 0.000000
200.28100586 285.01599121 241.25000000 0.670465 0.373945 0.640813 0.000000
144.43400574 278.27499390 133.75000000 0.808395 0.421006 -0.411401 0.000000
160.32099915 227.24200439 140.00000000 0.706641 -0.230324 -0.669037 0.000000
148.28500366 225.31599426 251.25000000 -0.352320 -0.292351 0.889045 0.000000
134.80499268 233.98300171 243.75000000 -0.641117 -0.230426 0.732033 0.000000
191.61500549 290.31201172 192.50000000 0.263455 0.525351 -0.809072 0.000000
226.27900696 243.13000488 160.00000000 0.329971 -0.329971 -0.884442 0.000000
169.46899414 210.87300110 248.75000000 -0.000978 -0.000978 0.999999 0.000000
160.80299377 272.49798584 251.25000000 -0.237871 0.081807 0.967846 0.000000
199.31799316 220.50199890 153.75000000 0.430239 0.879697 -0.202552 0.000000
169.46899414 330.27200317 206.25000000 0.455093 0.757393 -0.468237 0.000000
224.35400391 221.46499634 181.25000000 -0.147384 -0.988935 -0.016876 0.000000
213.76199341 173.32000732 186.25000000 -0.180072 -0.941600 0.284542 0.000000
138.17500305 196.42999268 150.00000000 -0.653637 -0.743794 -0.139743 0.000000
130.95300293 284.53399658 125.00000000 0.051091 0.868550 -0.492961 0.000000
173.32000732 262.86898804 253.75000000 0.000978 0.000978 0.999999 0.000000
224.35400391 272.01699829 225.00000000 0.651960 0.513818 0.557619 0.000000
223.39100647 234.94500732 236.25000000 0.000978 0.999999 0.000978 0.000000
123.73100281 303.31100464 190.00000000 -0.853597 0.410532 0.320680 0.000000
249.38900757 224.35400391 216.25000000 0.596202 0.012392 0.802739 0.000000
252.27699280 246.98199463 180.00000000 0.596132 0.548846 -0.585999 0.000000
144.43400574 321.60598755 218.75000000 -0.618963 0.531262 0.578486 0.000000
124.21299744 243.61099243 88.75000000 -0.632996 0.229754 -0.739276 0.000000
215.68800354 257.57299805 182.50000000 0.648113 0.661307 -0.377654 0.000000
125.17600250 243.61099243 88.75000000 -0.275309 0.331254 -0.902483 0.000000
205.09599304 247.46299744 246.25000000 0.681659 0.006942 0.731638 0.000000
180.06100464 320.16101074 205.00000000 0.581574 0.524260 -0.622032 0.000000
160.32099915 236.87100220 130.00000000 0.781145 -0.073367 -0.620025 0.000000
129.50900269 207.98399353 165.00000000 -0.830276 -0.554923 0.051980 0.000000
260.94299316 239.75999451 191.25000000 0.287944 0.936165 -0.201700 0.000000
244.57400513 205.09599304 213.75000000 0.303631 -0.315480 0.899044 0.000000
223.39100647 202.68899536 130.00000000 -0.313687 0.751240 -0.580723 0.000000
168.50599670 198.83700562 112.50000000 -0.279995 0.858345 -0.429938 0.000000
316.79098511 220.50199890 201.25000000 0.289419 -0.602822 0.743534 0.000000
160.80299377 236.87100220 131.25000000 0.769792 -0.073657 -0.634031 0.000000
273.46099854 229.16799927 181.25000000 0.268184 0.626821 -0.731555 0.000000
223.39100647 222.42799377 186.25000000 -0.859531 -0.462130 0.218270 0.000000
217.61300659 231.09399414 186.25000000 -0.212772 -0.121038 -0.969576 0.000000
137.21200562 296.57000732 232.50000000 -0.680943 0.269507 0.680943 0.000000
225.31599426 275.38699341 206.25000000 0.769114 0.613768 -0.178191 0.000000
143.47099304 298.49600220 236.25000000 -0.523104 0.349273 0.777413 0.000000
179.09800720 173.80200195 152.50000000 -0.261238 -0.948848 -0.177317 0.000000
240.24099731 198.35600281 212.50000000 0.828027 -0.169199 0.534549 0.000000
162.72900391 183.43099976 212.50000000 -0.226399 -0.901212 0.369541 0.000000
160.32099915 307.16198730 182.50000000 0.589778 0.404750 -0.698813 0.000000
122.76899719 218.57600403 145.00000000 -0.902494 -0.418568 -0.101513 0.000000
283.08999634 235.42700195 212.50000000 -0.046307 -0.390301 0.919522 0.000000
235.90800476 234.94500732 166.25000000 -0.000978 -0.000978 -0.999999 0.000000
229.16799927 216.64999390 163.75000000 -0.153212 0.962488 -0.223926 0.000000
157.43299866 233.02000427 127.50000000 0.706195 -0.251197 -0.661959 0.000000
118.43599701 278.27499390 126.25000000 -0.768692 0.550441 -0.325771 0.000000
140.58200073 195.94799805 205.00000000 -0.760583 -0.644685 0.076783 0.000000
178.13499451 329.79000854 225.00000000 0.032463 0.928434 0.370075 0.000000
195.46699524 269.60900879 248.75000000 0.370397 0.107976 0.922576 0.000000
195.46699524 184.39399719 217.50000000 0.000978 0.000978 0.999999 0.000000
165.61700439 259.98098755 141.25000000 0.596065 0.485247 -0.639720 0.000000
193.54100037 270.09100342 165.00000000 0.431157 0.614274 -0.660886 0.000000
153.10000610 184.39399719 197.50000000 -0.307308 -0.921923 0.235841 0.000000
277.79400635 235.90800476 212.50000000 0.034987 -0.361536 0.931701 0.000000
162.72900391 320.64300537 231.25000000 -0.000978 -0.000978 0.999999 0.000000
239.75999451 175.72799683 125.00000000 -0.094895 -0.955449 -0.279485 0.000000
210.39199829 187.76400757 212.50000000 0.257472 -0.753462 0.604981 0.000000
130.47200012 246.50000000 90.00000000 0.418336 0.418336 -0.806219 0.000000
146.35899353 218.57600403 246.25000000 -0.382113 -0.482076 0.788411 0.000000
124.69400024 217.61300659 175.00000000 -0.871255 -0.490829 0.001330 0.000000
247.46299744 236.87100220 218.75000000 0.238528 0.298517 0.924117 0.000000
193.05999756 322.56799316 222.50000000 0.707106 0.707106 0.001384 0.000000
180.06100464 242.64900208 256.25000000 0.441285 0.019878 0.897147 0.000000
192.57800293 206.53999329 242.50000000 0.227204 -0.561055 0.795987 0.000000
155.02499390 264.79501343 136.25000000 0.579441 0.430015 -0.692341 0.000000
185.83799744 230.13099670 253.75000000 0.000978 0.000978 0.999999 0.000000
128.06399536 303.31100464 153.75000000 -0.144493 0.799927 -0.582442 0.000000
185.83799744 179.09800720 208.75000000 -0.001263 -0.933019 0.359825 0.000000
156.95100403 252.75900269 255.00000000 -0.148916 0.084584 0.985226 0.000000
179.09800720 177.17199707 138.75000000 -0.306884 -0.899897 -0.309849 0.000000
278.27499390 213.76199341 168.75000000 0.450532 0.803261 -0.389606 0.000000
229.16799927 252.75900269 207.50000000 0.508944 0.860773 -0.006714 0.000000
180.06100464 220.50199890 146.25000000 0.029052 0.825908 -0.563056 0.000000
181.02299500 223.39100647 253.75000000 0.292596 -0.609174 0.737085 0.000000
276.35000610 244.09300232 207.50000000 0.001263 0.933019 0.359825 0.000000
150.69200134 221.46499634 120.00000000 0.917086 -0.385204 0.102812 0.000000
154.06300354 294.64498901 243.75000000 -0.344095 0.378042 0.859467 0.000000
162.72900391 207.02200317 136.25000000 -0.253099 0.771872 -0.583227 0.000000
182.94900513 182.46800232 215.00000000 0.381222 -0.891496 0.244754 0.000000
128.06399536 248.90699768 90.00000000 -0.225063 -0.225063 -0.947994 0.000000
125.17600250 244.57400513 228.75000000 -0.933019 0.001263 0.359825 0.000000
190.65199280 269.12799072 162.50000000 0.307087 0.728327 -0.612566 0.000000
246.50000000 177.65299988 190.00000000 0.323173 -0.888350 0.326179 0.000000
241.68600464 231.09399414 221.25000000 0.362338 0.611549 0.703363 0.000000
155.98800659 302.82901001 175.00000000 0.581947 0.422782 -0.694689 0.000000
113.13999939 267.68399048 167.50000000 -0.982047 -0.001143 0.188635 0.000000
217.61300659 241.20399475 167.50000000 -0.418336 -0.418336 0.806219 0.000000
221.46499634 197.39300537 216.25000000 0.206483 -0.728125 0.653605 0.000000
153.10000610 212.79899597 131.25000000 0.942630 -0.102373 -0.317755 0.000000
159.83999634 226.27900696 253.75000000 -0.237990 -0.385810 0.891354 0.000000
200.28100586 309.08801270 213.75000000 0.657429 0.374026 -0.654134 0.000000
156.95100403 307.16198730 238.75000000 -0.264685 0.451341 0.852193 0.000000
306.19900513 233.02000427 201.25000000 -0.043754 0.794638 0.605505 0.000000
229.64999390 223.39100647 227.50000000 0.652905 -0.104642 0.750177 0.000000
242.64900208 222.42799377 221.25000000 0.389417 -0.022141 0.920795 0.000000
229.64999390 267.68399048 215.00000000 0.887476 -0.322855 -0.328862 0.000000
147.80400085 268.64700317 130.00000000 0.746697 0.492853 -0.446699 0.000000
113.62100220 247.94400024 155.00000000 -0.988779 -0.113505 -0.097123 0.000000
251.31500244 228.20500183 173.75000000 -0.038596 0.277639 -0.959910 0.000000
183.43099976 246.50000000 150.00000000 0.594084 0.032150 -0.803760 0.000000
113.62100220 255.64799500 177.50000000 -0.995500 -0.001065 0.094759 0.000000
158.87699890 272.49798584 251.25000000 -0.225076 0.078342 0.971186 0.000000
139.13800049 323.53100586 195.00000000 -0.001369 0.792878 0.609379 0.000000
116.02799988 242.64900208 172.50000000 -0.961308 -0.234115 0.145177 0.000000
163.69099426 203.65100098 127.50000000 -0.514923 0.741950 -0.429377 0.000000
225.79800415 272.49798584 222.50000000 0.739124 0.484482 0.467946 0.000000
197.39300537 175.72799683 197.50000000 0.001263 -0.933019 0.359825 0.000000
186.80099487 178.61599731 207.50000000 -0.001263 -0.933019 0.359825 0.000000
196.91099548 253.24000549 250.00000000 0.533807 0.453985 0.713406 0.000000
306.19900513 205.09599304 178.75000000 0.821353 0.489683 -0.292558 0.000000
168.50599670 175.72799683 162.50000000 -0.238066 -0.953609 -0.184266 0.000000
161.76600647 252.27699280 256.25000000 -0.098227 -0.038629 0.994414 0.000000
259.49899292 186.80099487 112.50000000 0.195432 0.860796 -0.469932 0.000000
159.35800171 180.06100464 187.50000000 -0.511241 -0.849155 0.132544 0.000000
177.17199707 262.86898804 151.25000000 0.417738 0.556434 -0.718245 0.000000
136.24899292 210.87300110 92.50000000 -0.683483 -0.699052 -0.210183 0.000000
132.87899780 211.35499573 225.00000000 -0.779649 -0.580457 0.234984 0.000000
248.42599487 260.46200562 200.00000000 0.000978 0.000978 0.999999 0.000000
194.02299500 295.60800171 200.00000000 0.488782 0.592921 -0.639951 0.000000
291.75601196 204.61399841 167.50000000 0.346490 0.824298 -0.447747 0.000000
216.64999390 206.05900574 226.25000000 0.179299 -0.430026 0.884833 0.000000
254.20300293 178.13499451 186.25000000 0.245659 -0.927255 0.282578 0.000000
135.76800537 211.83599854 91.25000000 -0.710196 -0.642864 -0.286964 0.000000
158.87699890 328.82699585 197.50000000 0.347114 0.795003 -0.497477 0.000000
193.54100037 273.46099854 248.75000000 0.480897 0.236632 0.844241 0.000000
176.20899963 181.50500488 212.50000000 -0.068727 -0.915009 0.397537 0.000000
282.12701416 242.16700745 207.50000000 0.044693 0.974783 -0.218632 0.000000
148.76699829 322.56799316 222.50000000 -0.631916 0.527439 0.567882 0.000000
321.60598755 225.31599426 203.75000000 0.000978 0.000978 0.999999 0.000000
135.28599548 199.31799316 172.50000000 -0.778834 -0.616269 0.116751 0.000000
176.20899963 285.97900391 248.75000000 0.329552 0.541751 0.773241 0.000000
162.72900391 279.23800659 158.75000000 0.447035 0.737360 -0.506419 0.000000
111.21399689 258.05499268 150.00000000 -0.968589 -0.215667 0.123785 0.000000
179.09800720 220.02099609 252.50000000 0.224572 -0.462709 0.857594 0.000000
216.64999390 273.46099854 233.75000000 0.632558 0.015293 0.774362 0.000000
186.80099487 311.49499512 237.50000000 0.197739 0.376714 0.904979 0.000000
126.13899994 222.90899658 110.00000000 -0.913582 -0.400789 -0.068822 0.000000
129.99000549 313.42098999 170.00000000 -0.530872 0.781072 -0.328788 0.000000
226.27900696 267.68399048 206.25000000 0.720385 -0.531595 -0.445480 0.000000
199.31799316 277.31298828 243.75000000 0.620587 0.620587 0.479315 0.000000
184.87500000 283.08999634 178.75000000 0.248196 0.659220 -0.709808 0.000000
180.06100464 214.72500610 141.25000000 -0.152533 0.756626 -0.635807 0.000000
128.54600525 242.64900208 237.50000000 -0.866867 0.025775 0.497872 0.000000
162.72900391 273.94198608 252.50000000 -0.226287 0.363518 0.903686 0.000000
167.54299927 183.43099976 130.00000000 -0.285324 -0.891825 -0.351053 0.000000
117.47299957 285.49700928 187.50000000 -0.936328 0.312109 0.160867 0.000000
142.50799561 201.72599792 227.50000000 -0.311656 -0.621697 0.718585 0.000000
186.80099487 285.97900391 181.25000000 0.358655 0.669816 -0.650164 0.000000
243.13000488 257.09201050 210.00000000 -0.332475 0.778987 0.531639 0.000000
257.09201050 175.24600220 128.75000000 0.054038 -0.978683 -0.198138 0.000000
131.43499756 215.68800354 92.50000000 -0.733897 -0.636463 -0.237299 0.000000
124.69400024 294.64498901 207.50000000 -0.891920 0.324199 0.315235 0.000000
148.28500366 201.72599792 115.00000000 -0.487253 -0.853811 -0.183279 0.000000
256.12899780 241.20399475 177.50000000 0.661032 0.466906 -0.587398 0.000000
233.02000427 223.39100647 173.75000000 -0.070072 0.160334 -0.984572 0.000000
226.76100159 177.17199707 122.50000000 -0.297164 -0.891491 -0.341962 0.000000
289.82998657 182.46800232 162.50000000 0.682323 -0.682323 0.262432 0.000000
136.73100281 257.09201050 243.75000000 -0.709508 0.073998 0.700802 0.000000
143.47099304 216.64999390 91.25000000 0.713145 -0.672924 -0.196463 0.000000
165.61700439 268.64700317 148.75000000 0.566709 0.440404 -0.696337 0.000000
183.91200256 172.35699463 183.75000000 -0.113533 -0.992567 0.043839 0.000000
247.46299744 214.24299622 152.50000000 0.076759 0.922451 -0.378407 0.000000
181.02299500 209.91000366 136.25000000 0.120586 0.668431 -0.733934 0.000000
184.87500000 288.86700439 246.25000000 0.238295 0.327837 0.914187 0.000000
216.64999390 269.60900879 233.75000000 0.741240 0.278961 0.610527 0.000000
154.06300354 293.68200684 166.25000000 0.609510 0.514960 -0.602756 0.000000
166.58000183 202.68899536 122.50000000 -0.419769 0.887804 -0.188677 0.000000
151.17399597 200.76300049 232.50000000 -0.380857 -0.687521 0.618274 0.000000
223.39100647 208.94700623 143.75000000 -0.441257 0.881057 -0.170386 0.000000
163.21000671 203.16999817 127.50000000 -0.563832 0.715951 -0.411713 0.000000
252.27699280 233.50100708 172.50000000 0.553824 -0.293574 -0.779162 0.000000
304.27398682 194.50399780 163.75000000 0.817083 0.371112 -0.441193 0.000000
301.38500977 219.53900146 203.75000000 0.279666 -0.394556 0.875279 0.000000
226.27900696 203.65100098 220.00000000 0.279990 -0.423810 0.861389 0.000000
208.94700623 237.83399963 243.75000000 0.503776 -0.006717 0.863808 0.000000
176.20899963 273.46099854 161.25000000 0.457686 0.625337 -0.632043 0.000000
118.43599701 280.20098877 131.25000000 -0.823067 0.522655 -0.222243 0.000000
229.16799927 171.87600708 182.50000000 -0.212824 -0.846769 0.487533 0.000000
236.87100220 232.05700684 166.25000000 -0.459433 -0.417224 -0.784121 0.000000
220.02099609 193.54100037 117.50000000 0.178280 0.870774 -0.458224 0.000000
236.87100220 208.94700623 138.75000000 -0.001263 0.933019 -0.359825 0.000000
299.45901489 200.28100586 168.75000000 0.347360 0.719181 -0.601764 0.000000
152.61799622 202.20700073 235.00000000 -0.369537 -0.668451 0.645458 0.000000
196.42999268 297.53298950 203.75000000 0.437942 0.594469 -0.674398 0.000000
300.42199707 219.53900146 203.75000000 0.279666 -0.394556 0.875279 0.000000
120.84300232 227.24200439 172.50000000 -0.942140 -0.313151 0.119616 0.000000
173.32000732 242.64900208 258.75000000 0.000978 0.000978 0.999999 0.000000
142.02600098 276.35000610 245.00000000 -0.493293 0.180327 0.850967 0.000000
144.43400574 220.50199890 91.25000000 0.801930 -0.064097 -0.593969 0.000000
172.35699463 252.27699280 256.25000000 0.000978 0.000978 0.999999 0.000000
173.32000732 174.76499939 180.00000000 -0.199340 -0.956564 0.212718 0.000000
130.95300293 250.35200500 241.25000000 -0.765161 0.001379 0.643838 0.000000
235.90800476 191.61500549 208.75000000 0.285478 -0.385169 0.877580 0.000000
189.69000244 265.27600098 157.50000000 0.289893 0.731941 -0.616624 0.000000
247.94400024 257.09201050 187.50000000 0.620587 0.620587 -0.479315 0.000000
240.24099731 254.20300293 175.00000000 0.460496 0.668137 -0.584411 0.000000
226.27900696 197.39300537 123.75000000 -0.120715 0.701936 -0.701936 0.000000
134.80499268 270.57199097 108.75000000 0.670495 0.603945 -0.430914 0.000000
280.20098877 209.91000366 201.25000000 0.221859 -0.352364 0.909186 0.000000
127.58300018 267.68399048 232.50000000 -0.844616 0.114451 0.522996 0.000000
112.65799713 260.94299316 136.25000000 -0.958573 0.086207 -0.271488 0.000000
259.98098755 226.76100159 172.50000000 0.792878 0.001369 -0.609379 0.000000
215.68800354 238.79699707 181.25000000 -0.126624 -0.889211 -0.439626 0.000000
295.60800171 184.39399719 160.00000000 0.286469 -0.897999 0.333966 0.000000
286.94100952 208.46600342 200.00000000 0.047465 -0.446167 0.893690 0.000000
259.49899292 215.68800354 160.00000000 -0.845993 0.422217 0.325621 0.000000
187.76400757 296.57000732 243.75000000 0.516485 0.540038 0.664532 0.000000
222.42799377 231.09399414 176.25000000 -0.703015 0.380320 0.600938 0.000000
115.06500244 258.05499268 187.50000000 -0.905551 -0.095394 0.413374 0.000000
181.02299500 219.53900146 251.25000000 0.355889 -0.467603 0.809129 0.000000
309.56900024 215.68800354 200.00000000 0.536442 -0.667610 0.516262 0.000000
264.31399536 196.42999268 125.00000000 0.218766 0.761803 -0.609752 0.000000
123.25000000 266.72100830 226.25000000 -0.730616 0.219652 0.646494 0.000000
134.80499268 230.61199951 242.50000000 -0.735099 -0.265144 0.623961 0.000000
220.50199890 248.90699768 160.00000000 0.196722 0.911812 -0.360417 0.000000
127.10199738 278.75698853 115.00000000 -0.158278 0.841684 -0.516252 0.000000
216.16900635 283.08999634 227.50000000 0.808520 0.349242 0.473630 0.000000
145.39700317 286.45999146 147.50000000 0.648273 0.624942 -0.434960 0.000000
302.34799194 225.31599426 196.25000000 0.167329 0.571331 -0.803481 0.000000
145.39700317 189.20799255 177.50000000 -0.667169 -0.744843 0.009709 0.000000
267.68399048 191.61500549 118.75000000 0.139925 0.726709 -0.672544 0.000000
190.65199280 253.72200012 252.50000000 0.315553 0.189332 0.929828 0.000000
273.46099854 213.76199341 166.25000000 0.313996 0.732657 -0.603838 0.000000
126.62000275 216.64999390 187.50000000 -0.918606 -0.388693 0.071283 0.000000
141.54499817 324.49398804 201.25000000 -0.623633 0.756059 0.198639 0.000000
288.86700439 212.79899597 201.25000000 0.080765 -0.412039 0.907580 0.000000
252.27699280 213.27999878 152.50000000 0.150978 0.942590 -0.297875 0.000000
149.24800110 187.28199768 140.00000000 -0.682323 -0.682323 -0.262432 0.000000
143.47099304 326.90100098 190.00000000 -0.451610 0.884816 -0.114672 0.000000
179.09800720 178.61599731 135.00000000 -0.297957 -0.890875 -0.342875 0.000000
165.61700439 324.97601318 227.50000000 -0.356793 0.834614 0.419665 0.000000
236.87100220 173.80200195 147.50000000 0.007515 -0.995188 -0.097694 0.000000
170.91299438 183.91200256 125.00000000 -0.146990 -0.916936 -0.370974 0.000000
141.54499817 228.20500183 91.25000000 0.623529 -0.535660 -0.569456 0.000000
207.98399353 225.31599426 243.75000000 0.656855 -0.206529 0.725181 0.000000
235.90800476 217.61300659 221.25000000 0.000978 0.000978 0.999999 0.000000
153.10000610 304.27398682 238.75000000 -0.328360 0.490161 0.807417 0.000000
285.97900391 191.13400269 185.00000000 0.672719 -0.262408 0.691803 0.000000
233.98300171 193.54100037 113.75000000 0.132279 0.853274 -0.504406 0.000000
246.98199463 254.20300293 182.50000000 0.590736 0.641226 -0.489755 0.000000
182.94900513 317.27301025 205.00000000 0.538860 0.369551 -0.757009 0.000000
197.39300537 199.31799316 236.25000000 0.394216 -0.372228 0.840262 0.000000
138.65600586 282.12701416 131.25000000 0.718095 0.576776 -0.389447 0.000000
212.79899597 208.94700623 231.25000000 0.616366 -0.351509 0.704652 0.000000
166.58000183 188.72700500 113.75000000 -0.001263 -0.933019 0.359825 0.000000
158.39599609 181.02299500 197.50000000 -0.534173 -0.843799 0.051604 0.000000
261.90600586 192.57800293 118.75000000 0.130223 0.672069 -0.728948 0.000000
147.32200623 216.64999390 246.25000000 -0.331934 -0.524360 0.784134 0.000000
220.50199890 208.46600342 182.50000000 -0.505660 0.852481 -0.132608 0.000000
184.39399719 245.53700256 150.00000000 0.594084 0.032150 -0.803760 0.000000
201.24400330 269.60900879 246.25000000 0.520642 -0.034343 0.853084 0.000000
129.02699280 258.05499268 236.25000000 -0.843823 -0.158124 0.512796 0.000000
157.91400146 270.57199097 143.75000000 0.492697 0.657490 -0.570049 0.000000
255.16600037 176.69000244 180.00000000 0.213630 -0.959346 0.184439 0.000000
188.72700500 224.83500671 155.00000000 0.273073 0.929582 -0.247606 0.000000
158.87699890 193.54100037 228.75000000 -0.204627 -0.786199 0.583111 0.000000
114.10299683 256.12899780 182.50000000 -0.987298 -0.047455 0.151625 0.000000
279.23800659 218.57600403 173.75000000 0.392095 0.630329 -0.670035 0.000000
150.21099854 254.20300293 253.75000000 -0.933019 0.001263 0.359825 0.000000
193.54100037 313.90200806 211.25000000 0.626077 0.321936 -0.710201 0.000000
172.35699463 253.24000549 256.25000000 0.000978 0.000978 0.999999 0.000000
261.90600586 191.61500549 201.25000000 0.371453 -0.584180 0.721634 0.000000
246.50000000 230.61199951 170.00000000 -0.168968 -0.631728 -0.756551 0.000000
182.46800232 245.53700256 147.50000000 0.735323 0.061877 -0.674886 0.000000
213.76199341 225.31599426 173.75000000 0.256981 0.606978 -0.752023 0.000000
208.94700623 288.86700439 233.75000000 0.630146 0.209017 0.747815 0.000000
119.39800262 287.90399170 141.25000000 -0.734147 0.577876 -0.356493 0.000000
128.54600525 208.94700623 160.00000000 -0.682323 0.682323 0.262432 0.000000
163.69099426 242.64900208 258.75000000 -0.809081 -0.209535 0.549074 0.000000
181.98599243 259.01800537 151.25000000 0.377310 0.281103 -0.882394 0.000000
309.08801270 201.72599792 180.00000000 0.676065 0.551924 0.488176 0.000000
182.94900513 291.75601196 188.75000000 0.524421 0.591870 -0.612105 0.000000
184.87500000 200.28100586 121.25000000 0.430942 0.838378 -0.333784 0.000000
136.73100281 234.94500732 91.25000000 0.701095 0.217043 -0.679234 0.000000
240.72300720 212.31700134 147.50000000 0.242126 0.886805 -0.393640 0.000000
284.05300903 230.13099670 186.25000000 0.164041 0.500991 -0.849764 0.000000
168.98699951 269.60900879 152.50000000 0.456696 0.637367 -0.620638 0.000000
198.35600281 177.17199707 128.75000000 0.000978 -0.999999 0.000978 0.000000
169.46899414 213.76199341 248.75000000 -0.092918 -0.425757 0.900054 0.000000
205.09599304 175.72799683 190.00000000 0.145925 -0.879886 0.452224 0.000000
137.69299316 235.90800476 91.25000000 0.689415 0.258332 -0.676736 0.000000
191.61500549 224.35400391 251.25000000 0.371102 -0.319178 0.872014 0.000000
304.75500488 201.24400330 172.50000000 0.462285 0.372707 -0.804600 0.000000
261.90600586 180.06100464 186.25000000 0.240638 -0.917884 0.315568 0.000000
218.57600403 250.83299255 162.50000000 0.315763 0.899850 -0.300938 0.000000
126.62000275 211.83599854 140.00000000 -0.682323 -0.682323 -0.262432 0.000000
117.95400238 230.13099670 157.50000000 -0.954261 -0.295276 0.046889 0.000000
213.76199341 241.68600464 241.25000000 0.001230 0.308835 0.951115 0.000000
297.53298950 207.50300598 197.50000000 0.341022 -0.940014 -0.008809 0.000000
212.79899597 274.42401123 236.25000000 0.517082 0.500348 0.694463 0.000000
226.27900696 228.20500183 231.25000000 -0.000978 -0.000978 0.999999 0.000000
246.50000000 260.46200562 192.50000000 0.000978 0.000978 0.999999 0.000000
173.32000732 309.08801270 241.25000000 0.812655 0.094158 0.575088 0.000000
242.64900208 177.17199707 116.25000000 0.039868 -0.859228 -0.510038 0.000000
137.69299316 304.27398682 228.75000000 -0.664923 0.477337 0.574480 0.000000
177.17199707 247.46299744 143.75000000 0.548815 0.193074 -0.813341 0.000000
134.32299805 207.98399353 220.00000000 -0.836064 -0.524211 0.161867 0.000000
259.98098755 242.16700745 202.50000000 0.404810 0.914378 -0.006467 0.000000
247.46299744 192.09700012 115.00000000 0.140028 0.700140 -0.700140 0.000000
162.24699402 182.94900513 135.00000000 -0.186459 -0.929492 -0.318242 0.000000
128.06399536 273.46099854 108.75000000 0.164296 0.879640 -0.446363 0.000000
308.12500000 226.27900696 196.25000000 -0.006874 0.598004 -0.801463 0.000000
273.94198608 194.50399780 197.50000000 0.356726 -0.442341 0.822849 0.000000
128.54600525 216.64999390 205.00000000 -0.965746 -0.242388 0.092641 0.000000
127.10199738 313.42098999 185.00000000 -0.808487 0.449871 0.379428 0.000000
230.13099670 208.94700623 141.25000000 -0.000978 0.999999 -0.000978 0.000000
136.73100281 239.27799988 92.50000000 0.709540 0.289902 -0.642270 0.000000
118.43599701 230.61199951 140.00000000 -0.941345 -0.315572 -0.119515 0.000000
129.50900269 312.94000244 190.00000000 -0.771134 0.609272 0.184767 0.000000
128.06399536 272.49798584 231.25000000 -0.764462 0.208490 0.610025 0.000000
200.28100586 289.82998657 238.75000000 0.519801 0.284242 0.805614 0.000000
187.76400757 271.53500366 251.25000000 -0.890875 -0.297957 0.342875 0.000000
118.91699982 251.31500244 205.00000000 -0.996406 0.035702 0.076813 0.000000
160.80299377 328.34600830 198.75000000 0.390146 0.752542 -0.530534 0.000000
243.61099243 181.02299500 198.75000000 0.199070 -0.822114 0.533386 0.000000
307.16198730 200.28100586 181.25000000 0.676903 -0.337636 0.654068 0.000000
290.31201172 200.28100586 160.00000000 0.488121 0.659215 -0.571991 0.000000
167.54299927 178.61599731 200.00000000 -0.323194 -0.940078 0.108625 0.000000
120.36100006 276.83099365 120.00000000 -0.822642 0.429549 -0.372487 0.000000
162.72900391 248.42599487 133.75000000 0.560974 0.203296 -0.802483 0.000000
