126.20300293 223.54899597 440.00000000 -0.303570 -0.615172 -0.727605 0.000000
60.40819931 120.04699707 400.00000000 0.783705 0.603887 -0.145352 0.000000
104.65599823 97.73049927 425.50000000 -0.522257 0.676751 0.518898 0.000000
117.73799896 109.27300262 423.50000000 -0.351032 0.492086 0.796635 0.000000
210.08200073 156.21499634 456.50000000 -0.030455 -0.247293 -0.968462 0.000000
70.79689789 111.58200073 436.50000000 0.678253 0.564374 -0.470590 0.000000
179.30099487 162.75599670 437.00000000 -0.214727 -0.024913 -0.976356 0.000000
66.94920349 187.76600647 310.50000000 0.871244 -0.088673 0.482774 0.000000
130.05099487 211.62100220 352.50000000 -0.543604 -0.427944 0.722052 0.000000
176.60699463 172.37500000 460.00000000 -0.112007 -0.545490 -0.830599 0.000000
107.34999847 215.46899414 336.00000000 -0.869193 -0.124991 0.478415 0.000000
116.96900177 205.46499634 341.50000000 -0.495977 -0.321672 0.806557 0.000000
106.96499634 114.66000366 462.50000000 0.188322 0.155014 -0.969797 0.000000
48.48049927 212.77499390 434.00000000 0.713331 -0.428660 -0.554445 0.000000
146.97999573 190.07400513 455.50000000 -0.252487 -0.509621 -0.822519 0.000000
73.87500000 249.32800293 410.50000000 0.405766 -0.744178 -0.530617 0.000000
153.52099609 187.76600647 375.00000000 -0.895030 0.371327 0.247058 0.000000
72.33589935 255.10000610 378.00000000 0.659197 -0.750317 -0.049831 0.000000
71.56639862 130.05099487 456.50000000 0.604648 0.317642 -0.730414 0.000000
186.99600220 95.42189789 466.50000000 0.075339 0.541589 -0.837260 0.000000
71.56639862 101.19300079 417.00000000 0.649933 0.738630 -0.178923 0.000000
135.43800354 158.52299500 471.50000000 -0.344315 0.170049 -0.923326 0.000000
73.87500000 254.33000183 398.00000000 0.731630 -0.424444 -0.533446 0.000000
141.59399414 111.96700287 465.00000000 -0.656450 -0.262262 -0.707313 0.000000
43.47850037 149.28900146 415.00000000 0.990591 0.124826 0.056114 0.000000
63.87110138 147.36500549 457.00000000 0.516401 0.295312 -0.803817 0.000000
94.26760101 167.75799561 316.00000000 -0.843420 0.077963 0.531567 0.000000
138.13099670 239.32400513 360.00000000 -0.460339 0.211426 0.862199 0.000000
126.20300293 265.10400391 368.00000000 -0.468722 -0.811923 0.347967 0.000000
56.56050110 220.85499573 349.00000000 0.734444 -0.529790 0.424162 0.000000
192.38299561 175.83799744 420.00000000 -0.587462 0.801351 0.112804 0.000000
79.64649963 116.19899750 456.00000000 0.671803 0.318904 -0.668566 0.000000
75.02929688 106.96499634 399.00000000 -0.385441 0.446216 0.807667 0.000000
170.83599854 205.08000183 415.00000000 -0.681775 -0.731560 -0.001383 0.000000
123.12500000 111.58200073 463.50000000 -0.208473 -0.528030 -0.823240 0.000000
108.11900330 222.39500427 340.00000000 -0.725443 -0.243912 0.643614 0.000000
78.49220276 131.58999634 396.50000000 -0.752366 0.376999 0.540202 0.000000
124.66400146 241.24800110 422.00000000 -0.261784 -0.699677 -0.664772 0.000000
40.40039825 198.53900146 422.00000000 0.921923 -0.307308 0.235841 0.000000
150.05900574 125.04900360 422.00000000 -0.489413 0.801872 0.342748 0.000000
75.79879761 154.67599487 301.00000000 0.867750 0.417918 0.268987 0.000000
185.07200623 171.60499573 458.00000000 -0.693106 -0.408585 -0.593854 0.000000
49.25000000 130.82000732 432.50000000 0.789251 0.510692 -0.340995 0.000000
242.40199280 178.14599609 448.00000000 -0.708273 0.095316 -0.699474 0.000000
149.28900146 213.92999268 367.50000000 -0.752280 -0.195377 0.629208 0.000000
103.88700104 131.58999634 406.50000000 -0.672243 0.230349 0.703583 0.000000
210.08200073 128.51199341 463.50000000 -0.233120 -0.057972 -0.970718 0.000000
40.40039825 170.83599854 431.00000000 0.820660 0.066848 -0.567493 0.000000
160.44700623 224.70300293 391.00000000 -0.957457 -0.270783 0.099762 0.000000
128.89599609 170.83599854 375.00000000 -0.190399 0.847052 -0.496237 0.000000
133.12899780 222.77900696 438.00000000 -0.265235 -0.627352 -0.732175 0.000000
94.26760101 153.90600586 324.00000000 -0.776470 0.476951 0.411839 0.000000
100.42400360 237.78500366 334.00000000 -0.673154 0.001382 0.739501 0.000000
134.66799927 255.86900330 362.00000000 -0.585518 -0.609142 0.534897 0.000000
86.57230377 156.98399353 301.00000000 -0.843584 0.193979 0.500737 0.000000
88.88089752 197.77000427 310.00000000 -0.736865 -0.206322 0.643787 0.000000
120.81600189 174.68400574 341.50000000 -0.597606 0.122472 0.792381 0.000000
129.28100586 168.91200256 365.00000000 -0.355574 0.886685 0.295562 0.000000
74.64450073 158.52299500 300.50000000 0.879187 0.361662 0.310212 0.000000
83.10939789 195.84599304 460.00000000 0.445762 -0.616052 -0.649443 0.000000
130.05099487 253.17599487 355.50000000 -0.712543 -0.240660 0.659063 0.000000
46.94139862 136.97700500 432.50000000 0.918880 0.354284 -0.173613 0.000000
246.25000000 175.06799316 445.00000000 0.227910 -0.032559 -0.973138 0.000000
89.26560211 160.83200073 470.50000000 0.330552 -0.034459 -0.943158 0.000000
51.17380142 165.44900513 350.00000000 0.922099 0.379846 -0.073822 0.000000
46.55659866 171.60499573 441.00000000 0.837260 -0.075339 -0.541589 0.000000
175.06799316 191.61300659 399.00000000 -0.033937 -0.297888 0.953997 0.000000
91.18949890 112.35199738 406.00000000 -0.405524 0.233213 0.883834 0.000000
186.99600220 164.29499817 430.00000000 0.341659 -0.844008 0.413424 0.000000
41.93949890 195.46099854 406.00000000 0.914080 0.162472 -0.371566 0.000000
100.42400360 214.69900513 331.00000000 -0.600373 -0.270881 0.752447 0.000000
164.67999268 117.73799896 469.50000000 0.084057 0.068366 -0.994113 0.000000
169.29699707 197.77000427 402.50000000 -0.161508 -0.786407 0.596220 0.000000
123.89499664 101.57800293 460.50000000 0.113196 0.786490 -0.607141 0.000000
88.11129761 135.43800354 402.00000000 -0.484996 0.320698 0.813592 0.000000
161.21699524 209.31199646 386.00000000 -0.928119 0.192364 0.318734 0.000000
98.50000000 88.49610138 426.50000000 -0.647074 0.757585 -0.085792 0.000000
89.26560211 155.44500732 470.50000000 0.279318 -0.033518 -0.959613 0.000000
67.71880341 162.37100220 463.50000000 0.280113 0.111782 -0.953437 0.000000
163.91000366 106.19499969 441.50000000 -0.469289 0.309197 0.827142 0.000000
113.89099884 236.63099670 431.00000000 -0.243623 -0.630276 -0.737156 0.000000
117.73799896 225.85699463 440.00000000 -0.129632 -0.624318 -0.770340 0.000000
63.48630142 113.12100220 392.00000000 0.848958 0.519682 -0.095919 0.000000
173.14500427 168.14300537 417.00000000 -0.265725 0.920700 0.285834 0.000000
83.87889862 213.54499817 450.00000000 0.135650 -0.603715 -0.785575 0.000000
136.97700500 255.86900330 365.00000000 -0.594911 -0.615135 0.517387 0.000000
166.21899414 101.57800293 445.50000000 -0.455313 0.353780 0.817025 0.000000
210.08200073 152.36700439 457.50000000 0.069869 -0.341437 -0.937304 0.000000
55.40620041 236.63099670 397.00000000 0.794111 -0.582348 0.173948 0.000000
53.48239899 226.24200439 370.00000000 0.959702 -0.258431 -0.110385 0.000000
85.80269623 163.91000366 301.00000000 0.172262 0.948117 -0.267209 0.000000
76.18360138 131.58999634 378.50000000 -0.524760 0.026033 -0.850852 0.000000
97.73049927 258.94699097 346.00000000 0.409015 -0.832242 0.374272 0.000000
167.75799561 106.19499969 443.50000000 -0.425640 0.311104 0.849732 0.000000
153.13699341 202.00199890 445.00000000 -0.082407 -0.249757 -0.964796 0.000000
64.25589752 245.47999573 360.00000000 0.989196 -0.142289 0.035288 0.000000
56.17580032 163.52499390 334.00000000 0.925907 0.199317 0.320887 0.000000
63.10160065 129.28100586 447.50000000 0.577914 0.520628 -0.628460 0.000000
98.50000000 222.77900696 446.00000000 0.082634 -0.636425 -0.766899 0.000000
50.01950073 134.28300476 438.00000000 0.659173 0.445568 -0.605772 0.000000
155.83000183 217.77699280 429.00000000 -0.620587 -0.620587 -0.479315 0.000000
103.88700104 242.01800537 427.00000000 -0.112584 -0.808560 -0.577543 0.000000
170.83599854 166.60400391 430.00000000 -0.118256 0.990824 -0.065443 0.000000
129.66600037 121.58599854 424.00000000 -0.830715 0.162564 0.532433 0.000000
51.17380142 136.20700073 441.00000000 0.685958 0.351983 -0.636844 0.000000
117.73799896 165.44900513 470.50000000 -0.075418 -0.345334 -0.935445 0.000000
85.80269623 130.82000732 344.00000000 -0.752945 0.637806 0.162103 0.000000
160.83200073 151.59800720 438.50000000 -0.116592 0.621334 0.774823 0.000000
48.86520004 160.06199646 365.00000000 0.863156 0.263361 0.430817 0.000000
136.97700500 240.47900391 417.00000000 -0.333946 -0.763075 -0.553350 0.000000
98.50000000 88.88089752 430.00000000 -0.547506 0.731652 -0.406108 0.000000
73.87500000 252.02099609 407.00000000 0.440558 -0.764835 -0.470038 0.000000
45.40230179 226.24200439 406.50000000 0.945474 -0.314281 0.085474 0.000000
110.81199646 180.83999634 468.50000000 -0.140046 -0.353582 -0.924860 0.000000
161.98599243 221.62500000 395.00000000 -0.884328 -0.437081 0.164087 0.000000
65.41020203 111.19699860 407.00000000 0.705277 0.696293 0.133269 0.000000
218.54699707 133.89799500 456.50000000 -0.816863 -0.574202 0.055022 0.000000
89.65039825 257.79299927 350.00000000 0.227188 -0.840139 0.492495 0.000000
120.04699707 178.53100586 406.50000000 0.043656 0.604149 0.795674 0.000000
47.71089935 197.77000427 352.50000000 0.941196 -0.134070 0.310121 0.000000
106.96499634 216.62300110 450.00000000 -0.020727 -0.584507 -0.811124 0.000000
213.92999268 147.75000000 442.50000000 -0.548703 0.391463 0.738702 0.000000
153.90600586 126.58799744 471.00000000 0.437283 0.249660 -0.863975 0.000000
83.49410248 210.85200500 452.00000000 0.148512 -0.613551 -0.775564 0.000000
80.80079651 121.20099640 458.00000000 0.538262 0.254309 -0.803493 0.000000
78.49220276 103.50199890 431.00000000 0.495826 0.742916 -0.449703 0.000000
141.59399414 253.56100464 390.00000000 -0.612775 -0.565508 -0.552004 0.000000
113.12100220 176.22300720 390.50000000 -0.431272 0.621098 -0.654401 0.000000
102.34799957 166.21899414 470.50000000 0.412451 -0.125284 -0.902324 0.000000
71.56639862 252.79100037 372.00000000 0.829628 -0.558113 -0.015084 0.000000
198.53900146 143.90199280 433.50000000 -0.480622 0.547608 0.684929 0.000000
163.52499390 220.08599854 406.00000000 -0.919025 -0.374520 -0.122997 0.000000
231.62899780 159.67799377 451.00000000 0.326794 0.907111 -0.265246 0.000000
125.43399811 118.50800323 419.50000000 -0.349340 0.441021 0.826718 0.000000
174.68400574 136.20700073 426.50000000 -0.038884 0.187350 0.981523 0.000000
71.95120239 173.14500427 301.00000000 0.851247 0.020430 0.524368 0.000000
99.26950073 157.36900330 386.00000000 -0.364269 0.898137 0.246287 0.000000
190.07400513 175.45300293 455.50000000 -0.691333 -0.639280 -0.336720 0.000000
155.83000183 90.80470276 445.00000000 -0.292252 0.486045 0.823619 0.000000
53.86719894 165.44900513 451.50000000 0.661891 -0.029511 -0.749019 0.000000
71.18160248 127.74199677 347.00000000 0.676072 0.589268 0.442368 0.000000
61.94729996 243.94099426 377.00000000 0.755097 -0.633552 0.168643 0.000000
38.86130142 180.07000732 394.00000000 0.869106 0.335686 -0.363277 0.000000
148.52000427 227.78100586 369.50000000 -0.387973 -0.011601 0.921598 0.000000
108.50399780 159.29299927 369.50000000 -0.631680 0.454073 -0.628329 0.000000
102.34799957 212.39100647 331.50000000 -0.583923 -0.328356 0.742440 0.000000
45.01760101 195.46099854 368.00000000 0.976723 -0.135968 0.165906 0.000000
261.64099121 184.30299377 447.00000000 -0.239231 0.434829 -0.868154 0.000000
200.07800293 128.51199341 446.50000000 -0.470929 0.571483 0.672037 0.000000
111.58200073 156.98399353 366.50000000 -0.570108 0.430490 -0.699754 0.000000
93.11329651 252.79100037 410.00000000 -0.142836 -0.753273 -0.642011 0.000000
118.89299774 223.93400574 348.00000000 -0.620587 -0.620587 -0.479315 0.000000
108.88899994 223.16400146 341.00000000 -0.709698 -0.199458 0.675682 0.000000
103.88700104 161.60200500 378.50000000 -0.700979 0.464544 -0.541136 0.000000
118.50800323 204.69500732 341.50000000 -0.495977 -0.321672 0.806557 0.000000
177.76199341 124.66400146 434.50000000 -0.583508 0.463128 0.667106 0.000000
58.48440170 233.93800354 357.50000000 0.766804 -0.523632 0.371243 0.000000
140.05499268 172.37500000 407.50000000 -0.220028 0.697536 0.681932 0.000000
45.78710175 138.51600647 424.00000000 0.867932 0.425635 0.255987 0.000000
60.02339935 239.70899963 410.00000000 0.554445 -0.713331 -0.428660 0.000000
198.53900146 117.35399628 455.00000000 -0.405477 0.526956 0.746931 0.000000
193.15199280 176.60699463 420.00000000 -0.425156 0.901220 0.083930 0.000000
38.86130142 170.06599426 421.00000000 0.996331 -0.001057 0.085581 0.000000
73.10549927 178.53100586 300.50000000 0.699473 -0.146542 0.699473 0.000000
153.13699341 225.47300720 372.50000000 -0.785794 -0.001371 0.618487 0.000000
200.84800720 118.50800323 468.50000000 0.101730 0.001071 -0.994811 0.000000
66.56449890 130.05099487 350.00000000 0.668265 0.567774 0.480682 0.000000
50.78910065 129.28100586 434.50000000 0.789251 0.510692 -0.340995 0.000000
55.40620041 135.43800354 444.50000000 0.651635 0.424979 -0.628303 0.000000
190.45899963 183.14799500 445.00000000 -0.559873 -0.118407 -0.820075 0.000000
128.51199341 259.33200073 390.50000000 -0.416746 -0.812735 -0.407166 0.000000
165.83399963 213.92999268 412.00000000 -0.897510 -0.432851 0.084358 0.000000
59.63869858 153.90600586 335.00000000 0.830278 0.377974 0.409604 0.000000
116.19899750 181.99400330 392.00000000 -0.459821 0.660470 -0.593587 0.000000
167.75799561 206.61900330 406.00000000 -0.851643 -0.502777 0.148048 0.000000
124.66400146 133.89799500 474.50000000 -0.057972 0.233120 -0.970718 0.000000
194.69099426 116.58399963 468.00000000 -0.510451 0.014894 -0.859778 0.000000
100.03900146 93.49800110 439.00000000 0.397890 0.602613 -0.691767 0.000000
61.17770004 229.32000732 349.00000000 0.811497 -0.427356 0.398546 0.000000
41.16989899 156.21499634 415.00000000 0.959022 0.281628 0.031016 0.000000
132.35899353 225.08799744 436.00000000 -0.279527 -0.669268 -0.688436 0.000000
187.76600647 142.74800110 429.00000000 -0.124131 0.452295 0.883188 0.000000
218.16200256 153.13699341 457.00000000 0.007415 -0.079448 -0.996811 0.000000
105.04100037 113.12100220 415.00000000 -0.424222 0.543071 0.724644 0.000000
71.18160248 103.11699677 421.00000000 0.596176 0.746419 -0.295691 0.000000
100.80899811 102.73200226 419.00000000 -0.618453 0.362541 0.697195 0.000000
93.11329651 154.29100037 390.00000000 -0.415328 0.770392 0.483735 0.000000
158.90800476 206.23399353 382.00000000 -0.879095 -0.033863 0.475443 0.000000
192.38299561 191.22900391 424.00000000 -0.441257 -0.881057 -0.170386 0.000000
52.71289825 221.62500000 381.00000000 0.914804 -0.373533 0.153642 0.000000
53.86719894 157.75399780 347.50000000 0.954983 0.249068 0.161162 0.000000
193.53700256 181.60899353 442.00000000 -0.711604 -0.058941 -0.700104 0.000000
82.33979797 140.82400513 312.50000000 -0.136381 0.882889 0.449340 0.000000
141.59399414 199.30900574 451.50000000 -0.302934 -0.478730 -0.824044 0.000000
60.02339935 143.13299561 452.50000000 0.633132 0.388475 -0.669500 0.000000
97.73049927 253.17599487 337.50000000 0.004151 -0.712614 0.701544 0.000000
100.80899811 98.50000000 420.50000000 -0.601651 0.406073 0.687838 0.000000
168.52699280 104.65599823 467.50000000 0.116354 0.357275 -0.926724 0.000000
129.28100586 116.58399963 431.00000000 -0.535634 -0.786763 0.306758 0.000000
166.98800659 130.05099487 472.50000000 0.081699 0.143269 -0.986306 0.000000
103.50199890 169.29699707 327.00000000 -0.712527 0.258668 0.652224 0.000000
139.28500366 179.68600464 395.00000000 0.075415 0.989682 -0.121825 0.000000
156.98399353 136.20700073 421.50000000 0.052909 -0.664941 0.745020 0.000000
136.59199524 260.87100220 370.00000000 -0.578878 -0.811578 0.079003 0.000000
78.49220276 257.40798950 402.00000000 0.403981 -0.815945 -0.413561 0.000000
120.81600189 227.01199341 438.50000000 -0.158397 -0.616993 -0.770864 0.000000
146.21099854 178.14599609 380.00000000 -0.381098 0.912667 -0.147658 0.000000
133.89799500 178.14599609 352.00000000 -0.636270 0.565386 0.524881 0.000000
41.16989899 169.29699707 394.00000000 0.779744 0.369692 -0.505300 0.000000
100.03900146 265.87298584 360.00000000 0.324503 -0.892758 0.312540 0.000000
86.18750000 88.88089752 411.00000000 -0.206293 0.850770 0.483358 0.000000
110.04299927 182.76400757 402.00000000 -0.404484 0.525665 0.748377 0.000000
83.87889862 186.22700500 300.50000000 -0.620587 -0.620587 0.479315 0.000000
177.76199341 97.34570313 466.00000000 0.377666 0.658030 -0.651433 0.000000
156.21499634 179.30099487 402.50000000 -0.227594 0.908926 0.349364 0.000000
107.73400116 175.45300293 395.50000000 -0.540258 -0.536892 -0.647973 0.000000
79.26170349 122.35500336 373.50000000 -0.832692 0.277564 -0.479147 0.000000
100.80899811 122.73999786 466.00000000 -0.519156 0.542678 -0.660286 0.000000
58.48440170 147.75000000 454.50000000 0.615701 0.264324 -0.742324 0.000000
78.49220276 142.36300659 313.50000000 0.460136 0.740506 0.489822 0.000000
79.26170349 210.08200073 310.50000000 0.119196 -0.581263 0.804939 0.000000
49.25000000 215.85400391 370.00000000 0.910872 -0.399457 -0.103665 0.000000
43.47850037 161.60200500 394.00000000 0.977177 0.123236 -0.173029 0.000000
48.48049927 139.66999817 397.00000000 0.947080 0.282368 0.152668 0.000000
131.20500183 182.37899780 396.00000000 0.165510 0.930472 0.326847 0.000000
204.69500732 135.82200623 444.00000000 -0.506752 0.560626 0.654905 0.000000
139.28500366 146.21099854 423.50000000 -0.853827 0.407543 0.323865 0.000000
122.35500336 179.68600464 342.00000000 -0.508885 0.135606 0.850086 0.000000
45.40230179 150.82800293 437.50000000 0.884085 0.145191 -0.444199 0.000000
69.25779724 213.16000366 447.50000000 0.189610 -0.395142 -0.898839 0.000000
61.17770004 220.85499573 341.00000000 0.785478 -0.577877 -0.221545 0.000000
180.83999634 189.30499268 444.50000000 -0.367701 -0.737035 -0.567076 0.000000
93.88279724 227.01199341 442.50000000 -0.009720 -0.656801 -0.754002 0.000000
114.27500153 170.83599854 405.00000000 -0.323674 -0.031733 0.945636 0.000000
206.23399353 140.82400513 461.50000000 -0.234053 -0.201584 -0.951096 0.000000
170.45100403 110.81199646 444.00000000 -0.443662 0.257659 0.858356 0.000000
161.98599243 207.77299500 391.00000000 -0.984137 0.055395 0.168541 0.000000
68.87300110 184.68800354 460.00000000 0.585580 -0.342264 -0.734814 0.000000
123.12500000 180.83999634 401.50000000 -0.182535 0.971394 0.151900 0.000000
81.18550110 238.55499268 331.00000000 0.529530 -0.536254 0.657290 0.000000
61.94729996 243.94099426 378.00000000 0.758257 -0.634645 0.149239 0.000000
144.67199707 253.17599487 386.50000000 -0.578507 -0.740554 -0.341919 0.000000
186.99600220 196.61500549 410.00000000 -0.577379 -0.770366 0.270498 0.000000
45.78710175 200.07800293 374.00000000 0.978109 -0.205605 -0.032089 0.000000
162.37100220 202.38699341 394.50000000 -0.421107 -0.846875 0.324765 0.000000
49.63479996 217.00799561 359.00000000 0.963096 -0.213585 0.163792 0.000000
74.64450073 247.02000427 348.50000000 0.590573 -0.727235 0.349789 0.000000
56.94530106 203.92599487 445.50000000 0.477670 -0.036744 -0.877770 0.000000
159.29299927 113.12100220 468.50000000 0.274648 0.257572 -0.926404 0.000000
65.41020203 232.01400757 431.00000000 0.620587 -0.620587 -0.479315 0.000000
206.23399353 144.28700256 439.00000000 -0.493290 0.520044 0.697294 0.000000
62.71680069 242.40199280 412.00000000 0.412355 -0.747495 -0.520782 0.000000
166.21899414 197.38499451 402.00000000 -0.087388 -0.835203 0.542954 0.000000
114.66000366 253.56100464 411.00000000 -0.144237 -0.813380 -0.563567 0.000000
68.48829651 152.36700439 322.50000000 0.718905 0.499747 0.483144 0.000000
132.74400330 178.53100586 350.00000000 -0.625652 0.564942 0.537960 0.000000
106.19499969 95.03710175 445.00000000 0.432106 0.754132 -0.494540 0.000000
205.46499634 151.59800720 434.50000000 -0.530380 0.299229 0.793195 0.000000
173.14500427 162.37100220 468.50000000 -0.304691 -0.425330 -0.852207 0.000000
116.19899750 247.40400696 418.00000000 -0.064543 -0.623917 -0.778821 0.000000
100.80899811 189.30499268 323.50000000 -0.783393 0.125876 0.608647 0.000000
41.16989899 163.14100647 387.00000000 0.880819 0.433792 -0.189692 0.000000
50.01950073 179.30099487 343.50000000 0.974806 0.121694 0.186932 0.000000
144.67199707 100.03900146 460.50000000 0.263455 0.525351 -0.809072 0.000000
86.95700073 242.78700256 424.00000000 0.022920 -0.877716 -0.478632 0.000000
67.71880341 105.81099701 409.00000000 0.478312 0.478312 0.736502 0.000000
78.49220276 190.84399414 300.50000000 0.240529 -0.342572 0.908180 0.000000
90.03520203 234.70700073 327.50000000 -0.539129 -0.040192 0.841263 0.000000
55.79100037 141.59399414 358.00000000 0.913696 0.250506 0.320011 0.000000
139.28500366 243.94099426 362.50000000 -0.289865 0.174469 0.941031 0.000000
124.66400146 168.14300537 382.00000000 0.149569 0.359246 -0.921179 0.000000
56.94530106 153.13699341 342.50000000 0.880368 0.366946 0.300503 0.000000
162.37100220 176.99200439 465.50000000 -0.104379 -0.210016 -0.972110 0.000000
162.37100220 198.92399597 440.00000000 -0.422267 -0.703778 -0.571302 0.000000
119.66200256 161.60200500 354.00000000 -0.619642 0.707465 0.339908 0.000000
160.83200073 172.37500000 469.50000000 -0.116070 -0.409741 -0.904787 0.000000
116.19899750 262.02499390 352.00000000 -0.356493 -0.734147 0.577876 0.000000
80.80079651 128.51199341 373.50000000 -0.794850 0.227764 -0.562438 0.000000
90.03520203 86.57230377 420.00000000 -0.025421 0.999560 -0.015253 0.000000
134.66799927 203.92599487 350.50000000 -0.500246 -0.337226 0.797516 0.000000
121.58599854 233.55299377 350.00000000 -0.554888 0.087463 0.827314 0.000000
50.40430069 142.36300659 381.00000000 0.872159 0.465829 0.149472 0.000000
148.90400696 115.43000031 469.00000000 0.333681 0.289191 -0.897232 0.000000
90.03520203 86.57230377 417.00000000 -0.261777 0.961553 0.083003 0.000000
116.19899750 200.46299744 339.00000000 -0.542951 -0.189050 0.818208 0.000000
117.73799896 209.31199646 454.50000000 -0.368456 -0.368456 -0.853511 0.000000
76.56839752 237.78500366 334.00000000 0.438078 -0.691265 0.574666 0.000000
50.40430069 135.43800354 417.00000000 0.821270 0.570058 -0.023465 0.000000
178.53100586 168.52699280 464.50000000 -0.063573 -0.555207 -0.829279 0.000000
50.01950073 177.76199341 344.50000000 0.974806 0.121694 0.186932 0.000000
93.11329651 251.25199890 415.00000000 -0.001369 -0.792878 -0.609379 0.000000
108.11900330 136.20700073 472.00000000 0.397225 0.326126 -0.857820 0.000000
175.83799744 147.75000000 420.00000000 -0.193013 0.290214 0.937295 0.000000
207.00399780 123.89499664 455.50000000 -0.539354 0.576551 0.613748 0.000000
70.79689789 104.27100372 397.00000000 -0.414537 0.476311 0.775427 0.000000
43.09379959 206.61900330 388.00000000 0.835708 -0.127332 0.534209 0.000000
118.12300110 244.71099854 420.00000000 -0.178769 -0.762442 -0.621871 0.000000
158.90800476 226.24200439 412.00000000 -0.534533 -0.843188 -0.057522 0.000000
129.28100586 231.24400330 432.00000000 -0.272386 -0.727955 -0.629196 0.000000
210.85200500 158.13900757 456.00000000 -0.039274 -0.305322 -0.951439 0.000000
131.58999634 173.91400146 466.50000000 -0.328412 -0.147030 -0.933021 0.000000
139.28500366 241.24800110 360.00000000 -0.460339 0.211426 0.862199 0.000000
39.63090134 196.22999573 390.00000000 0.881057 -0.441257 0.170386 0.000000
253.17599487 168.91200256 450.00000000 -0.077722 0.989507 -0.121803 0.000000
133.12899780 262.41000366 373.50000000 -0.450605 -0.891737 0.041948 0.000000
178.53100586 95.42189789 464.50000000 0.377666 0.658030 -0.651433 0.000000
123.12500000 155.83000183 470.00000000 -0.170900 -0.033715 -0.984711 0.000000
189.30499268 145.05700684 428.00000000 -0.092175 0.500579 0.860770 0.000000
143.90199280 108.88899994 464.00000000 -0.795970 0.592178 -0.125524 0.000000
88.88089752 211.62100220 316.00000000 -0.460770 -0.454211 0.762485 0.000000
146.97999573 240.86300659 409.50000000 -0.666569 -0.599745 -0.442709 0.000000
200.07800293 146.21099854 432.50000000 -0.477568 0.558000 0.678649 0.000000
93.88279724 260.10198975 352.50000000 0.246022 -0.897170 0.366823 0.000000
48.48049927 147.75000000 373.50000000 0.849480 0.511436 0.129680 0.000000
133.12899780 131.58999634 417.50000000 -0.860658 -0.495704 -0.116383 0.000000
54.25199890 166.21899414 338.00000000 0.925539 0.216857 0.310403 0.000000
121.20099640 106.19499969 431.00000000 -0.507414 0.578216 0.638903 0.000000
150.05900574 208.54299927 367.50000000 -0.860205 -0.201961 0.468251 0.000000
73.49019623 106.96499634 397.00000000 -0.310222 0.450524 0.837132 0.000000
133.12899780 143.13299561 416.50000000 -0.429593 0.019827 0.902805 0.000000
62.71680069 223.16400146 341.00000000 0.775231 -0.343294 0.530251 0.000000
124.66400146 262.02499390 386.00000000 -0.227513 -0.936571 -0.266595 0.000000
193.92199707 156.98399353 424.50000000 -0.449787 0.076118 0.889886 0.000000
143.13299561 252.40600586 369.50000000 -0.674427 -0.577363 0.460217 0.000000
82.33979797 133.89799500 330.50000000 0.475410 0.525453 0.705609 0.000000
99.26950073 128.51199341 468.50000000 -0.006258 0.334188 -0.942486 0.000000
237.01600647 170.06599426 443.50000000 -0.001369 0.792878 0.609379 0.000000
166.98800659 144.28700256 438.00000000 0.522988 -0.086927 0.847896 0.000000
86.18750000 152.75199890 302.00000000 -0.726642 0.254879 0.637988 0.000000
134.28300476 257.02301025 360.00000000 -0.582974 -0.616770 0.528901 0.000000
51.55860138 160.83200073 449.50000000 0.679774 -0.023827 -0.733035 0.000000
135.43800354 260.48599243 380.00000000 -0.647133 -0.736712 -0.196148 0.000000
223.93400574 148.90400696 457.00000000 -0.320694 0.111371 -0.940613 0.000000
77.33789825 116.96900177 451.00000000 0.896264 0.050169 -0.440674 0.000000
167.75799561 179.30099487 400.50000000 -0.079911 0.655266 0.751159 0.000000
175.06799316 129.28100586 429.00000000 -0.419214 0.217754 0.881387 0.000000
156.98399353 187.38099670 456.00000000 -0.267554 -0.748835 -0.606351 0.000000
70.79689789 215.85400391 321.00000000 0.663444 -0.529076 0.529076 0.000000
123.89499664 167.75799561 370.50000000 -0.344751 0.829607 -0.439203 0.000000
174.68400574 165.44900513 466.50000000 -0.201484 -0.422087 -0.883882 0.000000
115.81400299 133.89799500 411.00000000 -0.289270 0.227183 0.929898 0.000000
53.86719894 183.53300476 449.00000000 0.675253 -0.114274 -0.728680 0.000000
85.03320313 144.67199707 390.00000000 -0.401739 0.749367 0.526360 0.000000
191.22900391 117.73799896 449.00000000 -0.516538 0.506508 0.690389 0.000000
133.12899780 130.43600464 421.00000000 -0.839554 0.492152 0.230077 0.000000
153.13699341 232.78300476 408.00000000 -0.707280 -0.643128 -0.293497 0.000000
70.02729797 154.67599487 463.50000000 0.349105 -0.032205 -0.936530 0.000000
45.78710175 142.36300659 414.00000000 0.849530 0.485660 0.205992 0.000000
113.12100220 189.30499268 334.50000000 0.252399 -0.885636 0.389799 0.000000
130.43600464 247.78900146 355.00000000 -0.649763 0.004139 0.760126 0.000000
140.05499268 125.81800079 470.00000000 0.370349 0.646876 -0.666628 0.000000
80.80079651 106.96499634 438.50000000 0.471029 0.608483 -0.638655 0.000000
169.29699707 165.83399963 429.00000000 -0.012116 0.992424 -0.122263 0.000000
83.10939789 177.76199341 467.50000000 0.276155 -0.172767 -0.945457 0.000000
87.34179688 229.32000732 326.00000000 -0.296474 -0.147560 0.943573 0.000000
150.05900574 225.47300720 425.50000000 -0.574235 -0.674684 -0.463741 0.000000
58.48440170 131.20500183 364.00000000 0.845678 0.468116 0.256313 0.000000
140.05499268 221.24000549 436.00000000 -0.406825 -0.642617 -0.649259 0.000000
78.87699890 248.55900574 345.00000000 0.576345 -0.741943 0.342560 0.000000
126.20300293 230.47500610 430.00000000 -0.251758 -0.704605 -0.663437 0.000000
109.27300262 155.83000183 367.00000000 -0.624564 0.365559 -0.690135 0.000000
53.86719894 234.32200623 414.00000000 0.620587 -0.620587 -0.479315 0.000000
136.20700073 242.01800537 415.00000000 -0.367214 -0.732797 -0.572855 0.000000
82.33979797 214.69900513 313.50000000 -0.193074 -0.548815 0.813341 0.000000
144.28700256 106.19499969 469.00000000 -0.132213 0.949528 0.284458 0.000000
192.76800537 176.22300720 422.00000000 -0.511672 0.852787 0.104628 0.000000
122.35500336 174.68400574 343.50000000 -0.597606 0.122472 0.792381 0.000000
57.71480179 122.35500336 420.50000000 0.849480 0.511436 0.129680 0.000000
95.42189789 115.04499817 462.00000000 0.217742 0.455005 -0.863458 0.000000
116.19899750 106.96499634 464.50000000 0.237067 0.651541 -0.720620 0.000000
62.33200073 125.81800079 364.00000000 0.778840 0.586840 0.221420 0.000000
71.56639862 108.11900330 432.00000000 0.641721 0.638387 -0.425036 0.000000
132.74400330 263.17999268 374.00000000 -0.450605 -0.891737 0.041948 0.000000
177.76199341 116.96900177 443.50000000 -0.179373 0.734356 0.654635 0.000000
146.21099854 168.52699280 469.50000000 0.108983 -0.329641 -0.937795 0.000000
90.80470276 116.96900177 461.50000000 0.226712 0.407489 -0.884621 0.000000
68.48829651 172.37500000 463.50000000 0.650221 -0.101276 -0.752965 0.000000
117.73799896 159.67799377 362.00000000 -0.836065 -0.320361 -0.445380 0.000000
134.66799927 231.62899780 428.50000000 -0.384104 -0.661055 -0.644570 0.000000
108.11900330 165.44900513 392.00000000 -0.885374 0.436166 0.160845 0.000000
168.91200256 186.22700500 455.00000000 -0.119349 -0.800079 -0.587903 0.000000
114.66000366 169.29699707 405.50000000 -0.391199 -0.160747 0.906159 0.000000
65.41020203 175.45300293 460.50000000 0.607080 -0.178016 -0.774445 0.000000
148.13499451 241.63299561 400.00000000 -0.638349 -0.762186 0.107620 0.000000
143.13299561 141.59399414 430.50000000 -0.580640 -0.371282 0.724573 0.000000
55.02149963 143.13299561 359.00000000 0.913696 0.250506 0.320011 0.000000
51.55860138 141.20899963 377.00000000 0.874806 0.468186 0.124563 0.000000
183.91799927 91.95899963 464.00000000 0.072167 0.539133 -0.839123 0.000000
169.29699707 187.76600647 452.50000000 -0.255725 -0.776588 -0.575774 0.000000
62.71680069 112.35199738 410.00000000 0.934864 0.301435 0.187528 0.000000
74.25980377 143.90199280 321.00000000 0.754146 0.588330 0.291773 0.000000
201.61700439 160.44700623 457.00000000 -0.245205 -0.390842 -0.887196 0.000000
86.18750000 128.89599609 364.00000000 -0.694939 0.612795 -0.376220 0.000000
103.11699677 268.95098877 366.00000000 0.248578 -0.949487 0.191527 0.000000
60.40819931 180.83999634 322.00000000 0.851110 0.142096 0.505392 0.000000
122.35500336 227.78100586 353.50000000 -0.494241 0.009376 0.869274 0.000000
44.63280106 190.45899963 367.00000000 0.977641 -0.110000 0.179214 0.000000
81.18550110 210.08200073 311.00000000 -0.352956 -0.447922 0.821454 0.000000
78.87699890 260.10198975 378.00000000 0.643012 -0.755873 0.123256 0.000000
69.25779724 147.75000000 325.50000000 0.737721 0.496765 0.457156 0.000000
67.71880341 202.38699341 313.50000000 0.602942 -0.559030 0.569163 0.000000
152.75199890 112.35199738 467.00000000 0.066438 0.549881 -0.832596 0.000000
54.25199890 160.83200073 452.00000000 0.679774 -0.023827 -0.733035 0.000000
76.95310211 222.00999451 444.00000000 0.182544 -0.673418 -0.716370 0.000000
71.56639862 179.30099487 463.50000000 0.478730 -0.302934 -0.824044 0.000000
142.36300659 101.96299744 461.00000000 0.263455 0.525351 -0.809072 0.000000
120.04699707 205.46499634 343.50000000 -0.506677 -0.316077 0.802106 0.000000
70.02729797 130.05099487 345.50000000 0.663631 0.488903 0.566187 0.000000
97.73049927 178.53100586 469.50000000 -0.086061 0.402983 0.911152 0.000000
55.79100037 232.39799500 420.00000000 0.559838 -0.790634 -0.247950 0.000000
64.64060211 205.46499634 449.50000000 0.350753 -0.288065 -0.891062 0.000000
140.43899536 175.45300293 369.00000000 -0.739804 0.633448 0.226790 0.000000
59.63869858 193.15199280 450.00000000 0.567845 -0.140849 -0.810995 0.000000
203.92599487 134.28300476 465.00000000 -0.678376 -0.169213 -0.714963 0.000000
192.38299561 145.82600403 428.00000000 -0.277857 0.582705 0.763709 0.000000
100.03900146 220.85499573 447.50000000 -0.108515 -0.539683 -0.834845 0.000000
168.91200256 120.81600189 471.00000000 0.229763 0.173983 -0.957569 0.000000
75.41410065 162.37100220 466.50000000 0.679105 -0.227414 -0.697925 0.000000
96.19139862 88.49610138 430.50000000 -0.439456 0.766190 -0.468862 0.000000
76.18360138 129.28100586 393.50000000 -0.827109 0.480005 0.292381 0.000000
88.49610138 248.55900574 335.50000000 0.450761 -0.734757 0.506900 0.000000
200.84800720 143.13299561 463.50000000 -0.390866 -0.225670 -0.892355 0.000000
90.03520203 163.91000366 470.50000000 0.337203 0.006268 -0.941411 0.000000
210.08200073 136.97700500 462.50000000 -0.001121 -0.158034 -0.987433 0.000000
49.63479996 171.60499573 351.00000000 0.984195 0.140943 0.107213 0.000000
44.24800110 159.29299927 398.00000000 0.991659 0.128773 -0.005503 0.000000
148.52000427 236.24600220 369.50000000 -0.559160 0.034687 0.828334 0.000000
158.52299500 140.05499268 425.50000000 0.759622 -0.438054 0.480711 0.000000
213.16000366 150.05900574 459.50000000 -0.134702 -0.209109 -0.968571 0.000000
65.02539825 176.99200439 310.00000000 0.885958 -0.067515 0.458824 0.000000
148.52000427 205.46499634 444.50000000 -0.367756 -0.583506 -0.724070 0.000000
76.18360138 150.82800293 465.50000000 0.154911 0.052413 -0.986537 0.000000
83.49410248 117.73799896 459.00000000 0.509049 0.414114 -0.754572 0.000000
148.13499451 240.86300659 400.00000000 -0.716726 -0.697242 0.012525 0.000000
92.34380341 265.87298584 371.00000000 0.519494 -0.812783 0.263647 0.000000
183.91799927 145.82600403 427.00000000 -0.186686 0.566128 0.802900 0.000000
63.10160065 114.27500153 390.00000000 0.879780 0.465932 -0.094312 0.000000
141.59399414 91.95899963 456.00000000 0.084785 0.364710 -0.927253 0.000000
71.95120239 180.07000732 302.00000000 0.778179 -0.148439 0.610248 0.000000
175.45300293 166.21899414 439.50000000 -0.871607 -0.355665 -0.337347 0.000000
82.33979797 94.26760101 420.00000000 0.525883 0.673735 -0.519162 0.000000
71.56639862 249.32800293 409.50000000 0.384881 -0.774633 -0.501807 0.000000
83.87889862 229.32000732 325.50000000 -0.192709 -0.122175 0.973620 0.000000
67.71880341 198.53900146 452.50000000 0.357510 -0.327084 -0.874759 0.000000
177.76199341 189.30499268 446.50000000 -0.321643 -0.735416 -0.596414 0.000000
180.45500183 117.73799896 470.00000000 -0.485223 -0.068126 -0.871733 0.000000
132.35899353 243.94099426 357.50000000 -0.565449 0.283517 0.774523 0.000000
148.52000427 244.71099854 395.50000000 -0.567036 -0.674087 -0.473367 0.000000
70.79689789 116.58399963 362.00000000 0.605980 0.710516 0.357708 0.000000
124.66400146 219.31599426 352.50000000 -0.699352 -0.440210 0.563136 0.000000
146.59599304 252.40600586 384.00000000 -0.688668 -0.712674 -0.133533 0.000000
129.28100586 172.37500000 467.50000000 -0.250261 -0.087655 -0.964202 0.000000
58.86909866 150.05900574 341.00000000 0.880537 0.363996 0.303581 0.000000
130.05099487 118.50800323 430.50000000 -0.836568 0.211040 0.505585 0.000000
256.25399780 178.14599609 445.00000000 -0.954595 -0.028775 -0.296513 0.000000
128.51199341 252.79100037 406.00000000 -0.250757 -0.805227 -0.537337 0.000000
123.89499664 169.68200684 347.00000000 -0.720750 0.346546 0.600354 0.000000
62.71680069 116.96900177 405.00000000 0.916446 0.398052 0.040995 0.000000
83.49410248 264.71899414 380.00000000 0.707106 -0.707106 -0.001384 0.000000
171.60499573 173.91400146 461.50000000 -0.232283 -0.475193 -0.848667 0.000000
122.35500336 178.53100586 342.50000000 -0.493365 0.119386 0.861590 0.000000
147.36500549 234.70700073 369.00000000 -0.596645 -0.037904 0.801610 0.000000
137.74600220 204.69500732 449.50000000 -0.416347 -0.582222 -0.698335 0.000000
64.25589752 170.06599426 317.00000000 0.871368 0.235464 0.430435 0.000000
153.90600586 195.46099854 372.50000000 -0.792878 0.001369 0.609379 0.000000
63.48630142 160.06199646 460.00000000 0.625518 0.145504 -0.766522 0.000000
50.78910065 229.70500183 417.00000000 0.623000 -0.707585 -0.333459 0.000000
130.05099487 197.77000427 457.50000000 -0.173776 -0.566662 -0.805416 0.000000
76.18360138 247.40400696 347.00000000 0.590573 -0.727235 0.349789 0.000000
176.99200439 158.90800476 437.00000000 -0.213164 0.126367 -0.968810 0.000000
101.57800293 91.57420349 438.50000000 0.370542 0.553364 -0.745981 0.000000
168.52699280 187.76600647 396.50000000 -0.284400 0.182730 0.941130 0.000000
108.88899994 186.99600220 332.00000000 -0.614196 0.377080 0.693235 0.000000
90.80470276 266.64300537 378.00000000 0.079464 -0.996024 0.040276 0.000000
94.65229797 218.54699707 327.50000000 -0.653050 -0.491886 0.575825 0.000000
95.42189789 204.69500732 319.50000000 -0.727552 -0.146113 0.670312 0.000000
176.99200439 138.51600647 470.50000000 -0.369423 -0.181146 -0.911434 0.000000
117.35399628 148.52000427 471.00000000 -0.207808 -0.077467 -0.975097 0.000000
169.68200684 120.81600189 430.00000000 -0.485748 0.724477 0.489063 0.000000
83.87889862 186.99600220 301.50000000 -0.620587 -0.620587 0.479315 0.000000
104.65599823 263.56399536 352.00000000 0.137191 -0.924306 0.356142 0.000000
85.41799927 149.28900146 469.50000000 0.403026 0.253202 -0.879465 0.000000
119.27700043 202.77099609 342.00000000 -0.522327 -0.295091 0.800060 0.000000
88.11129761 91.57420349 407.00000000 -0.236675 0.738238 0.631656 0.000000
90.03520203 255.10000610 411.00000000 0.111149 -0.683195 -0.721727 0.000000
116.96900177 137.74600220 410.50000000 -0.381657 0.076871 0.921102 0.000000
117.35399628 180.07000732 339.00000000 -0.522508 -0.063037 0.850301 0.000000
64.25589752 202.38699341 450.00000000 0.345948 -0.280618 -0.895306 0.000000
173.14500427 160.44700623 469.00000000 -0.301828 -0.406013 -0.862585 0.000000
68.48829651 246.25000000 411.50000000 0.483299 -0.740619 -0.466804 0.000000
84.64839935 199.30900574 460.50000000 0.586327 -0.572809 -0.572809 0.000000
94.65229797 170.83599854 470.50000000 0.295098 -0.303906 -0.905847 0.000000
43.09379959 177.76199341 436.50000000 0.922394 0.164262 -0.349583 0.000000
93.11329651 243.94099426 329.50000000 0.001379 -0.671779 0.740750 0.000000
106.19499969 117.73799896 411.50000000 -0.302371 0.571146 0.763128 0.000000
192.38299561 175.06799316 430.00000000 -0.554544 0.822255 -0.127972 0.000000
41.93949890 182.37899780 408.00000000 0.999999 0.000978 0.000978 0.000000
74.64450073 189.30499268 301.50000000 0.486174 -0.257749 0.834985 0.000000
132.74400330 249.32800293 409.00000000 -0.345232 -0.743951 -0.572146 0.000000
102.34799957 244.32600403 424.00000000 -0.094464 -0.792042 -0.603114 0.000000
122.73999786 173.14500427 382.00000000 -0.170656 0.085933 -0.981576 0.000000
84.64839935 109.65799713 455.00000000 0.295500 0.411863 -0.862003 0.000000
55.02149963 166.21899414 336.00000000 0.924737 0.208172 0.318631 0.000000
161.60200500 190.84399414 450.50000000 -0.289321 -0.618603 -0.730495 0.000000
94.26760101 100.80899811 441.00000000 0.431157 0.584310 -0.687521 0.000000
101.19300079 200.84800720 324.00000000 -0.826712 -0.198714 0.526365 0.000000
225.08799744 144.67199707 458.00000000 -0.963529 -0.230155 0.136532 0.000000
100.80899811 143.51800537 361.00000000 -0.723596 0.648254 -0.237013 0.000000
113.12100220 202.38699341 337.50000000 -0.602719 -0.275120 0.749025 0.000000
90.80470276 239.70899963 429.00000000 0.001369 -0.792878 -0.609379 0.000000
65.41020203 248.17399597 381.00000000 0.725785 -0.674905 -0.133185 0.000000
156.98399353 106.19499969 465.50000000 0.093294 0.543973 -0.833900 0.000000
115.43000031 190.84399414 336.50000000 -0.636319 -0.067510 0.768466 0.000000
184.68800354 171.99000549 458.00000000 -0.693106 -0.408585 -0.593854 0.000000
54.25199890 177.76199341 334.00000000 0.918458 0.051838 0.392106 0.000000
68.48829651 164.67999268 312.50000000 0.819844 0.383655 0.425046 0.000000
92.34380341 266.64300537 375.00000000 0.391229 -0.913790 0.109212 0.000000
114.66000366 217.00799561 342.50000000 -0.478312 0.478312 0.736502 0.000000
153.52099609 242.40199280 389.00000000 -0.829119 -0.518770 -0.208421 0.000000
74.64450073 191.22900391 302.00000000 0.531359 -0.314347 0.786666 0.000000
140.05499268 88.88089752 455.00000000 0.229414 0.366770 -0.901582 0.000000
217.77699280 147.75000000 457.50000000 -0.245979 -0.093039 -0.964799 0.000000
176.99200439 123.51000214 435.00000000 -0.305084 0.765106 0.567041 0.000000
107.73400116 118.89299774 412.00000000 -0.305103 0.242077 0.921038 0.000000
143.51800537 176.99200439 375.00000000 -0.535178 0.798844 0.274651 0.000000
203.92599487 105.42600250 462.50000000 -0.400753 0.525069 0.750799 0.000000
110.04299927 218.54699707 448.50000000 -0.106829 -0.589754 -0.800486 0.000000
46.94139862 185.45700073 354.50000000 0.961976 0.096326 0.255585 0.000000
143.90199280 140.82400513 473.50000000 0.500142 -0.319138 -0.804990 0.000000
148.13499451 241.63299561 407.00000000 -0.777654 -0.577373 -0.248787 0.000000
69.64260101 238.55499268 344.00000000 0.782686 -0.468316 0.409979 0.000000
71.56639862 104.27100372 424.00000000 0.585499 0.716703 -0.378852 0.000000
55.40620041 186.22700500 449.50000000 0.546578 -0.212813 -0.809915 0.000000
227.78100586 150.44299316 452.00000000 -0.025447 0.454020 -0.890628 0.000000
93.49800110 230.85899353 330.00000000 -0.576969 -0.017901 0.816570 0.000000
92.34380341 107.73400116 409.50000000 -0.532397 0.336166 0.776882 0.000000
146.21099854 180.45500183 372.00000000 -0.546152 0.724352 0.420751 0.000000
42.70899963 213.92999268 397.00000000 0.995835 -0.083803 0.035915 0.000000
160.83200073 187.38099670 454.00000000 -0.132482 -0.784474 -0.605846 0.000000
102.73200226 145.44099426 358.00000000 -0.580214 0.799106 0.157422 0.000000
136.59199524 253.17599487 361.00000000 -0.600180 -0.596799 0.532555 0.000000
56.56050110 125.43399811 415.00000000 0.826617 0.560869 -0.046156 0.000000
63.87110138 185.45700073 315.50000000 0.830626 0.090379 0.549447 0.000000
71.18160248 226.24200439 331.00000000 0.684222 -0.412521 0.601387 0.000000
178.53100586 161.21699524 467.00000000 -0.267869 -0.407100 -0.873222 0.000000
94.65229797 98.50000000 440.50000000 0.480149 0.557106 -0.677562 0.000000
136.97700500 210.85200500 446.50000000 -0.554702 -0.377983 -0.741239 0.000000
175.45300293 141.20899963 426.00000000 -0.029965 0.027898 0.999162 0.000000
67.71880341 208.15800476 318.00000000 0.757180 -0.397397 0.518415 0.000000
101.57800293 265.48800659 394.50000000 -0.114011 -0.852919 -0.509442 0.000000
149.28900146 123.89499664 422.50000000 -0.160199 0.555457 0.815968 0.000000
128.51199341 253.17599487 405.50000000 -0.196602 -0.803172 -0.562373 0.000000
264.71899414 178.14599609 449.00000000 0.272747 -0.842897 -0.463825 0.000000
183.14799500 186.22700500 399.50000000 0.106959 0.106959 0.988494 0.000000
76.18360138 193.92199707 301.50000000 0.276941 -0.401035 0.873198 0.000000
89.26560211 133.51400757 467.00000000 0.294575 0.300437 -0.907173 0.000000
126.97299957 96.96089935 456.50000000 0.129452 0.614527 -0.778202 0.000000
245.47999573 174.29899597 445.00000000 0.089011 0.643509 -0.760245 0.000000
195.46099854 167.75799561 456.50000000 -0.479564 -0.295236 -0.826350 0.000000
171.60499573 180.83999634 400.50000000 0.018790 0.316923 0.948265 0.000000
63.48630142 246.25000000 379.00000000 0.769539 -0.638256 0.020949 0.000000
183.91799927 185.45700073 448.50000000 -0.318204 -0.775522 -0.545264 0.000000
68.87300110 135.43800354 342.00000000 0.592079 0.625816 0.507737 0.000000
195.84599304 110.04299927 466.00000000 -0.796079 -0.357194 -0.488539 0.000000
81.57029724 261.25601196 370.00000000 0.563424 -0.793139 0.231267 0.000000
67.71880341 190.07400513 310.50000000 0.784789 -0.204260 0.585136 0.000000
39.63090134 195.46099854 388.00000000 0.881057 -0.441257 0.170386 0.000000
147.75000000 119.66200256 425.00000000 0.067559 0.763275 0.642531 0.000000
209.31199646 133.89799500 448.50000000 -0.461142 0.531063 0.710859 0.000000
91.18949890 166.21899414 310.00000000 -0.924627 0.054234 0.376994 0.000000
126.20300293 179.68600464 466.00000000 -0.148696 -0.392273 -0.907751 0.000000
122.73999786 143.13299561 414.00000000 -0.071170 -0.182146 0.980693 0.000000
102.34799957 124.27899933 467.00000000 -0.205765 0.482122 -0.851598 0.000000
75.41410065 209.69700623 451.00000000 0.305110 -0.504301 -0.807830 0.000000
99.26950073 236.24600220 433.50000000 -0.035381 -0.680730 -0.731679 0.000000
159.67799377 103.88700104 440.00000000 -0.481712 0.353682 0.801787 0.000000
46.17190170 204.31100464 362.00000000 0.935303 -0.332582 0.120816 0.000000
73.10549927 227.78100586 330.50000000 0.670874 -0.434487 0.600957 0.000000
106.96499634 170.45100403 401.00000000 -0.680943 -0.680943 -0.269507 0.000000
93.11329651 233.16799927 329.50000000 -0.553511 -0.028987 0.832337 0.000000
166.21899414 98.11519623 446.00000000 -0.340817 0.253053 0.905432 0.000000
91.95899963 139.28500366 345.00000000 -0.315536 0.844020 0.433668 0.000000
203.15600586 134.66799927 465.50000000 -0.678376 -0.169213 -0.714963 0.000000
58.48440170 217.77699280 440.50000000 0.398356 -0.462868 -0.791875 0.000000
138.13099670 206.23399353 354.00000000 -0.521300 -0.378389 0.764898 0.000000
65.41020203 195.07600403 450.00000000 0.416738 -0.400771 -0.815912 0.000000
53.48239899 234.70700073 410.00000000 0.696206 -0.637783 -0.329440 0.000000
99.26950073 246.25000000 421.50000000 0.001369 -0.792878 -0.609379 0.000000
133.12899780 166.98800659 410.50000000 -0.366428 0.378902 0.849802 0.000000
93.88279724 258.56201172 407.50000000 0.055843 -0.717365 -0.694456 0.000000
79.26170349 148.52000427 302.50000000 0.597975 0.658275 0.457275 0.000000
92.34380341 254.33000183 342.00000000 0.390043 -0.800953 0.454248 0.000000
209.31199646 158.52299500 433.50000000 -0.529583 0.117524 0.840078 0.000000
68.87300110 128.51199341 349.00000000 0.666405 0.569046 0.481759 0.000000
88.49610138 130.82000732 465.50000000 0.330983 0.380245 -0.863634 0.000000
60.79299927 125.04900360 440.00000000 0.627826 0.486439 -0.607628 0.000000
223.93400574 155.44500732 453.50000000 -0.087056 -0.354922 -0.930834 0.000000
130.05099487 260.48599243 387.00000000 -0.367335 -0.857115 -0.361135 0.000000
202.77099609 143.90199280 460.00000000 -0.459770 -0.286389 -0.840590 0.000000
65.41020203 220.08599854 442.50000000 0.347726 -0.612194 -0.710145 0.000000
50.01950073 219.70100403 368.00000000 0.880363 -0.429122 -0.202026 0.000000
52.32809830 132.74400330 395.00000000 0.874024 0.462378 0.149294 0.000000
110.81199646 165.83399963 376.00000000 -0.525009 0.701679 -0.481675 0.000000
157.75399780 142.74800110 440.00000000 -0.327441 -0.943802 0.044943 0.000000
57.33010101 134.66799927 360.00000000 0.785685 0.379129 0.488835 0.000000
156.21499634 133.12899780 419.50000000 -0.195073 -0.310153 0.930458 0.000000
96.19139862 265.10400391 397.00000000 0.038142 -0.921977 -0.385363 0.000000
98.50000000 236.24600220 332.50000000 -0.559512 0.087738 0.824165 0.000000
89.65039825 120.81600189 462.00000000 0.243848 0.269220 -0.931697 0.000000
65.79489899 228.55099487 340.00000000 0.774674 -0.401142 0.488841 0.000000
161.60200500 186.22700500 394.50000000 -0.341546 0.571402 0.746221 0.000000
122.35500336 172.37500000 468.50000000 0.444366 -0.310277 -0.840397 0.000000
213.92999268 141.20899963 447.00000000 -0.539640 0.417520 0.731072 0.000000
151.59800720 103.88700104 463.50000000 -0.026647 0.767143 -0.640922 0.000000
228.55099487 153.52099609 455.00000000 0.635944 0.575217 -0.514490 0.000000
137.74600220 207.77299500 447.50000000 -0.519328 -0.427003 -0.740248 0.000000
150.05900574 134.28300476 470.00000000 -0.206362 0.082792 -0.974967 0.000000
181.60899353 197.38499451 430.00000000 -0.305414 -0.910396 -0.279110 0.000000
80.80079651 112.73600006 455.00000000 0.278089 0.322231 -0.904894 0.000000
100.03900146 184.68800354 322.50000000 -0.794688 0.082209 0.601425 0.000000
139.28500366 216.23800659 440.50000000 -0.360404 -0.515556 -0.777374 0.000000
159.29299927 96.19139862 461.50000000 0.199409 0.549517 -0.811337 0.000000
161.21699524 200.84800720 389.00000000 -0.421107 -0.846875 0.324765 0.000000
42.70899963 189.30499268 374.00000000 0.969644 -0.155400 0.188792 0.000000
113.12100220 161.60200500 472.50000000 -0.071917 -0.325590 -0.942772 0.000000
110.81199646 268.95098877 388.00000000 -0.077422 -0.914123 -0.397976 0.000000
123.89499664 174.68400574 468.50000000 -0.163553 -0.243335 -0.956054 0.000000
142.36300659 220.85499573 434.50000000 -0.383671 -0.686655 -0.617496 0.000000
110.81199646 267.41198730 391.00000000 -0.100812 -0.867552 -0.487022 0.000000
186.22700500 112.35199738 449.50000000 0.082948 0.726160 0.682503 0.000000
