129.55099487 158.55499268 297.50000000 -0.245073 0.076664 0.966469 0.000000
95.39060211 165.64399719 347.50000000 -0.000978 -0.000978 -0.999999 0.000000
203.02699280 109.56999969 327.50000000 -0.686627 0.247817 -0.683470 0.000000
179.17999268 99.58000183 340.00000000 0.249060 0.910306 -0.330623 0.000000
106.02500153 122.46099854 250.00000000 -0.437719 -0.697355 0.567537 0.000000
157.91000366 144.37500000 307.50000000 -0.000978 -0.000978 0.999999 0.000000
84.43360138 229.45300293 287.50000000 0.000978 0.000978 0.999999 0.000000
145.66400146 142.44099426 352.50000000 -0.000978 -0.000978 -0.999999 0.000000
70.25389862 128.90600586 257.50000000 0.473998 0.710166 0.520567 0.000000
80.56639862 180.46899414 202.50000000 0.682299 -0.541481 0.491188 0.000000
71.54290009 143.72999573 327.50000000 0.611162 0.067271 -0.788642 0.000000
161.13299561 97.00189972 280.00000000 -0.001093 0.991782 0.127937 0.000000
145.98599243 178.53500366 300.00000000 -0.859078 -0.430304 0.277171 0.000000
91.52339935 195.29299927 337.50000000 -0.000978 -0.000978 -0.999999 0.000000
133.41799927 195.93699646 332.50000000 -0.969909 0.241567 0.030348 0.000000
101.19100189 230.74200439 302.50000000 0.000978 0.000978 0.999999 0.000000
142.44099426 117.30500031 342.50000000 -0.478716 -0.733811 0.482029 0.000000
138.89599609 192.07000732 330.00000000 -0.790936 -0.592826 0.151583 0.000000
53.17380142 146.95300293 305.00000000 0.888274 0.444843 -0.114388 0.000000
170.80099487 155.97700500 317.50000000 -0.548850 0.112099 0.828370 0.000000
150.82000732 152.10899353 307.50000000 0.000978 0.000978 0.999999 0.000000
54.46289825 149.53100586 255.00000000 0.921492 0.308119 0.236464 0.000000
112.14800262 117.94899750 337.50000000 -0.000978 -0.000978 -0.999999 0.000000
207.53900146 136.64100647 332.50000000 -0.000978 -0.000978 -0.999999 0.000000
172.73399353 160.48800659 327.50000000 0.104747 -0.739132 0.665366 0.000000
81.85540009 181.11300659 202.50000000 0.000978 0.000978 0.999999 0.000000
68.96479797 222.36300659 307.50000000 0.461552 -0.694827 -0.551530 0.000000
87.65619659 116.33799744 260.00000000 0.968656 0.001189 -0.248404 0.000000
180.46899414 126.32800293 312.50000000 -0.340801 -0.310775 0.887284 0.000000
99.25779724 207.53900146 327.50000000 -0.000978 -0.000978 -0.999999 0.000000
60.58589935 174.66799927 332.50000000 -0.000978 -0.000978 -0.999999 0.000000
92.16790009 145.66400146 217.50000000 -0.958368 0.127171 0.255652 0.000000
48.66210175 150.82000732 275.00000000 0.871635 0.435070 0.225758 0.000000
164.35499573 153.39799500 347.50000000 -0.000978 -0.000978 -0.999999 0.000000
110.21499634 198.83799744 335.00000000 -0.333135 -0.690646 -0.641895 0.000000
200.12699890 106.99199677 330.00000000 -0.683780 0.610931 -0.399009 0.000000
163.71099854 123.10500336 347.50000000 0.029753 0.366091 -0.930103 0.000000
72.83200073 135.35200500 322.50000000 -0.000978 -0.000978 -0.999999 0.000000
170.15600586 101.83599854 342.50000000 0.253272 0.185553 -0.949433 0.000000
141.47500610 190.78100586 300.00000000 -0.915692 -0.393217 -0.082997 0.000000
161.77699280 149.53100586 352.50000000 -0.000978 -0.000978 -0.999999 0.000000
63.80860138 195.29299927 327.50000000 0.276613 -0.363335 -0.889648 0.000000
69.60939789 152.10899353 332.50000000 -0.000978 -0.000978 -0.999999 0.000000
118.59400177 106.99199677 332.50000000 0.000978 0.000978 0.999999 0.000000
125.68399811 217.85099792 282.50000000 0.000978 0.000978 0.999999 0.000000
154.04299927 124.39399719 342.50000000 -0.000978 -0.000978 -0.999999 0.000000
153.39799500 95.71289825 300.00000000 0.001093 0.991782 0.127937 0.000000
110.85900116 117.30500031 337.50000000 -0.000978 -0.000978 -0.999999 0.000000
132.12899780 154.68699646 287.50000000 -0.819446 0.373922 0.434386 0.000000
154.68699646 103.76899719 337.50000000 0.197167 0.498185 -0.844356 0.000000
57.36330032 207.53900146 312.50000000 -0.000978 -0.000978 -0.999999 0.000000
90.23429871 159.19900513 342.50000000 0.625429 0.303871 -0.718680 0.000000
173.37899780 129.55099487 347.50000000 -0.000978 -0.000978 -0.999999 0.000000
103.12500000 163.06599426 347.50000000 -0.000978 -0.000978 -0.999999 0.000000
101.19100189 218.49600220 322.50000000 -0.000978 -0.000978 -0.999999 0.000000
107.63700104 185.30299377 240.00000000 -0.750339 -0.250113 0.611911 0.000000
83.78900146 117.62699890 275.00000000 0.446689 0.894688 -0.001310 0.000000
138.57400513 204.96099854 297.50000000 -0.962989 -0.239775 0.123128 0.000000
175.95700073 111.50399780 342.50000000 -0.285529 -0.751309 -0.594986 0.000000
130.19500732 137.28500366 282.50000000 -0.991782 0.001093 0.127937 0.000000
141.79699707 105.05899811 277.50000000 0.255048 -0.304040 0.917884 0.000000
210.11700439 112.79299927 312.50000000 0.000978 0.000978 0.999999 0.000000
96.03510284 182.40199280 202.50000000 0.000978 0.000978 0.999999 0.000000
132.12899780 163.71099854 347.50000000 -0.000978 -0.000978 -0.999999 0.000000
96.03510284 164.35499573 347.50000000 -0.000978 -0.000978 -0.999999 0.000000
88.94529724 118.59400177 317.50000000 -0.418336 0.418336 -0.806219 0.000000
200.44900513 103.76899719 317.50000000 -0.547885 0.547885 -0.632175 0.000000
172.08999634 110.21499634 282.50000000 0.000978 0.000978 0.999999 0.000000
74.76560211 136.64100647 322.50000000 -0.000978 -0.000978 -0.999999 0.000000
96.03510284 128.90600586 337.50000000 -0.000978 -0.000978 -0.999999 0.000000
101.19100189 155.97700500 347.50000000 -0.000978 -0.000978 -0.999999 0.000000
165.00000000 131.48399353 347.50000000 -0.000978 -0.000978 -0.999999 0.000000
114.72699738 112.79299927 337.50000000 -0.000978 -0.000978 -0.999999 0.000000
101.19100189 230.09800720 282.50000000 0.215483 -0.973982 0.070186 0.000000
145.01899719 153.39799500 302.50000000 0.000978 0.000978 0.999999 0.000000
117.94899750 220.42999268 322.50000000 -0.000978 -0.000978 -0.999999 0.000000
155.33200073 161.13299561 307.50000000 0.000978 0.000978 0.999999 0.000000
94.74610138 183.04699707 202.50000000 0.000978 0.000978 0.999999 0.000000
72.83200073 202.70500183 235.00000000 0.319545 -0.682885 0.656932 0.000000
120.52700043 206.25000000 327.50000000 -0.000978 -0.000978 -0.999999 0.000000
199.16000366 125.03900146 317.50000000 0.000978 0.000978 0.999999 0.000000
126.32800293 106.66999817 325.00000000 -0.883541 -0.176708 -0.433738 0.000000
106.34799957 172.73399353 347.50000000 -0.000978 -0.000978 -0.999999 0.000000
114.72699738 210.11700439 252.50000000 -0.461241 -0.615547 0.639029 0.000000
95.39060211 197.22599792 217.50000000 0.000978 0.000978 0.999999 0.000000
81.21089935 150.17599487 337.50000000 -0.000978 -0.000978 -0.999999 0.000000
203.67199707 139.21899414 337.50000000 -0.000978 -0.000978 -0.999999 0.000000
68.96479797 156.62100220 332.50000000 0.267032 0.340797 -0.901416 0.000000
112.14800262 126.97299957 257.50000000 -0.382113 -0.482076 0.788411 0.000000
58.00780106 194.64799500 322.50000000 0.291844 -0.205268 -0.934180 0.000000
65.74220276 143.72999573 237.50000000 0.769141 0.529493 0.357853 0.000000
111.50399780 172.08999634 347.50000000 -0.000978 -0.000978 -0.999999 0.000000
51.88470078 155.33200073 255.00000000 0.946003 0.282853 0.158344 0.000000
134.70700073 101.51399994 325.00000000 0.553328 0.702876 -0.446983 0.000000
94.10150146 183.69099426 202.50000000 0.000978 0.000978 0.999999 0.000000
72.83200073 128.90600586 252.50000000 0.704094 0.704094 0.092220 0.000000
95.39060211 183.69099426 202.50000000 0.000978 0.000978 0.999999 0.000000
96.03510284 183.69099426 202.50000000 0.000978 0.000978 0.999999 0.000000
72.50969696 132.77299500 245.00000000 0.678382 0.694122 0.240818 0.000000
63.48630142 132.12899780 265.00000000 0.620637 0.746336 0.240399 0.000000
111.50399780 141.79699707 347.50000000 0.254725 0.213418 -0.943169 0.000000
132.77299500 149.53100586 347.50000000 -0.000978 -0.000978 -0.999999 0.000000
120.52700043 130.19500732 267.50000000 -0.687353 -0.077018 0.722229 0.000000
132.12899780 192.71499634 272.50000000 -0.786087 -0.079330 0.613004 0.000000
91.52339935 181.75799561 342.50000000 -0.000978 -0.000978 -0.999999 0.000000
42.86130142 185.62500000 290.00000000 0.897706 0.440259 -0.017187 0.000000
97.32420349 232.99800110 295.00000000 -0.204703 -0.950312 -0.234528 0.000000
150.17599487 125.03900146 287.50000000 0.000978 0.000978 0.999999 0.000000
205.60499573 116.66000366 312.50000000 -0.206122 -0.195484 0.958801 0.000000
54.78509903 169.51199341 242.50000000 0.814728 -0.140982 0.562444 0.000000
162.42199707 143.72999573 352.50000000 -0.000978 -0.000978 -0.999999 0.000000
76.69920349 203.02699280 232.50000000 0.164644 -0.590603 0.789988 0.000000
118.59400177 161.77699280 347.50000000 -0.000978 -0.000978 -0.999999 0.000000
165.00000000 110.85900116 282.50000000 -0.277020 -0.577784 0.767741 0.000000
55.42969894 184.97999573 247.50000000 0.876417 -0.225450 0.425518 0.000000
53.81829834 202.38299561 280.00000000 0.927359 -0.231485 0.293972 0.000000
175.31199646 129.55099487 307.50000000 -0.703377 -0.080095 0.706290 0.000000
96.67960358 194.00399780 337.50000000 -0.000978 -0.000978 -0.999999 0.000000
101.19100189 208.82800293 327.50000000 0.267083 -0.174892 -0.947671 0.000000
148.88699341 98.93550110 330.00000000 0.212592 0.848860 -0.483986 0.000000
130.83999634 186.26899719 337.50000000 -0.691335 0.220041 -0.688214 0.000000
73.47650146 191.42599487 332.50000000 -0.000978 -0.000978 -0.999999 0.000000
90.87889862 195.93699646 222.50000000 0.465725 -0.730907 0.498873 0.000000
130.19500732 215.91799927 287.50000000 -0.815388 -0.558995 0.150556 0.000000
43.82809830 172.73399353 307.50000000 0.643626 -0.643626 0.414116 0.000000
60.58589935 134.38499451 265.00000000 0.655492 0.671839 0.344910 0.000000
106.34799957 231.06399536 300.00000000 -0.444843 -0.888274 0.114388 0.000000
84.43360138 184.97999573 202.50000000 -0.000978 -0.000978 0.999999 0.000000
94.74610138 195.93699646 337.50000000 -0.000978 -0.000978 -0.999999 0.000000
101.19100189 210.11700439 327.50000000 0.267083 -0.174892 -0.947671 0.000000
116.66000366 227.84199524 305.00000000 -0.313049 -0.941834 -0.122264 0.000000
119.23799896 117.94899750 257.50000000 -0.575129 0.032029 0.817435 0.000000
125.03900146 145.01899719 277.50000000 -0.355689 0.110386 0.928063 0.000000
61.87500000 179.17999268 332.50000000 -0.000978 -0.000978 -0.999999 0.000000
172.73399353 122.46099854 307.50000000 0.000978 0.000978 0.999999 0.000000
89.58979797 184.97999573 202.50000000 -0.000978 -0.000978 0.999999 0.000000
175.95700073 109.89299774 345.00000000 -0.202837 -0.815925 -0.541408 0.000000
58.65230179 161.77699280 327.50000000 -0.000978 -0.000978 -0.999999 0.000000
77.34369659 213.98399353 252.50000000 -0.000978 -0.000978 0.999999 0.000000
110.85900116 165.00000000 247.50000000 0.000978 0.000978 0.999999 0.000000
106.34799957 136.64100647 342.50000000 -0.000978 -0.000978 -0.999999 0.000000
136.64100647 171.44500732 337.50000000 -0.000978 -0.000978 -0.999999 0.000000
78.63279724 120.52700043 262.50000000 0.489413 0.809352 0.324691 0.000000
148.88699341 172.08999634 312.50000000 -0.968119 -0.242340 0.063381 0.000000
112.14800262 135.35200500 267.50000000 0.148918 -0.523426 0.838957 0.000000
75.41010284 124.07199860 295.00000000 0.651599 0.758097 -0.026624 0.000000
96.67960358 184.97999573 202.50000000 0.000978 0.000978 0.999999 0.000000
67.99800110 127.61699677 275.00000000 0.630128 0.772088 -0.082569 0.000000
122.46099854 175.95700073 342.50000000 0.758822 0.460538 -0.460538 0.000000
154.04299927 143.08599854 352.50000000 -0.000978 -0.000978 -0.999999 0.000000
63.80860138 149.53100586 232.50000000 0.895019 0.426943 0.129076 0.000000
126.32800293 128.90600586 272.50000000 -0.714803 -0.401148 0.572833 0.000000
165.00000000 96.03510284 292.50000000 0.317477 0.947332 -0.042075 0.000000
91.52339935 201.09399414 227.50000000 0.219146 -0.750693 0.623246 0.000000
94.10150146 192.07000732 342.50000000 -0.000978 -0.000978 -0.999999 0.000000
197.22599792 125.03900146 317.50000000 0.000978 0.000978 0.999999 0.000000
142.44099426 120.52700043 287.50000000 -0.020867 -0.610720 0.791571 0.000000
79.92179871 170.80099487 342.50000000 -0.000978 -0.000978 -0.999999 0.000000
101.83599854 154.04299927 227.50000000 -0.402584 0.537327 0.741084 0.000000
63.80860138 219.14100647 292.50000000 0.561516 -0.779795 0.276803 0.000000
129.55099487 152.75399780 292.50000000 0.000978 0.000978 0.999999 0.000000
110.85900116 159.19900513 242.50000000 0.000978 0.000978 0.999999 0.000000
130.83999634 176.60200500 267.50000000 -0.769707 -0.198188 0.606855 0.000000
209.47300720 113.43699646 322.50000000 -0.786159 0.465211 -0.406857 0.000000
106.99199677 116.01599884 242.50000000 -0.291408 -0.833707 0.469057 0.000000
75.08789825 124.39399719 300.00000000 -0.000978 -0.000978 -0.999999 0.000000
43.50579834 170.80099487 305.00000000 0.643626 -0.643626 0.414116 0.000000
92.16790009 163.06599426 347.50000000 0.265007 -0.217833 -0.939319 0.000000
146.63099670 180.46899414 305.00000000 -0.894688 -0.446689 -0.001310 0.000000
82.50000000 166.28900146 342.50000000 -0.000978 -0.000978 -0.999999 0.000000
114.08200073 110.21499634 337.50000000 -0.000978 -0.000978 -0.999999 0.000000
119.88300323 139.86300659 347.50000000 -0.000978 -0.000978 -0.999999 0.000000
97.32420349 165.96699524 215.00000000 -0.821529 0.457460 0.340325 0.000000
96.03510284 210.11700439 242.50000000 -0.114045 -0.676863 0.727221 0.000000
155.33200073 140.50799561 352.50000000 -0.000978 -0.000978 -0.999999 0.000000
170.15600586 119.23799896 347.50000000 -0.000978 -0.000978 -0.999999 0.000000
168.22300720 118.59400177 292.50000000 -0.397891 -0.913927 0.080121 0.000000
195.93699646 134.06199646 337.50000000 -0.000978 -0.000978 -0.999999 0.000000
85.72260284 186.26899719 202.50000000 0.000978 0.000978 0.999999 0.000000
86.36720276 186.26899719 202.50000000 0.000978 0.000978 0.999999 0.000000
127.61699677 125.03900146 277.50000000 0.000978 0.000978 0.999999 0.000000
75.41010284 227.84199524 295.00000000 0.435070 -0.871635 -0.225758 0.000000
98.61319733 137.92999268 242.50000000 -0.000978 -0.000978 0.999999 0.000000
85.07810211 226.22999573 312.50000000 -0.000978 -0.000978 -0.999999 0.000000
108.60299683 192.07000732 235.00000000 -0.928371 0.366846 0.059596 0.000000
78.63279724 152.10899353 337.50000000 -0.000978 -0.000978 -0.999999 0.000000
188.84800720 115.37100220 342.50000000 -0.000978 -0.000978 -0.999999 0.000000
47.69530106 183.69099426 267.50000000 0.990851 -0.081898 0.107275 0.000000
47.69530106 197.22599792 312.50000000 -0.000978 -0.000978 -0.999999 0.000000
66.38670349 223.00799561 297.50000000 0.999999 -0.000978 -0.000978 0.000000
67.67579651 145.01899719 227.50000000 0.000978 0.000978 0.999999 0.000000
175.95700073 114.72699738 302.50000000 -0.704281 -0.704281 0.089316 0.000000
123.75000000 122.46099854 267.50000000 0.000978 0.000978 0.999999 0.000000
125.68399811 201.09399414 262.50000000 -0.810129 0.256567 0.527128 0.000000
148.24200439 164.67799377 335.00000000 -0.490902 -0.805461 -0.332034 0.000000
126.32800293 223.97500610 300.00000000 -0.606189 -0.780675 0.151923 0.000000
97.32420349 186.26899719 202.50000000 0.000978 0.000978 0.999999 0.000000
46.72850037 198.51600647 290.00000000 0.845940 -0.286104 0.450034 0.000000
130.19500732 160.48800659 347.50000000 -0.000978 -0.000978 -0.999999 0.000000
115.37100220 190.13699341 337.50000000 -0.000978 -0.000978 -0.999999 0.000000
49.95119858 149.53100586 270.00000000 0.941834 0.313049 0.122264 0.000000
83.46679688 118.59400177 260.00000000 0.457116 0.827836 0.325165 0.000000
169.51199341 110.85900116 282.50000000 0.000978 0.000978 0.999999 0.000000
146.95300293 106.99199677 332.50000000 -0.000978 -0.000978 -0.999999 0.000000
151.46499634 116.01599884 342.50000000 -0.000978 -0.000978 -0.999999 0.000000
109.56999969 202.38299561 332.50000000 0.205274 -0.321360 -0.924441 0.000000
103.76899719 116.66000366 242.50000000 -0.443953 0.411666 0.795887 0.000000
143.72999573 154.04299927 302.50000000 0.000978 0.000978 0.999999 0.000000
178.53500366 108.28099823 347.50000000 0.501178 -0.387642 -0.773663 0.000000
122.46099854 137.28500366 272.50000000 -0.298130 -0.187198 0.935989 0.000000
98.61319733 204.31599426 227.50000000 0.000978 0.000978 -0.999999 0.000000
126.32800293 192.71499634 332.50000000 0.238847 -0.513135 -0.824406 0.000000
128.90600586 126.32800293 277.50000000 0.000978 0.000978 0.999999 0.000000
126.65000153 190.13699341 335.00000000 0.012419 -0.793434 -0.608529 0.000000
114.72699738 179.17999268 342.50000000 -0.000978 -0.000978 -0.999999 0.000000
80.24410248 196.58200073 335.00000000 0.722509 -0.368627 -0.584888 0.000000
106.99199677 128.26199341 257.50000000 0.000978 0.000978 0.999999 0.000000
109.56999969 146.63099670 265.00000000 -0.594660 0.801869 -0.058189 0.000000
158.55499268 116.01599884 282.50000000 0.067903 -0.475318 0.877190 0.000000
58.65230179 194.00399780 247.50000000 -0.000978 -0.000978 0.999999 0.000000
84.43360138 229.45300293 302.50000000 0.254605 -0.963953 -0.077268 0.000000
63.80860138 218.49600220 307.50000000 0.426632 -0.786754 -0.446098 0.000000
72.83200073 221.71899414 277.50000000 0.403530 -0.883001 0.239735 0.000000
68.32029724 194.64799500 332.50000000 0.678550 -0.524410 -0.514358 0.000000
194.64799500 123.75000000 342.50000000 -0.000978 -0.000978 -0.999999 0.000000
157.26600647 118.59400177 342.50000000 -0.000978 -0.000978 -0.999999 0.000000
103.12500000 184.97999573 342.50000000 -0.000978 -0.000978 -0.999999 0.000000
85.07810211 130.51800537 330.00000000 0.642801 0.551695 -0.531450 0.000000
174.02299500 97.96869659 327.50000000 -0.999999 0.000978 0.000978 0.000000
143.72999573 184.65800476 330.00000000 -0.805445 -0.497247 -0.322496 0.000000
64.45310211 198.51600647 327.50000000 0.358067 -0.119356 -0.926036 0.000000
151.46499634 162.74400330 335.00000000 -0.301642 -0.940412 -0.156963 0.000000
97.32420349 194.00399780 337.50000000 -0.000978 -0.000978 -0.999999 0.000000
124.39399719 117.94899750 342.50000000 -0.341390 0.314319 -0.885808 0.000000
162.42199707 96.67960358 287.50000000 -0.107769 0.977358 0.182093 0.000000
131.80700684 203.02699280 275.00000000 -0.926179 -0.231901 0.297345 0.000000
109.56999969 175.95700073 247.50000000 -0.665691 0.265323 0.697466 0.000000
75.41010284 158.55499268 337.50000000 0.215590 0.268444 -0.938860 0.000000
175.31199646 95.71289825 295.00000000 -0.037918 0.999192 0.013323 0.000000
142.44099426 119.23799896 342.50000000 -0.000978 -0.000978 -0.999999 0.000000
111.50399780 216.56199646 322.50000000 0.000978 0.000978 -0.999999 0.000000
128.26199341 119.23799896 347.50000000 -0.000978 -0.000978 -0.999999 0.000000
111.50399780 190.13699341 337.50000000 -0.000978 -0.000978 -0.999999 0.000000
92.81250000 158.55499268 212.50000000 0.000978 0.000978 0.999999 0.000000
54.14059830 170.15600586 242.50000000 0.814728 -0.140982 0.562444 0.000000
204.96099854 135.99600220 332.50000000 -0.000978 -0.000978 -0.999999 0.000000
121.81600189 104.41400146 317.50000000 -0.933603 0.234454 -0.270955 0.000000
116.66000366 183.69099426 257.50000000 -0.953915 0.011106 0.299872 0.000000
185.62500000 122.46099854 317.50000000 -0.128304 -0.987585 -0.090636 0.000000
112.14800262 116.66000366 337.50000000 -0.000978 -0.000978 -0.999999 0.000000
76.69920349 204.96099854 327.50000000 0.416650 -0.692203 -0.589286 0.000000
69.60939789 140.50799561 232.50000000 0.735954 0.642599 0.213162 0.000000
130.83999634 143.72999573 347.50000000 0.000978 0.000978 -0.999999 0.000000
179.17999268 101.83599854 277.50000000 -0.293888 0.954820 -0.044146 0.000000
105.05899811 215.91799927 322.50000000 -0.000978 -0.000978 -0.999999 0.000000
119.88300323 215.27299500 267.50000000 0.000978 0.000978 0.999999 0.000000
107.63700104 163.06599426 347.50000000 -0.000978 -0.000978 -0.999999 0.000000
146.95300293 102.48000336 272.50000000 0.000978 0.000978 0.999999 0.000000
55.42969894 177.24600220 327.50000000 0.786330 -0.009674 -0.617732 0.000000
57.68550110 213.98399353 290.00000000 0.460512 -0.737810 0.493524 0.000000
70.25389862 164.35499573 337.50000000 0.290075 0.247207 -0.924524 0.000000
123.10500336 157.26600647 282.50000000 -0.631213 0.767212 -0.113825 0.000000
157.91000366 95.71289825 310.00000000 0.021611 0.999257 0.031902 0.000000
88.30079651 207.21699524 330.00000000 -0.023664 -0.797599 -0.602723 0.000000
70.57610321 159.84399414 335.00000000 0.714466 0.185915 -0.674517 0.000000
59.94139862 195.29299927 322.50000000 0.258627 -0.008420 -0.965941 0.000000
137.92999268 183.69099426 332.50000000 -0.000978 -0.000978 -0.999999 0.000000
79.27729797 150.82000732 337.50000000 -0.000978 -0.000978 -0.999999 0.000000
103.44699860 108.28099823 315.00000000 0.695601 0.695601 -0.179659 0.000000
68.32029724 213.33999634 257.50000000 0.621683 -0.776738 0.100932 0.000000
89.58979797 189.16999817 205.00000000 0.170640 -0.847264 0.503017 0.000000
109.56999969 185.62500000 242.50000000 -0.790530 -0.001370 0.612421 0.000000
45.11719894 165.64399719 307.50000000 0.969224 0.142119 -0.201015 0.000000
156.62100220 124.39399719 347.50000000 -0.000978 -0.000978 -0.999999 0.000000
184.97999573 145.01899719 342.50000000 -0.000978 -0.000978 -0.999999 0.000000
154.68699646 162.42199707 307.50000000 0.000978 0.000978 0.999999 0.000000
163.71099854 116.33799744 285.00000000 -0.346678 -0.717770 0.603838 0.000000
105.70300293 119.88300323 337.50000000 -0.000978 -0.000978 -0.999999 0.000000
94.74610138 183.69099426 342.50000000 -0.000978 -0.000978 -0.999999 0.000000
58.00780106 154.68699646 322.50000000 0.575891 0.131759 -0.806839 0.000000
53.49610138 181.75799561 247.50000000 0.757606 -0.256736 0.600100 0.000000
76.05470276 174.66799927 342.50000000 0.754858 -0.334595 -0.564123 0.000000
130.83999634 108.28099823 327.50000000 0.522478 0.696081 -0.492431 0.000000
170.80099487 121.17199707 302.50000000 -0.682323 -0.682323 0.262432 0.000000
48.33980179 193.35899353 277.50000000 0.580538 -0.706239 0.405219 0.000000
68.32029724 201.73800659 327.50000000 -0.000978 -0.000978 -0.999999 0.000000
93.45700073 190.13699341 202.50000000 -0.643958 -0.502724 -0.576704 0.000000
120.52700043 192.71499634 257.50000000 0.000000 0.000000 0.000000 0.000000
120.52700043 135.35200500 267.50000000 -0.803901 -0.281601 0.523873 0.000000
206.89399719 114.08200073 327.50000000 -0.494072 0.824493 -0.275870 0.000000
112.14800262 105.05899811 327.50000000 0.881057 0.441257 0.170386 0.000000
112.79299927 113.43699646 337.50000000 -0.000978 -0.000978 -0.999999 0.000000
121.17199707 110.85900116 337.50000000 0.384957 0.548768 -0.742066 0.000000
91.52339935 232.03100586 297.50000000 0.354576 -0.935020 -0.003786 0.000000
99.90229797 224.94099426 312.50000000 -0.285034 0.852021 0.439107 0.000000
143.72999573 170.15600586 277.50000000 -0.732797 -0.367214 0.572855 0.000000
194.97099304 101.83599854 320.00000000 -0.331954 0.929193 -0.162505 0.000000
56.07419968 181.75799561 242.50000000 0.921492 -0.236464 0.308119 0.000000
84.43360138 120.52700043 252.50000000 0.001316 0.888291 -0.459279 0.000000
125.03900146 210.76199341 267.50000000 0.000978 0.000978 0.999999 0.000000
132.77299500 215.91799927 317.50000000 -0.498730 -0.498730 -0.708898 0.000000
145.34199524 96.67960358 310.00000000 0.000978 0.000978 -0.999999 0.000000
154.68699646 104.73600006 270.00000000 -0.297613 -0.771883 0.561804 0.000000
144.37500000 161.13299561 342.50000000 -0.000978 -0.000978 -0.999999 0.000000
151.46499634 96.35739899 320.00000000 0.051403 0.961613 -0.269552 0.000000
141.15199280 188.20300293 322.50000000 -0.790530 -0.001370 -0.612421 0.000000
119.88300323 101.51399994 290.00000000 0.000978 0.000978 0.999999 0.000000
73.47650146 199.16000366 332.50000000 0.315974 -0.149096 -0.936980 0.000000
71.86519623 133.41799927 245.00000000 0.778840 0.586840 0.221420 0.000000
56.07419968 154.04299927 322.50000000 0.308227 0.139856 -0.940976 0.000000
139.86300659 120.20500183 285.00000000 -0.548734 -0.606140 0.575748 0.000000
69.60939789 216.56199646 267.50000000 0.000978 0.000978 0.999999 0.000000
62.51950073 168.22300720 332.50000000 0.123335 0.750410 -0.649364 0.000000
204.31599426 132.77299500 322.50000000 -0.000978 -0.000978 -0.999999 0.000000
86.36720276 134.70700073 207.50000000 -0.000978 -0.000978 0.999999 0.000000
200.44900513 105.70300293 327.50000000 -0.739121 0.594195 -0.317226 0.000000
128.58399963 116.01599884 275.00000000 -0.962702 0.133817 0.235154 0.000000
123.75000000 157.26600647 272.50000000 -0.809925 0.575589 -0.112774 0.000000
193.35899353 107.63700104 287.50000000 0.704094 0.704094 0.092220 0.000000
95.39060211 180.46899414 342.50000000 -0.000978 -0.000978 -0.999999 0.000000
52.20700073 206.25000000 307.50000000 0.826206 -0.447067 -0.342804 0.000000
195.29299927 123.10500336 317.50000000 -0.055548 -0.240709 0.969007 0.000000
181.11300659 97.64640045 315.00000000 -0.001093 0.991782 0.127937 0.000000
144.37500000 153.39799500 352.50000000 0.061424 -0.896796 -0.438160 0.000000
105.70300293 145.01899719 347.50000000 0.000978 0.000978 -0.999999 0.000000
164.35499573 103.12500000 342.50000000 -0.000978 -0.000978 -0.999999 0.000000
100.54699707 135.99600220 257.50000000 -0.416761 -0.320704 0.850564 0.000000
164.35499573 126.97299957 297.50000000 0.000978 0.000978 0.999999 0.000000
105.70300293 221.71899414 322.50000000 -0.000978 -0.000978 -0.999999 0.000000
110.85900116 208.82800293 327.50000000 -0.000978 -0.000978 -0.999999 0.000000
88.94529724 225.58599854 312.50000000 -0.044086 -0.666978 -0.743772 0.000000
205.60499573 114.72699738 312.50000000 -0.201071 -0.590934 0.781260 0.000000
145.66400146 134.70700073 292.50000000 0.000978 0.000978 0.999999 0.000000
138.89599609 192.07000732 285.00000000 -0.905885 -0.203716 0.371312 0.000000
94.74610138 128.90600586 332.50000000 -0.000978 -0.000978 -0.999999 0.000000
197.87100220 108.92600250 332.50000000 -0.464894 0.619299 -0.632726 0.000000
82.50000000 135.99600220 207.50000000 0.000978 0.000978 0.999999 0.000000
58.00780106 214.30700684 290.00000000 0.442037 -0.720172 0.534748 0.000000
72.18750000 222.04100037 310.00000000 0.288455 -0.750622 -0.594441 0.000000
60.58589935 147.59800720 322.50000000 0.000978 0.000978 -0.999999 0.000000
187.55900574 103.12500000 282.50000000 -0.000978 -0.000978 -0.999999 0.000000
142.44099426 97.00189972 290.00000000 0.105185 0.994381 0.011928 0.000000
58.33010101 212.69500732 310.00000000 0.320355 -0.788934 -0.524362 0.000000
116.01599884 149.53100586 257.50000000 -0.653348 0.738634 0.166002 0.000000
109.56999969 122.46099854 252.50000000 -0.481675 -0.525009 0.701679 0.000000
86.36720276 135.99600220 332.50000000 0.662838 0.498387 -0.558798 0.000000
146.95300293 174.02299500 292.50000000 -0.895948 -0.256197 0.362822 0.000000
148.24200439 148.88699341 302.50000000 0.000978 0.000978 0.999999 0.000000
60.26359940 135.35200500 265.00000000 0.985266 0.123308 0.118519 0.000000
70.25389862 209.79499817 250.00000000 0.528412 -0.791825 0.306257 0.000000
200.44900513 108.28099823 332.50000000 -0.464894 0.619299 -0.632726 0.000000
177.89100647 149.53100586 342.50000000 -0.000978 -0.000978 -0.999999 0.000000
104.41400146 175.95700073 232.50000000 -0.991782 -0.001093 0.127937 0.000000
92.81250000 170.15600586 347.50000000 -0.000978 -0.000978 -0.999999 0.000000
117.94899750 215.91799927 322.50000000 -0.000978 -0.000978 -0.999999 0.000000
88.30079651 231.06399536 290.00000000 0.280356 -0.940505 0.191968 0.000000
68.32029724 207.53900146 247.50000000 0.651433 -0.658030 0.377666 0.000000
178.53500366 126.97299957 312.50000000 -0.250482 -0.135077 0.958652 0.000000
149.53100586 151.46499634 307.50000000 0.000978 0.000978 0.999999 0.000000
72.83200073 217.52900696 315.00000000 0.241064 -0.720041 -0.650715 0.000000
131.48399353 122.46099854 282.50000000 -0.945357 0.187430 0.266779 0.000000
100.54699707 231.38699341 302.50000000 0.000978 0.000978 0.999999 0.000000
182.40199280 135.67399597 315.00000000 -0.524292 -0.444904 0.726070 0.000000
206.25000000 131.48399353 322.50000000 0.206600 -0.275929 -0.938712 0.000000
114.72699738 177.89100647 252.50000000 -0.920784 0.389812 0.014246 0.000000
144.37500000 97.64640045 275.00000000 0.133665 0.398181 0.907516 0.000000
130.19500732 158.23199463 275.00000000 0.862261 0.466127 0.198067 0.000000
165.64399719 158.23199463 345.00000000 -0.687186 -0.577369 -0.440931 0.000000
116.98200226 151.46499634 270.00000000 -0.516349 0.812743 -0.269874 0.000000
172.73399353 116.98200226 295.00000000 0.001093 -0.991782 -0.127937 0.000000
113.43699646 166.28900146 347.50000000 -0.000978 -0.000978 -0.999999 0.000000
101.19100189 135.99600220 257.50000000 -0.416761 -0.320704 0.850564 0.000000
135.35200500 152.75399780 347.50000000 0.273493 -0.142750 -0.951222 0.000000
121.81600189 146.30900574 277.50000000 0.000978 0.000978 0.999999 0.000000
73.47650146 181.11300659 337.50000000 -0.000978 -0.000978 -0.999999 0.000000
89.58979797 203.67199707 232.50000000 -0.037517 -0.829536 0.557192 0.000000
44.47259903 167.25599670 275.00000000 0.968656 -0.001189 0.248404 0.000000
78.63279724 205.28300476 235.00000000 0.281384 -0.751947 0.596153 0.000000
103.12500000 218.49600220 322.50000000 -0.000978 -0.000978 -0.999999 0.000000
104.41400146 202.70500183 230.00000000 -0.447763 -0.756113 0.477286 0.000000
115.37100220 125.03900146 257.50000000 -0.543491 -0.486634 0.683963 0.000000
171.44500732 135.99600220 302.50000000 -0.402165 -0.080433 0.912027 0.000000
148.88699341 135.99600220 352.50000000 -0.000978 -0.000978 -0.999999 0.000000
92.16790009 143.08599854 217.50000000 -0.991782 0.001093 0.127937 0.000000
202.38299561 120.52700043 332.50000000 -0.398849 -0.266401 -0.877468 0.000000
80.56639862 215.27299500 322.50000000 0.198943 -0.209624 -0.957329 0.000000
199.80499268 103.12500000 317.50000000 -0.547885 0.547885 -0.632175 0.000000
83.14450073 137.92999268 207.50000000 0.457963 0.390474 0.798624 0.000000
65.41989899 152.75399780 225.00000000 0.731160 0.314738 0.605265 0.000000
141.15199280 140.83000183 295.00000000 0.797266 -0.554822 0.237781 0.000000
152.75399780 95.71289825 290.00000000 0.063360 0.994865 0.078922 0.000000
138.57400513 166.93400574 342.50000000 -0.000978 -0.000978 -0.999999 0.000000
50.59569931 146.95300293 275.00000000 -0.000978 -0.000978 0.999999 0.000000
140.50799561 175.95700073 277.50000000 -0.421230 -0.621023 0.660981 0.000000
136.64100647 158.55499268 297.50000000 0.020123 0.214254 0.976571 0.000000
155.33200073 156.62100220 347.50000000 -0.686540 -0.549566 -0.476068 0.000000
90.87889862 199.16000366 227.50000000 0.135792 -0.780431 0.610318 0.000000
69.60939789 206.25000000 322.50000000 -0.000978 -0.000978 -0.999999 0.000000
110.21499634 196.58200073 337.50000000 0.011815 -0.431890 -0.901849 0.000000
157.26600647 150.17599487 352.50000000 -0.000978 -0.000978 -0.999999 0.000000
123.10500336 128.26199341 347.50000000 -0.000978 -0.000978 -0.999999 0.000000
58.65230179 192.71499634 322.50000000 -0.000978 -0.000978 -0.999999 0.000000
110.85900116 197.22599792 237.50000000 -0.857876 0.014908 0.513641 0.000000
147.59800720 115.37100220 282.50000000 0.243113 -0.259976 0.934510 0.000000
172.73399353 155.97700500 322.50000000 -0.813974 -0.488385 0.314526 0.000000
128.26199341 112.79299927 277.50000000 -0.994848 -0.100676 -0.011908 0.000000
111.50399780 106.34799957 327.50000000 0.803048 0.588902 0.091157 0.000000
142.11900330 194.64799500 320.00000000 -0.881491 -0.167556 -0.441474 0.000000
119.88300323 130.19500732 267.50000000 0.000978 0.000978 0.999999 0.000000
141.79699707 134.06199646 352.50000000 -0.000978 -0.000978 -0.999999 0.000000
141.79699707 149.53100586 352.50000000 -0.000978 -0.000978 -0.999999 0.000000
81.21089935 202.38299561 232.50000000 -0.303658 -0.003688 0.952774 0.000000
116.66000366 191.42599487 252.50000000 0.000978 0.000978 0.999999 0.000000
62.51950073 216.56199646 287.50000000 0.682323 -0.682323 0.262432 0.000000
48.01760101 154.68699646 310.00000000 0.844826 0.515711 -0.142518 0.000000
46.08399963 184.33599854 315.00000000 0.804546 0.166924 -0.569949 0.000000
70.25389862 205.60499573 327.50000000 -0.000978 -0.000978 -0.999999 0.000000
142.44099426 179.17999268 332.50000000 -0.000978 -0.000978 -0.999999 0.000000
100.54699707 127.61699677 337.50000000 0.674836 0.283720 -0.681248 0.000000
60.26359940 203.02699280 320.00000000 0.359815 -0.801188 -0.478154 0.000000
169.83399963 158.55499268 315.00000000 -0.707401 0.415826 0.571553 0.000000
80.56639862 139.21899414 207.50000000 0.457963 0.390474 0.798624 0.000000
114.72699738 205.60499573 332.50000000 -0.000978 -0.000978 -0.999999 0.000000
132.12899780 201.09399414 327.50000000 -0.000978 -0.999999 -0.000978 0.000000
99.58000183 157.26600647 225.00000000 -0.874569 0.028474 0.484064 0.000000
112.79299927 189.49200439 342.50000000 -0.000978 -0.000978 -0.999999 0.000000
195.93699646 120.20500183 315.00000000 -0.022920 -0.877716 0.478632 0.000000
158.55499268 109.56999969 277.50000000 0.703884 -0.070822 0.706775 0.000000
127.61699677 114.08200073 272.50000000 -0.775910 -0.284024 0.563288 0.000000
63.80860138 179.82400513 332.50000000 -0.000978 -0.000978 -0.999999 0.000000
72.18750000 183.04699707 337.50000000 -0.000978 -0.000978 -0.999999 0.000000
89.58979797 173.37899780 342.50000000 -0.000978 -0.000978 -0.999999 0.000000
151.46499634 125.68399811 287.50000000 0.000978 0.000978 0.999999 0.000000
157.91000366 146.95300293 307.50000000 0.000978 0.000978 0.999999 0.000000
139.21899414 122.46099854 287.50000000 0.008497 -0.270701 0.962626 0.000000
120.52700043 162.42199707 257.50000000 -0.657756 0.329690 0.677245 0.000000
77.34369659 207.53900146 237.50000000 0.310933 -0.620256 0.720141 0.000000
61.23040009 144.37500000 317.50000000 0.000978 0.000978 -0.999999 0.000000
112.79299927 130.19500732 342.50000000 -0.000978 -0.000978 -0.999999 0.000000
135.35200500 159.19900513 347.50000000 -0.000978 -0.000978 -0.999999 0.000000
205.60499573 127.61699677 332.50000000 -0.000978 -0.000978 -0.999999 0.000000
46.40620041 200.44900513 302.50000000 0.933019 0.001263 -0.359825 0.000000
114.08200073 188.20300293 342.50000000 -0.000978 -0.000978 -0.999999 0.000000
205.60499573 126.32800293 317.50000000 0.000978 0.000978 0.999999 0.000000
194.00399780 106.99199677 287.50000000 0.704094 0.704094 0.092220 0.000000
112.79299927 148.24200439 347.50000000 -0.000978 -0.000978 -0.999999 0.000000
154.04299927 141.79699707 302.50000000 0.000978 0.000978 0.999999 0.000000
93.45700073 230.74200439 302.50000000 0.444843 -0.888274 0.114388 0.000000
106.34799957 152.75399780 237.50000000 0.000978 0.000978 0.999999 0.000000
84.43360138 193.03700256 220.00000000 0.341678 -0.920121 0.191397 0.000000
205.60499573 122.46099854 317.50000000 0.000978 0.000978 0.999999 0.000000
50.27339935 182.40199280 257.50000000 0.991782 -0.001093 0.127937 0.000000
129.55099487 168.86700439 267.50000000 0.000978 0.000978 0.999999 0.000000
179.17999268 145.66400146 342.50000000 -0.000978 -0.000978 -0.999999 0.000000
89.58979797 113.11499786 300.00000000 0.614658 0.788696 0.012431 0.000000
61.87500000 165.64399719 227.50000000 0.696432 0.347400 0.627930 0.000000
103.12500000 111.50399780 327.50000000 0.158750 0.945717 -0.283579 0.000000
170.15600586 117.30500031 342.50000000 0.052265 0.411419 -0.909947 0.000000
95.06829834 135.99600220 235.00000000 -0.842116 0.306649 0.443629 0.000000
65.41989899 217.85099792 280.00000000 0.795517 -0.597003 0.103636 0.000000
161.13299561 129.55099487 297.50000000 -0.625234 -0.350980 0.697062 0.000000
149.53100586 101.19100189 332.50000000 0.175802 0.747540 -0.640530 0.000000
67.03119659 163.06599426 332.50000000 -0.000978 -0.000978 -0.999999 0.000000
141.79699707 170.15600586 337.50000000 -0.000978 -0.000978 -0.999999 0.000000
128.90600586 162.42199707 347.50000000 -0.000978 -0.000978 -0.999999 0.000000
111.18199921 195.93699646 240.00000000 -0.942946 -0.069315 0.325650 0.000000
60.58589935 211.40600586 312.50000000 0.296281 -0.264485 -0.917750 0.000000
59.94139862 143.08599854 312.50000000 -0.000978 -0.000978 -0.999999 0.000000
134.70700073 167.57800293 342.50000000 -0.000978 -0.000978 -0.999999 0.000000
75.73239899 141.15199280 210.00000000 0.693098 0.552808 0.462622 0.000000
147.59800720 123.10500336 287.50000000 0.125978 -0.431721 0.893167 0.000000
103.76899719 119.88300323 337.50000000 -0.000978 -0.000978 -0.999999 0.000000
140.50799561 150.17599487 352.50000000 0.424995 -0.195586 -0.883813 0.000000
121.17199707 184.33599854 342.50000000 -0.501575 -0.501575 -0.704872 0.000000
64.77539825 134.06199646 305.00000000 0.313049 0.941834 0.122264 0.000000
141.79699707 115.37100220 282.50000000 -0.121197 -0.827933 0.547575 0.000000
74.76560211 220.42999268 312.50000000 0.258319 -0.673532 -0.692550 0.000000
135.02900696 205.60499573 285.00000000 -0.812735 -0.407166 0.416746 0.000000
186.26899719 116.01599884 312.50000000 0.000978 0.000978 0.999999 0.000000
68.32029724 201.09399414 237.50000000 0.716296 -0.453709 0.530159 0.000000
87.65619659 223.00799561 312.50000000 0.096756 -0.553097 -0.827479 0.000000
202.38299561 134.06199646 337.50000000 -0.289997 0.728999 -0.620050 0.000000
81.21089935 223.00799561 272.50000000 0.243273 -0.907540 0.342330 0.000000
121.81600189 224.94099426 307.50000000 -0.357424 -0.920892 -0.155584 0.000000
83.14450073 152.75399780 342.50000000 -0.000978 -0.000978 -0.999999 0.000000
97.32420349 118.59400177 327.50000000 -0.888274 0.444843 0.114388 0.000000
171.44500732 117.30500031 292.50000000 -0.500886 -0.819206 0.279310 0.000000
177.89100647 152.10899353 322.50000000 -0.581376 -0.625190 0.520711 0.000000
112.14800262 205.60499573 332.50000000 -0.000978 -0.000978 -0.999999 0.000000
61.23040009 151.46499634 242.50000000 0.000978 0.000978 0.999999 0.000000
106.99199677 209.47300720 327.50000000 -0.000978 -0.000978 -0.999999 0.000000
111.18199921 147.59800720 270.00000000 -0.402910 0.507307 0.761776 0.000000
153.39799500 116.66000366 282.50000000 -0.124473 -0.552075 0.824451 0.000000
58.97460175 135.99600220 280.00000000 0.704094 0.704094 -0.092220 0.000000
136.64100647 140.50799561 352.50000000 -0.000978 -0.000978 -0.999999 0.000000
192.71499634 143.08599854 342.50000000 -0.527930 -0.004051 -0.849278 0.000000
83.78900146 120.52700043 252.50000000 0.540790 0.836289 0.090371 0.000000
108.92600250 206.89399719 327.50000000 -0.000978 -0.000978 -0.999999 0.000000
150.17599487 133.41799927 292.50000000 0.000978 0.000978 0.999999 0.000000
107.63700104 128.26199341 257.50000000 -0.441817 -0.374826 0.815048 0.000000
108.92600250 204.31599426 237.50000000 -0.912121 0.304040 -0.274946 0.000000
141.79699707 133.41799927 352.50000000 -0.000978 -0.000978 -0.999999 0.000000
166.93400574 117.94899750 287.50000000 -0.687701 -0.156365 0.708955 0.000000
99.90229797 133.41799927 337.50000000 -0.000978 -0.000978 -0.999999 0.000000
88.30079651 142.11900330 210.00000000 -0.941834 0.313049 0.122264 0.000000
90.23429871 228.16400146 277.50000000 0.092125 -0.735535 0.671194 0.000000
87.65619659 230.09800720 287.50000000 0.275368 -0.939572 0.203413 0.000000
83.78900146 204.63900757 235.00000000 -0.103966 -0.780479 0.616476 0.000000
124.39399719 165.96699524 265.00000000 0.347400 0.696432 0.627930 0.000000
162.42199707 156.62100220 347.50000000 -0.378929 -0.178740 -0.908000 0.000000
109.56999969 141.15199280 267.50000000 -0.612799 -0.119607 0.781135 0.000000
94.74610138 117.30500031 242.50000000 0.000978 0.000978 0.999999 0.000000
114.72699738 145.01899719 347.50000000 -0.000978 -0.000978 -0.999999 0.000000
201.73800659 114.72699738 332.50000000 -0.815897 0.320362 -0.481332 0.000000
211.40600586 113.43699646 317.50000000 -0.847553 0.508532 0.151822 0.000000
191.42599487 124.39399719 342.50000000 -0.000978 -0.000978 -0.999999 0.000000
137.28500366 197.87100220 282.50000000 -0.682323 -0.682323 0.262432 0.000000
101.83599854 123.75000000 337.50000000 0.638246 0.209643 -0.740738 0.000000
88.30079651 143.08599854 207.50000000 -0.297650 -0.889958 -0.345513 0.000000
150.82000732 132.12899780 292.50000000 0.000978 0.000978 0.999999 0.000000
141.79699707 198.83799744 305.00000000 -0.859078 -0.430304 0.277171 0.000000
68.32029724 130.19500732 297.50000000 0.488385 0.813974 -0.314526 0.000000
61.23040009 156.62100220 232.50000000 -0.000978 -0.000978 0.999999 0.000000
74.12110138 125.03900146 307.50000000 0.698239 0.629880 0.340168 0.000000
169.83399963 157.91000366 340.00000000 -0.738212 -0.415964 -0.531052 0.000000
49.62889862 200.12699890 285.00000000 0.786037 -0.495510 0.369615 0.000000
75.41010284 210.11700439 322.50000000 -0.118120 -0.541019 -0.832674 0.000000
129.22799683 168.22300720 345.00000000 -0.761331 -0.463348 -0.453524 0.000000
189.49200439 117.94899750 312.50000000 0.000978 0.000978 0.999999 0.000000
91.84570313 194.64799500 215.00000000 0.424212 -0.853051 0.303890 0.000000
132.77299500 161.77699280 267.50000000 -0.257357 0.404847 0.877420 0.000000
53.81829834 194.64799500 260.00000000 0.812226 -0.465719 0.351276 0.000000
143.08599854 189.81399536 320.00000000 -0.861414 -0.062826 -0.504004 0.000000
128.90600586 149.53100586 347.50000000 -0.000978 -0.000978 -0.999999 0.000000
91.52339935 194.32600403 215.00000000 0.515917 -0.803064 0.298191 0.000000
65.09760284 211.08399963 260.00000000 0.893161 -0.445899 0.058635 0.000000
204.31599426 116.01599884 312.50000000 -0.105035 -0.265829 0.958281 0.000000
49.30659866 165.64399719 255.00000000 0.921908 0.105166 0.372861 0.000000
119.23799896 165.64399719 347.50000000 -0.000978 -0.000978 -0.999999 0.000000
52.20700073 188.84800720 257.50000000 0.950792 -0.307646 0.036715 0.000000
110.85900116 186.91400146 342.50000000 -0.000978 -0.000978 -0.999999 0.000000
134.70700073 154.04299927 347.50000000 -0.000978 -0.000978 -0.999999 0.000000
130.19500732 114.08200073 342.50000000 0.000000 0.000000 0.000000 0.000000
122.46099854 143.72999573 277.50000000 0.000978 0.000978 0.999999 0.000000
148.24200439 145.66400146 352.50000000 -0.000978 -0.000978 -0.999999 0.000000
139.21899414 190.78100586 287.50000000 -0.927432 -0.186609 0.324110 0.000000
106.34799957 162.42199707 347.50000000 -0.000978 -0.000978 -0.999999 0.000000
200.44900513 134.06199646 322.50000000 -0.139140 0.392122 -0.909330 0.000000
131.48399353 161.77699280 267.50000000 -0.031327 0.299484 0.953587 0.000000
138.57400513 187.55900574 282.50000000 -0.939409 0.117258 0.322121 0.000000
91.52339935 208.18400574 237.50000000 -0.001350 -0.840871 0.541234 0.000000
107.63700104 135.35200500 262.50000000 -0.488665 -0.416754 0.766501 0.000000
116.66000366 108.28099823 332.50000000 0.000978 0.000978 0.999999 0.000000
188.84800720 105.38099670 340.00000000 -0.415178 0.776627 -0.473791 0.000000
137.28500366 158.55499268 272.50000000 -0.537559 0.332163 0.775047 0.000000
74.76560211 145.66400146 207.50000000 0.787063 0.399188 0.470298 0.000000
68.32029724 127.61699677 277.50000000 0.579564 0.811390 -0.075844 0.000000
156.62100220 131.80700684 350.00000000 0.878393 0.036656 -0.476532 0.000000
97.96869659 184.33599854 342.50000000 -0.000978 -0.000978 -0.999999 0.000000
186.91400146 145.01899719 342.50000000 -0.098423 -0.697773 -0.709525 0.000000
93.45700073 216.24000549 250.00000000 0.223349 -0.713781 0.663801 0.000000
123.75000000 114.08200073 342.50000000 0.695809 0.230889 -0.680103 0.000000
194.64799500 137.92999268 342.50000000 -0.248571 -0.256997 -0.933898 0.000000
154.68699646 128.90600586 347.50000000 0.562931 0.176576 -0.807421 0.000000
135.35200500 97.64640045 295.00000000 0.142660 0.989771 -0.001106 0.000000
72.83200073 189.49200439 222.50000000 -0.001381 -0.697373 0.716707 0.000000
71.54290009 146.95300293 327.50000000 -0.000978 -0.000978 -0.999999 0.000000
132.77299500 128.26199341 347.50000000 0.350327 0.167425 -0.921542 0.000000
114.72699738 162.42199707 252.50000000 -0.505224 -0.017608 0.862809 0.000000
195.93699646 118.59400177 337.50000000 -0.000978 -0.000978 -0.999999 0.000000
101.83599854 223.00799561 317.50000000 0.186683 0.938947 0.289013 0.000000
69.60939789 206.25000000 242.50000000 0.610349 -0.686436 0.395321 0.000000
202.38299561 137.28500366 327.50000000 0.188934 0.423270 -0.886085 0.000000
146.30900574 147.59800720 352.50000000 -0.000978 -0.000978 -0.999999 0.000000
49.30659866 149.53100586 275.00000000 0.871635 0.435070 0.225758 0.000000
147.59800720 150.17599487 352.50000000 -0.000978 -0.000978 -0.999999 0.000000
128.26199341 130.83999634 347.50000000 -0.009255 0.456163 -0.889848 0.000000
87.65619659 169.51199341 342.50000000 -0.000978 -0.000978 -0.999999 0.000000
125.03900146 137.28500366 347.50000000 -0.000978 -0.000978 -0.999999 0.000000
165.64399719 161.13299561 312.50000000 -0.495489 -0.552596 0.670170 0.000000
99.25779724 135.99600220 252.50000000 -0.797363 -0.590255 0.125744 0.000000
168.86700439 123.75000000 347.50000000 -0.000978 -0.000978 -0.999999 0.000000
110.21499634 223.97500610 315.00000000 -0.725368 0.120647 0.677706 0.000000
183.04699707 117.94899750 312.50000000 -0.190430 -0.239051 0.952151 0.000000
72.83200073 193.35899353 332.50000000 -0.000978 -0.000978 -0.999999 0.000000
103.12500000 207.53900146 327.50000000 0.088366 -0.387450 -0.917646 0.000000
86.36720276 147.59800720 207.50000000 -0.933019 -0.001263 0.359825 0.000000
110.85900116 130.83999634 262.50000000 -0.435849 -0.495058 0.751634 0.000000
149.53100586 112.79299927 342.50000000 -0.000978 -0.000978 -0.999999 0.000000
54.46289825 198.51600647 265.00000000 0.845993 -0.422217 0.325621 0.000000
121.17199707 168.86700439 347.50000000 -0.000978 -0.000978 -0.999999 0.000000
172.41200256 135.35200500 305.00000000 -0.178928 0.969303 0.168630 0.000000
72.18750000 147.91999817 210.00000000 0.794250 0.397930 0.459150 0.000000
184.33599854 117.94899750 342.50000000 -0.000978 -0.000978 -0.999999 0.000000
137.28500366 135.35200500 352.50000000 -0.000978 -0.000978 -0.999999 0.000000
94.10150146 115.04900360 250.00000000 0.510486 0.852727 0.110725 0.000000
130.83999634 142.44099426 282.50000000 -0.759006 -0.082721 0.645808 0.000000
94.74610138 116.66000366 242.50000000 0.000978 0.000978 0.999999 0.000000
164.35499573 109.89299774 280.00000000 -0.385919 -0.579700 0.717645 0.000000
115.37100220 208.82800293 252.50000000 -0.461241 -0.615547 0.639029 0.000000
180.46899414 151.46499634 327.50000000 -0.589169 -0.726261 0.354154 0.000000
65.74220276 137.92999268 247.50000000 0.845993 0.422217 0.325621 0.000000
192.39300537 98.61319733 300.00000000 -0.224201 0.970703 -0.086424 0.000000
160.48800659 152.10899353 307.50000000 -0.779023 -0.546431 0.307467 0.000000
84.43360138 129.55099487 327.50000000 0.761969 0.483399 -0.430963 0.000000
68.96479797 182.40199280 217.50000000 0.000978 0.000978 0.999999 0.000000
138.89599609 198.51600647 290.00000000 -0.990378 -0.123078 0.063265 0.000000
110.85900116 222.68499756 320.00000000 -0.120646 -0.961275 -0.247778 0.000000
68.32029724 136.31799316 320.00000000 0.463928 0.621362 -0.631411 0.000000
59.94139862 136.64100647 292.50000000 0.704094 0.704094 0.092220 0.000000
123.10500336 193.35899353 332.50000000 -0.199566 -0.552997 -0.808930 0.000000
148.24200439 103.76899719 272.50000000 0.000978 0.000978 0.999999 0.000000
71.54290009 149.20899963 210.00000000 0.825156 0.188564 0.532505 0.000000
47.05080032 155.33200073 277.50000000 0.888274 0.444843 0.114388 0.000000
142.44099426 178.85699463 285.00000000 -0.900429 -0.220364 0.375057 0.000000
85.07810211 127.61699677 222.50000000 0.682323 0.682323 0.262432 0.000000
207.21699524 107.63700104 320.00000000 -0.829845 0.348000 -0.436180 0.000000
59.29690170 159.84399414 237.50000000 0.919345 0.368572 0.137693 0.000000
54.78509903 169.51199341 327.50000000 0.101507 -0.722319 -0.684070 0.000000
56.07419968 201.09399414 317.50000000 -0.000978 -0.000978 -0.999999 0.000000
93.77929688 125.03900146 330.00000000 0.775619 0.164800 -0.609307 0.000000
178.53500366 109.24800110 345.00000000 -0.551743 -0.741660 -0.381472 0.000000
108.28099823 104.09200287 305.00000000 0.315182 0.948097 -0.042109 0.000000
102.80300140 106.34799957 300.00000000 0.473228 0.880767 0.017428 0.000000
196.58200073 112.79299927 337.50000000 -0.000978 -0.000978 -0.999999 0.000000
165.64399719 119.23799896 287.50000000 -0.439138 -0.429415 0.789152 0.000000
138.57400513 186.26899719 332.50000000 -0.000978 -0.000978 -0.999999 0.000000
180.46899414 107.63700104 282.50000000 -0.015293 0.774362 -0.632558 0.000000
82.50000000 225.90800476 280.00000000 -0.509755 -0.832347 0.217597 0.000000
