178.75000000 238.04699707 362.50000000 0.524410 0.514358 -0.678550 0.000000
83.35939789 233.75000000 437.50000000 0.985368 -0.001129 -0.170436 0.000000
88.94529724 277.57800293 315.00000000 0.387120 -0.900379 0.198634 0.000000
89.80470276 287.03100586 330.00000000 0.736149 -0.660879 0.146026 0.000000
188.20300293 240.62500000 422.50000000 0.000978 0.000978 0.999999 0.000000
127.18800354 205.39100647 462.50000000 0.134410 -0.319055 0.938157 0.000000
93.67189789 250.93800354 447.50000000 -0.616440 0.398289 0.679241 0.000000
186.48399353 207.53900146 415.00000000 0.182601 -0.707386 0.682834 0.000000
146.09399414 243.20300293 462.50000000 0.000978 0.000978 0.999999 0.000000
133.20300293 183.90600586 452.50000000 -0.000978 -0.000978 0.999999 0.000000
171.01600647 250.07800293 452.50000000 0.000978 0.000978 0.999999 0.000000
168.43800354 136.64100647 422.50000000 -0.000978 -0.000978 0.999999 0.000000
99.68750000 294.76599121 367.50000000 0.701936 -0.701936 0.120715 0.000000
132.34399414 315.82000732 380.00000000 0.314973 -0.947489 -0.055281 0.000000
104.84400177 193.78900146 360.00000000 -0.503429 0.716098 0.483491 0.000000
156.40600586 217.42199707 397.50000000 -0.001316 0.888291 -0.459279 0.000000
159.41400146 174.45300293 410.00000000 -0.692650 0.455647 0.559127 0.000000
72.18750000 214.84399414 312.50000000 0.991496 0.123230 0.041831 0.000000
120.74199677 227.73399353 465.00000000 -0.820187 0.225360 0.525839 0.000000
220.00000000 170.15600586 417.50000000 0.000978 0.000978 0.999999 0.000000
104.84400177 260.39099121 297.50000000 0.000978 0.000978 0.999999 0.000000
103.98400116 266.83599854 445.00000000 -0.648720 0.474387 0.595079 0.000000
120.31199646 262.10900879 457.50000000 -0.411713 0.715951 0.563832 0.000000
126.32800293 289.60900879 437.50000000 -0.000978 -0.000978 -0.999999 0.000000
203.67199707 232.89100647 362.50000000 -0.423672 0.423672 -0.800627 0.000000
138.35899353 240.62500000 327.50000000 -0.683654 0.035386 0.728948 0.000000
132.34399414 262.96899414 457.50000000 0.000978 0.000978 0.999999 0.000000
73.90619659 188.20300293 357.50000000 0.942644 0.333512 0.013844 0.000000
75.62500000 240.62500000 397.50000000 0.946173 -0.001240 -0.323658 0.000000
212.26600647 164.14100647 417.50000000 -0.235009 0.300526 0.924367 0.000000
199.37500000 168.43800354 437.50000000 0.332582 -0.935303 0.120816 0.000000
104.84400177 244.06199646 457.50000000 0.000978 0.000978 0.999999 0.000000
211.40600586 146.95300293 417.50000000 -0.946173 0.001240 0.323658 0.000000
212.26600647 157.26600647 432.50000000 -0.000978 -0.000978 0.999999 0.000000
95.39060211 256.95300293 442.50000000 0.000978 0.000978 0.999999 0.000000
97.10939789 261.25000000 297.50000000 -0.248645 -0.940406 0.231976 0.000000
134.06199646 282.73400879 442.50000000 -0.000978 -0.000978 0.999999 0.000000
138.78900146 265.54699707 340.00000000 -0.968098 -0.050563 0.245416 0.000000
230.31199646 214.84399414 422.50000000 0.000978 0.000978 0.999999 0.000000
201.52299500 201.09399414 410.00000000 -0.526150 -0.657267 0.539598 0.000000
110.85900116 301.21099854 410.00000000 0.701936 -0.701936 -0.120715 0.000000
215.70300293 229.45300293 432.50000000 0.000978 0.000978 0.999999 0.000000
191.64100647 226.01600647 362.50000000 -0.000978 -0.000978 -0.999999 0.000000
165.00000000 251.79699707 357.50000000 0.000978 0.000978 0.999999 0.000000
182.18800354 240.62500000 437.50000000 0.000978 0.000978 0.999999 0.000000
217.42199707 235.46899414 407.50000000 0.681643 0.731621 -0.009718 0.000000
129.76600647 257.81201172 457.50000000 -0.501852 0.083406 0.860923 0.000000
92.81250000 203.67199707 447.50000000 0.966914 0.192865 -0.166977 0.000000
81.64060211 179.60899353 372.50000000 0.701936 0.701936 -0.120715 0.000000
74.33589935 205.39100647 380.00000000 0.985368 -0.001129 -0.170436 0.000000
75.62500000 238.04699707 357.50000000 0.874404 0.017461 0.484885 0.000000
192.50000000 229.45300293 362.50000000 -0.000978 -0.000978 -0.999999 0.000000
86.79689789 262.10900879 297.50000000 0.536892 -0.647973 0.540258 0.000000
126.75800323 220.85899353 330.00000000 -0.538274 0.793993 0.282554 0.000000
158.98399353 215.70300293 462.50000000 0.758770 -0.001377 0.651358 0.000000
183.04699707 212.26600647 452.50000000 0.000978 0.000978 0.999999 0.000000
152.10899353 305.07800293 422.50000000 0.410146 -0.616049 -0.672506 0.000000
218.28100586 189.92199707 417.50000000 0.000978 0.000978 0.999999 0.000000
99.68750000 255.23399353 447.50000000 0.000978 0.000978 0.999999 0.000000
156.83599854 220.85899353 375.00000000 -0.664647 0.664647 -0.341305 0.000000
93.67189789 262.10900879 297.50000000 -0.501698 -0.679558 0.535257 0.000000
211.40600586 226.01600647 372.50000000 -0.888334 -0.320161 -0.329180 0.000000
151.25000000 259.96099854 350.00000000 -0.591294 -0.225033 0.774424 0.000000
148.67199707 168.43800354 397.50000000 0.000978 0.000978 0.999999 0.000000
177.46099854 287.03100586 390.00000000 -0.852727 0.110725 0.510486 0.000000
91.95310211 290.46899414 387.50000000 0.701936 -0.701936 -0.120715 0.000000
91.09380341 201.09399414 442.50000000 0.851939 0.395710 -0.342948 0.000000
75.62500000 238.04699707 367.50000000 0.357330 -0.095738 -0.929058 0.000000
220.85899353 220.42999268 410.00000000 0.561030 0.483993 0.671562 0.000000
158.12500000 165.00000000 442.50000000 0.000978 0.000978 0.999999 0.000000
106.13300323 252.65600586 455.00000000 -0.823416 0.049096 0.565310 0.000000
177.89100647 255.23399353 442.50000000 0.545155 0.458464 0.701867 0.000000
190.78100586 167.57800293 407.50000000 0.000978 0.000978 0.999999 0.000000
117.73400116 197.65600586 367.50000000 -0.109313 0.875923 0.469904 0.000000
125.46900177 171.87500000 392.50000000 -0.311323 0.461509 0.830715 0.000000
167.57800293 181.32800293 452.50000000 0.492518 -0.863691 0.107069 0.000000
121.17199707 195.93800354 397.50000000 0.176576 0.562931 0.807421 0.000000
170.15600586 243.20300293 357.50000000 0.657856 0.693242 -0.294347 0.000000
181.32800293 238.90600586 427.50000000 0.000978 0.000978 0.999999 0.000000
115.15599823 186.48399353 452.50000000 0.483135 0.059527 0.873520 0.000000
97.10939789 290.46899414 402.50000000 0.764672 -0.530887 -0.365289 0.000000
87.65619659 271.56201172 302.50000000 0.000978 0.000978 0.999999 0.000000
96.25000000 292.18798828 357.50000000 0.759571 -0.609840 -0.226156 0.000000
221.28900146 221.71899414 395.00000000 0.554426 0.537574 -0.635315 0.000000
88.94529724 282.73400879 370.00000000 0.801766 -0.596040 0.043681 0.000000
147.81199646 238.04699707 342.50000000 -0.421696 0.122701 0.898397 0.000000
191.64100647 192.50000000 407.50000000 0.000978 0.000978 0.999999 0.000000
158.12500000 169.29699707 412.50000000 -0.620353 0.018042 0.784115 0.000000
164.14100647 189.92199707 402.50000000 0.000978 0.000978 0.999999 0.000000
180.46899414 218.28100586 387.50000000 0.000978 0.000978 0.999999 0.000000
187.34399414 202.81199646 407.50000000 -0.122179 0.355554 0.926636 0.000000
98.82810211 178.75000000 427.50000000 0.812819 0.527945 -0.246168 0.000000
88.51560211 190.35200500 355.00000000 -0.487025 0.781505 0.389944 0.000000
207.96899414 244.92199707 392.50000000 -0.767198 0.614064 -0.185291 0.000000
145.66400146 209.68800354 400.00000000 -0.725732 0.092366 0.681749 0.000000
183.90600586 205.39100647 412.50000000 0.389797 -0.725318 0.567426 0.000000
88.08589935 259.53100586 425.00000000 0.956894 -0.240219 -0.163243 0.000000
208.82800293 207.10899353 402.50000000 -0.277741 -0.161225 0.947030 0.000000
105.70300293 262.96899414 297.50000000 -0.000978 -0.000978 0.999999 0.000000
102.69499969 183.90600586 390.00000000 -0.582186 0.484875 0.652652 0.000000
144.37500000 269.84399414 452.50000000 0.000978 0.000978 0.999999 0.000000
210.54699707 215.27299500 440.00000000 0.398655 0.656706 0.640165 0.000000
183.04699707 231.17199707 447.50000000 0.155846 0.661209 0.733836 0.000000
212.26600647 218.28100586 377.50000000 0.000978 0.000978 -0.999999 0.000000
218.28100586 222.14799500 390.00000000 0.901722 0.244858 -0.356290 0.000000
183.04699707 234.60899353 427.50000000 -0.000978 -0.000978 0.999999 0.000000
155.54699707 268.98400879 357.50000000 -0.375967 -0.401136 0.835307 0.000000
138.35899353 289.60900879 352.50000000 0.000978 0.000978 0.999999 0.000000
73.90619659 189.92199707 362.50000000 -0.000978 -0.000978 0.999999 0.000000
182.18800354 177.03100586 402.50000000 0.000978 0.000978 0.999999 0.000000
98.82810211 287.89099121 317.50000000 0.070810 -0.718218 0.692206 0.000000
119.45300293 293.90600586 332.50000000 0.651081 -0.323105 0.686801 0.000000
207.96899414 234.60899353 367.50000000 0.751782 -0.525756 -0.398002 0.000000
231.17199707 169.29699707 422.50000000 -0.000978 -0.000978 0.999999 0.000000
89.80470276 273.28100586 400.00000000 0.978329 -0.166971 -0.122446 0.000000
113.43800354 193.35899353 387.50000000 -0.485658 0.456025 0.745773 0.000000
165.00000000 208.82800293 407.50000000 0.028223 0.458289 0.888355 0.000000
101.40599823 295.62500000 402.50000000 0.591413 -0.788046 -0.170920 0.000000
170.15600586 210.54699707 407.50000000 0.000978 0.000978 0.999999 0.000000
145.23399353 187.34399414 452.50000000 0.115937 -0.903749 0.412065 0.000000
128.04699707 226.01600647 322.50000000 -0.830317 0.308046 0.464415 0.000000
161.99200439 140.07800293 410.00000000 -0.762600 0.382113 0.521950 0.000000
71.32810211 229.45300293 347.50000000 0.985368 0.001129 -0.170436 0.000000
186.48399353 256.09399414 437.50000000 -0.807376 -0.202989 0.554022 0.000000
114.29699707 207.10899353 327.50000000 -0.000978 -0.000978 0.999999 0.000000
164.14100647 262.10900879 447.50000000 0.000978 0.000978 0.999999 0.000000
159.84399414 172.73399353 412.50000000 -0.721469 0.420994 0.549769 0.000000
130.62500000 225.15600586 467.50000000 0.000000 0.000000 0.000000 0.000000
210.54699707 179.60899353 437.50000000 0.000978 0.000978 0.999999 0.000000
245.78100586 203.67199707 427.50000000 -0.613809 0.232716 0.754375 0.000000
116.01599884 263.82800293 307.50000000 -0.563489 -0.367493 0.739885 0.000000
202.81199646 168.43800354 412.50000000 0.000978 0.000978 0.999999 0.000000
91.95310211 264.68798828 297.50000000 -0.872133 -0.481710 0.085668 0.000000
92.81250000 264.68798828 297.50000000 -0.872133 -0.481710 0.085668 0.000000
106.56199646 184.76600647 447.50000000 -0.187081 0.946330 -0.263552 0.000000
128.04699707 307.65600586 352.50000000 -0.000978 -0.000978 0.999999 0.000000
167.57800293 243.20300293 352.50000000 -0.512449 -0.014873 0.858589 0.000000
178.75000000 272.42199707 437.50000000 -0.000978 -0.000978 -0.999999 0.000000
194.21899414 189.92199707 407.50000000 0.000978 0.000978 0.999999 0.000000
177.89100647 189.92199707 452.50000000 -0.000978 -0.000978 0.999999 0.000000
163.28100586 231.17199707 352.50000000 0.000978 0.000978 0.999999 0.000000
116.01599884 207.96899414 327.50000000 -0.647874 0.760793 -0.038110 0.000000
118.59400177 302.50000000 417.50000000 0.348559 -0.666027 -0.659481 0.000000
206.25000000 179.60899353 412.50000000 0.000978 0.000978 0.999999 0.000000
162.42199707 284.45300293 437.50000000 0.000978 0.000978 0.999999 0.000000
147.81199646 288.75000000 362.50000000 0.000978 0.000978 0.999999 0.000000
227.30499268 151.25000000 425.00000000 0.860348 -0.138296 0.490587 0.000000
135.78100586 260.39099121 332.50000000 -0.734356 -0.179373 0.654635 0.000000
91.09380341 190.78100586 427.50000000 0.856992 0.376580 -0.351785 0.000000
171.01600647 143.51600647 427.50000000 0.000978 0.000978 0.999999 0.000000
108.28099823 169.29699707 392.50000000 -0.000978 -0.000978 0.999999 0.000000
211.40600586 212.26600647 417.50000000 0.000978 0.000978 0.999999 0.000000
146.95300293 214.84399414 367.50000000 -0.363898 0.844930 0.392010 0.000000
129.76600647 278.43798828 442.50000000 0.000978 0.000978 0.999999 0.000000
93.67189789 291.75799561 390.00000000 0.822783 -0.375722 -0.426452 0.000000
150.39100647 248.35899353 457.50000000 0.172088 0.331585 0.927598 0.000000
105.70300293 290.46899414 422.50000000 0.985368 0.001129 -0.170436 0.000000
196.79699707 204.10200500 385.00000000 0.496636 0.233801 0.835877 0.000000
113.43800354 171.87500000 437.50000000 0.664647 0.664647 0.341305 0.000000
195.07800293 206.25000000 407.50000000 -0.275688 0.108446 0.955110 0.000000
152.10899353 305.93798828 372.50000000 -0.000978 -0.000978 0.999999 0.000000
226.44500732 150.39100647 425.00000000 -0.544104 0.755249 0.365443 0.000000
166.71899414 296.48400879 427.50000000 -0.613074 0.046724 0.788643 0.000000
186.48399353 274.14099121 402.50000000 0.701318 0.143280 -0.698301 0.000000
79.92189789 261.25000000 362.50000000 0.900129 -0.288218 0.326648 0.000000
140.93800354 153.82800293 397.50000000 -0.353726 0.245113 0.902661 0.000000
108.28099823 295.62500000 412.50000000 0.651457 -0.570656 -0.499955 0.000000
213.12500000 224.29699707 422.50000000 0.000978 0.000978 0.999999 0.000000
75.62500000 246.21099854 350.00000000 0.848837 -0.337977 -0.406507 0.000000
226.87500000 165.85899353 417.50000000 0.000978 0.000978 0.999999 0.000000
100.54699707 195.93800354 452.50000000 -0.000978 -0.000978 0.999999 0.000000
171.87500000 205.39100647 407.50000000 -0.618673 0.123141 0.775938 0.000000
175.31199646 297.77301025 395.00000000 -0.845451 -0.319185 0.428175 0.000000
203.67199707 180.46899414 442.50000000 0.000978 0.000978 0.999999 0.000000
94.53119659 279.29699707 307.50000000 0.369601 -0.609430 0.701420 0.000000
179.60899353 142.22700500 425.00000000 -0.023415 -0.833302 0.552321 0.000000
191.64100647 200.23399353 392.50000000 -0.113023 0.905582 -0.408837 0.000000
117.30500031 310.23400879 375.00000000 -0.000978 -0.000978 -0.999999 0.000000
177.89100647 250.07800293 427.50000000 -0.690113 0.617643 0.377174 0.000000
135.78100586 229.45300293 327.50000000 -0.541523 0.839430 -0.045939 0.000000
162.42199707 311.95300293 407.50000000 -0.555357 -0.738837 -0.381705 0.000000
199.37500000 157.26600647 437.50000000 0.090667 -0.554075 0.827515 0.000000
134.06199646 169.29699707 397.50000000 -0.412236 0.773962 0.480671 0.000000
238.90600586 195.93800354 432.50000000 0.000978 0.000978 0.999999 0.000000
176.17199707 207.96899414 452.50000000 0.000978 0.000978 0.999999 0.000000
122.03099823 165.85899353 392.50000000 0.000978 0.000978 0.999999 0.000000
91.95310211 288.75000000 347.50000000 0.829959 -0.496121 -0.255015 0.000000
233.75000000 166.71899414 427.50000000 0.000978 0.000978 0.999999 0.000000
159.84399414 147.38299561 430.00000000 0.205415 -0.755246 0.622421 0.000000
195.93800354 209.68800354 412.50000000 -0.403197 -0.127843 0.906139 0.000000
140.07800293 168.43800354 397.50000000 0.000978 0.000978 0.999999 0.000000
144.37500000 264.68798828 347.50000000 -0.431844 -0.055503 0.900239 0.000000
171.87500000 178.75000000 447.50000000 -0.000978 -0.000978 0.999999 0.000000
80.35160065 226.01600647 420.00000000 0.985368 -0.001129 -0.170436 0.000000
199.37500000 144.37500000 427.50000000 0.962989 0.239775 0.123128 0.000000
74.76560211 201.95300293 382.50000000 0.985368 -0.001129 -0.170436 0.000000
131.48399353 271.56201172 332.50000000 -0.767011 -0.198285 0.610227 0.000000
90.23439789 182.61700439 410.00000000 0.771085 0.514597 -0.374991 0.000000
189.06199646 203.67199707 452.50000000 0.000978 0.000978 0.999999 0.000000
198.51600647 149.53100586 412.50000000 0.000978 0.000978 0.999999 0.000000
82.50000000 272.42199707 367.50000000 0.800114 -0.160623 -0.577943 0.000000
75.62500000 256.95300293 367.50000000 0.877304 0.250444 0.409409 0.000000
83.35939789 273.28100586 322.50000000 0.943392 -0.313575 0.108083 0.000000
133.20300293 186.48399353 452.50000000 -0.000978 -0.000978 0.999999 0.000000
79.06250000 242.34399414 407.50000000 0.000978 0.000978 -0.999999 0.000000
176.17199707 256.09399414 372.50000000 -0.000978 -0.000978 -0.999999 0.000000
102.26599884 267.26599121 297.50000000 -0.557710 -0.758163 0.337859 0.000000
177.89100647 146.95300293 432.50000000 0.000978 0.000978 0.999999 0.000000
141.36700439 208.82800293 395.00000000 -0.985368 -0.001129 0.170436 0.000000
243.20300293 181.32800293 427.50000000 0.000978 0.000978 0.999999 0.000000
192.50000000 216.56199646 382.50000000 -0.000978 -0.000978 0.999999 0.000000
152.10899353 274.14099121 447.50000000 -0.053385 0.461298 0.885638 0.000000
201.09399414 195.93800354 392.50000000 -0.001358 0.824239 -0.566240 0.000000
90.23439789 189.06199646 307.50000000 -0.584633 0.767430 0.263164 0.000000
99.68750000 268.98400879 437.50000000 0.636378 -0.636378 -0.435944 0.000000
123.75000000 263.82800293 317.50000000 -0.292769 -0.596737 0.747122 0.000000
88.51560211 191.64100647 417.50000000 0.872358 0.424918 -0.241738 0.000000
185.62500000 145.23399353 427.50000000 0.000978 0.000978 0.999999 0.000000
98.82810211 268.12500000 297.50000000 -0.241055 -0.916587 0.319001 0.000000
170.15600586 192.50000000 452.50000000 -0.000978 -0.000978 0.999999 0.000000
174.45300293 204.53100586 412.50000000 -0.280276 -0.571636 0.771154 0.000000
218.28100586 159.84399414 427.50000000 0.000978 0.000978 0.999999 0.000000
166.71899414 247.50000000 452.50000000 0.000978 0.000978 0.999999 0.000000
144.37500000 178.75000000 452.50000000 -0.307296 -0.948041 0.082382 0.000000
212.26600647 204.53100586 417.50000000 0.000978 0.000978 0.999999 0.000000
189.06199646 133.20300293 417.50000000 -0.458152 0.877282 0.143082 0.000000
98.82810211 255.23399353 447.50000000 0.000978 0.000978 0.999999 0.000000
230.31199646 180.46899414 422.50000000 0.869771 0.310305 0.383678 0.000000
240.62500000 216.56199646 427.50000000 0.000978 0.000978 0.999999 0.000000
181.32800293 134.92199707 407.50000000 -0.468524 0.305559 0.828927 0.000000
71.75779724 205.39100647 325.00000000 0.987233 0.007898 -0.159086 0.000000
130.62500000 152.53900146 420.00000000 -0.273052 -0.681831 0.678638 0.000000
158.98399353 178.75000000 402.50000000 -0.883830 0.442636 0.151390 0.000000
130.62500000 165.85899353 442.50000000 -0.000978 -0.000978 0.999999 0.000000
134.92199707 295.19500732 430.00000000 -0.089076 -0.969794 0.227080 0.000000
107.42199707 201.95300293 332.50000000 -0.497359 0.862940 -0.089270 0.000000
156.83599854 268.12500000 360.00000000 -0.826108 -0.285780 0.485670 0.000000
103.98400116 220.00000000 462.50000000 0.000978 0.000978 0.999999 0.000000
222.57800293 218.28100586 392.50000000 0.726771 0.285917 -0.624544 0.000000
98.82810211 188.20300293 362.50000000 0.527202 0.788413 -0.316958 0.000000
159.84399414 183.90600586 402.50000000 -0.284261 -0.015997 0.958613 0.000000
206.25000000 248.35899353 382.50000000 0.708486 0.705724 -0.001381 0.000000
211.40600586 193.35899353 417.50000000 -0.061411 0.621249 0.781203 0.000000
184.76600647 269.84399414 397.50000000 0.720733 0.541793 -0.432440 0.000000
114.29699707 213.98399353 307.50000000 -0.635272 0.534168 0.557759 0.000000
174.45300293 158.12500000 402.50000000 0.000978 0.000978 0.999999 0.000000
165.00000000 267.26599121 367.50000000 -0.000978 -0.000978 0.999999 0.000000
216.56199646 152.10899353 417.50000000 0.000978 0.000978 0.999999 0.000000
183.90600586 263.39801025 405.00000000 0.701936 -0.701936 -0.120715 0.000000
80.78119659 256.95300293 392.50000000 0.948126 -0.316042 -0.034270 0.000000
133.20300293 248.35899353 317.50000000 0.195120 -0.975599 -0.100667 0.000000
152.10899353 273.28100586 447.50000000 -0.155090 0.350700 0.923556 0.000000
140.93800354 147.81199646 397.50000000 0.000978 0.000978 0.999999 0.000000
147.38299561 211.40600586 385.00000000 -0.627563 0.610738 -0.482870 0.000000
216.56199646 228.59399414 427.50000000 -0.173793 -0.980778 0.088720 0.000000
131.48399353 269.84399414 452.50000000 0.450206 0.607527 0.654389 0.000000
128.04699707 216.56199646 337.50000000 -0.830317 0.464415 0.308046 0.000000
207.96899414 207.10899353 412.50000000 -0.337753 -0.935212 0.106305 0.000000
140.93800354 228.16400146 340.00000000 -0.947489 0.314973 0.055281 0.000000
79.92189789 267.26599121 322.50000000 0.730118 -0.548825 0.407086 0.000000
163.28100586 161.56199646 442.50000000 0.000978 0.000978 0.999999 0.000000
116.44499969 286.17199707 325.00000000 -0.646274 -0.301380 0.701070 0.000000
95.82029724 185.62500000 430.00000000 0.714964 0.688097 -0.123887 0.000000
116.01599884 268.98400879 447.50000000 -0.000978 -0.000978 0.999999 0.000000
135.78100586 287.89099121 437.50000000 -0.000978 -0.000978 -0.999999 0.000000
131.48399353 246.64100647 462.50000000 0.000978 0.000978 0.999999 0.000000
169.29699707 297.77301025 420.00000000 -0.828614 -0.551929 -0.093669 0.000000
139.21899414 234.60899353 467.50000000 0.248467 0.140666 0.958372 0.000000
128.90600586 256.95300293 457.50000000 0.453013 0.108667 0.884857 0.000000
116.01599884 259.96099854 305.00000000 -0.735669 -0.367019 0.569287 0.000000
148.67199707 261.25000000 347.50000000 -0.711210 -0.175891 0.680620 0.000000
79.49220276 255.23399353 385.00000000 0.947352 -0.307922 -0.087791 0.000000
211.40600586 233.75000000 427.50000000 -0.957264 0.273319 0.094561 0.000000
157.26600647 138.35899353 422.50000000 -0.194176 -0.333075 0.922690 0.000000
179.17999268 278.43798828 430.00000000 0.617039 0.698875 0.361713 0.000000
121.17199707 307.65600586 412.50000000 0.259769 -0.840792 -0.474963 0.000000
163.28100586 298.20300293 377.50000000 -0.845993 -0.325621 0.422217 0.000000
77.34380341 213.98399353 402.50000000 0.953922 0.128336 -0.271226 0.000000
130.62500000 195.07800293 462.50000000 0.000978 0.000978 0.999999 0.000000
82.50000000 262.10900879 392.50000000 0.936328 -0.312109 -0.160867 0.000000
213.98399353 237.18800354 382.50000000 0.945173 0.115980 -0.305282 0.000000
189.06199646 168.43800354 407.50000000 -0.440346 -0.009201 0.897781 0.000000
170.15600586 268.12500000 372.50000000 -0.000978 -0.000978 0.999999 0.000000
88.51560211 191.64100647 302.50000000 -0.210505 0.837476 0.504303 0.000000
232.03100586 225.58599854 430.00000000 -0.029192 -0.999569 0.003020 0.000000
75.62500000 192.50000000 352.50000000 0.915594 0.305198 0.261805 0.000000
133.20300293 258.67199707 327.50000000 -0.788413 -0.527202 0.316958 0.000000
75.62500000 192.50000000 302.50000000 -0.024290 0.998016 -0.058086 0.000000
154.25799561 218.28100586 380.00000000 -0.665148 0.642041 -0.381263 0.000000
173.59399414 247.50000000 362.50000000 0.000978 0.000978 0.999999 0.000000
163.28100586 297.77301025 425.00000000 -0.164284 -0.851021 -0.498772 0.000000
96.25000000 189.92199707 362.50000000 0.527202 0.788413 -0.316958 0.000000
199.37500000 186.48399353 442.50000000 0.000978 0.000978 0.999999 0.000000
215.70300293 192.50000000 437.50000000 0.439426 -0.163878 0.883203 0.000000
93.24220276 278.43798828 410.00000000 0.000978 0.000978 -0.999999 0.000000
243.20300293 192.50000000 422.50000000 -0.000978 -0.000978 0.999999 0.000000
184.76600647 224.29699707 447.50000000 0.737496 -0.450417 0.503213 0.000000
232.03100586 209.68800354 422.50000000 0.000978 0.000978 0.999999 0.000000
196.79699707 235.46899414 422.50000000 -0.373779 0.380035 0.846086 0.000000
185.62500000 226.87500000 447.50000000 0.000978 0.000978 0.999999 0.000000
139.21899414 206.25000000 387.50000000 -0.647470 0.714285 0.265669 0.000000
144.37500000 169.29699707 447.50000000 0.104152 -0.770140 0.629314 0.000000
151.25000000 145.66400146 425.00000000 -0.448087 -0.811660 0.374735 0.000000
75.19529724 226.87500000 370.00000000 0.985368 -0.001129 -0.170436 0.000000
86.79689789 200.23399353 427.50000000 0.838653 0.478571 -0.260059 0.000000
73.04689789 200.23399353 322.50000000 0.966344 0.243797 0.082108 0.000000
163.28100586 196.79699707 402.50000000 0.252654 -0.942965 0.216758 0.000000
128.04699707 214.41400146 355.00000000 -0.524731 0.802066 0.285214 0.000000
127.61699677 226.01600647 320.00000000 -0.744015 0.447069 0.496560 0.000000
117.73400116 192.50000000 392.50000000 -0.569215 0.747602 0.342178 0.000000
79.92189789 266.40600586 347.50000000 0.922660 -0.268332 -0.276941 0.000000
95.39060211 190.78100586 437.50000000 0.768784 0.639507 -0.001375 0.000000
80.35160065 256.95300293 390.00000000 0.985368 0.001129 -0.170436 0.000000
113.43800354 237.18800354 462.50000000 -0.000978 -0.000978 0.999999 0.000000
82.50000000 179.17999268 375.00000000 0.701936 0.701936 -0.120715 0.000000
151.25000000 299.06201172 427.50000000 0.000978 0.000978 -0.999999 0.000000
197.65600586 200.23399353 447.50000000 0.000978 0.000978 0.999999 0.000000
112.57800293 178.75000000 442.50000000 0.000978 0.000978 0.999999 0.000000
139.21899414 187.77299500 390.00000000 0.919789 -0.182824 0.347224 0.000000
167.57800293 213.12500000 457.50000000 0.000978 0.000978 0.999999 0.000000
144.37500000 162.42199707 442.50000000 -0.000978 -0.000978 0.999999 0.000000
81.21089935 194.21899414 305.00000000 0.130083 0.656395 -0.743117 0.000000
172.73399353 196.79699707 452.50000000 0.000978 0.000978 0.999999 0.000000
96.25000000 193.35899353 357.50000000 -0.537868 0.537868 0.649151 0.000000
130.62500000 199.37500000 462.50000000 0.000978 0.000978 0.999999 0.000000
229.45300293 212.26600647 422.50000000 0.000978 0.000978 0.999999 0.000000
114.29699707 196.79699707 387.50000000 -0.485658 0.456025 0.745773 0.000000
192.50000000 200.23399353 407.50000000 0.000978 0.000978 0.999999 0.000000
112.57800293 226.87500000 307.50000000 -0.696373 0.294310 0.654558 0.000000
173.59399414 216.56199646 452.50000000 -0.000978 -0.000978 0.999999 0.000000
131.48399353 209.68800354 467.50000000 0.000978 0.000978 0.999999 0.000000
157.26600647 275.00000000 442.50000000 0.000978 0.000978 0.999999 0.000000
188.20300293 232.89100647 447.50000000 0.000978 0.000978 0.999999 0.000000
162.42199707 264.68798828 447.50000000 0.000978 0.000978 0.999999 0.000000
80.78119659 240.62500000 417.50000000 0.942008 -0.125332 -0.311307 0.000000
85.07810211 190.78100586 337.50000000 -0.001381 0.697373 0.716707 0.000000
71.32810211 231.17199707 347.50000000 0.985368 -0.001129 -0.170436 0.000000
187.34399414 272.42199707 412.50000000 0.664647 0.664647 -0.341305 0.000000
226.87500000 190.78100586 417.50000000 -0.382113 0.762600 0.521950 0.000000
132.34399414 191.64100647 457.50000000 0.359388 -0.644929 0.674468 0.000000
134.06199646 167.57800293 442.50000000 0.000978 0.000978 0.999999 0.000000
118.59400177 172.73399353 442.50000000 0.000978 0.000978 0.999999 0.000000
74.76560211 195.50799561 305.00000000 0.969794 0.089076 0.227080 0.000000
186.48399353 255.23399353 427.50000000 0.126062 -0.618445 0.775651 0.000000
116.01599884 277.57800293 317.50000000 -0.374863 -0.247439 0.893449 0.000000
75.62500000 184.76600647 357.50000000 0.911128 0.412022 0.009098 0.000000
127.18800354 306.79699707 352.50000000 -0.000978 -0.000978 0.999999 0.000000
213.12500000 205.82000732 385.00000000 0.735716 -0.244188 -0.631739 0.000000
78.20310211 252.22700500 400.00000000 0.830521 -0.552261 -0.072404 0.000000
190.35200500 268.98400879 410.00000000 0.771471 0.622250 0.132806 0.000000
195.93800354 152.96899414 432.50000000 0.261300 -0.487038 0.833376 0.000000
220.00000000 219.14100647 412.50000000 0.527643 0.625417 0.574844 0.000000
145.23399353 254.37500000 342.50000000 0.341174 -0.683981 0.644803 0.000000
140.93800354 228.59399414 467.50000000 0.000978 0.000978 0.999999 0.000000
241.48399353 199.37500000 422.50000000 -0.605085 0.605085 0.517440 0.000000
111.71900177 240.62500000 302.50000000 0.000978 0.000978 0.999999 0.000000
113.43800354 199.37500000 462.50000000 0.000978 0.000978 0.999999 0.000000
162.42199707 309.37500000 412.50000000 -0.423672 -0.423672 -0.800627 0.000000
172.73399353 169.29699707 447.50000000 -0.225981 -0.209743 0.951284 0.000000
98.82810211 241.48399353 452.50000000 0.000978 0.000978 0.999999 0.000000
121.17199707 215.27299500 330.00000000 -0.716161 0.496826 -0.490180 0.000000
223.43800354 225.58599854 425.00000000 0.000978 0.000978 0.999999 0.000000
181.32800293 219.14100647 452.50000000 0.000978 0.000978 0.999999 0.000000
143.51600647 151.25000000 427.50000000 0.446689 -0.894688 -0.001310 0.000000
170.15600586 299.92199707 412.50000000 -0.710507 -0.339808 -0.616206 0.000000
133.20300293 161.56199646 392.50000000 -0.356545 -0.242098 0.902366 0.000000
179.60899353 281.01599121 397.50000000 0.940474 0.013886 -0.339581 0.000000
201.95300293 171.01600647 407.50000000 -0.762600 -0.382113 0.521950 0.000000
136.64100647 148.67199707 417.50000000 0.363515 -0.518615 0.773883 0.000000
183.90600586 139.21899414 407.50000000 0.000978 0.000978 0.999999 0.000000
143.51600647 166.71899414 397.50000000 0.000978 0.000978 0.999999 0.000000
181.75799561 224.29699707 450.00000000 0.802232 0.122175 0.584378 0.000000
71.32810211 208.82800293 322.50000000 0.998556 -0.021912 0.049041 0.000000
194.21899414 152.96899414 432.50000000 -0.169611 -0.707476 0.686083 0.000000
73.90619659 242.34399414 367.50000000 -0.000978 -0.000978 -0.999999 0.000000
135.78100586 175.31199646 447.50000000 -0.000978 -0.000978 0.999999 0.000000
179.60899353 263.82800293 437.50000000 -0.000978 -0.000978 -0.999999 0.000000
91.09380341 285.31201172 377.50000000 0.675597 -0.219998 0.703682 0.000000
74.33589935 200.23399353 305.00000000 -0.000978 -0.000978 0.999999 0.000000
70.89839935 213.98399353 330.00000000 0.985368 0.001129 0.170436 0.000000
81.64060211 184.33599854 310.00000000 -0.701936 0.701936 -0.120715 0.000000
171.87500000 234.60899353 352.50000000 0.000978 0.000978 0.999999 0.000000
160.70300293 272.42199707 367.50000000 -0.000978 -0.000978 0.999999 0.000000
216.56199646 197.65600586 417.50000000 0.000978 0.000978 0.999999 0.000000
177.89100647 134.92199707 417.50000000 0.347639 0.353764 -0.868331 0.000000
106.56199646 198.51600647 347.50000000 -0.701936 0.701936 -0.120715 0.000000
101.40599823 227.73399353 457.50000000 0.000978 0.000978 0.999999 0.000000
157.69500732 184.76600647 400.00000000 -0.336321 -0.726259 0.599529 0.000000
175.74200439 238.90600586 430.00000000 0.162210 0.644292 0.747379 0.000000
210.54699707 224.29699707 417.50000000 0.000978 0.000978 0.999999 0.000000
125.46900177 209.68800354 467.50000000 0.970462 0.207320 0.123375 0.000000
165.00000000 286.17199707 377.50000000 -0.240415 -0.410646 0.879529 0.000000
115.15599823 255.23399353 302.50000000 -0.221346 -0.155859 0.962660 0.000000
161.99200439 221.71899414 385.00000000 0.000978 0.999999 0.000978 0.000000
127.18800354 301.64099121 422.50000000 0.294164 -0.644589 -0.705672 0.000000
183.90600586 136.64100647 407.50000000 0.000978 0.000978 0.999999 0.000000
148.67199707 237.18800354 462.50000000 0.000978 0.000978 0.999999 0.000000
209.68800354 218.28100586 437.50000000 -0.373506 0.354908 0.857049 0.000000
137.50000000 152.53900146 425.00000000 -0.599623 -0.749132 0.281521 0.000000
90.23439789 256.09399414 437.50000000 0.815945 -0.413561 -0.403981 0.000000
134.92199707 163.28100586 437.50000000 -0.137754 -0.966850 0.214999 0.000000
125.46900177 235.46899414 462.50000000 -0.285344 0.070376 0.955838 0.000000
180.46899414 238.47700500 365.00000000 0.275566 0.718383 -0.638740 0.000000
188.20300293 207.10899353 412.50000000 0.035302 -0.758285 0.650967 0.000000
128.90600586 314.96099854 375.00000000 0.242814 -0.970072 -0.001184 0.000000
207.96899414 241.05499268 400.00000000 0.500430 0.343746 0.794612 0.000000
109.14099884 223.43800354 462.50000000 0.000978 0.000978 0.999999 0.000000
185.62500000 188.20300293 447.50000000 0.000978 0.000978 0.999999 0.000000
74.33589935 226.87500000 390.00000000 0.999999 -0.000978 -0.000978 0.000000
74.33589935 202.81199646 305.00000000 0.000978 0.000978 0.999999 0.000000
97.10939789 202.81199646 302.50000000 -0.632549 0.659113 0.406757 0.000000
182.18800354 265.11700439 385.00000000 0.764835 0.440558 -0.470038 0.000000
98.82810211 202.81199646 302.50000000 -0.632549 0.659113 0.406757 0.000000
159.84399414 171.87500000 412.50000000 -0.778465 0.383568 0.496858 0.000000
128.90600586 157.26600647 432.50000000 -0.347170 -0.544169 0.763775 0.000000
94.96089935 288.75000000 325.00000000 0.252779 -0.588771 0.767757 0.000000
180.03900146 254.37500000 380.00000000 0.848647 -0.334787 -0.409531 0.000000
201.09399414 220.00000000 442.50000000 0.455053 -0.136372 0.879960 0.000000
116.01599884 189.92199707 457.50000000 0.000978 0.000978 0.999999 0.000000
114.29699707 284.45300293 322.50000000 -0.646274 -0.301380 0.701070 0.000000
175.31199646 136.64100647 407.50000000 0.000978 0.000978 0.999999 0.000000
110.85900116 257.38299561 455.00000000 0.001351 0.544370 0.838844 0.000000
167.57800293 256.95300293 447.50000000 -0.000978 -0.000978 0.999999 0.000000
160.70300293 207.10899353 407.50000000 -0.278032 -0.179420 0.943667 0.000000
110.43000031 300.78100586 410.00000000 0.701936 -0.701936 -0.120715 0.000000
179.60899353 236.32800293 362.50000000 0.524410 0.514358 -0.678550 0.000000
78.63279724 266.40600586 335.00000000 0.701936 -0.701936 0.120715 0.000000
201.95300293 169.29699707 437.50000000 0.427241 -0.673279 0.603457 0.000000
101.40599823 201.09399414 307.50000000 0.000978 0.000978 0.999999 0.000000
106.56199646 288.75000000 427.50000000 -0.000978 -0.999999 -0.000978 0.000000
73.47660065 205.39100647 305.00000000 0.000978 0.000978 0.999999 0.000000
99.68750000 205.39100647 302.50000000 -0.764109 0.558202 0.323339 0.000000
196.79699707 222.57800293 447.50000000 0.664509 -0.098283 0.740789 0.000000
122.03099823 214.84399414 467.50000000 0.000978 0.000978 0.999999 0.000000
80.78119659 264.68798828 317.50000000 0.884621 -0.407489 0.226712 0.000000
131.48399353 167.57800293 442.50000000 -0.000978 -0.000978 0.999999 0.000000
150.39100647 283.59399414 362.50000000 0.000978 0.000978 0.999999 0.000000
214.84399414 214.84399414 407.50000000 0.000978 0.000978 0.999999 0.000000
184.76600647 177.89100647 447.50000000 -0.000978 -0.000978 0.999999 0.000000
83.35939789 259.53100586 302.50000000 0.794206 -0.340374 0.503370 0.000000
84.21880341 277.57800293 377.50000000 0.000978 0.000978 0.999999 0.000000
131.48399353 261.25000000 327.50000000 0.000978 0.000978 0.999999 0.000000
180.46899414 245.78100586 402.50000000 0.615552 0.786144 0.055442 0.000000
110.85900116 253.51600647 457.50000000 -0.021774 0.357349 0.933717 0.000000
147.38299561 161.56199646 400.00000000 -0.768063 0.260227 0.585116 0.000000
211.40600586 162.42199707 417.50000000 -0.235009 0.300526 0.924367 0.000000
165.85899353 287.03100586 432.50000000 -0.424075 -0.778284 -0.463071 0.000000
99.68750000 297.34399414 337.50000000 0.548768 -0.742066 0.384957 0.000000
201.09399414 177.03100586 407.50000000 -0.727309 0.089267 0.680480 0.000000
163.28100586 152.96899414 437.50000000 0.871635 0.435070 -0.225758 0.000000
179.17999268 243.20300293 385.00000000 0.922975 -0.128306 -0.362844 0.000000
146.09399414 177.89100647 397.50000000 0.046416 0.277241 0.959679 0.000000
74.76560211 205.39100647 382.50000000 0.985368 -0.001129 -0.170436 0.000000
181.32800293 256.52301025 440.00000000 0.132183 0.794581 0.592594 0.000000
207.10899353 207.96899414 442.50000000 0.000978 0.000978 0.999999 0.000000
102.26599884 208.82800293 302.50000000 0.000978 0.000978 0.999999 0.000000
242.34399414 189.06199646 427.50000000 0.860716 0.125853 0.493284 0.000000
222.57800293 157.26600647 427.50000000 0.000978 0.000978 0.999999 0.000000
148.67199707 149.53100586 427.50000000 0.000978 0.000978 0.999999 0.000000
157.26600647 259.10198975 355.00000000 -0.723357 -0.664997 0.185831 0.000000
207.10899353 195.93800354 412.50000000 -0.508746 0.309051 0.803533 0.000000
231.17199707 179.60899353 432.50000000 0.000978 0.000978 0.999999 0.000000
150.39100647 228.59399414 462.50000000 0.000978 0.000978 0.999999 0.000000
116.01599884 170.58599854 435.00000000 0.001316 0.888291 -0.459279 0.000000
238.04699707 203.67199707 432.50000000 0.000978 0.000978 0.999999 0.000000
117.73400116 281.01599121 322.50000000 -0.695213 -0.545167 0.468477 0.000000
181.32800293 229.02299500 450.00000000 0.807678 0.046515 0.587786 0.000000
116.01599884 292.18798828 427.50000000 -0.000978 -0.000978 -0.999999 0.000000
102.26599884 210.54699707 302.50000000 -0.773883 0.363515 0.518615 0.000000
75.62500000 249.21899414 347.50000000 0.794020 -0.224431 -0.564946 0.000000
181.32800293 247.50000000 422.50000000 -0.151567 0.604768 0.781846 0.000000
86.79689789 189.92199707 327.50000000 0.000978 0.000978 0.999999 0.000000
158.12500000 189.06199646 452.50000000 0.000978 0.000978 0.999999 0.000000
140.07800293 197.65600586 462.50000000 -0.000978 -0.000978 0.999999 0.000000
237.18800354 183.04699707 432.50000000 0.000978 0.000978 0.999999 0.000000
159.84399414 307.22698975 415.00000000 -0.787878 0.393130 -0.474021 0.000000
119.45300293 210.54699707 337.50000000 0.001316 0.888291 0.459279 0.000000
118.59400177 191.64100647 457.50000000 0.000978 0.000978 0.999999 0.000000
178.75000000 238.04699707 452.50000000 -0.000978 -0.000978 0.999999 0.000000
119.45300293 212.69500732 320.00000000 -0.752847 0.604487 0.260419 0.000000
161.56199646 184.76600647 402.50000000 -0.170118 -0.014842 0.985312 0.000000
115.15599823 201.52299500 355.00000000 -0.570327 0.794769 0.207531 0.000000
73.47660065 221.71899414 385.00000000 0.985368 0.001129 -0.170436 0.000000
91.95310211 222.57800293 452.50000000 -0.000978 -0.000978 0.999999 0.000000
119.45300293 198.51600647 387.50000000 -0.557376 0.796473 0.234440 0.000000
202.81199646 159.84399414 437.50000000 0.000978 0.000978 0.999999 0.000000
75.62500000 238.90600586 397.50000000 0.946173 -0.001240 -0.323658 0.000000
196.79699707 157.26600647 437.50000000 0.012304 -0.561893 0.827118 0.000000
205.39100647 249.21899414 382.50000000 0.841944 0.538789 -0.028938 0.000000
143.94500732 244.06199646 335.00000000 -0.686062 -0.073973 0.723773 0.000000
101.40599823 256.95300293 447.50000000 0.000978 0.000978 0.999999 0.000000
74.76560211 251.79699707 347.50000000 0.840012 -0.168002 -0.515901 0.000000
240.62500000 180.46899414 422.50000000 -0.916180 0.003866 0.400748 0.000000
178.75000000 247.07000732 405.00000000 0.918045 0.395324 -0.030207 0.000000
77.77339935 216.56199646 405.00000000 0.960571 0.123819 -0.248941 0.000000
88.51560211 262.96899414 422.50000000 0.813373 -0.501868 -0.294199 0.000000
123.31999969 162.42199707 430.00000000 -0.716933 -0.393901 0.575195 0.000000
103.12500000 201.95300293 307.50000000 0.000978 0.000978 0.999999 0.000000
230.31199646 163.28100586 417.50000000 0.000978 0.000978 0.999999 0.000000
134.06199646 299.06201172 352.50000000 0.000978 0.000978 0.999999 0.000000
147.81199646 143.51600647 397.50000000 -0.237292 0.314951 0.918966 0.000000
143.51600647 209.68800354 387.50000000 -0.517223 0.778252 -0.356095 0.000000
156.40600586 264.68798828 357.50000000 -0.874967 -0.276544 0.397437 0.000000
110.43000031 306.79699707 365.00000000 0.686901 -0.686901 -0.237350 0.000000
224.29699707 157.26600647 427.50000000 0.000978 0.000978 0.999999 0.000000
133.20300293 294.76599121 427.50000000 -0.407166 -0.812735 0.416746 0.000000
152.96899414 248.35899353 457.50000000 0.158504 0.141031 0.977234 0.000000
163.28100586 260.39099121 357.50000000 0.000978 0.000978 0.999999 0.000000
167.14799500 240.62500000 455.00000000 0.696143 0.495814 0.519186 0.000000
228.59399414 196.79699707 422.50000000 -0.201209 -0.418574 0.885613 0.000000
182.18800354 239.76600647 387.50000000 0.503288 0.614381 -0.607648 0.000000
73.90619659 214.41400146 305.00000000 0.824259 0.411336 0.389101 0.000000
209.68800354 245.78100586 397.50000000 -0.477148 0.477148 0.738011 0.000000
183.90600586 248.35899353 422.50000000 0.000978 0.000978 0.999999 0.000000
154.68800354 314.53100586 382.50000000 -0.999999 0.000978 0.000978 0.000000
120.31199646 219.14100647 467.50000000 0.000978 0.000978 0.999999 0.000000
143.51600647 275.00000000 447.50000000 0.133788 0.168798 0.976528 0.000000
222.57800293 171.01600647 432.50000000 0.000978 0.000978 0.999999 0.000000
190.78100586 209.68800354 407.50000000 -0.233128 -0.541907 0.807458 0.000000
77.34380341 257.81201172 347.50000000 0.831382 -0.009556 -0.555620 0.000000
131.91400146 168.43800354 395.00000000 -0.642304 0.703476 0.304249 0.000000
138.35899353 286.17199707 437.50000000 -0.000978 -0.000978 -0.999999 0.000000
189.92199707 205.39100647 412.50000000 -0.197823 -0.954127 0.224738 0.000000
155.54699707 241.48399353 347.50000000 0.000978 0.000978 0.999999 0.000000
180.46899414 281.87500000 422.50000000 -0.985368 0.001129 0.170436 0.000000
119.45300293 311.95300293 357.50000000 0.423672 0.423672 0.800627 0.000000
147.81199646 303.35900879 362.50000000 -0.664647 -0.664647 0.341305 0.000000
101.40599823 199.37500000 307.50000000 0.036411 0.451765 0.891393 0.000000
73.04689789 216.13299561 305.00000000 0.824259 0.411336 0.389101 0.000000
109.14099884 270.70300293 447.50000000 0.000978 0.000978 0.999999 0.000000
122.03099823 237.18800354 462.50000000 0.000978 0.000978 0.999999 0.000000
213.98399353 239.76600647 412.50000000 -0.000978 -0.000978 0.999999 0.000000
109.14099884 249.21899414 457.50000000 -0.242481 0.212342 0.946633 0.000000
247.50000000 207.96899414 427.50000000 0.744272 -0.292907 0.600220 0.000000
180.46899414 184.76600647 402.50000000 0.000978 0.000978 0.999999 0.000000
172.73399353 242.34399414 357.50000000 0.662262 0.721199 -0.203176 0.000000
93.67189789 288.75000000 352.50000000 0.837839 -0.519371 -0.168163 0.000000
201.09399414 206.25000000 407.50000000 0.000978 0.000978 0.999999 0.000000
178.75000000 231.17199707 452.50000000 0.333079 -0.210140 0.919184 0.000000
156.40600586 219.14100647 392.50000000 0.540813 0.819551 0.189360 0.000000
166.71899414 168.43800354 402.50000000 0.000978 0.000978 0.999999 0.000000
160.70300293 180.46899414 452.50000000 0.128404 -0.898826 0.419076 0.000000
195.93800354 198.51600647 387.50000000 0.355916 0.742711 0.567190 0.000000
97.96880341 183.04699707 432.50000000 0.852799 0.433339 -0.291463 0.000000
70.03910065 211.40600586 335.00000000 0.985368 -0.001129 0.170436 0.000000
146.95300293 147.81199646 422.50000000 -0.206148 -0.661842 0.720741 0.000000
134.92199707 183.04699707 452.50000000 -0.000978 -0.000978 0.999999 0.000000
152.96899414 307.65600586 372.50000000 0.000978 0.000978 0.999999 0.000000
146.95300293 175.31199646 447.50000000 0.000978 0.000978 0.999999 0.000000
175.31199646 244.92199707 452.50000000 -0.000978 -0.000978 0.999999 0.000000
94.53119659 281.01599121 307.50000000 0.404600 -0.586257 0.701856 0.000000
134.92199707 302.50000000 352.50000000 0.000978 0.000978 0.999999 0.000000
100.54699707 268.98400879 302.50000000 -0.000978 -0.000978 0.999999 0.000000
122.03099823 205.39100647 462.50000000 -0.000978 -0.000978 0.999999 0.000000
126.32800293 226.87500000 317.50000000 -0.705318 0.032510 0.708145 0.000000
106.56199646 219.14100647 302.50000000 -0.639507 -0.001375 0.768784 0.000000
143.51600647 244.92199707 462.50000000 0.000978 0.000978 0.999999 0.000000
200.23399353 215.70300293 442.50000000 0.727252 0.133455 0.673271 0.000000
152.96899414 317.53900146 390.00000000 -0.287672 -0.909743 0.299354 0.000000
109.56999969 219.14100647 305.00000000 -0.619184 0.239836 0.747723 0.000000
101.40599823 184.33599854 440.00000000 0.701936 0.701936 -0.120715 0.000000
176.17199707 174.45300293 402.50000000 0.000978 0.000978 0.999999 0.000000
140.07800293 268.98400879 342.50000000 -0.807057 -0.122014 0.577729 0.000000
179.17999268 244.06199646 425.00000000 0.125206 0.578892 0.805735 0.000000
201.09399414 210.54699707 382.50000000 0.855127 -0.426793 0.294287 0.000000
185.62500000 201.09399414 407.50000000 0.000978 0.000978 0.999999 0.000000
140.07800293 242.34399414 462.50000000 0.000978 0.000978 0.999999 0.000000
179.60899353 249.21899414 437.50000000 0.000978 0.000978 0.999999 0.000000
184.76600647 199.37500000 407.50000000 0.000978 0.000978 0.999999 0.000000
212.26600647 168.43800354 412.50000000 -0.115291 0.398656 0.909825 0.000000
137.50000000 290.46899414 437.50000000 0.109307 -0.245618 -0.963184 0.000000
147.81199646 229.45300293 347.50000000 0.000978 0.000978 0.999999 0.000000
203.67199707 204.53100586 402.50000000 0.000978 0.000978 0.999999 0.000000
220.85899353 198.51600647 417.50000000 0.000978 0.000978 0.999999 0.000000
108.28099823 239.76600647 457.50000000 -0.058931 -0.720105 0.691358 0.000000
197.65600586 158.12500000 407.50000000 0.000978 0.000978 0.999999 0.000000
176.17199707 273.28100586 382.50000000 0.999999 -0.000978 -0.000978 0.000000
177.03100586 260.39099121 372.50000000 0.607935 0.141901 -0.781204 0.000000
119.45300293 214.84399414 462.50000000 -0.000978 -0.000978 0.999999 0.000000
75.19529724 257.81201172 330.00000000 0.966914 -0.192865 0.166977 0.000000
149.53100586 303.35900879 422.50000000 0.410146 -0.616049 -0.672506 0.000000
151.25000000 214.84399414 372.50000000 -0.000978 -0.000978 -0.999999 0.000000
152.96899414 283.59399414 437.50000000 0.000978 0.000978 0.999999 0.000000
221.28900146 225.15600586 405.00000000 0.766475 0.576046 0.284056 0.000000
137.50000000 293.04699707 352.50000000 -0.314998 -0.279835 0.906901 0.000000
196.79699707 239.33599854 440.00000000 0.605085 0.605085 0.517440 0.000000
232.89100647 196.79699707 422.50000000 0.000978 0.000978 0.999999 0.000000
244.92199707 198.51600647 432.50000000 0.000978 0.000978 0.999999 0.000000
140.07800293 276.71899414 347.50000000 0.000978 0.000978 0.999999 0.000000
79.06250000 188.20300293 382.50000000 0.895578 0.224997 -0.383819 0.000000
107.42199707 252.65600586 457.50000000 -0.336686 0.249235 0.908033 0.000000
110.00000000 268.12500000 302.50000000 -0.570499 -0.570499 0.590814 0.000000
75.62500000 216.56199646 397.50000000 0.985368 0.001129 -0.170436 0.000000
112.57800293 204.53100586 462.50000000 0.000978 0.000978 0.999999 0.000000
122.89099884 254.37500000 457.50000000 0.312109 -0.936328 -0.160867 0.000000
208.82800293 176.17199707 412.50000000 0.000978 0.000978 0.999999 0.000000
97.96880341 274.14099121 427.50000000 -0.000978 -0.000978 -0.999999 0.000000
211.40600586 212.26600647 382.50000000 -0.000978 -0.000978 -0.999999 0.000000
105.70300293 300.35198975 395.00000000 0.519669 -0.847881 0.105085 0.000000
177.89100647 280.15600586 427.50000000 0.675682 0.709698 0.199458 0.000000
128.90600586 274.14099121 447.50000000 -0.198868 0.290654 0.935934 0.000000
107.42199707 288.75000000 427.50000000 -0.000978 -0.999999 -0.000978 0.000000
85.50779724 281.01599121 335.00000000 0.890806 -0.450192 0.061576 0.000000
213.12500000 198.51600647 442.50000000 0.000978 0.000978 0.999999 0.000000
107.42199707 276.71899414 437.50000000 0.391703 -0.552317 -0.735877 0.000000
112.57800293 306.79699707 392.50000000 0.285034 -0.852021 0.439107 0.000000
148.67199707 158.98399353 402.50000000 -0.724364 0.133475 0.676373 0.000000
121.17199707 236.32800293 462.50000000 0.000978 0.000978 0.999999 0.000000
125.46900177 201.95300293 462.50000000 0.000978 0.000978 0.999999 0.000000
181.32800293 256.95300293 407.50000000 0.924466 -0.381263 0.001275 0.000000
216.99200439 236.32800293 410.00000000 0.001243 0.945912 -0.324419 0.000000
218.28100586 146.52299500 420.00000000 -0.630464 0.043920 0.774975 0.000000
230.31199646 189.06199646 422.50000000 -0.738067 0.061865 0.671885 0.000000
205.39100647 221.28900146 440.00000000 0.179205 0.715287 0.675463 0.000000
205.39100647 226.87500000 432.50000000 0.499326 -0.258166 0.827057 0.000000
149.53100586 230.31199646 347.50000000 0.000978 0.000978 0.999999 0.000000
136.64100647 262.96899414 332.50000000 -0.870117 0.291055 0.397724 0.000000
129.33599854 211.40600586 360.00000000 -0.822775 0.462712 0.330058 0.000000
138.35899353 275.85900879 347.50000000 0.000978 0.000978 0.999999 0.000000
218.28100586 202.81199646 417.50000000 0.000978 0.000978 0.999999 0.000000
68.75000000 226.44500732 340.00000000 0.973677 0.008262 0.227781 0.000000
111.71900177 224.72700500 305.00000000 -0.806860 -0.150634 0.571215 0.000000
200.23399353 189.06199646 442.50000000 0.479302 -0.195603 0.855576 0.000000
128.90600586 180.03900146 390.00000000 0.600067 -0.729461 0.328338 0.000000
139.21899414 207.96899414 372.50000000 -0.758770 -0.001377 0.651358 0.000000
72.61720276 212.26600647 310.00000000 0.972232 -0.057623 0.226813 0.000000
91.09380341 265.54699707 422.50000000 0.792146 -0.554658 -0.254674 0.000000
70.46880341 238.04699707 342.50000000 0.959230 -0.268379 0.088604 0.000000
146.95300293 223.43800354 462.50000000 0.585538 0.112999 0.802730 0.000000
201.95300293 240.62500000 412.50000000 -0.664647 0.664647 0.341305 0.000000
123.75000000 299.92199707 422.50000000 0.344408 -0.557844 -0.755111 0.000000
119.45300293 221.28900146 315.00000000 -0.897179 0.081311 0.434119 0.000000
