184.72099304 204.84800720 192.50000000 -0.766811 -0.323121 -0.554612 0.000000
110.02700043 191.42999268 266.25000000 -0.000978 -0.000978 0.999999 0.000000
133.28500366 242.41799927 138.75000000 0.571896 0.619132 -0.538155 0.000000
84.08589935 241.52299500 201.25000000 -0.984913 0.165522 0.050478 0.000000
180.69500732 150.72799683 177.50000000 0.558219 0.698191 -0.448242 0.000000
148.49200439 298.77301025 213.75000000 0.029243 0.803485 0.594607 0.000000
110.92199707 279.09399414 226.25000000 -0.672014 0.551353 0.494375 0.000000
138.65199280 268.35900879 246.25000000 -0.101238 0.500484 0.859806 0.000000
119.86699677 144.01899719 238.75000000 -0.314961 -0.828927 0.462256 0.000000
196.79699707 251.36300659 213.75000000 0.925371 0.308457 -0.220326 0.000000
86.32219696 212.89799500 135.00000000 -0.999999 0.000978 0.000978 0.000000
208.42599487 186.95700073 253.75000000 0.240329 -0.040258 0.969856 0.000000
116.73600006 257.62500000 125.00000000 0.631305 0.631305 -0.450454 0.000000
195.90199280 190.98199463 260.00000000 0.091895 -0.331621 0.938927 0.000000
135.07400513 218.26600647 128.75000000 0.941995 -0.001248 -0.335625 0.000000
144.91400146 125.23400116 221.25000000 -0.111721 -0.837183 0.535391 0.000000
188.74600220 134.17999268 161.25000000 -0.001378 -0.767655 -0.640861 0.000000
186.50999451 186.95700073 212.50000000 -0.241383 0.877075 0.415299 0.000000
139.54699707 191.87699890 160.00000000 0.563495 -0.563495 -0.604108 0.000000
204.84800720 170.85499573 253.75000000 -0.310255 -0.412130 0.856674 0.000000
265.22799683 137.75799561 235.00000000 0.596374 -0.646772 -0.475419 0.000000
139.54699707 174.43400574 176.25000000 -0.485748 0.324359 -0.811690 0.000000
99.29290009 255.83599854 113.75000000 -0.743270 0.652811 -0.146242 0.000000
101.08200073 212.00399780 78.75000000 0.700140 -0.140028 -0.700140 0.000000
96.60939789 222.29100037 250.00000000 -0.682397 0.217055 0.698012 0.000000
143.12500000 183.37899780 178.75000000 -0.305458 0.759648 -0.574134 0.000000
243.75999451 190.53500366 227.50000000 0.685677 0.685677 -0.244322 0.000000
112.71099854 294.30099487 166.25000000 -0.578289 0.768411 -0.274093 0.000000
178.01199341 191.42999268 208.75000000 -0.490516 0.547436 0.678017 0.000000
187.40400696 255.83599854 195.00000000 0.564979 0.356572 -0.744080 0.000000
186.06199646 203.95300293 191.25000000 -0.828255 -0.146686 -0.540811 0.000000
211.10899353 146.25599670 167.50000000 0.167647 0.974369 -0.150000 0.000000
180.69500732 272.83200073 228.75000000 0.429549 0.372487 0.822642 0.000000
201.71699524 133.28500366 162.50000000 0.034181 -0.862728 -0.504511 0.000000
131.94299316 166.38299561 160.00000000 0.957829 0.130076 -0.256209 0.000000
217.37100220 171.75000000 251.25000000 0.153635 0.059812 0.986316 0.000000
128.36500549 229.89399719 117.50000000 0.901936 0.232428 -0.363990 0.000000
234.36700439 139.54699707 181.25000000 0.624762 0.780605 0.018089 0.000000
220.50199890 209.32000732 215.00000000 0.994545 -0.029671 0.100004 0.000000
206.18899536 206.63699341 187.50000000 0.609974 0.336706 -0.717329 0.000000
101.97699738 190.53500366 261.25000000 -0.463299 -0.255350 0.848617 0.000000
143.12500000 222.73800659 266.25000000 0.000978 0.000978 0.999999 0.000000
164.59399414 258.51901245 246.25000000 0.366231 0.311525 0.876828 0.000000
107.79100037 289.82800293 172.50000000 -0.707106 0.707106 0.001384 0.000000
155.20100403 197.69099426 175.00000000 0.970072 -0.242814 0.001184 0.000000
235.26199341 186.95700073 221.25000000 0.569972 0.506081 -0.647313 0.000000
83.19139862 212.00399780 208.75000000 -0.984203 -0.065140 -0.164626 0.000000
97.50389862 178.45899963 127.50000000 -0.919632 -0.043666 -0.390347 0.000000
83.19139862 193.21899414 226.25000000 -0.955770 -0.238609 0.171959 0.000000
187.85200500 134.17999268 238.75000000 -0.187884 -0.588092 0.786669 0.000000
179.80099487 162.80499268 183.75000000 -0.000978 -0.000978 -0.999999 0.000000
87.66400146 178.01199341 238.75000000 -0.925371 -0.308457 0.220326 0.000000
165.48800659 298.32598877 212.50000000 0.124708 0.872953 0.471595 0.000000
190.53500366 253.15199280 198.75000000 0.834889 0.263893 -0.483032 0.000000
110.47499847 158.33200073 140.00000000 -0.685677 -0.685677 -0.244322 0.000000
99.29290009 227.21099854 251.25000000 -0.659939 0.334043 0.672975 0.000000
95.26760101 254.94099426 125.00000000 -0.852207 0.425330 -0.304691 0.000000
140.44099426 253.60000610 160.00000000 0.661527 0.523499 -0.536965 0.000000
144.01899719 258.51901245 251.25000000 0.000978 0.000978 0.999999 0.000000
152.07000732 160.12100220 176.25000000 -0.000978 -0.000978 -0.999999 0.000000
159.22700500 285.35501099 228.75000000 0.129857 0.523805 0.841882 0.000000
200.37500000 146.25599670 160.00000000 -0.117317 0.891895 -0.436760 0.000000
186.06199646 134.17999268 238.75000000 -0.149332 -0.665205 0.731575 0.000000
128.81199646 153.85899353 148.75000000 0.672332 0.504668 -0.541554 0.000000
223.63299561 127.47100067 242.50000000 0.216806 -0.807258 0.548935 0.000000
153.85899353 143.12500000 243.75000000 -0.073523 -0.635754 0.768383 0.000000
213.79299927 204.84800720 246.25000000 -0.439521 0.439521 0.783353 0.000000
198.13900757 236.15600586 220.00000000 -0.018053 -0.997149 0.073273 0.000000
133.28500366 148.49200439 148.75000000 0.563495 0.563495 -0.604108 0.000000
148.49200439 170.85499573 266.25000000 0.138113 -0.422882 0.895598 0.000000
93.92579651 165.93600464 195.00000000 -0.893665 -0.341651 -0.290926 0.000000
188.29899597 208.42599487 187.50000000 -0.679356 -0.340492 -0.650031 0.000000
192.32400513 251.80999756 230.00000000 0.776002 0.460395 0.431112 0.000000
97.05660248 273.72698975 212.50000000 -0.685677 0.685677 -0.244322 0.000000
118.97299957 174.43400574 133.75000000 0.868346 -0.071313 -0.490804 0.000000
152.07000732 282.67199707 231.25000000 0.000978 0.000978 0.999999 0.000000
185.61500549 187.85200500 217.50000000 -0.843747 0.223479 -0.488005 0.000000
249.57400513 145.80900574 243.75000000 0.270063 0.157201 0.949923 0.000000
152.96499634 258.51901245 251.25000000 -0.008977 0.380863 0.924588 0.000000
257.62500000 182.48399353 236.25000000 0.680398 0.001380 -0.732842 0.000000
110.92199707 158.33200073 138.75000000 -0.685677 -0.685677 -0.244322 0.000000
238.83999634 190.53500366 226.25000000 0.175778 0.381568 -0.907474 0.000000
129.70700073 242.41799927 133.75000000 0.786923 0.486374 -0.379727 0.000000
182.48399353 227.65800476 252.50000000 0.269190 0.463007 0.844489 0.000000
240.62899780 176.22300720 221.25000000 -0.000978 -0.000978 -0.999999 0.000000
105.10700226 220.05499268 80.00000000 0.738844 -0.213098 -0.639295 0.000000
214.68699646 202.16400146 188.75000000 0.513311 0.374053 -0.772396 0.000000
159.22700500 201.26899719 198.75000000 0.285604 0.285604 -0.914801 0.000000
91.68939972 267.46499634 197.50000000 -0.917356 0.383722 -0.105902 0.000000
241.52299500 154.30700684 220.00000000 0.779836 0.085680 -0.620093 0.000000
90.34760284 242.41799927 233.75000000 -0.780381 0.468877 0.413715 0.000000
105.55500031 220.50199890 80.00000000 0.738844 -0.213098 -0.639295 0.000000
98.39839935 171.75000000 251.25000000 0.000978 0.000978 0.999999 0.000000
145.80900574 250.02099609 162.50000000 0.753790 0.500885 -0.425341 0.000000
206.63699341 215.13499451 210.00000000 0.169169 0.672104 0.720873 0.000000
156.54299927 187.85200500 181.25000000 0.513179 0.266728 -0.815784 0.000000
132.83799744 129.70700073 177.50000000 -0.383811 -0.912429 -0.141996 0.000000
173.53900146 141.78300476 165.00000000 -0.563495 0.563495 -0.604108 0.000000
110.92199707 289.82800293 211.25000000 -0.553531 0.680626 0.479950 0.000000
258.51901245 141.33599854 241.25000000 0.453523 -0.161868 0.876422 0.000000
219.16000366 215.58200073 213.75000000 0.833455 0.495775 0.244050 0.000000
118.52500153 164.59399414 257.50000000 0.941995 0.001248 0.335625 0.000000
190.98199463 223.63299561 185.00000000 0.858436 -0.001339 -0.512919 0.000000
208.42599487 192.32400513 253.75000000 0.322777 0.094309 0.941765 0.000000
110.02700043 230.78900146 256.25000000 -0.495091 0.329530 0.803925 0.000000
114.50000000 212.00399780 266.25000000 0.000978 0.000978 0.999999 0.000000
126.12899780 292.51199341 166.25000000 0.882899 0.442174 -0.158023 0.000000
125.23400116 296.08999634 213.75000000 -0.308834 0.799801 0.514723 0.000000
204.84800720 172.64399719 188.75000000 0.180753 -0.120918 -0.976067 0.000000
160.12100220 135.96899414 236.25000000 0.052515 -0.784888 0.617408 0.000000
95.71479797 252.25799561 236.25000000 -0.783907 -0.174370 0.595890 0.000000
98.39839935 264.33401489 135.00000000 -0.814583 0.490011 -0.310393 0.000000
124.33999634 240.62899780 118.75000000 0.805281 0.476790 -0.352410 0.000000
181.58999634 151.62300110 180.00000000 0.558219 0.698191 -0.448242 0.000000
178.01199341 251.36300659 243.75000000 0.520893 0.438212 0.732558 0.000000
181.58999634 188.29899597 202.50000000 -0.700860 0.612227 0.366023 0.000000
219.16000366 195.90199280 218.75000000 0.546788 0.380303 -0.745917 0.000000
164.59399414 287.59201050 195.00000000 0.813364 -0.001362 -0.581753 0.000000
108.23799896 159.67399597 150.00000000 -0.817863 -0.573767 -0.043488 0.000000
120.31400299 181.58999634 137.50000000 0.965488 0.116990 -0.232694 0.000000
207.53100586 212.89799500 218.75000000 -0.176445 0.809835 0.559495 0.000000
150.72799683 305.03500366 190.00000000 0.000978 0.000978 -0.999999 0.000000
90.34760284 213.79299927 246.25000000 -0.577450 0.284748 0.765161 0.000000
227.21099854 122.99800110 225.00000000 0.009870 -0.992514 0.121734 0.000000
130.15400696 170.85499573 155.00000000 0.932203 0.103878 -0.346709 0.000000
114.50000000 262.99200439 128.75000000 0.713223 0.591893 -0.375467 0.000000
127.02300262 159.22700500 256.25000000 -0.365936 -0.651465 0.664593 0.000000
262.99200439 135.96899414 233.75000000 0.832714 -0.420292 -0.360475 0.000000
163.69900513 212.89799500 183.75000000 0.217494 -0.838038 0.500389 0.000000
130.15400696 195.00799561 140.00000000 0.740272 -0.634296 -0.222861 0.000000
264.78100586 177.56399536 240.00000000 0.893108 0.299691 0.335475 0.000000
175.32800293 274.62100220 231.25000000 0.066151 0.186426 0.980239 0.000000
109.13300323 138.20500183 220.00000000 -0.812111 -0.582083 0.040676 0.000000
115.39499664 219.16000366 263.75000000 -0.001380 0.680398 0.732842 0.000000
127.91799927 197.69099426 271.25000000 0.000978 0.000978 0.999999 0.000000
249.57400513 153.85899353 246.25000000 0.246407 0.181776 0.951967 0.000000
147.59800720 263.88699341 248.75000000 -0.001380 0.680398 0.732842 0.000000
105.10700226 170.85499573 255.00000000 -0.508754 -0.532261 0.676660 0.000000
159.22700500 136.41600037 237.50000000 0.242535 -0.849635 0.468291 0.000000
169.06599426 225.42199707 258.75000000 0.569259 0.309484 0.761685 0.000000
214.68699646 212.00399780 233.75000000 0.172048 0.637947 -0.750615 0.000000
144.91400146 214.68699646 268.75000000 0.082640 0.383396 0.919879 0.000000
131.49600220 150.28100586 148.75000000 0.635056 0.523879 -0.567676 0.000000
140.88900757 250.46899414 157.50000000 0.613664 0.579853 -0.535899 0.000000
264.33401489 145.80900574 237.50000000 0.410792 -0.327084 0.851038 0.000000
152.96499634 237.05099487 158.75000000 0.923789 0.276421 -0.264963 0.000000
252.25799561 179.80099487 243.75000000 0.000978 0.000978 0.999999 0.000000
184.72099304 277.30499268 207.50000000 0.811641 0.314847 -0.492047 0.000000
237.05099487 123.44499969 233.75000000 0.001251 -0.941713 0.336415 0.000000
169.96099854 291.61700439 198.75000000 0.680398 0.001380 -0.732842 0.000000
131.49600220 128.36500549 222.50000000 -0.271104 -0.853136 0.445714 0.000000
169.06599426 173.09199524 260.00000000 0.190063 -0.235894 0.953011 0.000000
116.28900146 148.93899536 150.00000000 -0.705724 -0.708486 0.001381 0.000000
130.60200500 186.06199646 271.25000000 -0.424720 -0.904372 -0.041534 0.000000
148.93899536 235.26199341 152.50000000 0.482333 0.423472 -0.766828 0.000000
190.53500366 212.45100403 185.00000000 0.326856 -0.514998 -0.792428 0.000000
133.28500366 198.58599854 271.25000000 0.177975 0.267643 0.946938 0.000000
216.47700500 126.12899780 233.75000000 -0.163474 -0.979613 0.116767 0.000000
174.43400574 134.17999268 236.25000000 0.208421 -0.829119 0.518770 0.000000
207.53100586 206.63699341 246.25000000 0.426779 0.702442 0.569592 0.000000
186.50999451 257.62500000 195.00000000 0.564979 0.356572 -0.744080 0.000000
126.57599640 252.25799561 140.00000000 0.778794 0.408094 -0.476381 0.000000
241.52299500 198.58599854 233.75000000 -0.175610 0.737561 -0.652047 0.000000
196.79699707 216.47700500 216.25000000 0.383020 0.871331 0.306721 0.000000
173.53900146 226.31599426 163.75000000 0.515354 -0.037105 -0.856174 0.000000
266.57000732 155.64799500 236.25000000 0.796380 -0.190339 0.574064 0.000000
101.08200073 169.06599426 251.25000000 -0.519020 -0.401136 0.754790 0.000000
160.12100220 126.57599640 225.00000000 0.078869 -0.892470 0.444159 0.000000
102.87100220 230.78900146 78.75000000 -0.000978 -0.000978 -0.999999 0.000000
169.06599426 242.41799927 171.25000000 0.255405 0.851858 -0.457281 0.000000
138.65199280 195.00799561 153.75000000 0.467117 -0.818642 -0.334107 0.000000
126.12899780 182.48399353 151.25000000 0.873846 0.364484 -0.321783 0.000000
154.75399780 135.07400513 238.75000000 0.123297 -0.753149 0.646193 0.000000
270.14801025 170.85499573 241.25000000 0.662440 -0.265294 -0.700566 0.000000
114.50000000 151.62300110 167.50000000 -0.818077 -0.541843 -0.192757 0.000000
165.48800659 131.94299316 232.50000000 -0.230649 -0.929671 0.287250 0.000000
119.86699677 287.14401245 156.25000000 0.700268 0.104672 -0.706165 0.000000
165.93600464 163.69900513 257.50000000 0.205631 -0.238314 0.949169 0.000000
137.31100464 276.41000366 172.50000000 0.607094 0.168049 -0.776657 0.000000
123.44499969 301.90399170 182.50000000 -0.559963 0.817044 0.137405 0.000000
94.82029724 219.16000366 248.75000000 -0.733118 0.250679 0.632216 0.000000
194.56100464 224.52699280 215.00000000 0.829278 -0.031842 0.557928 0.000000
211.10899353 177.11700439 191.25000000 0.636157 0.758898 -0.139206 0.000000
194.11300659 186.95700073 258.75000000 0.511612 -0.120294 0.850754 0.000000
123.44499969 190.53500366 268.75000000 -0.303106 -0.360410 0.882174 0.000000
159.22700500 263.88699341 183.75000000 0.504209 0.377752 -0.776580 0.000000
167.27699280 266.57000732 241.25000000 0.208388 0.606641 0.767177 0.000000
172.64399719 253.15199280 181.25000000 0.439633 0.718343 -0.539172 0.000000
135.96899414 227.21099854 133.75000000 0.825487 0.275162 -0.492805 0.000000
266.12298584 155.64799500 237.50000000 0.796380 -0.190339 0.574064 0.000000
137.75799561 224.52699280 266.25000000 -0.124026 0.048928 0.991072 0.000000
179.80099487 184.27299500 203.75000000 -0.679130 0.487967 0.548334 0.000000
169.96099854 282.67199707 228.75000000 0.448164 0.422278 0.787928 0.000000
192.32400513 215.58200073 183.75000000 0.326856 -0.514998 -0.792428 0.000000
94.82029724 233.47300720 78.75000000 -0.796622 0.200302 -0.570326 0.000000
141.78300476 214.68699646 142.50000000 0.879694 -0.234485 -0.413710 0.000000
131.49600220 282.67199707 233.75000000 -0.219039 0.472823 0.853499 0.000000
130.15400696 195.90199280 137.50000000 0.685677 -0.685677 -0.244322 0.000000
194.11300659 256.73001099 221.25000000 0.916970 0.228883 0.326770 0.000000
129.70700073 206.18899536 125.00000000 0.799533 -0.423093 -0.426310 0.000000
198.58599854 235.26199341 223.75000000 0.914870 -0.403274 0.019576 0.000000
225.42199707 161.91000366 251.25000000 0.731869 0.282224 0.620255 0.000000
249.57400513 169.06599426 228.75000000 0.332403 0.206860 -0.920172 0.000000
135.96899414 294.74798584 220.00000000 0.064241 0.792312 0.606725 0.000000
185.61500549 265.67599487 230.00000000 0.425150 0.464244 0.776998 0.000000
161.91000366 220.50199890 157.50000000 0.380437 -0.016765 -0.924655 0.000000
204.84800720 149.38699341 251.25000000 -0.094766 -0.081065 0.992193 0.000000
166.83000183 183.37899780 205.00000000 -0.685335 -0.136467 0.715327 0.000000
165.04100037 294.30099487 195.00000000 0.772748 -0.104108 -0.626117 0.000000
200.37500000 212.00399780 188.75000000 0.535172 0.555430 -0.636466 0.000000
133.28500366 184.72099304 270.00000000 -0.327344 -0.814406 0.479155 0.000000
104.66000366 234.36700439 78.75000000 0.223518 0.341766 -0.912818 0.000000
178.01199341 185.16799927 261.25000000 0.646302 -0.322341 0.691657 0.000000
177.56399536 237.05099487 170.00000000 0.538552 0.511708 -0.669415 0.000000
94.37300110 235.26199341 80.00000000 -0.687521 0.431157 -0.584310 0.000000
154.75399780 304.58801270 195.00000000 0.389739 0.910330 0.139293 0.000000
162.80499268 165.48800659 258.75000000 0.072044 -0.108638 0.991467 0.000000
138.65199280 125.68199921 220.00000000 -0.063010 -0.855542 0.513885 0.000000
175.32800293 259.41400146 188.75000000 0.463253 0.587010 -0.663940 0.000000
173.53900146 183.37899780 211.25000000 -0.659932 0.340558 0.669709 0.000000
257.62500000 169.06599426 243.75000000 0.000978 0.000978 0.999999 0.000000
100.18699646 235.26199341 78.75000000 0.171879 0.612984 -0.771173 0.000000
179.80099487 189.64100647 213.75000000 -0.941995 -0.001248 0.335625 0.000000
253.15199280 125.23400116 238.75000000 0.192432 -0.959508 0.205704 0.000000
189.64100647 233.47300720 246.25000000 0.694093 0.290141 0.658827 0.000000
103.76599884 235.26199341 78.75000000 0.223518 0.341766 -0.912818 0.000000
99.29290009 153.85899353 193.75000000 -0.000978 -0.999999 -0.000978 0.000000
154.75399780 199.47999573 193.75000000 0.737383 0.620036 -0.267995 0.000000
182.93200684 233.47300720 250.00000000 0.314120 0.335162 0.888254 0.000000
167.27699280 121.20899963 202.50000000 0.137631 -0.988861 0.056672 0.000000
174.43400574 185.16799927 198.75000000 -0.669637 0.640022 0.376774 0.000000
129.25999451 133.28500366 170.00000000 -0.522942 -0.824815 -0.214970 0.000000
171.75000000 167.27699280 203.75000000 -0.516253 -0.031496 0.855857 0.000000
83.63860321 207.53100586 202.50000000 -0.700489 0.700489 -0.136498 0.000000
235.26199341 181.58999634 218.75000000 0.766941 0.249373 -0.591282 0.000000
100.18699646 236.15600586 78.75000000 0.174991 0.619315 -0.765394 0.000000
248.67999268 181.58999634 243.75000000 0.117599 -0.139422 0.983225 0.000000
107.34400177 162.35699463 137.50000000 -0.685677 -0.685677 -0.244322 0.000000
148.49200439 196.79699707 268.75000000 0.000978 0.000978 0.999999 0.000000
87.66400146 205.29499817 127.50000000 -0.687161 0.684002 0.244850 0.000000
111.81600189 225.42199707 258.75000000 -0.422485 0.261971 0.867685 0.000000
188.74600220 215.13499451 182.50000000 0.398408 -0.542688 -0.739433 0.000000
121.20899963 270.14801025 240.00000000 -0.081316 0.549237 0.831701 0.000000
91.24220276 175.32800293 193.75000000 -0.777258 -0.290875 -0.557909 0.000000
130.15400696 242.41799927 257.50000000 -0.016670 0.368020 0.929668 0.000000
97.50389862 180.24800110 255.00000000 -0.493399 -0.196460 0.847326 0.000000
175.32800293 122.99800110 185.00000000 0.000978 -0.999999 0.000978 0.000000
82.74410248 218.26600647 220.00000000 -0.898379 0.298470 -0.322228 0.000000
154.75399780 297.87899780 213.75000000 0.091175 0.879492 0.467099 0.000000
103.31800079 237.05099487 80.00000000 0.136466 0.523853 -0.840806 0.000000
139.54699707 159.22700500 166.25000000 0.632208 0.413175 -0.655439 0.000000
159.22700500 273.72698975 238.75000000 0.214326 0.380538 0.899586 0.000000
123.44499969 249.57400513 128.75000000 0.832487 0.471483 -0.290981 0.000000
225.42199707 134.17999268 248.75000000 0.144362 -0.491413 0.858879 0.000000
153.85899353 254.04699707 173.75000000 0.607318 0.549800 -0.573484 0.000000
128.81199646 297.87899780 213.75000000 -0.340995 0.789251 0.510692 0.000000
101.52899933 172.64399719 127.50000000 -0.816980 -0.567388 -0.103029 0.000000
191.42999268 164.59399414 186.25000000 0.001248 -0.941995 -0.335625 0.000000
168.17199707 197.69099426 201.25000000 -0.179093 0.820215 0.543298 0.000000
195.90199280 168.17199707 186.25000000 -0.000978 -0.000978 -0.999999 0.000000
102.87100220 237.49800110 80.00000000 0.136466 0.523853 -0.840806 0.000000
262.09799194 164.59399414 231.25000000 0.352946 0.474320 -0.806504 0.000000
89.00579834 199.47999573 247.50000000 -0.849849 0.141885 0.507569 0.000000
146.70300293 216.02900696 150.00000000 0.477370 -0.681717 -0.554419 0.000000
133.28500366 131.94299316 167.50000000 -0.492697 -0.657490 -0.570049 0.000000
156.09599304 141.33599854 172.50000000 0.984392 -0.001135 -0.175987 0.000000
190.08799744 265.67599487 222.50000000 0.887737 0.285932 0.360784 0.000000
236.15600586 194.11300659 241.25000000 0.142011 0.437510 0.887929 0.000000
157.43699646 143.57200623 245.00000000 -0.049938 -0.660607 0.749069 0.000000
161.91000366 178.01199341 181.25000000 0.246949 0.129354 -0.960356 0.000000
144.46699524 150.28100586 162.50000000 0.641604 0.554036 -0.530460 0.000000
139.54699707 180.69500732 178.75000000 -0.278596 0.444831 -0.851181 0.000000
103.76599884 285.80300903 170.00000000 -0.707106 0.707106 0.001384 0.000000
214.68699646 179.80099487 251.25000000 0.000978 0.000978 0.999999 0.000000
218.26600647 205.74200439 238.75000000 0.719439 0.431663 0.544127 0.000000
97.05660248 197.69099426 82.50000000 0.082910 -0.734556 -0.673464 0.000000
194.11300659 229.89399719 193.75000000 0.942207 -0.148197 -0.300473 0.000000
137.75799561 252.25799561 253.75000000 -0.664261 0.220378 0.714276 0.000000
99.29290009 237.05099487 246.25000000 -0.475920 0.294914 0.828569 0.000000
94.82029724 198.58599854 81.25000000 -0.506425 -0.637658 -0.580454 0.000000
169.96099854 131.49600220 233.75000000 -0.052472 -0.905484 0.421124 0.000000
120.76200104 299.22100830 187.50000000 -0.547652 0.823704 0.146931 0.000000
255.83599854 174.43400574 243.75000000 0.000978 0.000978 0.999999 0.000000
133.28500366 198.58599854 141.25000000 0.765902 -0.608080 -0.208882 0.000000
215.13499451 198.58599854 227.50000000 -0.086449 0.956102 -0.279992 0.000000
152.96499634 134.62699890 237.50000000 -0.048551 -0.930338 0.363475 0.000000
113.60500336 284.01400757 222.50000000 -0.474595 0.638943 0.605402 0.000000
171.30299377 254.94099426 182.50000000 0.426173 0.711394 -0.558834 0.000000
113.60500336 165.48800659 256.25000000 -0.368964 -0.696932 0.614940 0.000000
125.23400116 192.32400513 133.75000000 0.744225 -0.453796 -0.490100 0.000000
192.32400513 126.57599640 180.00000000 0.708486 -0.705724 -0.001381 0.000000
218.26600647 131.94299316 167.50000000 0.136372 -0.879960 -0.455053 0.000000
151.17599487 217.37100220 151.25000000 0.537901 -0.457965 -0.707764 0.000000
178.90600586 264.78100586 196.25000000 -0.658568 -0.234192 -0.715152 0.000000
178.01199341 191.87699890 262.50000000 0.042902 -0.156533 0.986740 0.000000
105.55500031 262.54501343 237.50000000 -0.449602 0.586656 0.673568 0.000000
175.32800293 186.06199646 211.25000000 -0.587933 0.415693 0.693926 0.000000
182.48399353 185.16799927 213.75000000 0.021104 0.125511 0.991868 0.000000
109.13300323 152.07000732 178.75000000 -0.709421 -0.536634 -0.456887 0.000000
134.17999268 245.10200500 256.25000000 -0.075251 0.420038 0.904381 0.000000
220.50199890 148.49200439 190.00000000 0.344366 0.885728 -0.311283 0.000000
114.05300140 153.85899353 162.50000000 -0.773664 -0.623352 -0.113471 0.000000
152.51800537 212.00399780 157.50000000 -0.001302 -0.902354 -0.430994 0.000000
195.00799561 232.57800293 216.25000000 0.803481 -0.571331 0.167329 0.000000
198.58599854 239.28700256 232.50000000 0.922075 -0.090985 0.376163 0.000000
141.33599854 126.12899780 178.75000000 -0.248065 -0.928471 -0.276415 0.000000
186.95700073 168.17199707 256.25000000 0.380427 -0.666982 0.640632 0.000000
115.39499664 132.83799744 215.00000000 -0.000978 -0.000978 0.999999 0.000000
135.07400513 132.39100647 166.25000000 -0.444832 -0.753424 -0.484227 0.000000
87.21679688 204.84800720 140.00000000 -0.974198 -0.225542 0.008266 0.000000
162.80499268 141.33599854 241.25000000 0.156466 -0.864217 0.478171 0.000000
196.79699707 236.15600586 223.75000000 0.014185 -0.994047 0.108025 0.000000
176.22300720 163.69900513 213.75000000 0.102031 0.262181 0.959610 0.000000
154.30700684 267.46499634 182.50000000 0.460289 0.637710 -0.617624 0.000000
195.00799561 223.63299561 236.25000000 0.966970 0.030562 -0.253050 0.000000
206.63699341 126.57599640 180.00000000 -0.001248 -0.941995 -0.335625 0.000000
123.44499969 236.15600586 258.75000000 -0.551095 0.457859 0.697610 0.000000
90.79489899 169.96099854 202.50000000 -0.446689 -0.894688 0.001310 0.000000
125.68199921 241.52299500 122.50000000 0.824044 0.478730 -0.302934 0.000000
124.33999634 295.19500732 163.75000000 0.679189 0.136438 -0.721170 0.000000
124.33999634 229.00000000 106.25000000 0.888104 0.292041 -0.354942 0.000000
191.42999268 190.08799744 190.00000000 -0.786874 0.473417 -0.395861 0.000000
119.86699677 187.85200500 128.75000000 0.705014 -0.610140 -0.361504 0.000000
84.53320313 229.00000000 152.50000000 -0.992979 0.001085 -0.118289 0.000000
149.38699341 148.49200439 166.25000000 0.626274 0.481878 -0.612842 0.000000
177.11700439 233.47300720 168.75000000 0.700255 0.258824 -0.665322 0.000000
229.00000000 199.47999573 236.25000000 0.356775 0.933799 0.027048 0.000000
138.65199280 190.98199463 160.00000000 0.596929 -0.596929 -0.536052 0.000000
225.42199707 122.99800110 202.50000000 -0.115982 -0.993030 0.020987 0.000000
254.04699707 168.17199707 228.75000000 0.248645 0.155569 -0.956020 0.000000
185.16799927 162.80499268 183.75000000 0.560547 -0.093665 -0.822808 0.000000
192.32400513 142.22999573 246.25000000 -0.314306 -0.540861 0.780180 0.000000
181.58999634 170.40800476 210.00000000 0.071679 0.507373 0.858740 0.000000
229.89399719 165.48800659 203.75000000 0.719106 0.237604 -0.653017 0.000000
92.58399963 187.85200500 112.50000000 -0.894688 -0.446689 0.001310 0.000000
98.39839935 173.53900146 173.75000000 -0.781723 -0.557471 -0.279525 0.000000
101.08200073 202.16400146 81.25000000 -0.563495 -0.563495 -0.604108 0.000000
193.66600037 219.16000366 202.50000000 0.285604 0.285604 -0.914801 0.000000
220.05499268 215.58200073 208.75000000 0.939945 0.336716 -0.055903 0.000000
191.87699890 237.94500732 190.00000000 0.680398 -0.001380 -0.732842 0.000000
149.38699341 248.67999268 256.25000000 0.043967 0.406364 0.912653 0.000000
169.96099854 148.49200439 246.25000000 -0.087543 -0.446052 0.890715 0.000000
86.32219696 250.46899414 200.00000000 -0.000978 -0.000978 0.999999 0.000000
248.67999268 126.12899780 213.75000000 0.677454 -0.399184 -0.617825 0.000000
139.54699707 264.33401489 247.50000000 0.234422 0.452207 0.860555 0.000000
182.93200684 127.02300262 172.50000000 0.490944 -0.820331 -0.293311 0.000000
99.29290009 272.38500977 147.50000000 -0.814406 0.496205 -0.300873 0.000000
127.02300262 275.96301270 237.50000000 -0.300799 0.696503 0.651463 0.000000
89.45310211 203.50599670 82.50000000 -0.922541 -0.307514 -0.233138 0.000000
129.70700073 257.17800903 150.00000000 0.000978 0.000978 -0.999999 0.000000
162.80499268 190.08799744 187.50000000 0.671522 0.665018 -0.326818 0.000000
99.29290009 203.95300293 81.25000000 0.158795 -0.461817 -0.872645 0.000000
104.66000366 162.35699463 175.00000000 -0.851833 -0.449707 -0.268596 0.000000
128.81199646 138.20500183 155.00000000 -0.498821 -0.833415 -0.237899 0.000000
201.26899719 152.07000732 251.25000000 0.000978 0.000978 0.999999 0.000000
197.24400330 215.58200073 220.00000000 0.352001 0.935683 0.024320 0.000000
141.78300476 211.10899353 145.00000000 0.873719 -0.206192 -0.440568 0.000000
123.44499969 189.19299316 147.50000000 0.000978 0.000978 -0.999999 0.000000
149.38699341 226.31599426 148.75000000 0.852207 -0.425330 -0.304691 0.000000
112.71099854 287.14401245 218.75000000 -0.638178 0.520309 0.567457 0.000000
231.68400574 155.64799500 248.75000000 0.000978 0.000978 0.999999 0.000000
135.07400513 163.69900513 261.25000000 -0.057315 -0.385213 0.921046 0.000000
178.45899963 190.53500366 210.00000000 -0.598499 0.608615 0.520947 0.000000
195.90199280 229.00000000 243.75000000 0.446919 0.260830 0.855705 0.000000
195.90199280 229.89399719 233.75000000 0.963511 0.043401 -0.264128 0.000000
195.00799561 131.49600220 166.25000000 -0.025784 -0.869869 -0.492609 0.000000
200.37500000 217.37100220 198.75000000 0.509962 0.806782 -0.298399 0.000000
201.26899719 147.14999390 162.50000000 -0.117317 0.891895 -0.436760 0.000000
198.58599854 185.16799927 256.25000000 0.628274 0.209425 0.749275 0.000000
168.17199707 253.15199280 178.75000000 0.402696 0.611502 -0.681103 0.000000
134.17999268 251.80999756 150.00000000 0.685677 0.685677 -0.244322 0.000000
198.13900757 245.10200500 212.50000000 0.680398 -0.001380 -0.732842 0.000000
146.70300293 123.44499969 218.75000000 -0.105121 -0.842409 0.528486 0.000000
186.95700073 232.57800293 248.75000000 0.449590 0.342319 0.825037 0.000000
258.51901245 149.38699341 241.25000000 0.594756 -0.055359 0.801998 0.000000
253.15199280 142.22999573 228.75000000 0.308188 -0.323076 -0.894786 0.000000
139.54699707 288.03900146 176.25000000 0.615186 0.126002 -0.778248 0.000000
118.07800293 296.98400879 198.75000000 -0.564128 0.822746 -0.069628 0.000000
84.53320313 222.73800659 152.50000000 0.000000 0.000000 0.000000 0.000000
88.55860138 229.89399719 238.75000000 -0.825487 0.275162 0.492805 0.000000
137.75799561 271.04299927 243.75000000 -0.018163 0.699970 0.713941 0.000000
148.49200439 214.68699646 266.25000000 0.261810 0.668012 0.696574 0.000000
126.12899780 161.91000366 258.75000000 -0.228772 -0.599166 0.767244 0.000000
87.66400146 223.63299561 238.75000000 -0.860874 0.214843 0.461236 0.000000
141.33599854 227.21099854 141.25000000 0.784161 0.135405 -0.605604 0.000000
169.06599426 124.33999634 221.25000000 0.298470 -0.898379 -0.322228 0.000000
173.53900146 266.12298584 192.50000000 0.687043 0.185978 -0.702413 0.000000
114.50000000 181.58999634 126.25000000 0.802086 -0.197084 -0.563752 0.000000
110.92199707 145.36099243 182.50000000 -0.751479 -0.498245 -0.432470 0.000000
87.21679688 209.32000732 120.00000000 -0.999999 0.000978 0.000978 0.000000
102.87100220 208.42599487 81.25000000 0.635986 -0.240261 -0.733346 0.000000
124.33999634 254.49400330 137.50000000 0.439521 -0.439521 -0.783353 0.000000
85.87500000 192.77099609 202.50000000 -0.932692 -0.206174 -0.295937 0.000000
141.33599854 296.98400879 176.25000000 0.621876 -0.085526 -0.778432 0.000000
85.42769623 249.57400513 192.50000000 -0.974192 0.224814 -0.020221 0.000000
89.00579834 237.05099487 117.50000000 -0.941995 0.001248 -0.335625 0.000000
164.59399414 168.17199707 258.75000000 0.078761 -0.099308 0.991935 0.000000
144.91400146 173.53900146 266.25000000 -0.129791 -0.634035 0.762334 0.000000
171.75000000 169.96099854 258.75000000 0.121262 -0.150659 0.981120 0.000000
133.28500366 206.63699341 268.75000000 -0.181053 0.363532 0.913819 0.000000
199.47999573 203.50599670 255.00000000 0.331862 0.581163 0.743046 0.000000
203.95300293 216.02900696 200.00000000 0.471977 0.878517 0.073790 0.000000
254.04699707 176.22300720 243.75000000 0.000978 0.000978 0.999999 0.000000
92.13670349 208.42599487 248.75000000 -0.827088 0.063622 0.558461 0.000000
228.10499573 122.55100250 223.75000000 0.009870 -0.992514 0.121734 0.000000
217.37100220 216.92399597 212.50000000 0.690320 0.690320 0.216602 0.000000
179.35299683 148.49200439 247.50000000 -0.146071 -0.532644 0.833639 0.000000
125.68199921 190.53500366 147.50000000 0.512744 -0.856437 0.060076 0.000000
101.08200073 279.54098511 180.00000000 0.000978 0.000978 0.999999 0.000000
120.31400299 184.27299500 137.50000000 0.994460 -0.103476 -0.018517 0.000000
151.17599487 304.58801270 190.00000000 0.000978 0.000978 -0.999999 0.000000
134.17999268 173.53900146 178.75000000 -0.439521 0.439521 -0.783353 0.000000
105.55500031 154.75399780 241.25000000 -0.549627 -0.466097 0.693299 0.000000
203.05900574 213.79299927 228.75000000 -0.256592 0.948983 -0.183280 0.000000
178.45899963 188.74600220 262.50000000 0.466595 -0.175157 0.866954 0.000000
135.07400513 300.56201172 211.25000000 0.001362 0.813364 0.581753 0.000000
138.65199280 131.49600220 228.75000000 -0.337347 -0.871607 0.355665 0.000000
86.32219696 220.05499268 127.50000000 -0.974084 -0.129794 -0.185240 0.000000
127.47100067 227.21099854 112.50000000 0.917964 0.137903 -0.371922 0.000000
124.78700256 126.12899780 202.50000000 -0.472501 -0.849286 -0.235491 0.000000
106.44899750 212.89799500 81.25000000 0.959508 -0.192432 -0.205704 0.000000
83.63860321 229.00000000 187.50000000 -0.999999 -0.000978 -0.000978 0.000000
145.80900574 246.89100647 158.75000000 0.738003 0.480445 -0.473841 0.000000
156.54299927 220.05499268 266.25000000 0.216573 -0.364831 0.905536 0.000000
153.41200256 208.42599487 197.50000000 -0.361222 0.727347 -0.583512 0.000000
168.17199707 296.98400879 213.75000000 0.354515 0.790841 0.498888 0.000000
190.53500366 125.23400116 218.75000000 0.001085 -0.992979 0.118289 0.000000
228.55299377 147.59800720 250.00000000 0.377776 0.513969 0.770144 0.000000
119.41999817 129.70700073 212.50000000 -0.576843 -0.816854 0.001364 0.000000
208.42599487 179.80099487 191.25000000 0.000978 0.000978 -0.999999 0.000000
165.48800659 291.61700439 196.25000000 0.807811 -0.052345 -0.587113 0.000000
114.50000000 293.85299683 192.50000000 -0.599579 0.796067 -0.082352 0.000000
227.21099854 199.92799377 237.50000000 0.349755 0.936525 0.024342 0.000000
132.39100647 290.72299194 223.75000000 0.000978 0.000978 0.999999 0.000000
92.58399963 163.69900513 202.50000000 -0.960959 -0.276474 0.010962 0.000000
160.12100220 154.75399780 253.75000000 0.156111 -0.533752 0.831107 0.000000
151.17599487 150.28100586 171.25000000 0.941713 0.001251 -0.336415 0.000000
132.83799744 152.96499634 152.50000000 0.696986 0.415543 -0.584409 0.000000
247.78500366 181.58999634 228.75000000 0.478375 -0.006663 -0.878131 0.000000
97.50389862 161.01600647 241.25000000 -0.543015 -0.597147 0.590381 0.000000
125.23400116 126.57599640 200.00000000 -0.413263 -0.905309 -0.098133 0.000000
237.05099487 137.31100464 185.00000000 0.576258 0.815779 -0.049313 0.000000
161.91000366 195.90199280 266.25000000 0.000978 0.000978 0.999999 0.000000
189.64100647 148.04499817 170.00000000 0.242814 0.970072 0.001184 0.000000
152.07000732 276.41000366 186.25000000 0.875886 -0.222329 -0.428244 0.000000
83.63860321 212.89799500 180.00000000 -0.997228 -0.013777 -0.073123 0.000000
84.53320313 186.95700073 225.00000000 -0.984462 0.001133 -0.175594 0.000000
144.01899719 302.79901123 207.50000000 0.051544 0.923832 0.379313 0.000000
184.72099304 123.44499969 197.50000000 0.058909 -0.994777 -0.083361 0.000000
253.15199280 194.11300659 243.75000000 0.079477 0.148277 0.985747 0.000000
229.89399719 164.59399414 203.75000000 0.719106 0.237604 -0.653017 0.000000
214.68699646 212.89799500 233.75000000 0.172048 0.637947 -0.750615 0.000000
83.63860321 223.63299561 217.50000000 -0.978349 0.185358 0.092065 0.000000
97.05660248 275.51599121 192.50000000 0.000978 0.000978 0.999999 0.000000
131.49600220 167.27699280 261.25000000 0.000978 0.000978 0.999999 0.000000
203.05900574 127.02300262 231.25000000 -0.001248 -0.941995 0.335625 0.000000
96.60939789 274.62100220 166.25000000 -0.869694 0.482531 -0.103908 0.000000
89.45310211 228.10499573 241.25000000 -0.740272 0.267893 0.616629 0.000000
116.28900146 297.43200684 167.50000000 -0.563578 0.783358 -0.262166 0.000000
151.17599487 260.30899048 176.25000000 0.495207 0.511881 -0.701960 0.000000
146.25599670 149.38699341 250.00000000 0.162349 -0.653947 0.738915 0.000000
179.80099487 229.00000000 253.75000000 0.423851 0.086979 0.901546 0.000000
146.25599670 305.03500366 185.00000000 0.469087 0.730980 -0.495607 0.000000
134.17999268 165.48800659 261.25000000 0.000978 0.000978 0.999999 0.000000
95.26760101 272.83200073 192.50000000 -0.810637 0.565803 -0.150781 0.000000
233.91999817 171.75000000 212.50000000 0.823986 0.106086 -0.556590 0.000000
89.90039825 239.73399353 115.00000000 -0.942969 0.268436 -0.196853 0.000000
129.70700073 297.87899780 213.75000000 -0.340995 0.789251 0.510692 0.000000
157.43699646 137.31100464 177.50000000 0.184972 0.518824 -0.834630 0.000000
196.79699707 135.07400513 243.75000000 -0.325827 -0.611129 0.721359 0.000000
140.44099426 280.88299561 176.25000000 0.542159 -0.063369 -0.837883 0.000000
138.65199280 177.56399536 267.50000000 -0.048433 -0.362589 0.930690 0.000000
155.64799500 262.09799194 181.25000000 0.698666 -0.179657 -0.692524 0.000000
172.64399719 179.80099487 201.25000000 -0.563495 0.563495 0.604108 0.000000
154.75399780 199.47999573 181.25000000 0.903463 0.198039 0.380177 0.000000
118.97299957 299.22100830 167.50000000 -0.521208 0.818157 -0.242818 0.000000
89.90039825 235.26199341 110.00000000 -0.972262 0.229984 -0.042590 0.000000
102.42400360 282.67199707 180.00000000 -0.867535 0.488254 0.094820 0.000000
152.51800537 273.72698975 240.00000000 0.165876 0.829380 0.533493 0.000000
165.48800659 267.91198730 240.00000000 0.282656 0.637173 0.717019 0.000000
212.89799500 199.47999573 186.25000000 0.630919 0.322758 -0.705527 0.000000
178.01199341 156.54299927 183.75000000 0.091213 0.592158 -0.800643 0.000000
107.34400177 223.63299561 81.25000000 0.508951 0.004029 -0.860786 0.000000
119.86699677 223.63299561 263.75000000 0.813364 -0.001362 0.581753 0.000000
125.23400116 235.26199341 261.25000000 -0.645985 0.481552 0.592293 0.000000
121.65599823 271.93701172 238.75000000 -0.081316 0.549237 0.831701 0.000000
99.74019623 240.62899780 245.00000000 -0.485300 0.176608 0.856325 0.000000
108.68599701 288.93399048 190.00000000 -0.707106 0.707106 0.001384 0.000000
210.21499634 161.01600647 253.75000000 -0.210491 0.336500 0.917857 0.000000
270.59600830 169.96099854 240.00000000 0.967613 0.005980 -0.252369 0.000000
110.92199707 271.93701172 233.75000000 -0.547747 0.431909 0.716539 0.000000
127.91799927 185.61500549 162.50000000 0.874214 -0.433384 0.218926 0.000000
125.23400116 240.18200684 120.00000000 0.809620 0.472411 -0.348343 0.000000
127.02300262 158.33200073 256.25000000 -0.365936 -0.651465 0.664593 0.000000
220.50199890 208.42599487 207.50000000 0.980338 -0.046456 -0.191779 0.000000
142.22999573 144.91400146 246.25000000 0.203296 -0.802483 0.560974 0.000000
191.87699890 228.10499573 247.50000000 0.477896 0.714347 0.511199 0.000000
135.07400513 258.96701050 160.00000000 0.679260 0.491415 -0.545085 0.000000
88.55860138 178.90600586 243.75000000 -0.900703 -0.340528 0.269769 0.000000
199.03300476 218.26600647 192.50000000 0.839080 0.486268 -0.243901 0.000000
169.06599426 237.94500732 166.25000000 0.294563 0.515092 -0.804930 0.000000
212.89799500 147.14999390 175.00000000 0.126486 0.984178 -0.124076 0.000000
109.13300323 276.41000366 226.25000000 -0.666180 0.548717 0.505088 0.000000
91.24220276 199.47999573 251.25000000 -0.849849 0.141885 0.507569 0.000000
135.96899414 139.54699707 241.25000000 0.141504 -0.859237 0.491618 0.000000
167.27699280 136.41600037 237.50000000 0.162626 -0.743217 0.648985 0.000000
166.38299561 252.25799561 248.75000000 0.506752 -0.167927 0.845578 0.000000
180.69500732 126.57599640 170.00000000 0.460585 -0.845690 -0.269573 0.000000
101.08200073 240.62899780 246.25000000 -0.431069 0.280732 0.857536 0.000000
178.90600586 266.57000732 233.75000000 0.467283 0.648167 0.601271 0.000000
107.34400177 228.10499573 81.25000000 0.680398 -0.001380 -0.732842 0.000000
124.33999634 199.47999573 121.25000000 0.795879 -0.384273 -0.467880 0.000000
122.55100250 177.11700439 138.75000000 0.813364 0.001362 -0.581753 0.000000
185.16799927 207.53100586 191.25000000 -0.629340 -0.416792 -0.655908 0.000000
185.16799927 167.27699280 183.75000000 -0.000978 -0.000978 -0.999999 0.000000
92.13670349 215.58200073 246.25000000 -0.735241 0.195756 0.648923 0.000000
249.12699890 131.49600220 220.00000000 0.120208 0.654465 -0.746476 0.000000
207.53100586 210.66200256 222.50000000 -0.392301 0.821133 0.414537 0.000000
190.98199463 269.25399780 217.50000000 0.863409 0.486121 -0.134953 0.000000
98.84570313 162.80499268 185.00000000 -0.871477 -0.361717 -0.331192 0.000000
228.10499573 136.86300659 248.75000000 0.439521 -0.439521 0.783353 0.000000
184.27299500 163.69900513 183.75000000 0.182356 -0.129536 -0.974662 0.000000
183.37899780 143.12500000 246.25000000 0.088110 -0.380905 0.920407 0.000000
88.11129761 229.89399719 110.00000000 -0.925371 0.308457 -0.220326 0.000000
151.17599487 160.12100220 256.25000000 0.001362 -0.813364 0.581753 0.000000
148.49200439 184.27299500 178.75000000 -0.000978 -0.000978 -0.999999 0.000000
156.54299927 287.14401245 188.75000000 0.372047 0.001270 -0.928213 0.000000
133.28500366 232.57800293 261.25000000 0.000978 0.000978 0.999999 0.000000
176.22300720 221.39599609 167.50000000 0.807132 -0.402764 -0.431647 0.000000
247.78500366 171.30299377 227.50000000 0.572458 -0.001360 -0.819933 0.000000
156.09599304 201.26899719 172.50000000 0.976356 -0.214727 -0.024913 0.000000
178.01199341 168.17199707 183.75000000 -0.000978 -0.000978 -0.999999 0.000000
129.70700073 131.49600220 176.25000000 -0.427238 -0.890439 -0.156798 0.000000
212.45100403 176.22300720 192.50000000 0.756626 0.152533 -0.635807 0.000000
103.76599884 268.35900879 231.25000000 -0.265431 0.793152 0.548139 0.000000
174.43400574 212.45100403 177.50000000 0.039319 -0.991970 -0.120205 0.000000
144.91400146 212.89799500 268.75000000 0.300681 0.070976 0.951080 0.000000
161.01600647 228.10499573 261.25000000 0.000978 0.000978 0.999999 0.000000
193.21899414 241.97099304 195.00000000 0.876124 0.317348 -0.362901 0.000000
124.33999634 177.11700439 141.25000000 0.871567 0.097786 -0.480425 0.000000
176.22300720 149.83399963 175.00000000 -0.053310 0.940079 -0.336764 0.000000
196.79699707 248.23199463 227.50000000 0.685677 0.685677 0.244322 0.000000
238.83999634 169.06599426 246.25000000 -0.000978 -0.000978 0.999999 0.000000
85.42769623 220.05499268 132.50000000 -0.955770 -0.238609 -0.171959 0.000000
152.96499634 125.68199921 175.00000000 0.001248 -0.941995 -0.335625 0.000000
116.73600006 249.57400513 107.50000000 0.906929 0.370558 -0.200418 0.000000
118.07800293 255.83599854 248.75000000 -0.444275 0.367840 0.816893 0.000000
87.21679688 251.36300659 212.50000000 -0.945063 0.235234 0.226980 0.000000
259.86099243 140.44099426 240.00000000 0.453523 -0.161868 0.876422 0.000000
126.12899780 144.01899719 243.75000000 -0.276411 -0.785007 0.554401 0.000000
135.96899414 171.75000000 266.25000000 0.000978 0.000978 0.999999 0.000000
253.15199280 166.38299561 228.75000000 0.132117 0.154342 -0.979144 0.000000
199.47999573 217.37100220 243.75000000 0.941995 -0.001248 -0.335625 0.000000
204.84800720 144.01899719 156.25000000 0.156539 0.929535 -0.333857 0.000000
141.78300476 208.42599487 145.00000000 0.831220 -0.297867 -0.469413 0.000000
189.64100647 172.64399719 256.25000000 0.431099 -0.205920 0.878493 0.000000
92.58399963 235.26199341 82.50000000 -0.817920 0.327484 -0.473033 0.000000
135.96899414 296.53698730 217.50000000 0.037797 0.804938 0.592154 0.000000
164.59399414 234.81399536 162.50000000 0.006838 0.813714 -0.581225 0.000000
87.21679688 239.73399353 140.00000000 -0.927154 0.329624 -0.178137 0.000000
105.55500031 223.63299561 256.25000000 -0.473397 0.373903 0.797553 0.000000
155.64799500 282.67199707 231.25000000 0.000978 0.000978 0.999999 0.000000
90.79489899 164.59399414 210.00000000 -0.788684 -0.609240 -0.082486 0.000000
220.05499268 125.68199921 235.00000000 -0.206680 -0.945803 0.250480 0.000000
101.97699738 237.94500732 246.25000000 -0.485300 0.176608 0.856325 0.000000
170.85499573 232.57800293 163.75000000 0.492119 0.646641 -0.582816 0.000000
169.06599426 160.56799316 255.00000000 0.643608 -0.495730 0.583113 0.000000
164.59399414 259.41400146 246.25000000 0.366231 0.311525 0.876828 0.000000
110.02700043 201.26899719 266.25000000 -0.496121 0.255015 0.829959 0.000000
199.47999573 145.80900574 161.25000000 -0.117317 0.891895 -0.436760 0.000000
125.23400116 128.81199646 191.25000000 -0.365994 -0.848795 -0.381569 0.000000
201.26899719 177.11700439 188.75000000 -0.000978 -0.000978 -0.999999 0.000000
229.89399719 182.48399353 211.25000000 0.762250 0.336808 -0.552752 0.000000
85.42769623 211.10899353 157.50000000 -0.981469 -0.191195 0.012746 0.000000
179.80099487 214.68699646 176.25000000 0.447523 -0.843946 -0.295768 0.000000
225.42199707 163.69900513 251.25000000 0.731869 0.282224 0.620255 0.000000
124.33999634 199.47999573 271.25000000 0.000978 0.000978 0.999999 0.000000
249.57400513 133.73199463 222.50000000 0.844175 0.439966 -0.306266 0.000000
228.10499573 124.33999634 193.75000000 -0.001248 -0.941995 -0.335625 0.000000
169.06599426 258.96701050 245.00000000 0.255181 0.280841 0.925209 0.000000
136.86300659 200.82200623 270.00000000 0.255350 0.255350 0.932520 0.000000
94.37300110 237.94500732 82.50000000 -0.715529 0.463185 -0.522951 0.000000
193.66600037 229.89399719 217.50000000 0.805483 -0.134989 0.577040 0.000000
90.79489899 257.62500000 152.50000000 -0.910330 0.389739 -0.139293 0.000000
155.20100403 196.79699707 267.50000000 0.382828 -0.141632 0.912898 0.000000
102.87100220 237.94500732 81.25000000 0.174785 0.597309 -0.782734 0.000000
103.76599884 237.94500732 81.25000000 0.238780 0.575880 -0.781886 0.000000
84.53320313 211.10899353 237.50000000 -0.865672 -0.122433 0.485410 0.000000
242.41799927 181.58999634 223.75000000 0.672491 0.366664 -0.642895 0.000000
249.57400513 178.90600586 243.75000000 0.244108 0.380216 0.892103 0.000000
106.44899750 167.27699280 253.75000000 -0.531474 -0.595588 0.602337 0.000000
123.44499969 133.28500366 226.25000000 -0.372586 -0.866301 0.332721 0.000000
229.00000000 180.69500732 208.75000000 0.728578 0.332647 -0.598765 0.000000
209.76800537 123.44499969 207.50000000 -0.072798 -0.996351 -0.044548 0.000000
114.50000000 244.20700073 251.25000000 -0.326151 0.162382 0.931267 0.000000
131.94299316 232.57800293 127.50000000 0.875511 0.304987 -0.374785 0.000000
83.63860321 237.05099487 192.50000000 -0.971003 0.194710 -0.138715 0.000000
170.85499573 162.35699463 255.00000000 0.643608 -0.495730 0.583113 0.000000
115.39499664 284.90798950 222.50000000 -0.530422 0.684361 0.500303 0.000000
106.89600372 287.14401245 187.50000000 -0.563646 0.773227 -0.290556 0.000000
227.21099854 141.78300476 172.50000000 0.462709 0.857594 -0.224572 0.000000
195.45500183 216.47700500 220.00000000 0.276857 0.958155 0.072723 0.000000
185.16799927 236.15600586 176.25000000 0.616944 0.343470 -0.708102 0.000000
132.83799744 159.22700500 257.50000000 -0.026715 -0.667871 0.743797 0.000000
88.55860138 240.18200684 232.50000000 -0.807824 0.322177 0.493582 0.000000
223.63299561 196.79699707 243.75000000 0.672135 0.497816 0.548100 0.000000
253.60000610 123.44499969 227.50000000 0.994895 -0.065585 0.076701 0.000000
161.01600647 241.52299500 166.25000000 0.159576 0.469944 -0.868152 0.000000
181.58999634 125.68199921 177.50000000 0.187777 -0.944368 -0.270015 0.000000
206.63699341 123.89299774 202.50000000 -0.047633 -0.998178 -0.037048 0.000000
133.28500366 263.43899536 247.50000000 -0.299627 0.481599 0.823581 0.000000
145.80900574 144.91400146 246.25000000 0.085982 -0.733031 0.674739 0.000000
165.04100037 188.74600220 190.00000000 0.685677 0.685677 -0.244322 0.000000
207.53100586 147.59800720 251.25000000 -0.041166 -0.105696 0.993546 0.000000
91.68939972 262.99200439 212.50000000 0.000978 0.000978 0.999999 0.000000
103.76599884 239.73399353 81.25000000 0.228946 0.590275 -0.774054 0.000000
152.96499634 180.69500732 266.25000000 0.338369 -0.481341 0.808590 0.000000
199.47999573 134.62699890 245.00000000 -0.223312 -0.660567 0.716786 0.000000
238.39300537 184.27299500 222.50000000 0.569408 0.452520 -0.686295 0.000000
239.28700256 145.80900574 247.50000000 0.723389 -0.159237 0.671827 0.000000
144.91400146 133.28500366 233.75000000 0.425330 -0.852207 -0.304691 0.000000
156.99000549 145.80900574 182.50000000 0.805435 0.557844 -0.200212 0.000000
262.99200439 157.43699646 231.25000000 -0.000978 -0.000978 -0.999999 0.000000
108.23799896 184.27299500 263.75000000 -0.479180 -0.603598 0.637225 0.000000
157.43699646 246.44299316 167.50000000 0.405858 0.734487 -0.543882 0.000000
176.22300720 191.42999268 208.75000000 -0.590048 0.495909 0.637117 0.000000
177.11700439 148.93899536 247.50000000 -0.119142 -0.589826 0.798693 0.000000
181.58999634 166.83000183 257.50000000 0.242188 -0.470668 0.848420 0.000000
98.39839935 174.88099670 150.00000000 -0.705724 -0.708486 -0.001381 0.000000
85.42769623 190.53500366 242.50000000 -0.817341 -0.075865 0.571137 0.000000
