211.92599487 209.12500000 413.25000000 0.398909 0.607467 0.686918 0.000000
106.89600372 238.06599426 394.50000000 -0.613194 0.472076 0.633354 0.000000
158.71099854 105.02899933 403.50000000 -0.524699 -0.685629 0.504583 0.000000
79.35549927 180.18400574 284.25000000 -0.000978 -0.000978 -0.999999 0.000000
223.12899780 163.37899780 419.25000000 0.719214 0.254491 0.646502 0.000000
230.59800720 186.71899414 410.25000000 -0.954848 -0.001223 0.297091 0.000000
206.32400513 160.57800293 422.25000000 0.000978 0.000978 0.999999 0.000000
146.57400513 140.97300720 347.25000000 0.978855 0.001156 -0.204554 0.000000
230.59800720 148.44099426 419.25000000 0.000978 0.000978 0.999999 0.000000
78.42189789 181.11700439 284.25000000 0.000978 0.000978 -0.999999 0.000000
207.25799561 181.58399963 370.50000000 -0.118463 0.469569 0.874912 0.000000
237.60000610 140.97300720 370.50000000 0.415813 -0.275686 -0.866658 0.000000
210.99200439 197.92199707 368.25000000 0.000978 0.000978 0.999999 0.000000
81.22270203 181.11700439 284.25000000 -0.000978 -0.000978 -0.999999 0.000000
130.70300293 207.25799561 428.25000000 -0.523800 0.441181 0.728693 0.000000
127.43599701 234.33200073 411.00000000 -0.449455 0.300155 0.841367 0.000000
94.75980377 208.19099426 375.00000000 -0.999999 -0.000978 -0.000978 0.000000
168.04699707 236.19900513 416.25000000 0.316077 0.325065 0.891307 0.000000
155.91000366 239.46699524 363.00000000 0.999999 -0.000978 -0.000978 0.000000
133.50399780 142.83999634 425.25000000 -0.739979 -0.114185 0.662867 0.000000
136.30499268 250.20300293 404.25000000 -0.346105 0.392666 0.852071 0.000000
154.97700500 137.23800659 431.25000000 -0.365854 -0.674286 0.641474 0.000000
244.60200500 80.28910065 392.25000000 -0.541234 -0.001350 0.840871 0.000000
186.71899414 122.30100250 359.25000000 0.408877 -0.203706 -0.889564 0.000000
131.63699341 217.99400330 339.00000000 0.387941 0.609151 -0.691691 0.000000
84.02339935 182.05099487 284.25000000 0.405362 0.083256 -0.910357 0.000000
97.56050110 156.84399414 337.50000000 -0.931337 -0.309512 0.191869 0.000000
166.17999268 269.80899048 377.25000000 0.460910 0.402690 -0.790824 0.000000
140.03900146 185.78500366 323.25000000 0.286326 0.189501 -0.939205 0.000000
194.18800354 160.57800293 422.25000000 0.437719 -0.697355 0.567537 0.000000
187.65199280 183.91799927 365.25000000 0.000978 0.000978 0.999999 0.000000
97.09380341 166.17999268 338.25000000 -0.870015 -0.347089 0.350147 0.000000
109.23000336 184.85200500 413.25000000 -0.900500 0.033352 0.433574 0.000000
260.47299194 162.44500732 410.25000000 -0.133282 0.654430 0.744283 0.000000
142.83999634 114.83200073 404.25000000 -0.497427 -0.867480 0.006704 0.000000
168.04699707 146.10699463 436.50000000 0.403214 -0.857410 0.319791 0.000000
159.64500427 256.73800659 404.25000000 0.001380 0.730182 0.683251 0.000000
138.17199707 242.73399353 359.25000000 0.422738 0.451893 -0.785548 0.000000
137.23800659 139.10499573 341.25000000 0.730182 -0.001380 -0.683251 0.000000
209.59199524 233.39799500 399.00000000 0.491836 0.673127 0.552266 0.000000
172.71499634 242.73399353 410.25000000 0.092452 0.510618 0.854823 0.000000
280.07800293 180.18400574 392.25000000 -0.814661 0.570698 -0.103103 0.000000
217.52699280 219.39500427 395.25000000 0.620847 0.499706 -0.604022 0.000000
279.61099243 131.63699341 397.50000000 0.841191 -0.184432 -0.508313 0.000000
120.43399811 211.92599487 329.25000000 0.182609 0.198373 -0.962965 0.000000
167.11300659 219.86099243 357.00000000 0.375750 0.598903 -0.707197 0.000000
130.70300293 259.53900146 395.25000000 -0.450060 0.489625 0.746802 0.000000
193.25399780 241.80099487 380.25000000 -0.000978 -0.000978 -0.999999 0.000000
133.97099304 152.17599487 333.00000000 0.876104 -0.473912 -0.088595 0.000000
237.13299561 202.58999634 386.25000000 -0.203413 -0.275368 -0.939572 0.000000
107.36299896 265.14099121 368.25000000 -0.648216 0.648216 0.399540 0.000000
202.58999634 120.43399811 365.25000000 0.056568 0.083188 0.994927 0.000000
267.47500610 126.96900177 391.50000000 0.775270 -0.294507 -0.558768 0.000000
151.24200439 115.76599884 407.25000000 -0.288581 -0.521968 0.802664 0.000000
96.16020203 234.33200073 362.25000000 -0.949270 0.055235 0.309573 0.000000
201.65600586 148.44099426 425.25000000 0.722223 0.015366 0.691490 0.000000
133.97099304 148.44099426 427.50000000 -0.818228 -0.249026 0.518159 0.000000
220.32800293 132.57000732 365.25000000 -0.003780 0.351535 0.936167 0.000000
89.15820313 185.78500366 331.50000000 -0.887637 -0.217109 0.406157 0.000000
236.66600037 117.63300323 420.00000000 0.728402 -0.339056 0.595375 0.000000
92.42579651 246.46899414 341.25000000 -0.268873 0.903588 -0.333520 0.000000
118.56600189 252.07000732 395.25000000 -0.425830 0.805060 0.412975 0.000000
90.55860138 148.44099426 320.25000000 -0.647355 -0.647355 0.402321 0.000000
117.16600037 208.19099426 322.50000000 0.425318 0.510710 -0.747181 0.000000
202.58999634 233.39799500 404.25000000 0.435849 0.495058 0.751634 0.000000
138.17199707 127.90200043 338.25000000 0.704590 0.521363 -0.481387 0.000000
216.59399414 204.45700073 404.25000000 0.955656 0.100116 0.276945 0.000000
187.65199280 252.07000732 401.25000000 0.355744 0.503836 0.787144 0.000000
216.59399414 145.64100647 362.25000000 -0.093376 0.131199 0.986949 0.000000
192.32000732 211.92599487 368.25000000 0.656230 0.491753 -0.572313 0.000000
246.46899414 97.09380341 410.25000000 0.501807 -0.384881 0.774633 0.000000
104.09600067 162.44500732 364.50000000 -0.978136 -0.024778 -0.206482 0.000000
190.45300293 214.25999451 366.00000000 0.665362 0.290194 -0.687808 0.000000
115.29900360 197.92199707 417.00000000 -0.673041 0.358628 0.646840 0.000000
171.78100586 125.10199738 353.25000000 0.764113 0.088783 -0.638944 0.000000
169.44700623 171.78100586 445.50000000 -0.689470 -0.723448 -0.035394 0.000000
194.18800354 220.32800293 371.25000000 0.575802 0.397617 -0.714390 0.000000
215.66000366 153.10899353 362.25000000 0.430115 -0.215802 0.876602 0.000000
98.96089935 213.79299927 311.25000000 0.644023 0.593578 -0.482597 0.000000
117.16600037 117.63300323 345.00000000 -0.824422 -0.529877 0.198894 0.000000
163.37899780 120.43399811 413.25000000 -0.612390 -0.247160 0.750926 0.000000
235.26600647 139.10499573 419.25000000 0.215888 0.908468 0.357881 0.000000
223.12899780 194.18800354 404.25000000 0.026123 0.537582 0.842807 0.000000
168.04699707 228.72999573 419.25000000 0.045393 0.499326 0.865224 0.000000
79.35549927 188.11900330 285.00000000 0.178104 -0.265117 -0.947624 0.000000
222.19500732 96.16020203 377.25000000 -0.173417 0.086102 0.981078 0.000000
80.28910065 188.58599854 284.25000000 -0.679680 0.508502 -0.528640 0.000000
187.65199280 238.06599426 407.25000000 0.085569 0.212062 0.973503 0.000000
197.92199707 92.42579651 410.25000000 0.126624 -0.513775 0.848529 0.000000
109.23000336 204.45700073 410.25000000 -0.234351 0.081459 0.968733 0.000000
275.41000366 126.96900177 404.25000000 0.709490 0.035404 0.703826 0.000000
249.73599243 163.37899780 412.50000000 0.347836 -0.133360 0.928022 0.000000
259.53900146 104.56199646 392.25000000 -0.462029 0.155953 0.873045 0.000000
99.42769623 172.71499634 388.50000000 -0.710044 0.237731 0.662813 0.000000
234.33200073 175.98199463 369.00000000 0.488190 -0.787871 0.375407 0.000000
107.36299896 267.47500610 364.50000000 0.512757 0.858222 -0.023122 0.000000
263.27301025 190.91999817 399.00000000 -0.087007 0.526321 0.845823 0.000000
106.89600372 165.24600220 406.50000000 -0.966491 -0.201082 0.159568 0.000000
104.56199646 258.13900757 354.00000000 0.192699 0.707590 -0.679841 0.000000
263.27301025 114.36499786 391.50000000 -0.150300 0.074558 0.985825 0.000000
140.50599670 168.04699707 432.00000000 -0.821728 0.211911 0.529016 0.000000
152.17599487 108.76399994 403.50000000 -0.593587 -0.660470 0.459821 0.000000
189.05299377 253.93800354 381.00000000 0.579898 0.342741 -0.739085 0.000000
96.16020203 136.77099609 315.00000000 -0.815712 -0.498229 0.293908 0.000000
145.64100647 158.71099854 347.25000000 0.719980 -0.149430 -0.677717 0.000000
155.91000366 257.67199707 371.25000000 0.102864 0.091306 -0.990496 0.000000
122.30100250 171.78100586 422.25000000 -0.085942 0.003183 0.996295 0.000000
126.03500366 268.40798950 366.00000000 0.278931 0.359478 -0.890490 0.000000
173.64799500 163.84599304 354.00000000 -0.585814 -0.225313 0.778496 0.000000
226.39599609 98.96089935 378.00000000 -0.504017 0.691558 -0.517412 0.000000
89.15820313 173.64799500 325.50000000 -0.982571 0.012671 0.185456 0.000000
248.33599854 141.43899536 417.00000000 0.450510 0.272151 0.850279 0.000000
201.65600586 81.68949890 403.50000000 -0.212630 -0.818396 0.533870 0.000000
228.72999573 83.55660248 405.00000000 0.134504 -0.560188 0.817372 0.000000
95.69339752 197.92199707 391.50000000 -0.739276 0.229754 0.632996 0.000000
246.46899414 138.17199707 419.25000000 0.429708 0.308707 0.848558 0.000000
160.57800293 248.33599854 368.25000000 0.054664 0.094825 -0.993992 0.000000
98.49410248 176.44900513 360.00000000 -0.931337 -0.309512 0.191869 0.000000
112.49800110 153.10899353 307.50000000 0.763123 -0.294734 -0.575130 0.000000
251.13699341 95.22660065 407.25000000 0.131183 -0.237688 0.962442 0.000000
163.37899780 197.92199707 341.25000000 0.342426 0.589103 -0.731916 0.000000
118.09999847 155.91000366 414.00000000 -0.659193 -0.384942 0.645976 0.000000
83.08979797 192.32000732 284.25000000 0.353147 0.154938 -0.922649 0.000000
108.76399994 148.44099426 385.50000000 -0.924731 -0.374963 -0.065385 0.000000
248.33599854 175.98199463 372.00000000 0.426823 0.426823 -0.797273 0.000000
178.31599426 196.98800659 347.25000000 0.505070 -0.077378 -0.859603 0.000000
117.63300323 215.66000366 413.25000000 -0.750279 -0.648850 -0.126787 0.000000
165.24600220 140.50599670 432.00000000 0.397878 -0.744998 0.535416 0.000000
279.14498901 135.37100220 395.25000000 0.837438 -0.043196 -0.544822 0.000000
210.05900574 92.42579651 410.25000000 -0.239930 -0.622564 0.744881 0.000000
190.45300293 75.62110138 389.25000000 -0.405138 -0.776109 0.483237 0.000000
177.38299561 254.87100220 374.25000000 0.994304 -0.090189 0.056786 0.000000
145.64100647 100.82800293 374.25000000 -0.593279 -0.711606 0.376346 0.000000
229.19700623 83.08979797 406.50000000 0.134504 -0.560188 0.817372 0.000000
98.02729797 178.31599426 380.25000000 -0.990823 -0.129925 -0.037283 0.000000
154.04299927 100.82800293 350.25000000 0.330546 -0.433940 -0.838114 0.000000
208.19099426 94.29299927 374.25000000 0.000978 0.000978 0.999999 0.000000
110.63099670 229.66400146 402.00000000 -0.609338 0.376115 0.698029 0.000000
137.23800659 188.58599854 428.25000000 -0.185486 0.041350 0.981777 0.000000
163.37899780 133.50399780 419.25000000 0.313130 -0.437759 0.842803 0.000000
186.71899414 167.11300659 437.25000000 0.540148 -0.447076 0.712996 0.000000
155.91000366 243.66799927 365.25000000 0.603457 0.427241 -0.673279 0.000000
80.28910065 195.12100220 284.25000000 -0.117486 0.520711 -0.845611 0.000000
153.10899353 215.66000366 428.25000000 0.047748 0.157220 0.986409 0.000000
216.59399414 162.44500732 419.25000000 0.000978 0.000978 0.999999 0.000000
82.15619659 195.12100220 284.25000000 -0.117486 0.520711 -0.845611 0.000000
185.78500366 185.78500366 440.25000000 0.022866 0.878333 0.477501 0.000000
127.90200043 226.39599609 345.00000000 0.424222 0.543071 -0.724644 0.000000
237.60000610 197.92199707 393.00000000 0.943635 0.058409 0.325794 0.000000
132.10400391 149.37500000 330.00000000 0.743473 -0.649592 0.158991 0.000000
113.89800262 219.39500427 332.25000000 0.443753 0.815933 -0.370589 0.000000
147.50799561 230.59800720 419.25000000 0.349164 0.563535 0.748674 0.000000
157.77699280 161.51199341 443.25000000 0.000978 0.000978 0.999999 0.000000
136.30499268 122.76799774 336.00000000 0.875957 -0.022945 -0.481844 0.000000
137.70500183 161.51199341 327.00000000 0.779126 -0.377415 -0.500520 0.000000
220.32800293 203.05700684 382.50000000 0.586722 0.801413 -0.116168 0.000000
199.78900146 137.23800659 425.25000000 0.235024 -0.003543 0.971983 0.000000
96.16020203 231.06399536 370.50000000 -0.917969 0.395291 0.032832 0.000000
120.43399811 178.31599426 422.25000000 -0.122496 -0.164565 0.978730 0.000000
124.63500214 168.04699707 313.50000000 0.788589 0.088589 -0.608506 0.000000
211.92599487 168.97999573 377.25000000 -0.163141 0.375934 0.912172 0.000000
114.83200073 218.46099854 410.25000000 -0.717076 0.133235 0.684142 0.000000
123.23400116 167.11300659 311.25000000 0.980553 0.036667 -0.192799 0.000000
209.12500000 95.22660065 374.25000000 0.000978 0.000978 0.999999 0.000000
94.75980377 202.58999634 366.00000000 -0.919613 -0.280633 0.274876 0.000000
113.89800262 246.46899414 350.25000000 0.220541 0.883644 -0.412959 0.000000
163.37899780 119.50000000 350.25000000 0.804172 -0.321986 -0.499633 0.000000
195.12100220 145.17399597 370.50000000 0.931337 -0.309512 0.191869 0.000000
167.11300659 99.89450073 404.25000000 -0.533074 -0.746304 0.398575 0.000000
192.32000732 206.32400513 359.25000000 0.549932 0.733790 -0.398906 0.000000
159.64500427 281.47900391 382.50000000 0.077638 0.911222 -0.404533 0.000000
126.96900177 127.90200043 329.25000000 0.217920 0.789767 -0.573393 0.000000
215.66000366 219.39500427 401.25000000 0.854018 0.277518 0.440042 0.000000
168.97999573 203.52299500 431.25000000 0.169009 0.465877 0.868559 0.000000
127.43599701 203.52299500 426.00000000 -0.767272 0.639156 0.052670 0.000000
204.45700073 169.91400146 374.25000000 -0.355099 0.312789 0.880947 0.000000
257.67199707 192.32000732 398.25000000 -0.006924 0.671622 0.740862 0.000000
165.24600220 99.89450073 401.25000000 -0.535241 -0.756496 0.375808 0.000000
89.62500000 147.50799561 317.25000000 -0.647355 -0.647355 0.402321 0.000000
84.95700073 185.31799316 286.50000000 0.869588 0.085972 -0.486236 0.000000
197.92199707 128.83599854 377.25000000 0.616440 -0.679241 0.398289 0.000000
194.65400696 145.64100647 373.50000000 -0.672185 -0.736065 0.079849 0.000000
154.04299927 169.91400146 350.25000000 0.034416 -0.200562 -0.979076 0.000000
163.84599304 186.71899414 441.00000000 -0.335739 0.317672 0.886772 0.000000
240.39999390 190.45300293 385.50000000 0.883061 0.114812 -0.454996 0.000000
90.09179688 226.86300659 352.50000000 -0.094781 0.785956 0.610975 0.000000
195.58799744 143.77299500 423.00000000 -0.784981 -0.079510 0.614396 0.000000
134.43800354 135.37100220 338.25000000 0.647355 -0.647355 0.402321 0.000000
124.63500214 209.12500000 421.50000000 -0.569624 0.193947 0.798695 0.000000
239.93400574 93.35939789 386.25000000 -0.000978 -0.000978 0.999999 0.000000
155.91000366 261.40600586 371.25000000 -0.000978 -0.000978 -0.999999 0.000000
212.85899353 79.82230377 402.00000000 -0.079205 -0.591876 0.802128 0.000000
242.73399353 176.44900513 368.25000000 0.313064 0.868943 -0.383312 0.000000
180.64999390 133.50399780 354.00000000 0.426595 -0.098659 -0.899046 0.000000
111.09799957 119.96700287 333.00000000 -0.651028 -0.092168 -0.753437 0.000000
150.30900574 142.83999634 434.25000000 -0.153048 -0.473721 0.867274 0.000000
250.20300293 189.98599243 403.50000000 -0.522193 0.260317 0.812127 0.000000
186.71899414 92.42579651 407.25000000 -0.910306 -0.330623 0.249060 0.000000
168.04699707 231.53100586 416.25000000 0.285745 0.309190 0.907056 0.000000
170.84800720 92.42579651 395.25000000 -0.382832 -0.833408 0.398586 0.000000
232.46499634 123.23400116 374.25000000 0.418850 -0.839269 0.346689 0.000000
130.70300293 267.00799561 368.25000000 0.339930 0.489946 -0.802746 0.000000
271.67599487 178.31599426 404.25000000 0.093830 0.016178 0.995457 0.000000
137.70500183 165.24600220 321.00000000 0.588033 -0.170817 -0.790594 0.000000
80.28910065 195.58799744 286.50000000 -0.903471 0.052669 -0.425401 0.000000
163.37899780 247.86900330 409.50000000 0.177841 0.588244 0.788886 0.000000
261.40600586 179.25000000 404.25000000 0.538649 0.289070 0.791388 0.000000
233.86500549 182.98399353 376.50000000 0.568256 0.625588 -0.534532 0.000000
82.62300110 209.12500000 322.50000000 -0.915925 -0.385435 -0.111900 0.000000
97.56050110 185.78500366 391.50000000 -0.882624 0.294208 -0.366628 0.000000
112.03099823 142.37300110 393.00000000 -0.825926 -0.450074 0.339530 0.000000
243.66799927 179.25000000 410.25000000 0.444782 0.135866 0.885274 0.000000
175.51600647 156.84399414 440.25000000 0.430741 -0.519859 0.737705 0.000000
165.24600220 204.45700073 431.25000000 -0.114819 0.449352 0.885946 0.000000
238.53300476 188.58599854 385.50000000 0.663784 0.020962 -0.747630 0.000000
155.91000366 158.71099854 443.25000000 0.000978 0.000978 0.999999 0.000000
213.79299927 221.26199341 404.25000000 0.854390 0.258304 0.450885 0.000000
155.44299316 92.42579651 376.50000000 -0.622558 -0.691549 0.366307 0.000000
178.31599426 171.31399536 361.50000000 -0.445886 -0.632924 0.632924 0.000000
162.44500732 248.80299377 369.00000000 0.273048 0.264471 -0.924932 0.000000
107.36299896 181.11700439 410.25000000 -0.766008 0.168370 0.620390 0.000000
126.03500366 147.04100037 318.00000000 0.639475 -0.481704 -0.599193 0.000000
231.99800110 177.38299561 375.00000000 -0.122937 0.368812 0.921338 0.000000
253.93800354 193.25399780 392.25000000 0.041107 0.913640 -0.404441 0.000000
118.56600189 231.53100586 344.25000000 0.478800 0.535522 -0.695678 0.000000
101.76200104 255.33799744 367.50000000 -0.807780 0.061045 0.586315 0.000000
253.00399780 131.63699341 416.25000000 0.376294 -0.254333 0.890909 0.000000
210.05900574 217.52699280 383.25000000 -0.000978 -0.000978 -0.999999 0.000000
223.59599304 203.52299500 378.00000000 0.426823 0.426823 0.797273 0.000000
198.85499573 84.49019623 406.50000000 -0.109048 -0.551057 0.827312 0.000000
118.56600189 174.58200073 308.25000000 0.166311 -0.136300 -0.976608 0.000000
132.57000732 256.73800659 362.25000000 0.101975 0.217799 -0.970652 0.000000
161.04499817 220.32800293 423.00000000 0.259840 0.430028 0.864615 0.000000
142.37300110 158.71099854 343.50000000 0.603223 -0.488964 -0.630108 0.000000
124.16799927 128.36900330 327.00000000 0.535470 -0.243677 -0.808637 0.000000
185.78500366 137.23800659 422.25000000 0.000978 0.000978 0.999999 0.000000
105.02899933 222.19500732 399.00000000 -0.694479 0.209742 0.688264 0.000000
164.31199646 233.39799500 365.25000000 0.144586 0.797457 -0.585796 0.000000
163.37899780 170.84800720 446.25000000 -0.631400 0.219821 0.743649 0.000000
99.42769623 192.32000732 397.50000000 -0.881039 -0.243819 0.405368 0.000000
260.93899536 169.91400146 379.50000000 0.489710 0.068364 -0.869201 0.000000
164.31199646 168.97999573 446.25000000 0.966600 -0.028035 0.254753 0.000000
87.29100037 221.26199341 343.50000000 -0.999999 -0.000978 -0.000978 0.000000
175.51600647 208.19099426 350.25000000 0.386090 0.583242 -0.714677 0.000000
122.30100250 114.83200073 353.25000000 -0.753273 -0.576599 0.316407 0.000000
196.05499268 174.58200073 371.25000000 0.201807 0.529555 0.823921 0.000000
84.49019623 205.39100647 328.50000000 -0.877757 -0.276471 0.391289 0.000000
89.15820313 205.39100647 345.00000000 -0.963972 -0.225057 0.141799 0.000000
136.30499268 129.77000427 338.25000000 0.508478 0.410379 -0.756994 0.000000
98.02729797 210.05900574 305.25000000 0.442235 0.679206 -0.585753 0.000000
173.64799500 169.91400146 443.25000000 0.263417 -0.189715 0.945844 0.000000
154.04299927 218.92799377 352.50000000 0.228890 0.764524 -0.602588 0.000000
212.85899353 227.33000183 396.00000000 0.747860 0.549082 -0.373115 0.000000
209.12500000 113.43199921 369.00000000 -0.163456 0.385188 0.908247 0.000000
160.57800293 90.09179688 379.50000000 -0.421249 -0.752347 0.506482 0.000000
160.57800293 277.74398804 378.00000000 0.262630 0.561430 -0.784743 0.000000
218.46099854 141.43899536 364.50000000 -0.029709 0.362972 0.931326 0.000000
104.56199646 158.24400330 373.50000000 -0.867993 -0.449683 -0.210649 0.000000
84.95700073 224.52900696 330.00000000 -0.679356 0.340492 0.650031 0.000000
86.82420349 177.38299561 287.25000000 0.651403 0.179327 -0.737235 0.000000
155.91000366 224.52900696 424.50000000 0.617035 0.492619 0.613672 0.000000
204.92399597 226.86300659 381.00000000 0.617417 0.094875 -0.780894 0.000000
201.18899536 202.58999634 364.50000000 0.464616 0.837551 -0.287471 0.000000
133.50399780 254.87100220 362.25000000 0.094164 0.139458 -0.985741 0.000000
261.40600586 99.89450073 392.25000000 -0.276480 0.008526 0.960982 0.000000
172.71499634 205.39100647 347.25000000 -0.451515 0.735986 -0.504440 0.000000
210.99200439 175.98199463 373.50000000 0.175960 0.650286 0.739031 0.000000
243.66799927 170.38099670 412.50000000 0.419300 0.140714 0.896876 0.000000
111.09799957 135.37100220 314.25000000 -0.000978 -0.000978 -0.999999 0.000000
231.53100586 194.18800354 368.25000000 0.000978 0.000978 0.999999 0.000000
227.79699707 199.78900146 371.25000000 -0.229857 -0.617644 0.752118 0.000000
279.14498901 167.58000183 390.00000000 0.915545 0.222778 -0.334885 0.000000
90.55860138 219.39500427 350.25000000 -0.471891 -0.001322 0.881656 0.000000
210.99200439 95.22660065 374.25000000 0.000978 0.000978 0.999999 0.000000
191.38699341 195.12100220 350.25000000 0.273010 -0.784311 -0.557066 0.000000
85.89060211 180.18400574 287.25000000 0.702132 0.044150 -0.710677 0.000000
127.90200043 142.83999634 419.25000000 -0.821908 0.087805 0.562813 0.000000
154.50999451 188.58599854 334.50000000 -0.804172 0.321986 -0.499633 0.000000
183.91799927 182.98399353 365.25000000 0.078218 0.536151 0.840491 0.000000
276.34399414 177.38299561 389.25000000 0.547936 0.213342 -0.808858 0.000000
210.05900574 202.12300110 384.00000000 0.102806 0.968409 -0.227189 0.000000
223.12899780 182.98399353 368.25000000 0.000978 0.000978 0.999999 0.000000
139.10499573 176.44900513 431.25000000 -0.756227 0.454392 0.470796 0.000000
157.77699280 173.18200684 349.50000000 0.340235 -0.346338 -0.874237 0.000000
147.50799561 277.27700806 374.25000000 0.029100 0.178093 -0.983583 0.000000
150.30900574 258.13900757 370.50000000 0.570499 0.570499 -0.590814 0.000000
112.49800110 167.11300659 415.50000000 -0.845911 0.213369 0.488782 0.000000
98.49410248 175.51600647 379.50000000 -0.987309 -0.153581 -0.040416 0.000000
260.00601196 116.69899750 411.00000000 0.204847 -0.168313 0.964214 0.000000
247.86900330 126.03500366 382.50000000 0.868496 -0.097759 -0.485961 0.000000
204.45700073 205.39100647 419.25000000 0.827079 0.224733 0.515204 0.000000
207.25799561 102.22899628 373.50000000 -0.275686 0.415813 0.866658 0.000000
267.94100952 125.10199738 392.25000000 0.629208 -0.195377 -0.752280 0.000000
209.12500000 148.44099426 422.25000000 0.000978 0.000978 0.999999 0.000000
82.62300110 210.05900574 321.00000000 -0.999999 -0.000978 -0.000978 0.000000
154.04299927 108.29699707 401.25000000 -0.536296 -0.834400 0.127133 0.000000
175.04899597 183.91799927 354.00000000 -0.568187 0.822844 -0.009584 0.000000
262.33999634 176.91600037 381.00000000 0.359059 0.470766 -0.805888 0.000000
182.98399353 142.83999634 353.25000000 -0.004158 -0.724889 -0.688853 0.000000
196.05499268 193.25399780 362.25000000 0.255047 0.459695 0.850665 0.000000
177.38299561 137.23800659 353.25000000 0.085581 0.001057 -0.996331 0.000000
84.49019623 217.52699280 331.50000000 -0.763887 0.161853 0.624724 0.000000
252.07000732 86.82420349 392.25000000 -0.509153 0.721439 0.469350 0.000000
139.10499573 153.10899353 341.25000000 0.647355 -0.647355 -0.402321 0.000000
98.96089935 171.31399536 348.00000000 -0.959126 -0.231513 0.162721 0.000000
162.44500732 138.17199707 431.25000000 0.348688 -0.782539 0.515801 0.000000
173.64799500 114.83200073 416.25000000 -0.143932 -0.980461 -0.134091 0.000000
112.96499634 242.73399353 398.25000000 -0.564840 0.374923 0.735111 0.000000
128.83599854 135.37100220 413.25000000 -0.751533 -0.546125 0.370061 0.000000
103.62899780 233.39799500 335.25000000 0.738787 0.331403 -0.586827 0.000000
282.41198730 183.91799927 394.50000000 -0.445911 -0.136211 0.884653 0.000000
103.16200256 168.97999573 400.50000000 -0.970072 -0.242814 -0.001184 0.000000
136.30499268 236.19900513 413.25000000 -0.401605 0.536020 0.742560 0.000000
143.77299500 257.20498657 402.00000000 -0.216299 0.726703 0.652010 0.000000
173.64799500 99.42769623 408.00000000 -0.545245 -0.575630 0.609391 0.000000
97.09380341 180.18400574 344.25000000 -0.482076 0.382113 0.788411 0.000000
134.43800354 98.96089935 350.25000000 -0.547412 -0.772156 0.322668 0.000000
267.00799561 136.30499268 410.25000000 0.000978 0.000978 0.999999 0.000000
175.51600647 154.04299927 353.25000000 -0.377462 -0.380594 0.844198 0.000000
162.44500732 201.65600586 344.25000000 0.385840 0.482703 -0.786209 0.000000
246.46899414 135.37100220 377.25000000 0.650629 -0.297201 -0.698823 0.000000
97.56050110 182.05099487 378.00000000 -0.994304 -0.090189 0.056786 0.000000
172.24800110 139.10499573 351.00000000 0.302812 -0.288183 -0.908436 0.000000
129.77000427 182.98399353 425.25000000 0.102630 -0.318554 0.942333 0.000000
247.40199280 90.55860138 389.25000000 -0.432812 0.212688 0.876035 0.000000
161.51199341 231.99800110 417.00000000 0.179550 0.719736 0.670628 0.000000
191.85400391 149.37500000 358.50000000 0.597031 0.299316 -0.744288 0.000000
110.16400146 234.33200073 398.25000000 -0.680586 0.237341 0.693161 0.000000
118.09999847 222.19500732 412.50000000 -0.534574 0.372089 0.758802 0.000000
219.39500427 217.52699280 395.25000000 0.771516 0.245696 -0.586853 0.000000
199.78900146 118.09999847 366.00000000 0.467048 0.201443 0.860980 0.000000
206.32400513 166.17999268 377.25000000 0.174829 0.612661 0.770767 0.000000
107.36299896 163.84599304 405.00000000 -0.966491 -0.201082 0.159568 0.000000
162.44500732 174.58200073 443.25000000 -0.564583 0.484167 0.668452 0.000000
93.82620239 251.13699341 351.00000000 -0.928022 0.347836 0.133360 0.000000
175.51600647 275.87701416 384.00000000 0.798539 0.597829 -0.070249 0.000000
182.98399353 191.38699341 365.25000000 -0.292847 0.955801 0.026169 0.000000
82.62300110 168.04699707 312.00000000 -0.976497 -0.074738 0.202161 0.000000
140.03900146 159.64500427 434.25000000 -0.358467 -0.003800 0.933535 0.000000
208.19099426 213.32600403 412.50000000 0.537960 0.625652 0.564942 0.000000
117.63300323 115.76599884 347.25000000 -0.824422 -0.529877 0.198894 0.000000
223.12899780 211.92599487 398.25000000 0.310100 0.921727 0.232932 0.000000
161.51199341 281.94500732 386.25000000 0.176771 0.977803 0.112491 0.000000
219.39500427 165.24600220 368.25000000 0.822838 -0.562392 0.081568 0.000000
210.99200439 168.97999573 419.25000000 0.854803 -0.464468 0.231478 0.000000
138.17199707 219.86099243 346.50000000 -0.018163 0.660865 -0.750285 0.000000
255.80499268 187.18600464 402.00000000 0.817009 -0.273378 0.507702 0.000000
197.92199707 170.84800720 374.25000000 -0.310302 0.252571 0.916472 0.000000
105.49600220 147.50799561 350.25000000 -0.808021 -0.210055 0.550435 0.000000
140.03900146 239.93400574 359.25000000 0.584908 0.238643 -0.775198 0.000000
247.40199280 171.78100586 410.25000000 0.319705 0.230818 0.918973 0.000000
241.80099487 102.22899628 414.00000000 0.218652 -0.391813 0.893686 0.000000
248.33599854 89.62500000 389.25000000 0.000978 0.000978 0.999999 0.000000
206.32400513 221.26199341 383.25000000 0.597312 0.549933 -0.583775 0.000000
164.31199646 220.32800293 422.25000000 0.187685 0.298906 0.935644 0.000000
126.96900177 151.24200439 419.25000000 -0.569802 -0.466201 0.676744 0.000000
140.50599670 99.89450073 366.00000000 -0.315485 -0.948930 0.001237 0.000000
238.06599426 182.51800537 379.50000000 0.130643 0.832296 -0.538717 0.000000
168.97999573 243.66799927 410.25000000 0.302170 0.580359 0.756225 0.000000
117.16600037 119.50000000 352.50000000 -0.778284 -0.346441 0.523690 0.000000
137.23800659 206.32400513 431.25000000 -0.216716 0.495567 0.841099 0.000000
98.02729797 185.31799316 390.00000000 -0.882624 0.294208 -0.366628 0.000000
119.96700287 202.58999634 420.00000000 -0.701868 0.258249 0.663844 0.000000
237.60000610 105.49600220 382.50000000 -0.368133 0.269765 0.889778 0.000000
89.15820313 181.11700439 327.00000000 -0.532697 0.427147 0.730602 0.000000
109.23000336 245.06799316 390.00000000 -0.612855 0.468457 0.636362 0.000000
197.45500183 161.51199341 372.00000000 -0.836069 0.093215 0.540648 0.000000
86.82420349 193.25399780 287.25000000 0.581467 0.032071 -0.812938 0.000000
281.47900391 162.44500732 393.00000000 0.567715 0.287833 0.771266 0.000000
88.69139862 193.25399780 287.25000000 0.572520 0.040594 -0.818885 0.000000
197.92199707 111.56400299 421.50000000 -0.013118 -0.234931 0.971923 0.000000
96.62699890 214.72700500 384.00000000 -0.878075 0.146105 0.455673 0.000000
241.80099487 190.91999817 390.00000000 0.670556 0.627508 -0.395711 0.000000
155.91000366 112.96499634 410.25000000 -0.431674 -0.598344 0.675012 0.000000
86.82420349 194.18800354 287.25000000 0.513701 0.259178 -0.817886 0.000000
232.46499634 134.43800354 422.25000000 0.000978 0.000978 0.999999 0.000000
123.23400116 259.53900146 362.25000000 0.357498 0.268494 -0.894486 0.000000
224.52900696 79.35549927 403.50000000 -0.031281 -0.869071 0.493698 0.000000
99.42769623 174.58200073 372.00000000 -0.986943 -0.119665 -0.107817 0.000000
143.77299500 209.59199524 340.50000000 0.647892 0.421379 -0.634567 0.000000
220.32800293 202.12300110 373.50000000 0.627537 0.001373 0.778585 0.000000
132.57000732 235.73199463 355.50000000 0.157883 0.500210 -0.851389 0.000000
217.52699280 206.79100037 411.00000000 0.970491 -0.170509 0.170509 0.000000
111.09799957 190.45300293 308.25000000 0.671925 -0.445171 -0.591894 0.000000
202.58999634 71.88670349 392.25000000 -0.272001 -0.828436 0.489601 0.000000
232.46499634 199.78900146 386.25000000 -0.000978 -0.000978 -0.999999 0.000000
124.63500214 155.91000366 316.50000000 0.659203 -0.070680 -0.748636 0.000000
185.78500366 78.88870239 387.00000000 -0.647355 -0.647355 0.402321 0.000000
113.43199921 139.10499573 387.00000000 -0.660295 -0.692426 -0.290787 0.000000
113.89800262 137.70500183 369.00000000 -0.942001 -0.335074 -0.018966 0.000000
239.93400574 137.23800659 419.25000000 0.555487 0.609516 0.565618 0.000000
98.02729797 242.26800537 367.50000000 -0.947010 0.029080 0.319885 0.000000
267.94100952 179.25000000 404.25000000 0.000978 0.000978 0.999999 0.000000
164.31199646 225.92999268 419.25000000 0.206600 -0.275929 0.938712 0.000000
80.28910065 196.98800659 287.25000000 -0.933019 0.229385 -0.277232 0.000000
242.73399353 192.78700256 393.00000000 0.001345 0.848828 -0.528668 0.000000
131.63699341 132.10400391 414.00000000 -0.723227 -0.397034 0.565073 0.000000
180.18400574 187.18600464 357.00000000 0.647355 0.647355 0.402321 0.000000
155.91000366 133.97099304 426.00000000 0.351032 -0.796635 0.492086 0.000000
104.56199646 172.71499634 407.25000000 -0.781690 -0.184375 0.595791 0.000000
191.38699341 98.96089935 416.25000000 0.343132 -0.717162 0.606579 0.000000
251.13699341 94.29299927 389.25000000 -0.628303 0.424979 0.651635 0.000000
94.75980377 167.11300659 334.50000000 -0.959919 -0.162407 0.228426 0.000000
115.76599884 181.11700439 422.25000000 -0.400199 -0.387544 0.830452 0.000000
88.22460175 196.98800659 288.00000000 0.528458 0.271286 -0.804448 0.000000
169.91400146 188.58599854 344.25000000 0.660752 -0.133349 -0.738664 0.000000
201.65600586 111.09799957 368.25000000 -0.257947 0.230061 0.938369 0.000000
165.24600220 116.23200226 414.00000000 -0.332059 -0.050390 0.941912 0.000000
113.89800262 257.67199707 359.25000000 0.000978 0.000978 -0.999999 0.000000
88.69139862 233.39799500 338.25000000 -0.987455 0.097920 0.123874 0.000000
230.59800720 178.31599426 413.25000000 0.592374 0.289002 0.752044 0.000000
85.89060211 197.92199707 287.25000000 0.382893 0.351890 -0.854147 0.000000
278.21099854 140.03900146 395.25000000 -0.000978 -0.000978 -0.999999 0.000000
115.76599884 239.00000000 347.25000000 0.365008 0.527234 -0.767329 0.000000
142.37300110 101.76200104 372.00000000 -0.511887 -0.679719 0.525313 0.000000
180.18400574 260.47299194 398.25000000 0.284225 0.579564 0.763755 0.000000
116.69899750 237.60000610 403.50000000 -0.527958 0.738484 0.419406 0.000000
82.15619659 198.85499573 287.25000000 -0.172885 0.674710 -0.717549 0.000000
93.35939789 177.38299561 335.25000000 -0.699473 -0.699473 0.146542 0.000000
284.74600220 170.84800720 398.25000000 0.836888 -0.544329 0.057668 0.000000
157.77699280 89.15820313 370.50000000 -0.679921 -0.724360 0.114061 0.000000
132.10400391 116.69899750 381.00000000 0.431249 -0.860973 0.269721 0.000000
224.99600220 182.05099487 413.25000000 0.760385 0.294908 0.578658 0.000000
213.79299927 200.72300720 413.25000000 0.954848 -0.001223 0.297091 0.000000
137.23800659 232.46499634 356.25000000 0.572425 0.170670 -0.801999 0.000000
174.58200073 168.97999573 356.25000000 0.201478 -0.010481 0.979437 0.000000
164.31199646 180.18400574 341.25000000 0.567146 -0.584076 -0.580690 0.000000
106.43000031 151.70899963 379.50000000 -0.780176 -0.625522 -0.006904 0.000000
158.24400330 127.90200043 345.00000000 0.085972 0.869588 -0.486236 0.000000
102.69499969 242.26800537 340.50000000 0.307660 0.710357 -0.633039 0.000000
230.59800720 122.30100250 422.25000000 0.000978 0.000978 0.999999 0.000000
274.01000977 163.37899780 388.50000000 0.718256 0.179181 -0.672312 0.000000
97.09380341 233.86500549 366.00000000 -0.840645 0.506793 0.190987 0.000000
168.97999573 112.03099823 353.25000000 0.361305 -0.021858 -0.932192 0.000000
107.36299896 236.19900513 338.25000000 0.570566 0.043458 -0.820101 0.000000
124.63500214 223.12899780 339.00000000 0.534251 0.438317 -0.722810 0.000000
281.47900391 162.44500732 402.00000000 0.518269 0.129932 0.845290 0.000000
179.25000000 262.80700684 397.50000000 0.187433 0.586681 0.787829 0.000000
265.60699463 106.43000031 394.50000000 -0.505898 0.472724 0.721526 0.000000
140.97300720 214.25999451 343.50000000 0.309110 0.518354 -0.797346 0.000000
197.45500183 240.86700439 403.50000000 0.463471 0.657559 0.593979 0.000000
224.99600220 201.65600586 401.25000000 0.796654 0.499705 0.340055 0.000000
200.72300720 86.82420349 374.25000000 0.000978 0.000978 0.999999 0.000000
83.55660248 217.52699280 318.00000000 -0.987455 0.097920 -0.123874 0.000000
103.62899780 174.58200073 404.25000000 -0.867797 0.098000 0.487159 0.000000
139.10499573 170.84800720 431.25000000 -0.756799 -0.067752 0.650127 0.000000
91.49220276 200.72300720 344.25000000 -0.925698 -0.246758 0.286695 0.000000
104.56199646 243.66799927 344.25000000 0.433108 0.515448 -0.739413 0.000000
265.14099121 193.25399780 398.25000000 -0.128144 0.570019 0.811577 0.000000
206.32400513 203.05700684 382.50000000 0.303475 0.194392 -0.932800 0.000000
267.00799561 190.91999817 399.00000000 -0.119682 0.494590 0.860847 0.000000
209.12500000 118.56600189 368.25000000 -0.207376 0.204700 0.956605 0.000000
154.04299927 105.49600220 347.25000000 0.348028 -0.545514 -0.762424 0.000000
91.49220276 153.10899353 326.25000000 -0.768844 -0.263649 0.582553 0.000000
253.00399780 163.37899780 410.25000000 0.318595 -0.068921 0.945382 0.000000
246.46899414 103.62899780 386.25000000 -0.285829 0.057166 0.956574 0.000000
223.12899780 201.65600586 371.25000000 0.328020 0.272124 0.904628 0.000000
136.30499268 268.87500000 392.25000000 -0.206513 0.328996 0.921474 0.000000
182.98399353 135.37100220 356.25000000 0.465719 0.351276 -0.812226 0.000000
155.91000366 193.25399780 335.25000000 0.310302 0.252571 -0.916472 0.000000
215.66000366 151.24200439 419.25000000 0.364851 0.190295 0.911412 0.000000
208.19099426 106.43000031 419.25000000 -0.163453 -0.432499 0.886695 0.000000
161.51199341 200.72300720 431.25000000 -0.253919 0.410177 0.875945 0.000000
148.44099426 175.51600647 326.25000000 0.365822 -0.918060 0.152776 0.000000
178.31599426 113.43199921 358.50000000 0.599484 -0.471863 -0.646502 0.000000
154.97700500 244.60200500 365.25000000 0.588698 0.467940 -0.659141 0.000000
219.39500427 74.68750000 398.25000000 -0.137992 -0.580160 0.802728 0.000000
177.38299561 133.50399780 353.25000000 0.046293 -0.007201 -0.998902 0.000000
89.62500000 145.64100647 314.25000000 -0.647355 -0.647355 0.402321 0.000000
196.98800659 141.90600586 425.25000000 -0.391213 0.030093 0.919808 0.000000
255.80499268 167.11300659 410.25000000 0.000978 0.000978 0.999999 0.000000
230.59800720 119.50000000 422.25000000 0.000978 0.000978 0.999999 0.000000
84.49019623 201.65600586 325.50000000 -0.880762 -0.291573 0.373153 0.000000
255.80499268 161.04499817 375.00000000 0.521766 -0.104928 -0.846611 0.000000
239.00000000 121.36699677 419.25000000 0.827421 -0.397099 0.397099 0.000000
199.78900146 88.69139862 407.25000000 0.009349 -0.479486 0.877500 0.000000
130.70300293 143.77299500 335.25000000 0.762963 -0.274413 -0.585308 0.000000
162.44500732 145.64100647 437.25000000 0.119635 -0.426463 0.896558 0.000000
102.69499969 259.53900146 368.25000000 -0.943317 0.156539 0.292660 0.000000
215.66000366 224.52900696 397.50000000 0.625053 0.775878 -0.085564 0.000000
264.20700073 104.56199646 395.25000000 -0.455769 0.268551 0.848620 0.000000
233.39799500 204.92399597 393.00000000 0.741240 0.610527 0.278961 0.000000
177.38299561 154.97700500 353.25000000 -0.017652 -0.208291 0.977908 0.000000
153.10899353 103.62899780 395.25000000 -0.473309 -0.800615 0.367416 0.000000
171.78100586 236.19900513 368.25000000 0.076982 0.384912 -0.919737 0.000000
122.30100250 225.92999268 413.25000000 -0.478660 0.582790 0.656689 0.000000
93.82620239 183.91799927 339.00000000 -0.898533 -0.104806 0.426209 0.000000
197.45500183 198.85499573 351.00000000 0.516596 -0.644483 -0.563712 0.000000
196.98800659 97.56050110 372.00000000 0.249188 0.512306 0.821856 0.000000
89.62500000 189.05299377 289.50000000 0.552274 -0.121588 -0.824748 0.000000
212.85899353 212.39300537 408.00000000 0.637834 0.720546 0.271994 0.000000
95.22660065 139.10499573 320.25000000 -0.751508 -0.570500 0.331310 0.000000
128.83599854 257.67199707 362.25000000 0.101975 0.217799 -0.970652 0.000000
197.45500183 245.53500366 387.00000000 0.764898 0.378389 -0.521300 0.000000
94.29299927 213.79299927 371.25000000 -0.647355 -0.647355 0.402321 0.000000
171.78100586 143.77299500 431.25000000 -0.683659 -0.683659 0.255381 0.000000
200.72300720 196.98800659 356.25000000 0.849306 0.397382 -0.347514 0.000000
137.23800659 120.90000153 336.00000000 0.886050 0.442309 -0.138848 0.000000
214.72700500 211.92599487 404.25000000 0.577291 0.567133 0.587448 0.000000
79.82230377 193.25399780 289.50000000 -0.995952 0.064644 -0.062452 0.000000
147.50799561 232.46499634 359.25000000 -0.727914 -0.546348 -0.414300 0.000000
210.99200439 120.43399811 368.25000000 -0.006482 0.405769 0.913953 0.000000
116.69899750 245.53500366 398.25000000 0.000978 0.000978 0.999999 0.000000
146.10699463 219.39500427 349.50000000 0.383655 0.425046 -0.819844 0.000000
136.30499268 210.05900574 335.25000000 -0.446108 0.050170 -0.893572 0.000000
182.98399353 264.20700073 395.25000000 0.375299 0.518270 0.768470 0.000000
195.12100220 164.31199646 425.25000000 0.605415 -0.598670 0.524468 0.000000
112.49800110 132.57000732 354.00000000 -0.901588 -0.414927 0.122368 0.000000
225.92999268 119.50000000 422.25000000 0.000978 0.000978 0.999999 0.000000
239.93400574 110.16400146 380.25000000 0.189737 0.971607 -0.141348 0.000000
142.83999634 248.33599854 407.25000000 -0.060851 0.561810 0.825025 0.000000
253.93800354 169.91400146 374.25000000 0.702413 -0.185978 -0.687043 0.000000
86.82420349 222.19500732 311.25000000 0.187571 0.872868 -0.450465 0.000000
133.50399780 189.52000427 323.25000000 0.535908 0.292457 -0.792005 0.000000
225.92999268 202.58999634 395.25000000 0.998522 -0.030385 0.045054 0.000000
200.25599670 205.39100647 370.50000000 -0.012118 0.504922 -0.863080 0.000000
195.12100220 101.76200104 416.25000000 0.289562 -0.536401 0.792734 0.000000
86.35739899 220.32800293 309.00000000 0.258079 0.799262 -0.542748 0.000000
148.44099426 225.92999268 356.25000000 -0.495825 0.586586 -0.640370 0.000000
102.22899628 244.60200500 381.00000000 -0.822858 0.188729 0.535990 0.000000
113.89800262 140.50599670 394.50000000 -0.849538 -0.391255 0.353844 0.000000
211.92599487 124.16799927 365.25000000 0.243012 0.439233 0.864881 0.000000
110.63099670 142.83999634 357.00000000 -0.523690 -0.778284 0.346441 0.000000
232.46499634 81.22270203 404.25000000 0.057672 -0.552803 0.831314 0.000000
147.50799561 115.76599884 407.25000000 -0.179454 -0.661065 0.728552 0.000000
99.42769623 196.05499268 400.50000000 -0.841614 -0.043124 0.538355 0.000000
94.29299927 221.26199341 371.25000000 -0.886050 -0.442309 -0.138848 0.000000
140.03900146 121.36699677 410.25000000 -0.480437 -0.850932 0.212356 0.000000
127.90200043 199.78900146 323.25000000 0.701150 0.467988 -0.537937 0.000000
151.24200439 127.90200043 344.25000000 0.313073 0.310106 -0.897675 0.000000
238.06599426 155.91000366 362.25000000 0.249425 -0.819539 -0.515891 0.000000
224.99600220 130.70300293 368.25000000 -0.214873 0.037213 0.975933 0.000000
211.92599487 151.70899963 364.50000000 0.464987 -0.181566 0.866499 0.000000
105.02899933 267.00799561 364.50000000 0.126167 0.989656 -0.068292 0.000000
99.42769623 253.00399780 364.50000000 -0.923100 0.270490 0.273352 0.000000
113.89800262 203.52299500 413.25000000 -0.782573 0.055593 0.620072 0.000000
216.59399414 189.52000427 419.25000000 0.148193 -0.441700 0.884839 0.000000
82.15619659 168.97999573 290.25000000 0.186423 -0.972696 -0.138232 0.000000
257.20498657 172.71499634 375.00000000 0.576396 0.020734 -0.816907 0.000000
196.98800659 203.52299500 425.25000000 0.371453 0.584180 0.721634 0.000000
213.79299927 77.48829651 377.25000000 -0.635724 0.205721 0.743998 0.000000
161.51199341 125.56800079 414.00000000 -0.393931 -0.400259 0.827412 0.000000
107.36299896 179.25000000 410.25000000 -0.682018 0.409875 0.605685 0.000000
119.50000000 139.57200623 402.00000000 -0.754545 -0.382977 0.532908 0.000000
140.97300720 164.77900696 330.00000000 0.677534 -0.001380 -0.735490 0.000000
131.63699341 136.30499268 419.25000000 -0.760890 -0.433626 0.482715 0.000000
271.67599487 149.37500000 410.25000000 0.710113 0.089313 0.698400 0.000000
139.10499573 269.80899048 392.25000000 -0.023068 0.251317 0.967630 0.000000
175.51600647 138.17199707 353.25000000 0.132622 -0.103947 -0.985701 0.000000
89.62500000 171.31399536 328.50000000 -0.988281 0.001114 0.152643 0.000000
206.32400513 77.95510101 400.50000000 -0.286373 -0.708733 0.644739 0.000000
219.86099243 221.26199341 397.50000000 0.184225 0.455404 -0.871016 0.000000
95.22660065 135.37100220 314.25000000 -0.812315 -0.543073 0.212640 0.000000
179.25000000 206.79100037 352.50000000 0.435944 0.636378 -0.636378 0.000000
267.47500610 176.44900513 385.50000000 0.628933 0.391226 -0.671852 0.000000
241.80099487 84.95700073 386.25000000 -0.016904 0.399192 0.916712 0.000000
266.54098511 107.36299896 394.50000000 -0.533678 0.402311 0.743864 0.000000
112.03099823 137.23800659 314.25000000 -0.000978 -0.000978 -0.999999 0.000000
197.92199707 164.31199646 374.25000000 -0.709605 -0.117524 0.694729 0.000000
252.07000732 148.44099426 377.25000000 0.534803 -0.394151 -0.747416 0.000000
149.84199524 117.63300323 408.00000000 -0.029190 -0.585190 0.810370 0.000000
101.76200104 252.07000732 347.25000000 0.768614 0.604685 -0.208779 0.000000
97.56050110 234.33200073 372.00000000 -0.890594 0.433146 0.138664 0.000000
87.29100037 170.84800720 291.00000000 0.365459 -0.850665 -0.377900 0.000000
112.49800110 126.03500366 345.00000000 -0.849515 -0.333904 0.408451 0.000000
195.12100220 102.69499969 416.25000000 0.289562 -0.536401 0.792734 0.000000
247.40199280 112.49800110 385.50000000 -0.615465 0.135611 0.776410 0.000000
196.05499268 249.73599243 388.50000000 0.875529 0.321281 -0.360870 0.000000
98.02729797 172.24800110 349.50000000 -0.974192 -0.216896 0.062495 0.000000
217.52699280 202.58999634 407.25000000 0.962659 -0.064177 0.263001 0.000000
126.50199890 118.56600189 366.00000000 -0.822021 -0.568018 0.040473 0.000000
250.20300293 123.23400116 383.25000000 0.615186 -0.126002 -0.778248 0.000000
101.29499817 169.91400146 391.50000000 -0.895281 -0.243363 0.373157 0.000000
177.38299561 123.23400116 419.25000000 0.000978 0.000978 0.999999 0.000000
222.19500732 207.72500610 393.00000000 0.226507 0.971628 0.068076 0.000000
202.12300110 236.19900513 403.50000000 0.973367 0.108987 -0.201689 0.000000
162.44500732 214.72700500 425.25000000 -0.260317 0.522193 0.812127 0.000000
162.44500732 274.47698975 392.25000000 0.074865 0.412437 0.907905 0.000000
216.59399414 134.43800354 422.25000000 -0.000978 -0.000978 0.999999 0.000000
194.18800354 222.19500732 374.25000000 0.585559 0.266737 -0.765488 0.000000
110.16400146 143.30700684 382.50000000 -0.881132 -0.472179 -0.025560 0.000000
151.24200439 243.66799927 410.25000000 0.000978 0.000978 0.999999 0.000000
242.73399353 145.64100647 371.25000000 0.426823 -0.426823 -0.797273 0.000000
238.53300476 204.45700073 385.50000000 -0.668370 -0.283696 -0.687603 0.000000
286.61300659 171.78100586 395.25000000 0.947115 -0.320697 0.011231 0.000000
223.12899780 144.70700073 419.25000000 0.174836 0.162074 0.971167 0.000000
112.96499634 151.24200439 404.25000000 -0.765451 -0.603977 0.222027 0.000000
158.71099854 126.50199890 414.00000000 0.100019 -0.463469 0.880450 0.000000
225.92999268 78.42189789 401.25000000 -0.039641 -0.873470 0.485261 0.000000
84.49019623 223.12899780 315.00000000 -0.647973 0.540258 -0.536892 0.000000
179.25000000 159.64500427 353.25000000 0.000978 0.000978 0.999999 0.000000
184.85200500 89.15820313 402.00000000 -0.699233 -0.408299 0.586827 0.000000
137.23800659 224.52900696 349.50000000 0.151842 0.272778 -0.950019 0.000000
236.19900513 150.30900574 365.25000000 0.648154 -0.145872 -0.747407 0.000000
252.07000732 106.43000031 386.25000000 -0.368035 -0.108085 0.923508 0.000000
212.85899353 224.52900696 403.50000000 0.632924 0.445886 0.632924 0.000000
196.52099609 249.27000427 388.50000000 0.875529 0.321281 -0.360870 0.000000
217.52699280 125.10199738 368.25000000 -0.000978 -0.000978 0.999999 0.000000
188.58599854 163.37899780 434.25000000 0.603133 -0.373055 0.705025 0.000000
108.76399994 237.13299561 397.50000000 -0.652597 0.330367 0.681891 0.000000
263.27301025 103.62899780 392.25000000 -0.391097 -0.009035 0.920305 0.000000
111.09799957 153.57600403 406.50000000 0.426823 -0.426823 0.797273 0.000000
166.17999268 224.99600220 359.25000000 0.616330 0.076500 -0.783764 0.000000
164.77900696 109.23000336 412.50000000 -0.460006 -0.600517 0.654045 0.000000
202.58999634 210.05900574 383.25000000 0.698214 0.092217 -0.709924 0.000000
200.25599670 164.31199646 375.00000000 -0.651474 -0.189436 0.734640 0.000000
97.56050110 218.46099854 388.50000000 -0.985221 0.005669 0.171195 0.000000
77.02149963 175.51600647 291.00000000 -0.880361 0.118045 0.459380 0.000000
166.64599609 100.82800293 406.50000000 -0.490989 -0.717343 0.494317 0.000000
133.97099304 112.96499634 375.00000000 -0.848828 -0.001345 0.528668 0.000000
175.04899597 151.24200439 351.00000000 -0.537833 -0.257224 0.802852 0.000000
168.04699707 95.22660065 398.25000000 -0.399991 -0.782169 0.477722 0.000000
144.70700073 219.86099243 426.00000000 -0.211622 0.386758 0.897571 0.000000
131.63699341 267.47500610 391.50000000 -0.321953 0.346137 0.881213 0.000000
140.03900146 183.91799927 323.25000000 0.108025 -0.014185 -0.994047 0.000000
157.31100464 276.34399414 376.50000000 0.080680 0.850675 -0.519464 0.000000
105.49600220 130.70300293 335.25000000 -0.647355 -0.647355 0.402321 0.000000
139.57200623 268.87500000 370.50000000 -0.145761 0.348438 -0.925929 0.000000
93.35939789 232.46499634 356.25000000 -0.566015 0.426586 0.705444 0.000000
136.30499268 153.10899353 431.25000000 -0.787067 -0.094564 0.609577 0.000000
151.24200439 98.49410248 378.00000000 -0.620097 -0.679627 0.391902 0.000000
118.56600189 206.79100037 418.50000000 -0.638434 0.244339 0.729864 0.000000
265.14099121 147.50799561 386.25000000 -0.000978 -0.000978 -0.999999 0.000000
244.60200500 97.56050110 411.00000000 0.003840 -0.385249 0.922805 0.000000
182.98399353 115.76599884 359.25000000 0.527033 -0.467180 -0.709915 0.000000
144.70700073 269.34201050 394.50000000 0.015309 0.750156 0.661084 0.000000
95.22660065 238.06599426 362.25000000 -0.919979 0.071181 0.385451 0.000000
225.92999268 202.58999634 371.25000000 0.000978 0.000978 0.999999 0.000000
101.76200104 166.64599609 355.50000000 -0.829746 -0.541905 0.133641 0.000000
276.34399414 189.98599243 400.50000000 0.138155 0.285700 0.948308 0.000000
267.00799561 108.29699707 392.25000000 -0.098512 0.417636 0.903258 0.000000
