86.22070313 278.43798828 291.25000000 -0.281782 0.848425 -0.448079 0.000000
62.09469986 239.67799377 317.50000000 -0.968834 0.242516 -0.050473 0.000000
159.78500366 290.30300903 343.75000000 0.623097 0.685571 -0.376488 0.000000
200.91799927 173.23199463 428.75000000 0.000978 0.000978 0.999999 0.000000
82.26560211 178.77000427 251.25000000 0.560302 -0.476675 -0.677380 0.000000
181.53799438 218.32000732 427.50000000 0.319877 0.560990 0.763525 0.000000
63.28120041 191.02999878 325.00000000 -0.977512 -0.046892 0.205602 0.000000
179.16499329 255.49800110 372.50000000 0.980307 -0.197447 -0.003464 0.000000
166.90400696 170.06799316 336.25000000 0.803776 0.141144 -0.577946 0.000000
173.62800598 257.07998657 397.50000000 0.410826 0.823238 0.391792 0.000000
151.08399963 213.57400513 298.75000000 0.844879 -0.001347 -0.534955 0.000000
234.93200684 132.10000610 368.75000000 0.754968 0.117176 -0.645208 0.000000
88.59380341 178.37399292 252.50000000 -0.823238 -0.410826 -0.391792 0.000000
137.63699341 211.20100403 443.75000000 0.285018 0.323415 0.902312 0.000000
79.89260101 277.64599609 391.25000000 -0.683822 0.624503 0.377338 0.000000
92.54879761 282.39300537 396.25000000 -0.423598 0.696030 0.579748 0.000000
114.69699860 275.27301025 281.25000000 0.470026 -0.470026 -0.747095 0.000000
253.12500000 189.84399414 401.25000000 0.569215 0.342178 -0.747602 0.000000
167.69500732 247.19200134 327.50000000 0.910346 0.169532 -0.377530 0.000000
65.65429688 208.82800293 406.25000000 -0.994189 -0.088347 0.061508 0.000000
124.18900299 238.09599304 278.75000000 0.786172 0.067304 -0.614331 0.000000
133.68200684 299.39898682 325.00000000 0.375592 0.807122 -0.455505 0.000000
201.70899963 204.87300110 378.75000000 -0.288860 0.955657 0.057263 0.000000
216.73800659 141.59199524 423.75000000 -0.283928 -0.428195 0.857924 0.000000
123.39800262 182.32899475 445.00000000 -0.047407 -0.442914 0.895310 0.000000
184.30700684 143.17399597 341.25000000 0.141283 0.327831 -0.934112 0.000000
88.59380341 179.56100464 251.25000000 -0.823238 -0.410826 -0.391792 0.000000
124.18900299 130.51800537 373.75000000 0.000978 0.000978 0.999999 0.000000
174.02299500 274.08700562 360.00000000 0.925355 0.368791 -0.087807 0.000000
264.59500122 189.05299377 410.00000000 0.526201 -0.820750 0.222446 0.000000
70.00489807 251.54299927 277.50000000 -0.829060 0.544392 -0.127661 0.000000
120.23400116 223.06599426 273.75000000 0.642023 0.104310 -0.759556 0.000000
79.49710083 194.58999634 422.50000000 -0.936760 -0.187352 0.295600 0.000000
179.56100464 178.77000427 428.75000000 0.138632 -0.221553 0.965244 0.000000
62.88570023 252.33399963 357.50000000 -0.987889 -0.001116 -0.155160 0.000000
201.70899963 216.73800659 356.25000000 0.292379 0.174329 -0.940279 0.000000
61.30369949 230.97700500 397.50000000 -0.978826 0.162106 -0.124983 0.000000
99.66799927 160.18099976 405.00000000 -0.571901 -0.819585 0.034787 0.000000
144.75599670 173.23199463 323.75000000 0.806862 -0.561624 -0.183171 0.000000
61.69919968 238.88699341 368.75000000 -0.690320 0.690320 -0.216602 0.000000
215.94700623 206.85099792 380.00000000 0.497512 0.186754 -0.847115 0.000000
211.59700012 150.29299927 352.50000000 0.432972 0.141466 -0.890237 0.000000
139.21899414 193.00799561 446.25000000 0.291910 0.156138 0.943615 0.000000
83.05660248 255.89399719 257.50000000 -0.587327 0.587327 -0.556861 0.000000
213.57400513 120.23400116 376.25000000 -0.243875 -0.925585 0.289513 0.000000
165.71800232 268.94500732 332.50000000 0.943968 0.314656 -0.099575 0.000000
61.69919968 238.49099731 340.00000000 -0.985975 0.141193 -0.088987 0.000000
114.69699860 306.91400146 371.25000000 -0.172064 0.866204 0.469132 0.000000
148.71099854 203.29100037 441.25000000 0.613553 0.215909 0.759563 0.000000
87.80269623 181.14300537 251.25000000 0.369792 -0.273976 -0.887801 0.000000
54.97560120 204.87300110 282.50000000 -0.993617 0.107448 -0.034339 0.000000
164.92700195 276.06399536 337.50000000 0.526406 0.526406 -0.667678 0.000000
162.94900513 247.98300171 320.00000000 0.823238 0.410826 -0.391792 0.000000
129.72700500 223.85699463 281.25000000 0.620353 0.018042 -0.784115 0.000000
172.83700562 191.42599487 355.00000000 0.691335 -0.688214 -0.220041 0.000000
84.63870239 285.55700684 383.75000000 -0.424713 0.779454 0.460512 0.000000
132.89100647 230.97700500 436.25000000 0.000978 0.000978 0.999999 0.000000
147.91999817 167.30000305 427.50000000 0.368169 -0.454235 0.811247 0.000000
189.84399414 174.02299500 428.75000000 -0.000978 -0.000978 0.999999 0.000000
105.20500183 124.98000336 323.75000000 -0.426150 -0.481664 0.765765 0.000000
151.87500000 281.60198975 393.75000000 0.381705 0.555357 0.738837 0.000000
73.56449890 268.94500732 308.75000000 -0.822719 0.549962 -0.143791 0.000000
135.26400757 162.94900513 428.75000000 -0.318741 -0.719998 0.616448 0.000000
256.68499756 193.00799561 405.00000000 0.572130 0.291643 -0.766558 0.000000
56.95309830 208.82800293 298.75000000 -0.380143 -0.380143 -0.843198 0.000000
173.62800598 245.21499634 345.00000000 0.920038 -0.043560 -0.389399 0.000000
221.48399353 158.99400330 426.25000000 0.197599 0.414227 0.888465 0.000000
119.44300079 119.04799652 330.00000000 -0.221535 -0.974990 -0.017770 0.000000
93.33979797 194.58999634 431.25000000 -0.579766 -0.331064 0.744491 0.000000
156.62100220 199.73100281 317.50000000 0.908436 -0.302812 -0.288183 0.000000
228.60400391 127.74900055 397.50000000 -0.001225 -0.953933 0.300017 0.000000
134.47300720 248.37899780 428.75000000 0.245023 0.329113 0.911948 0.000000
160.18099976 148.71099854 420.00000000 0.300420 -0.608872 0.734181 0.000000
98.87699890 267.36300659 266.25000000 0.165309 0.756781 -0.632420 0.000000
131.30900574 209.61900330 281.25000000 0.670232 0.223411 -0.707727 0.000000
63.28120041 222.27499390 368.75000000 -0.965700 -0.240471 0.097970 0.000000
105.20500183 213.57400513 438.75000000 -0.978536 0.196673 -0.061536 0.000000
162.55400085 235.72300720 312.50000000 0.851612 0.215541 -0.477807 0.000000
235.72300720 140.40499878 420.00000000 0.315389 -0.625926 0.713265 0.000000
63.28120041 233.35000610 386.25000000 -0.860600 -0.429536 0.273619 0.000000
156.22599792 199.33599854 327.50000000 0.932470 -0.162108 0.322831 0.000000
78.31050110 262.61700439 276.25000000 -0.722908 0.609701 -0.325066 0.000000
181.14300537 125.77100372 361.25000000 -0.689700 -0.689700 -0.220516 0.000000
159.78500366 294.25799561 348.75000000 0.674319 0.614674 -0.409231 0.000000
230.18600464 165.32200623 423.75000000 0.064807 -0.024435 0.997599 0.000000
63.67679977 246.00599670 317.50000000 -0.970072 0.242814 -0.001184 0.000000
190.63499451 166.11300659 426.25000000 -0.213117 -0.398308 0.892150 0.000000
111.53299713 211.99200439 263.75000000 0.001381 -0.724826 -0.688930 0.000000
113.90599823 223.85699463 441.25000000 0.000978 0.000978 0.999999 0.000000
85.42970276 208.82800293 433.75000000 -0.191160 -0.172954 0.966201 0.000000
172.04600525 231.76800537 355.00000000 0.956920 0.182842 -0.225550 0.000000
68.02729797 182.72500610 253.75000000 -0.827667 -0.496600 -0.261450 0.000000
62.88570023 201.70899963 327.50000000 -0.892786 -0.147603 0.425614 0.000000
158.20300293 251.54299927 313.75000000 0.728616 0.268271 -0.630198 0.000000
203.29100037 226.22999573 361.25000000 0.401722 0.430531 -0.808246 0.000000
248.37899780 148.71099854 383.75000000 0.749921 0.306713 -0.586127 0.000000
105.20500183 256.28900146 426.25000000 -0.000978 -0.000978 0.999999 0.000000
104.41400146 234.93200684 436.25000000 -0.298948 0.517227 0.801939 0.000000
179.56100464 261.82598877 383.75000000 0.870342 0.483837 -0.091689 0.000000
167.69500732 155.03900146 423.75000000 -0.229054 -0.363277 0.903086 0.000000
77.12400055 281.60198975 337.50000000 -0.796399 0.569295 -0.204087 0.000000
111.53299713 136.05499268 366.25000000 -0.587263 -0.644475 0.489667 0.000000
105.99600220 195.38099670 441.25000000 -0.534955 0.001347 0.844879 0.000000
95.71289825 234.93200684 436.25000000 -0.393162 0.235897 0.888694 0.000000
111.92900085 151.87500000 407.50000000 -0.347456 -0.937233 0.029489 0.000000
261.03500366 160.57600403 393.75000000 0.254146 0.610897 -0.749810 0.000000
192.21699524 199.73100281 367.50000000 -0.737156 -0.630276 0.243623 0.000000
150.29299927 173.23199463 331.25000000 0.429093 -0.561632 -0.707424 0.000000
251.54299927 164.53100586 391.25000000 0.489219 0.336238 -0.804741 0.000000
174.02299500 217.92500305 350.00000000 -0.191365 -0.836281 -0.513823 0.000000
148.31500244 290.30300903 327.50000000 0.488914 0.633404 -0.599802 0.000000
133.68200684 209.61900330 446.25000000 0.147099 0.255767 0.955482 0.000000
197.35800171 194.58999634 362.50000000 -0.867554 0.475193 0.146772 0.000000
211.20100403 201.70899963 423.75000000 0.000978 0.000978 0.999999 0.000000
223.06599426 202.50000000 423.75000000 0.000978 0.000978 0.999999 0.000000
212.38800049 193.00799561 360.00000000 0.872159 0.465829 0.149472 0.000000
178.37399292 220.69299316 345.00000000 0.929196 0.248258 -0.273794 0.000000
146.33799744 289.51199341 388.75000000 0.207386 0.566856 0.797286 0.000000
149.10600281 276.06399536 317.50000000 0.720825 0.414021 -0.555876 0.000000
111.53299713 184.30700684 443.75000000 0.885432 -0.443434 -0.139201 0.000000
193.40299988 233.35000610 385.00000000 -0.839510 0.535277 -0.093279 0.000000
121.42099762 211.20100403 272.50000000 0.745664 0.165534 -0.645432 0.000000
197.75399780 236.11799622 375.00000000 -0.418336 0.853652 -0.310279 0.000000
181.14300537 208.43299866 360.00000000 0.190129 -0.925294 0.328149 0.000000
99.66799927 280.41500854 280.00000000 0.107730 0.754108 -0.647854 0.000000
92.54879761 189.84399414 428.75000000 -0.658660 -0.312337 0.684553 0.000000
246.00599670 172.44099426 418.75000000 0.416563 -0.251141 0.873730 0.000000
202.50000000 161.36700439 348.75000000 0.352494 0.089799 -0.931496 0.000000
140.80099487 253.91600037 296.25000000 0.596913 0.358148 -0.717931 0.000000
181.93400574 157.41200256 343.75000000 -0.128919 0.429258 -0.893934 0.000000
187.47099304 223.06599426 361.25000000 -0.182682 0.973886 -0.134807 0.000000
135.26400757 293.46701050 388.75000000 0.116240 0.790141 0.601802 0.000000
109.95099640 158.99400330 281.25000000 0.580476 -0.674155 -0.456686 0.000000
166.11300659 224.64799500 428.75000000 0.272693 0.944148 0.184993 0.000000
155.43499756 198.54499817 345.00000000 0.780041 0.623749 0.049729 0.000000
124.18900299 164.92700195 430.00000000 -0.691335 -0.688214 -0.220041 0.000000
132.10000610 156.62100220 418.75000000 -0.823238 -0.410826 0.391792 0.000000
93.33979797 188.26199341 251.25000000 0.548438 0.051898 -0.834579 0.000000
162.94900513 132.49499512 400.00000000 -0.277258 -0.834871 0.475520 0.000000
136.05499268 287.13900757 396.25000000 -0.001347 0.844879 0.534955 0.000000
142.77799988 128.93600464 382.50000000 -0.298201 -0.829029 0.473062 0.000000
210.41000366 210.41000366 381.25000000 0.417224 -0.459433 0.784121 0.000000
155.83000183 183.51600647 433.75000000 0.272147 -0.415063 0.868135 0.000000
69.21389771 182.72500610 337.50000000 -0.306731 -0.336656 0.890269 0.000000
146.33799744 223.85699463 436.25000000 0.162674 -0.067682 0.984356 0.000000
67.23629761 264.98999023 388.75000000 -0.684652 0.642168 0.344777 0.000000
73.95999908 155.03900146 295.00000000 -0.835160 -0.532800 -0.136502 0.000000
206.45500183 144.75599670 348.75000000 0.532871 0.143181 -0.833995 0.000000
244.42399597 175.60499573 421.25000000 0.256722 -0.338873 0.905129 0.000000
205.66400146 130.12199402 402.50000000 -0.003891 -0.909201 0.416339 0.000000
167.30000305 253.91600037 330.00000000 0.816511 0.246348 -0.522133 0.000000
149.89700317 168.48599243 427.50000000 0.368169 -0.454235 0.811247 0.000000
238.09599304 189.84399414 386.25000000 0.660168 0.095146 -0.745068 0.000000
219.11099243 167.69500732 358.75000000 0.856290 0.062860 -0.512656 0.000000
113.90599823 269.73599243 276.25000000 -0.380143 0.380143 -0.843198 0.000000
75.93750000 277.25100708 327.50000000 -0.996891 0.001050 -0.078785 0.000000
215.15600586 166.11300659 426.25000000 0.000978 0.000978 0.999999 0.000000
267.36300659 165.32200623 408.75000000 0.523575 -0.316692 0.790933 0.000000
109.16000366 283.97500610 401.25000000 -0.237341 0.680586 0.693161 0.000000
123.39800262 175.60499573 441.25000000 -0.094411 -0.599873 0.794505 0.000000
107.57800293 301.77200317 330.00000000 -0.402255 0.886148 -0.230072 0.000000
58.93069839 213.57400513 267.50000000 -0.948432 0.211521 -0.236084 0.000000
168.09100342 145.54699707 350.00000000 0.525939 -0.797595 -0.295347 0.000000
165.32200623 224.64799500 431.25000000 0.136024 0.944087 0.300330 0.000000
64.86329651 200.12699890 388.75000000 -0.939169 -0.280783 0.197793 0.000000
105.99600220 218.32000732 441.25000000 -0.478616 -0.073955 0.874904 0.000000
108.36900330 168.48599243 273.75000000 0.464233 -0.493971 -0.735174 0.000000
94.92189789 252.33399963 256.25000000 0.557437 0.020646 -0.829962 0.000000
220.69299316 159.78500366 361.25000000 0.747504 0.064813 -0.661088 0.000000
98.87699890 205.66400146 253.75000000 0.564391 -0.001360 -0.825507 0.000000
248.37899780 153.85299683 385.00000000 0.616629 0.267893 -0.740272 0.000000
174.81399536 256.28900146 346.25000000 0.846100 0.017712 -0.532730 0.000000
83.05660248 168.48599243 386.25000000 -0.749492 -0.655988 0.089121 0.000000
61.30369949 206.45500183 257.50000000 -0.911222 -0.077638 -0.404533 0.000000
163.74000549 217.92500305 347.50000000 -0.125405 -0.863422 0.488648 0.000000
140.00999451 215.94700623 441.25000000 0.067184 0.343825 0.936627 0.000000
148.71099854 188.26199341 441.25000000 0.339112 0.050672 0.939380 0.000000
174.81399536 196.96299744 431.25000000 0.000978 0.000978 0.999999 0.000000
176.39599609 201.70899963 368.75000000 0.264938 -0.721838 -0.639342 0.000000
217.52900696 205.66400146 363.75000000 0.724826 -0.001381 -0.688930 0.000000
195.38099670 177.97900391 428.75000000 0.000978 0.000978 0.999999 0.000000
144.75599670 197.75399780 291.25000000 0.762325 -0.191732 -0.618142 0.000000
238.09599304 178.77000427 383.75000000 0.733851 0.139567 -0.664818 0.000000
189.84399414 156.62100220 426.25000000 0.000978 0.000978 0.999999 0.000000
242.05099487 141.19599915 417.50000000 0.254751 -0.666150 0.700961 0.000000
121.81600189 310.47399902 355.00000000 0.001227 0.953006 -0.302950 0.000000
65.25879669 247.58799744 297.50000000 -0.924432 0.371122 -0.087720 0.000000
124.98000336 277.64599609 293.75000000 0.572176 0.521541 -0.632938 0.000000
68.02729797 171.25500488 272.50000000 -0.873778 -0.484213 -0.045266 0.000000
203.29100037 202.50000000 426.25000000 0.592720 0.061120 0.803086 0.000000
196.96299744 196.96299744 358.75000000 -0.549047 -0.714923 -0.432935 0.000000
165.71800232 173.23199463 335.00000000 0.797798 0.141665 -0.586046 0.000000
201.70899963 136.44999695 415.00000000 0.046350 -0.813238 0.580082 0.000000
117.06999969 141.98699951 382.50000000 -0.208284 -0.825534 0.524511 0.000000
202.10400391 225.43899536 360.00000000 0.401722 0.430531 -0.808246 0.000000
104.01899719 199.33599854 440.00000000 -0.434944 0.017186 0.900294 0.000000
139.21899414 156.62100220 323.75000000 0.286388 0.210949 -0.934603 0.000000
102.04100037 219.11099243 256.25000000 0.670821 -0.026720 -0.741138 0.000000
159.38999939 219.11099243 307.50000000 0.724826 -0.001381 -0.688930 0.000000
158.59899902 245.21499634 310.00000000 0.825534 0.208284 -0.524511 0.000000
183.51600647 224.25300598 410.00000000 0.716935 0.616596 -0.325291 0.000000
179.95599365 254.70700073 392.50000000 0.635344 0.551081 0.540969 0.000000
195.77600098 233.35000610 372.50000000 -0.751942 0.628419 -0.199180 0.000000
163.74000549 176.39599609 333.75000000 0.533502 0.159010 -0.830717 0.000000
55.76660156 206.45500183 287.50000000 -0.984544 0.126224 0.121415 0.000000
108.36900330 166.11300659 273.75000000 0.572130 -0.291643 -0.766558 0.000000
152.66600037 152.66600037 328.75000000 0.528454 -0.095952 -0.843522 0.000000
185.09800720 156.62100220 426.25000000 0.000978 0.000978 0.999999 0.000000
229.39500427 119.44300079 378.75000000 0.001227 -0.953006 0.302950 0.000000
77.12400055 283.18399048 342.50000000 -0.840831 0.502687 -0.200773 0.000000
70.40039825 166.90400696 273.75000000 -0.873778 -0.484213 -0.045266 0.000000
77.51950073 280.81100464 333.75000000 -0.792056 0.577572 -0.197631 0.000000
222.27499390 124.98000336 391.25000000 0.587327 -0.587327 0.556861 0.000000
83.05660248 149.89700317 330.00000000 -0.824052 -0.521339 0.221684 0.000000
243.63299561 204.47799683 420.00000000 -0.104345 0.251201 0.962294 0.000000
147.91999817 190.63499451 441.25000000 0.330487 0.013823 0.943709 0.000000
131.30900574 155.83000183 416.25000000 -0.261059 -0.735713 0.624960 0.000000
224.64799500 219.50700378 410.00000000 0.211666 0.976083 -0.049590 0.000000
76.72850037 148.31500244 315.00000000 -0.225154 -0.522297 0.822503 0.000000
164.92700195 218.32000732 315.00000000 0.784286 -0.184269 -0.592402 0.000000
87.01170349 145.15100098 330.00000000 -0.761160 -0.558398 0.329890 0.000000
78.70610046 289.51199341 360.00000000 -0.811295 0.558424 0.173096 0.000000
63.67679977 216.73800659 255.00000000 -0.901674 0.140135 -0.409080 0.000000
121.81600189 253.91600037 278.75000000 0.712288 0.152741 -0.685067 0.000000
60.51269913 200.12699890 317.50000000 -0.953006 0.001227 0.302950 0.000000
182.72500610 225.83500671 395.00000000 -0.048807 0.996756 0.063992 0.000000
123.39800262 143.17399597 391.25000000 -0.401441 -0.752088 0.522693 0.000000
131.30900574 193.00799561 446.25000000 0.222924 -0.362798 0.904811 0.000000
85.42970276 276.06399536 398.75000000 -0.368094 0.731280 0.574227 0.000000
223.06599426 219.11099243 416.25000000 -0.138527 0.913721 0.382000 0.000000
222.27499390 197.75399780 423.75000000 0.000978 0.000978 0.999999 0.000000
62.49020004 224.64799500 388.75000000 -0.953006 0.001227 -0.302950 0.000000
112.32399750 134.47300720 303.75000000 0.840607 -0.240392 -0.485378 0.000000
161.36700439 247.58799744 316.25000000 0.823238 0.410826 -0.391792 0.000000
142.77799988 262.61700439 415.00000000 0.245403 0.467943 0.849004 0.000000
130.12199402 304.54098511 332.50000000 0.001347 0.844879 -0.534955 0.000000
148.71099854 223.85699463 296.25000000 0.615060 -0.058509 -0.786306 0.000000
193.00799561 123.79399872 382.50000000 -0.090270 -0.988281 0.123095 0.000000
234.14100647 163.74000549 378.75000000 0.829160 0.218361 -0.514599 0.000000
56.95309830 203.29100037 301.25000000 -0.987348 0.026253 0.156378 0.000000
204.08200073 132.49499512 407.50000000 -0.077867 -0.905722 0.416659 0.000000
77.12400055 255.49800110 265.00000000 -0.749242 0.588804 -0.303226 0.000000
94.92189789 279.22900391 401.25000000 -0.370305 0.748767 0.549748 0.000000
167.69500732 130.51800537 398.75000000 -0.282279 -0.891642 0.353968 0.000000
132.89100647 168.88200378 435.00000000 0.145955 -0.633477 0.759871 0.000000
141.59199524 213.57400513 288.75000000 0.578780 0.249393 -0.776413 0.000000
62.09469986 228.60400391 272.50000000 -0.773535 0.431551 -0.464121 0.000000
133.68200684 145.54699707 321.25000000 -0.000978 -0.000978 -0.999999 0.000000
104.41400146 244.42399597 258.75000000 0.612661 0.174829 -0.770767 0.000000
263.80398560 195.38099670 412.50000000 -0.343290 0.343290 0.874245 0.000000
136.05499268 246.79699707 288.75000000 0.538621 0.140189 -0.830804 0.000000
140.80099487 200.91799927 446.25000000 0.244164 0.408938 0.879291 0.000000
143.96499634 234.93200684 431.25000000 0.273774 0.468664 0.839882 0.000000
219.90199280 126.56199646 351.25000000 0.798493 0.216932 -0.561560 0.000000
161.36700439 192.61199951 350.00000000 0.175018 0.948354 -0.264562 0.000000
62.88570023 249.96099854 365.00000000 -0.991461 -0.129610 -0.014401 0.000000
121.42099762 142.38299561 315.00000000 -0.119031 0.477556 -0.870501 0.000000
108.36900330 227.02099609 261.25000000 0.836126 0.139599 -0.530477 0.000000
140.00999451 116.67500305 352.50000000 -0.112045 -0.978854 0.171146 0.000000
176.39599609 181.93400574 431.25000000 0.395993 -0.269516 0.877810 0.000000
135.26400757 308.10101318 350.00000000 0.215398 0.971181 -0.102031 0.000000
205.66400146 165.32200623 348.75000000 0.408698 0.063395 -0.910465 0.000000
161.36700439 147.91999817 418.75000000 0.300420 -0.608872 0.734181 0.000000
65.25879669 177.97900391 267.50000000 -0.863875 -0.476671 -0.162802 0.000000
113.11499786 185.09800720 266.25000000 0.766108 -0.494948 -0.410006 0.000000
186.67999268 213.97000122 352.50000000 -0.053310 -0.336764 -0.940079 0.000000
231.37199402 166.11300659 375.00000000 0.848945 0.089888 -0.520781 0.000000
155.83000183 228.60400391 301.25000000 0.805939 -0.534694 -0.254097 0.000000
82.26560211 144.75599670 321.25000000 -0.655665 -0.755050 -0.001380 0.000000
160.57600403 196.56700134 355.00000000 0.492375 0.763918 -0.417129 0.000000
138.42799377 204.87300110 283.75000000 0.716736 -0.015369 -0.697176 0.000000
103.62300110 222.27499390 438.75000000 -0.571072 -0.052172 0.819241 0.000000
204.87300110 140.80099487 421.25000000 0.154599 -0.882805 0.443570 0.000000
152.27099609 193.79899597 305.00000000 0.873846 -0.364484 -0.321783 0.000000
64.07230377 242.44599915 397.50000000 -0.956468 0.193969 0.218048 0.000000
138.42799377 287.92999268 316.25000000 0.677938 0.614951 -0.402785 0.000000
164.53100586 174.02299500 431.25000000 0.000978 0.000978 0.999999 0.000000
210.41000366 173.23199463 353.75000000 0.000978 0.000978 -0.999999 0.000000
160.97200012 137.63699341 342.50000000 0.781030 -0.276122 -0.560133 0.000000
60.11719894 234.14100647 366.25000000 -0.999525 -0.025472 0.017321 0.000000
76.33300018 161.36700439 337.50000000 -0.302812 -0.908436 0.288183 0.000000
97.69039917 202.50000000 252.50000000 0.402107 0.200323 -0.893409 0.000000
151.87500000 185.09800720 328.75000000 0.876414 -0.263980 -0.402758 0.000000
90.96679688 275.27301025 403.75000000 -0.333153 0.716685 0.612676 0.000000
161.76300049 210.41000366 335.00000000 0.303655 -0.951622 0.047009 0.000000
155.03900146 236.11799622 427.50000000 0.433339 0.291463 0.852799 0.000000
96.50389862 219.11099243 438.75000000 -0.209119 -0.010514 0.977834 0.000000
56.95309830 197.75399780 301.25000000 -0.991613 0.076630 0.104079 0.000000
225.43899536 168.48599243 423.75000000 0.000978 0.000978 0.999999 0.000000
89.78029633 143.96499634 345.00000000 -0.854340 -0.475968 0.208705 0.000000
98.87699890 300.19000244 352.50000000 -0.467010 0.871462 -0.149851 0.000000
249.96099854 212.78300476 418.75000000 0.349193 0.148859 0.925152 0.000000
141.59199524 180.35200500 298.75000000 0.709606 -0.635588 -0.304117 0.000000
176.39599609 197.75399780 431.25000000 0.000978 0.000978 0.999999 0.000000
128.93600464 302.16799927 326.25000000 0.372045 0.491229 -0.787576 0.000000
206.45500183 215.55200195 417.50000000 -0.203190 0.941309 0.269538 0.000000
110.74199677 123.79399872 335.00000000 -0.000978 -0.999999 -0.000978 0.000000
167.69500732 135.65899658 410.00000000 -0.356577 -0.890697 0.281979 0.000000
70.00489807 191.42599487 395.00000000 0.000000 0.000000 0.000000 0.000000
68.42289734 231.76800537 415.00000000 -0.582373 0.091041 0.807808 0.000000
217.52900696 115.48799896 363.75000000 -0.153728 -0.953111 0.260668 0.000000
205.26899719 209.61900330 387.50000000 -0.074965 0.844418 -0.530413 0.000000
261.82598877 194.58999634 418.75000000 0.269488 -0.154184 0.950581 0.000000
99.66799927 244.42399597 256.25000000 0.455345 0.282468 -0.844318 0.000000
62.88570023 174.02299500 290.00000000 -0.839282 -0.535132 -0.096123 0.000000
142.38299561 272.89999390 308.75000000 0.739885 0.367493 -0.563489 0.000000
118.65200043 163.34500122 287.50000000 0.637890 -0.654459 -0.405930 0.000000
117.86100006 155.03900146 416.25000000 0.100366 -0.875025 0.473559 0.000000
232.55900574 202.50000000 388.75000000 0.527511 0.544365 -0.652226 0.000000
257.47601318 135.26400757 395.00000000 0.784215 -0.610599 0.110349 0.000000
69.60939789 195.38099670 366.25000000 -0.948432 -0.236084 -0.211521 0.000000
127.35399628 266.17700195 417.50000000 0.523531 0.734925 0.431046 0.000000
70.79589844 241.25999451 260.00000000 0.000978 0.000978 -0.999999 0.000000
79.49710083 172.44099426 372.50000000 -0.866475 -0.498053 -0.034113 0.000000
101.25000000 135.26400757 346.25000000 -0.327735 -0.741037 0.586049 0.000000
201.70899963 182.72500610 356.25000000 0.271994 0.637834 -0.720546 0.000000
105.99600220 306.51901245 362.50000000 -0.292096 0.948311 0.124041 0.000000
156.62100220 280.41500854 392.50000000 0.446273 0.542496 0.711715 0.000000
78.31050110 166.90400696 261.25000000 -0.241236 -0.663794 -0.707942 0.000000
70.79589844 176.39599609 257.50000000 -0.728402 -0.595375 -0.339056 0.000000
99.66799927 216.73800659 253.75000000 0.275727 0.553029 -0.786215 0.000000
189.84399414 225.04400635 405.00000000 0.298574 0.918800 0.258187 0.000000
250.75199890 208.03700256 418.75000000 -0.249225 0.257673 0.933537 0.000000
70.00489807 174.02299500 332.50000000 -0.998413 0.030510 0.047343 0.000000
174.81399536 140.00999451 421.25000000 -0.307473 -0.362000 0.880009 0.000000
124.18900299 297.81698608 315.00000000 0.464609 0.739075 -0.487757 0.000000
130.51800537 136.84599304 386.25000000 -0.384121 -0.647895 0.657787 0.000000
90.96679688 296.63101196 351.25000000 -0.000978 -0.000978 -0.999999 0.000000
170.85899353 231.76800537 326.25000000 0.953006 0.001227 -0.302950 0.000000
145.54699707 271.31799316 406.25000000 0.424183 0.427409 0.798367 0.000000
153.45700073 284.76599121 391.25000000 0.285123 0.600511 0.747055 0.000000
109.16000366 218.32000732 261.25000000 0.673238 -0.038268 -0.738435 0.000000
165.32200623 156.62100220 336.25000000 0.668926 -0.554923 -0.494569 0.000000
168.48599243 154.24800110 343.75000000 0.724826 0.001381 -0.688930 0.000000
143.96499634 138.82299805 397.50000000 -0.470195 -0.876850 0.100252 0.000000
127.35399628 194.58999634 276.25000000 0.614837 -0.046643 -0.787274 0.000000
79.89260101 154.24800110 326.25000000 -0.462863 -0.795092 0.391901 0.000000
127.35399628 143.17399597 393.75000000 -0.500913 -0.732357 0.461236 0.000000
242.84199524 158.20300293 421.25000000 0.250570 0.132500 0.958988 0.000000
124.58499908 146.33799744 397.50000000 -0.529418 -0.749053 0.398293 0.000000
151.08399963 293.86199951 385.00000000 0.091267 0.595408 0.798223 0.000000
197.75399780 146.33799744 426.25000000 -0.254430 -0.452490 0.854703 0.000000
95.71289825 141.98699951 355.00000000 -0.640168 -0.589761 0.492308 0.000000
158.99400330 154.24800110 421.25000000 -0.176160 -0.484070 0.857114 0.000000
96.50389862 209.61900330 251.25000000 0.724826 -0.001381 -0.688930 0.000000
254.70700073 139.61399841 410.00000000 0.587327 -0.587327 -0.556861 0.000000
167.30000305 142.38299561 357.50000000 0.945059 -0.263960 -0.192841 0.000000
151.08399963 134.47300720 396.25000000 -0.283676 -0.690759 0.665116 0.000000
189.84399414 188.26199341 428.75000000 -0.000978 -0.000978 0.999999 0.000000
111.53299713 245.21499634 266.25000000 0.763613 0.215299 -0.608722 0.000000
117.86100006 283.18399048 291.25000000 0.544798 0.534678 -0.645999 0.000000
142.38299561 301.77200317 377.50000000 0.204391 0.837246 0.507192 0.000000
146.33799744 155.83000183 418.75000000 -0.137075 -0.540932 0.829821 0.000000
258.66198730 161.36700439 393.75000000 0.358403 0.457162 -0.813972 0.000000
189.05299377 159.78500366 426.25000000 0.000978 0.000978 0.999999 0.000000
225.43899536 219.11099243 416.25000000 -0.148342 0.986997 0.061906 0.000000
182.72500610 196.96299744 376.25000000 0.411198 -0.479461 -0.775263 0.000000
158.59899902 259.45300293 320.00000000 0.777849 0.238499 -0.581438 0.000000
90.96679688 157.80799866 367.50000000 -0.000978 -0.000978 0.999999 0.000000
60.51269913 230.18600464 312.50000000 -0.986241 0.165311 0.001125 0.000000
109.95099640 123.79399872 340.00000000 0.428478 -0.895137 0.123028 0.000000
92.54879761 291.48901367 382.50000000 -0.459343 0.689850 0.559563 0.000000
162.94900513 218.32000732 311.25000000 0.836498 -0.046084 -0.546028 0.000000
153.45700073 263.40798950 313.75000000 0.791462 0.438622 -0.425674 0.000000
64.46779633 219.11099243 372.50000000 -0.961553 -0.261777 0.083003 0.000000
244.02799988 210.41000366 405.00000000 0.780734 0.335059 -0.527437 0.000000
211.99200439 134.47300720 351.25000000 0.441700 0.148193 -0.884839 0.000000
123.00299835 241.25999451 277.50000000 0.774019 0.168133 -0.610430 0.000000
121.02500153 140.00999451 313.75000000 0.778596 -0.035199 -0.626538 0.000000
172.44099426 282.39300537 376.25000000 0.747685 0.663518 0.026653 0.000000
135.26400757 196.17199707 446.25000000 0.080733 -0.089830 0.992680 0.000000
158.20300293 132.89100647 341.25000000 0.655337 -0.403157 -0.638747 0.000000
74.35549927 156.22599792 285.00000000 -0.930458 -0.310153 -0.195073 0.000000
117.06999969 179.56100464 271.25000000 0.562406 -0.280411 -0.777862 0.000000
83.84770203 144.36000061 317.50000000 -0.554102 -0.816965 0.159809 0.000000
138.42799377 242.84199524 428.75000000 0.260462 0.370600 0.891524 0.000000
173.23199463 257.87100220 343.75000000 0.840478 0.009505 -0.541762 0.000000
210.41000366 221.48399353 391.25000000 0.962956 0.237175 0.128308 0.000000
220.69299316 208.03700256 421.25000000 -0.001292 0.412244 0.911072 0.000000
179.56100464 201.70899963 371.25000000 0.241009 -0.723027 -0.647416 0.000000
234.14100647 138.42799377 366.25000000 0.917054 0.097036 -0.386776 0.000000
113.90599823 241.25999451 433.75000000 0.133455 0.673271 0.727252 0.000000
65.65429688 213.57400513 251.25000000 -0.870385 0.103651 -0.481338 0.000000
66.44529724 168.09100342 292.50000000 -0.824228 -0.550954 -0.130760 0.000000
157.41200256 238.09599304 426.25000000 0.426475 0.452420 0.783221 0.000000
166.11300659 211.20100403 358.75000000 -0.443434 -0.885432 -0.139201 0.000000
156.62100220 177.97900391 331.25000000 0.047087 0.306699 -0.950641 0.000000
160.57600403 215.94700623 308.75000000 0.812434 -0.020761 -0.582683 0.000000
69.21389771 264.98999023 382.50000000 -0.807781 0.559233 -0.186411 0.000000
105.99600220 188.26199341 441.25000000 -0.615413 0.123083 0.778535 0.000000
105.99600220 145.94200134 377.50000000 -0.457460 -0.821529 0.340325 0.000000
135.65899658 249.16999817 427.50000000 0.223786 0.234769 0.945940 0.000000
111.53299713 166.11300659 276.25000000 0.537867 -0.384191 -0.750398 0.000000
74.35549927 272.89999390 318.75000000 -0.855834 0.508374 -0.095409 0.000000
73.95999908 270.52700806 312.50000000 -0.822719 0.549962 -0.143791 0.000000
175.21000671 237.30499268 402.50000000 0.999999 -0.000978 -0.000978 0.000000
175.21000671 237.30499268 397.50000000 0.999999 -0.000978 -0.000978 0.000000
232.55900574 156.62100220 423.75000000 0.412244 -0.001292 0.911072 0.000000
66.04979706 256.28900146 322.50000000 -0.960808 0.275753 -0.028441 0.000000
95.71289825 215.15600586 251.25000000 0.683780 -0.399009 -0.610931 0.000000
76.72850037 283.97500610 368.75000000 -0.825642 0.542989 0.153227 0.000000
105.99600220 265.78100586 268.75000000 0.579999 0.539416 -0.610436 0.000000
185.09800720 217.52900696 426.25000000 0.394695 0.619292 0.678744 0.000000
137.63699341 155.83000183 418.75000000 -0.092043 -0.746570 0.658910 0.000000
64.46779633 185.09800720 325.00000000 -0.898239 -0.113506 0.424597 0.000000
114.69699860 161.36700439 423.75000000 -0.730780 -0.364572 0.577103 0.000000
132.10000610 159.78500366 423.75000000 -0.001381 -0.724826 0.688930 0.000000
99.66799927 240.46899414 436.25000000 -0.392328 0.252104 0.884603 0.000000
161.36700439 130.51800537 351.25000000 0.785365 -0.523043 -0.331101 0.000000
237.30499268 166.50900269 382.50000000 0.764949 0.336578 -0.549153 0.000000
143.17399597 204.87300110 443.75000000 0.433146 0.138664 0.890594 0.000000
107.57800293 249.96099854 431.25000000 -0.959144 -0.238796 0.151722 0.000000
250.75199890 166.11300659 391.25000000 0.508178 -0.048464 -0.859887 0.000000
123.00299835 221.48399353 275.00000000 0.770696 0.123252 -0.625169 0.000000
135.26400757 269.73599243 411.25000000 0.410472 0.643128 0.646451 0.000000
79.89260101 261.82598877 271.25000000 -0.720022 0.633811 -0.282581 0.000000
85.03420258 166.11300659 392.50000000 -0.921828 -0.353904 0.158068 0.000000
187.47099304 184.70199585 367.50000000 -0.765819 0.642616 -0.023801 0.000000
145.15100098 187.47099304 442.50000000 0.216371 -0.093803 0.971794 0.000000
112.32399750 145.15100098 385.00000000 -0.432587 -0.854397 0.287878 0.000000
210.41000366 142.38299561 423.75000000 -0.076876 -0.694788 0.715095 0.000000
235.32699585 164.53100586 422.50000000 0.370941 -0.156557 0.915365 0.000000
79.89260101 144.75599670 313.75000000 -0.530868 -0.841620 0.099268 0.000000
121.81600189 125.37599945 362.50000000 -0.365690 -0.547723 0.752509 0.000000
170.06799316 246.79699707 411.25000000 0.470026 0.470026 0.747095 0.000000
137.63699341 208.82800293 283.75000000 0.374307 0.073788 -0.924364 0.000000
209.22399902 140.80099487 350.00000000 0.534445 0.060318 -0.843048 0.000000
248.37899780 213.57400513 418.75000000 0.143777 0.286211 0.947318 0.000000
137.63699341 280.01998901 306.25000000 0.662823 0.474884 -0.578922 0.000000
159.78500366 180.35200500 431.25000000 -0.290477 -0.314069 0.903871 0.000000
83.84770203 161.36700439 351.25000000 -0.616596 -0.716935 0.325291 0.000000
135.26400757 287.13900757 396.25000000 -0.001347 0.844879 0.534955 0.000000
102.83200073 234.53599548 437.50000000 -0.298948 0.517227 0.801939 0.000000
250.75199890 138.42799377 381.25000000 0.647773 0.279902 -0.708552 0.000000
58.93069839 219.90199280 277.50000000 -0.958905 0.277411 -0.059536 0.000000
124.98000336 221.48399353 278.75000000 0.786527 0.018033 -0.617292 0.000000
134.47300720 245.21499634 428.75000000 0.337509 0.402833 0.850772 0.000000
137.63699341 208.03700256 446.25000000 0.319922 0.214703 0.922796 0.000000
103.22799683 144.75599670 370.00000000 -0.537791 -0.783547 0.311184 0.000000
221.48399353 206.05999756 380.00000000 0.566916 0.809239 -0.154070 0.000000
62.09469986 211.99200439 390.00000000 -0.985975 0.141193 -0.088987 0.000000
150.29299927 271.31799316 316.25000000 0.678234 0.391098 -0.622127 0.000000
108.36900330 259.45300293 266.25000000 0.509220 0.255384 -0.821872 0.000000
248.37899780 214.36500549 411.25000000 0.006923 0.743483 -0.668719 0.000000
77.51950073 201.31300354 425.00000000 -0.571092 -0.259587 0.778761 0.000000
160.57600403 192.61199951 347.50000000 0.443434 0.885432 -0.139201 0.000000
114.69699860 223.85699463 441.25000000 0.000978 0.000978 0.999999 0.000000
172.44099426 253.52099609 402.50000000 0.492119 0.646641 0.582816 0.000000
121.81600189 138.42799377 381.25000000 -0.438078 -0.691265 0.574666 0.000000
160.97200012 267.36300659 400.00000000 0.584280 0.470437 0.661291 0.000000
109.16000366 219.90199280 261.25000000 0.636723 0.146010 -0.757143 0.000000
179.16499329 204.87300110 367.50000000 0.264938 -0.721838 -0.639342 0.000000
100.45899963 191.42599487 436.25000000 -0.805690 -0.082154 0.586612 0.000000
95.71289825 220.69299316 251.25000000 0.639724 0.095153 -0.762692 0.000000
208.03700256 126.95800018 395.00000000 0.163986 -0.947322 0.275117 0.000000
208.03700256 158.99400330 351.25000000 0.464572 -0.053446 -0.883921 0.000000
68.42289734 195.38099670 402.50000000 -0.987405 -0.156387 -0.023972 0.000000
71.19139862 185.49299622 345.00000000 -0.908436 -0.302812 0.288183 0.000000
249.56500244 139.21899414 380.00000000 0.647773 0.279902 -0.708552 0.000000
77.12400055 174.02299500 397.50000000 -0.690320 -0.690320 0.216602 0.000000
122.60700226 213.57400513 446.25000000 -0.161997 0.227849 0.960126 0.000000
151.87500000 196.17199707 301.25000000 0.791085 -0.475295 -0.385070 0.000000
90.96679688 287.13900757 306.25000000 -0.474400 0.857513 -0.199039 0.000000
66.04979706 209.61900330 407.50000000 -0.994189 -0.088347 0.061508 0.000000
165.71800232 225.43899536 315.00000000 0.658038 -0.064796 -0.750192 0.000000
76.72850037 276.85501099 321.25000000 -0.794590 0.574126 -0.197499 0.000000
179.16499329 261.82598877 380.00000000 0.920564 0.259941 -0.291536 0.000000
95.31739807 182.72500610 255.00000000 0.490000 -0.628075 -0.604501 0.000000
255.89399719 182.72500610 400.00000000 0.433070 0.469022 -0.769720 0.000000
94.13089752 288.32501221 387.50000000 -0.464544 0.700979 0.541136 0.000000
66.44529724 222.67100525 252.50000000 -0.915099 0.195583 -0.352620 0.000000
160.57600403 121.42099762 377.50000000 -0.001227 -0.953006 0.302950 0.000000
122.60700226 119.44300079 351.25000000 -0.085761 -0.996315 0.001059 0.000000
97.69039917 189.05299377 255.00000000 0.724826 -0.001381 -0.688930 0.000000
97.29489899 151.87500000 371.25000000 -0.616257 -0.770700 0.162014 0.000000
186.28399658 180.35200500 355.00000000 -0.409113 0.829283 -0.380680 0.000000
88.59380341 281.99700928 392.50000000 -0.392990 0.806833 0.441111 0.000000
160.57600403 147.12899780 418.75000000 0.470026 -0.470026 0.747095 0.000000
219.11099243 218.32000732 403.75000000 0.030497 0.905626 -0.422979 0.000000
240.46899414 149.50199890 376.25000000 0.635457 0.318537 -0.703369 0.000000
139.61399841 126.56199646 375.00000000 -0.224741 -0.788918 0.571927 0.000000
142.38299561 226.22999573 291.25000000 0.551270 -0.182750 -0.814067 0.000000
138.03199768 140.80099487 400.00000000 -0.690320 -0.690320 0.216602 0.000000
88.59380341 136.44999695 310.00000000 -0.705176 -0.705176 -0.073848 0.000000
158.20300293 132.49499512 342.50000000 0.655337 -0.403157 -0.638747 0.000000
68.42289734 261.03500366 320.00000000 -0.860600 0.429536 -0.273619 0.000000
118.65200043 168.48599243 281.25000000 0.625737 -0.558272 -0.544779 0.000000
244.42399597 134.47300720 376.25000000 0.293254 0.250339 -0.922677 0.000000
177.18800354 126.16699982 397.50000000 0.914950 -0.390946 0.100137 2.000000
177.97900391 127.35399628 378.75000000 0.701095 -0.679234 0.217043 2.000000
174.02299500 125.77100372 393.75000000 0.914950 -0.390946 0.100137 2.000000
174.81399536 123.00299835 385.00000000 0.700043 -0.668438 0.251257 2.000000
180.35200500 141.98699951 422.50000000 0.914950 -0.390946 0.100137 2.000000
181.93400574 150.29299927 426.25000000 -0.334169 -0.760355 0.556948 2.000000
171.64999390 126.16699982 392.50000000 0.914950 -0.390946 0.100137 2.000000
174.02299500 126.56199646 393.75000000 0.914950 -0.390946 0.100137 2.000000
177.18800354 128.53999329 400.00000000 0.914950 -0.390946 0.100137 2.000000
176.00100708 130.51800537 402.50000000 0.914950 -0.390946 0.100137 2.000000
181.93400574 149.50199890 426.25000000 -0.334169 -0.760355 0.556948 2.000000
178.77000427 128.53999329 400.00000000 0.914950 -0.390946 0.100137 2.000000
180.35200500 142.38299561 423.75000000 -0.317219 -0.785874 0.530824 2.000000
174.81399536 130.51800537 401.25000000 0.914950 -0.390946 0.100137 2.000000
177.18800354 143.96499634 423.75000000 -0.317219 -0.785874 0.530824 2.000000
177.18800354 123.00299835 385.00000000 0.700043 -0.668438 0.251257 2.000000
177.58299255 126.56199646 397.50000000 0.914950 -0.390946 0.100137 2.000000
181.14300537 141.98699951 422.50000000 0.914950 -0.390946 0.100137 2.000000
174.02299500 123.00299835 385.00000000 0.700043 -0.668438 0.251257 2.000000
176.39599609 125.77100372 393.75000000 0.914950 -0.390946 0.100137 2.000000
177.97900391 124.58499908 392.50000000 0.914950 -0.390946 0.100137 2.000000
179.56100464 128.93600464 401.25000000 0.914950 -0.390946 0.100137 2.000000
157.41200256 121.42099762 352.50000000 -0.279075 0.738352 0.613965 1.000000
180.35200500 145.54699707 341.25000000 -0.279075 0.738352 0.613965 1.000000
92.54879761 159.78500366 266.25000000 -0.326476 0.700056 0.635086 1.000000
236.90899658 121.02500153 367.50000000 -0.240710 0.796673 0.554410 1.000000
155.03900146 123.39800262 346.25000000 -0.279075 0.738352 0.613965 1.000000
105.60099792 144.75599670 287.50000000 -0.253309 0.756781 0.602592 1.000000
174.41900635 140.00999451 347.50000000 -0.279075 0.738352 0.613965 1.000000
109.55599976 132.89100647 300.00000000 -0.274831 0.741884 0.611618 1.000000
185.88900757 126.56199646 341.25000000 -0.279075 0.738352 0.613965 1.000000
176.79200745 136.05499268 342.50000000 -0.279075 0.738352 0.613965 1.000000
107.57800293 137.24099731 295.00000000 -0.264102 0.748025 0.608858 1.000000
103.62300110 144.75599670 286.25000000 -0.256860 0.754823 0.603543 1.000000
136.84599304 124.98000336 326.25000000 -0.279075 0.738352 0.613965 1.000000
162.15800476 122.60700226 361.25000000 -0.279075 0.738352 0.613965 1.000000
117.06999969 121.02500153 318.75000000 -0.279075 0.738352 0.613965 1.000000
88.59380341 163.74000549 263.75000000 -0.326476 0.700056 0.635086 1.000000
145.54699707 126.16699982 332.50000000 -0.279075 0.738352 0.613965 1.000000
193.00799561 118.65200043 341.25000000 -0.279075 0.738352 0.613965 1.000000
86.22070313 144.75599670 278.75000000 -0.308204 0.714841 0.627704 1.000000
248.37899780 123.39800262 381.25000000 -0.344325 0.544778 0.764629 1.000000
94.92189789 151.87500000 273.75000000 -0.282783 0.733318 0.618287 1.000000
248.77400208 125.77100372 380.00000000 -0.344325 0.544778 0.764629 1.000000
251.14700317 127.35399628 387.50000000 -0.401757 -0.280472 0.871738 1.000000
187.47099304 126.56199646 341.25000000 -0.279075 0.738352 0.613965 1.000000
244.02799988 120.23400116 375.00000000 -0.221887 0.821748 0.524878 1.000000
99.27249908 143.17399597 282.50000000 -0.257472 0.753462 0.604981 1.000000
113.51100159 128.93600464 307.50000000 -0.279075 0.738352 0.613965 1.000000
86.22070313 154.24800110 268.75000000 -0.326476 0.700056 0.635086 1.000000
156.62100220 124.98000336 346.25000000 -0.279075 0.738352 0.613965 1.000000
89.38480377 146.33799744 276.25000000 -0.296638 0.723155 0.623741 1.000000
109.16000366 132.89100647 298.75000000 -0.271249 0.743951 0.610706 1.000000
229.39500427 115.48799896 361.25000000 -0.240710 0.796673 0.554410 1.000000
97.29489899 151.47900391 275.00000000 -0.274831 0.741884 0.611618 1.000000
244.42399597 124.18900299 373.75000000 -0.221887 0.821748 0.524878 1.000000
150.29299927 119.44300079 346.25000000 -0.279075 0.738352 0.613965 1.000000
179.16499329 126.56199646 347.50000000 -0.279075 0.738352 0.613965 1.000000
140.40499878 126.56199646 327.50000000 -0.279075 0.738352 0.613965 1.000000
103.22799683 141.59199524 287.50000000 -0.256860 0.754823 0.603543 1.000000
177.97900391 147.91999817 343.75000000 -0.279075 0.738352 0.613965 1.000000
110.74199677 126.16699982 307.50000000 -0.279075 0.738352 0.613965 1.000000
125.77100372 128.93600464 316.25000000 -0.279075 0.738352 0.613965 1.000000
102.83200073 147.12899780 283.75000000 -0.257472 0.753462 0.604981 1.000000
98.87699890 136.05499268 288.75000000 -0.257472 0.753462 0.604981 1.000000
108.36900330 132.10000610 298.75000000 -0.267672 0.745998 0.609786 1.000000
113.90599823 128.93600464 308.75000000 -0.279075 0.738352 0.613965 1.000000
246.79699707 123.00299835 385.00000000 -0.423186 -0.202009 0.883236 1.000000
104.41400146 156.62100220 276.25000000 -0.264611 0.749466 0.606862 1.000000
121.02500153 120.23400116 318.75000000 -0.279075 0.738352 0.613965 1.000000
250.75199890 126.16699982 385.00000000 -0.416470 -0.231372 0.879215 1.000000
90.96679688 162.94900513 266.25000000 -0.326476 0.700056 0.635086 1.000000
216.73800659 116.27899933 348.75000000 -0.279075 0.738352 0.613965 1.000000
106.78700256 143.96499634 288.75000000 -0.253309 0.756781 0.602592 1.000000
95.71289825 143.96499634 281.25000000 -0.274831 0.741884 0.611618 1.000000
146.33799744 122.60700226 336.25000000 -0.279075 0.738352 0.613965 1.000000
162.94900513 122.21199799 362.50000000 -0.279075 0.738352 0.613965 1.000000
174.81399536 148.31500244 345.00000000 -0.279075 0.738352 0.613965 1.000000
94.92189789 143.96499634 278.75000000 -0.274831 0.741884 0.611618 1.000000
116.27899933 123.79399872 312.50000000 -0.279075 0.738352 0.613965 1.000000
181.93400574 144.75599670 341.25000000 -0.279075 0.738352 0.613965 1.000000
106.39199829 138.42799377 292.50000000 -0.253309 0.756781 0.602592 1.000000
102.04100037 151.87500000 278.75000000 -0.264611 0.749466 0.606862 1.000000
249.56500244 125.77100372 387.50000000 -0.408116 -0.260532 0.874965 1.000000
212.78300476 113.90599823 348.75000000 -0.279075 0.738352 0.613965 1.000000
127.35399628 119.83899689 322.50000000 -0.279075 0.738352 0.613965 1.000000
180.35200500 138.42799377 341.25000000 -0.279075 0.738352 0.613965 1.000000
92.54879761 158.99400330 268.75000000 -0.308204 0.714841 0.627704 1.000000
135.26400757 117.06999969 336.25000000 -0.279075 0.738352 0.613965 1.000000
101.25000000 140.00999451 286.25000000 -0.257472 0.753462 0.604981 1.000000
160.97200012 125.77100372 355.00000000 -0.279075 0.738352 0.613965 1.000000
91.75779724 148.31500244 275.00000000 -0.282783 0.733318 0.618287 1.000000
243.63299561 119.83899689 375.00000000 -0.221887 0.821748 0.524878 1.000000
94.92189789 135.26400757 291.25000000 -0.257472 0.753462 0.604981 1.000000
191.42599487 118.65200043 341.25000000 -0.279075 0.738352 0.613965 1.000000
102.04100037 145.54699707 283.75000000 -0.257472 0.753462 0.604981 1.000000
200.91799927 121.02500153 343.75000000 -0.279075 0.738352 0.613965 1.000000
196.17199707 115.09300232 347.50000000 -0.279075 0.738352 0.613965 1.000000
238.09599304 122.60700226 368.75000000 -0.240710 0.796673 0.554410 1.000000
90.17579651 168.48599243 261.25000000 -0.326476 0.700056 0.635086 1.000000
90.17579651 167.30000305 262.50000000 -0.326476 0.700056 0.635086 1.000000
179.56100464 144.75599670 341.25000000 -0.279075 0.738352 0.613965 1.000000
138.42799377 124.18900299 326.25000000 -0.279075 0.738352 0.613965 1.000000
96.50389862 144.75599670 278.75000000 -0.274831 0.741884 0.611618 1.000000
203.29100037 113.90599823 351.25000000 -0.279075 0.738352 0.613965 1.000000
114.69699860 128.93600464 308.75000000 -0.279075 0.738352 0.613965 1.000000
232.55900574 118.65200043 363.75000000 -0.237600 0.799764 0.551293 1.000000
88.59380341 164.53100586 263.75000000 -0.326476 0.700056 0.635086 1.000000
135.65899658 123.39800262 325.00000000 -0.279075 0.738352 0.613965 1.000000
211.59700012 115.48799896 347.50000000 -0.279075 0.738352 0.613965 1.000000
128.93600464 119.44300079 323.75000000 -0.279075 0.738352 0.613965 1.000000
180.35200500 125.37599945 347.50000000 -0.279075 0.738352 0.613965 1.000000
101.25000000 145.94200134 282.50000000 -0.257472 0.753462 0.604981 1.000000
132.10000610 123.39800262 323.75000000 -0.279075 0.738352 0.613965 1.000000
102.04100037 144.75599670 283.75000000 -0.257472 0.753462 0.604981 1.000000
92.54879761 141.59199524 281.25000000 -0.274831 0.741884 0.611618 1.000000
205.66400146 117.86100006 346.25000000 -0.279075 0.738352 0.613965 1.000000
93.33979797 152.27099609 272.50000000 -0.296638 0.723155 0.623741 1.000000
162.55400085 125.77100372 357.50000000 -0.279075 0.738352 0.613965 1.000000
181.14300537 145.54699707 341.25000000 -0.279075 0.738352 0.613965 1.000000
174.02299500 140.40499878 347.50000000 -0.279075 0.738352 0.613965 1.000000
182.32899475 123.39800262 345.00000000 -0.279075 0.738352 0.613965 1.000000
174.41900635 137.63699341 347.50000000 -0.279075 0.738352 0.613965 1.000000
249.16999817 129.72700500 378.75000000 -0.344325 0.544778 0.764629 1.000000
162.94900513 130.51800537 353.75000000 -0.279075 0.738352 0.613965 1.000000
146.33799744 119.44300079 341.25000000 -0.279075 0.738352 0.613965 1.000000
100.45899963 151.47900391 277.50000000 -0.274831 0.741884 0.611618 1.000000
85.03420258 151.08399963 272.50000000 -0.326476 0.700056 0.635086 1.000000
92.54879761 150.29299927 273.75000000 -0.296638 0.723155 0.623741 1.000000
89.38480377 156.62100220 268.75000000 -0.326476 0.700056 0.635086 1.000000
174.41900635 139.21899414 350.00000000 -0.279075 0.738352 0.613965 1.000000
139.21899414 130.51800537 323.75000000 -0.279075 0.738352 0.613965 1.000000
100.45899963 132.89100647 293.75000000 -0.253309 0.756781 0.602592 1.000000
93.33979797 158.20300293 268.75000000 -0.308204 0.714841 0.627704 1.000000
100.45899963 132.10000610 293.75000000 -0.253309 0.756781 0.602592 1.000000
225.83500671 115.48799896 357.50000000 -0.249075 0.781687 0.571775 1.000000
181.93400574 135.26400757 341.25000000 -0.279075 0.738352 0.613965 1.000000
136.84599304 121.42099762 327.50000000 -0.279075 0.738352 0.613965 1.000000
246.00599670 120.62999725 380.00000000 -0.242154 0.782703 0.573357 1.000000
238.09599304 119.44300079 368.75000000 -0.222446 0.820750 0.526201 1.000000
142.38299561 130.51800537 326.25000000 -0.279075 0.738352 0.613965 1.000000
124.98000336 124.18900299 316.25000000 -0.279075 0.738352 0.613965 1.000000
