22.90040016 205.44900513 318.50000000 -0.769946 0.595736 -0.228651 0.000000
146.56199646 148.52499390 303.50000000 -0.035137 -0.628244 0.777223 0.000000
151.14300537 158.33999634 345.50000000 0.188534 0.201718 0.961127 0.000000
145.90800476 177.64199829 318.00000000 -0.267699 0.806229 -0.527571 0.000000
75.24410248 230.96699524 359.50000000 -0.042986 0.533864 0.844477 0.000000
122.68099976 246.66999817 330.00000000 0.560340 0.503128 0.657937 0.000000
115.15599823 249.61399841 332.00000000 0.405219 0.580538 0.706239 0.000000
160.95700073 113.19300079 311.50000000 -0.663619 -0.305168 0.682995 0.000000
143.29100037 153.10499573 309.50000000 0.110037 -0.605937 -0.787865 0.000000
105.34200287 140.02000427 289.50000000 -0.425721 -0.245203 0.870998 0.000000
155.06799316 84.07710266 310.00000000 -0.828685 -0.254624 0.498446 0.000000
81.13279724 187.78300476 367.50000000 0.147347 -0.222976 0.963624 0.000000
150.48800659 154.08700562 315.00000000 -0.083709 -0.904330 0.418544 0.000000
67.06539917 259.10198975 285.00000000 -0.689235 0.647070 -0.325968 0.000000
133.14900208 172.08000183 349.00000000 0.549329 0.556090 0.623700 0.000000
70.00980377 104.68800354 335.50000000 -0.512226 -0.769152 0.382137 0.000000
44.49219894 158.99400330 354.50000000 -0.655321 0.061660 0.752830 0.000000
102.06999969 185.16600037 312.50000000 -0.408602 -0.355374 -0.840687 0.000000
132.16799927 92.91020203 292.50000000 -0.343898 -0.816163 0.464341 0.000000
157.03100586 184.83900452 307.00000000 0.944470 0.229587 -0.235086 0.000000
128.89599609 77.53420258 293.00000000 -0.000978 -0.999999 -0.000978 0.000000
123.33499908 141.98199463 363.00000000 0.642326 -0.049848 0.764809 0.000000
68.70120239 144.60000610 287.50000000 0.577450 -0.284748 -0.765161 0.000000
160.30299377 104.68800354 337.50000000 0.306199 0.034022 0.951359 0.000000
150.81500244 180.58599854 314.00000000 0.630383 0.774875 0.046748 0.000000
88.33010101 176.66000366 271.50000000 0.383807 -0.117775 -0.915872 0.000000
150.48800659 153.75999451 313.50000000 -0.001137 -0.983522 0.180786 0.000000
159.32099915 128.24200439 307.00000000 -0.379847 0.254721 0.889288 0.000000
181.56700134 129.55099487 323.00000000 -0.388330 0.433076 0.813416 0.000000
74.58979797 178.62300110 367.50000000 -0.408390 0.447131 0.795796 0.000000
115.81099701 233.58399963 342.50000000 0.571596 0.294555 0.765843 0.000000
126.27899933 141.98199463 313.50000000 -0.735833 0.133379 0.663898 0.000000
62.81250000 230.96699524 357.50000000 -0.196037 0.486351 0.851488 0.000000
92.91020203 183.20300293 314.50000000 -0.000978 -0.000978 -0.999999 0.000000
100.76200104 184.51199341 365.50000000 -0.020998 0.712528 0.701329 0.000000
77.86129761 100.43499756 332.00000000 -0.090981 -0.810163 0.579101 0.000000
64.12110138 244.05299377 265.50000000 0.003906 0.904841 -0.425731 0.000000
83.75000000 251.90400696 344.50000000 -0.015370 0.711203 0.702819 0.000000
134.13099670 136.74800110 293.50000000 -0.392215 -0.124225 0.911447 0.000000
170.77099609 138.05700684 313.50000000 -0.674072 0.073931 0.734956 0.000000
68.37400055 259.75601196 284.00000000 -0.689235 0.647070 -0.325968 0.000000
100.43499756 178.62300110 289.00000000 -0.632595 0.763580 0.129496 0.000000
59.86819839 102.72499847 282.00000000 -0.688660 -0.606087 -0.398003 0.000000
136.42100525 198.25199890 337.00000000 0.935636 -0.140687 0.323716 0.000000
68.04689789 207.08500671 262.00000000 0.648985 -0.162626 -0.743217 0.000000
131.84100342 145.25399780 297.00000000 -0.269045 -0.638384 0.721167 0.000000
32.38769913 143.29100037 284.00000000 -0.912557 -0.408898 0.006490 0.000000
55.61520004 234.23800659 257.50000000 0.402599 0.608040 -0.684252 0.000000
109.26799774 180.58599854 301.50000000 -0.546997 -0.833993 -0.072459 0.000000
125.95200348 154.41400146 318.00000000 0.049508 -0.139313 -0.989010 0.000000
113.84799957 260.41000366 318.50000000 0.534209 0.835708 0.127332 0.000000
148.52499390 132.82200623 342.50000000 0.445689 -0.889982 -0.096403 0.000000
152.45100403 111.23000336 339.50000000 0.149339 -0.028500 0.988375 0.000000
127.58799744 83.75000000 327.50000000 -0.192341 -0.755514 0.626261 0.000000
176.33299255 149.83399963 331.00000000 -0.951402 -0.261669 0.162369 0.000000
94.21880341 82.76860046 307.00000000 -0.646302 -0.322341 0.691657 0.000000
133.80400085 184.51199341 335.00000000 0.776880 0.602883 -0.181628 0.000000
120.39099884 82.11430359 324.00000000 -0.232618 -0.849891 0.472837 0.000000
77.20700073 198.25199890 268.50000000 0.273951 0.342068 -0.898855 0.000000
28.13479996 166.51899719 343.00000000 -0.788920 -0.451968 0.416329 0.000000
138.71099854 77.53420258 314.00000000 -0.204158 -0.937461 0.281933 0.000000
102.72499847 187.12899780 277.50000000 0.112677 -0.298262 -0.947810 0.000000
60.19530106 98.47170258 295.00000000 -0.464637 -0.841287 -0.276313 0.000000
168.15400696 124.97100067 335.50000000 0.183747 -0.183747 0.965647 0.000000
123.33499908 183.85699463 301.00000000 0.582186 -0.652652 -0.484875 0.000000
79.16989899 191.05499268 314.50000000 -0.307039 -0.333999 -0.891163 0.000000
70.66410065 266.95300293 304.50000000 -0.515782 0.855002 -0.054220 0.000000
96.18160248 136.09399414 284.50000000 0.526202 -0.117417 -0.842214 0.000000
95.52729797 82.76860046 308.00000000 -0.116397 -0.985178 0.125997 0.000000
83.09570313 204.14100647 272.50000000 0.414642 0.110292 -0.903276 0.000000
94.21880341 160.30299377 373.50000000 0.181565 0.033970 0.982792 0.000000
88.33010101 191.05499268 272.50000000 0.533520 0.034465 -0.845085 0.000000
37.62210083 133.47700500 293.00000000 -0.770128 -0.628766 -0.107494 0.000000
132.82200623 133.47700500 292.50000000 -0.339052 -0.042543 0.939805 0.000000
86.04000092 217.22700500 364.00000000 0.245849 0.309109 0.918700 0.000000
85.05860138 190.39999390 367.50000000 0.155944 -0.197185 0.967884 0.000000
76.55269623 263.02700806 327.50000000 0.006557 0.898308 0.439318 0.000000
132.16799927 179.27699280 311.50000000 0.729461 0.413306 -0.545037 0.000000
20.93750000 198.57899475 317.00000000 -0.977387 0.209694 -0.027248 0.000000
64.77539825 257.46600342 287.00000000 -0.598857 0.665582 -0.445389 0.000000
109.59500122 143.29100037 307.00000000 0.862850 -0.462081 0.204871 0.000000
183.20300293 123.00800323 325.50000000 -0.272253 0.355565 0.894121 0.000000
47.76369858 201.52299500 364.50000000 -0.378531 0.150568 0.913260 0.000000
114.50199890 211.33799744 353.50000000 0.710044 0.237731 0.662813 0.000000
96.18160248 84.73139954 317.00000000 -0.586086 -0.552306 0.592842 0.000000
83.09570313 141.00100708 286.00000000 -0.441606 0.571588 -0.691572 0.000000
152.45100403 139.36500549 300.50000000 -0.390329 -0.024804 0.920341 0.000000
132.16799927 94.54589844 294.00000000 -0.367050 -0.844996 0.388917 0.000000
170.11700439 155.06799316 328.50000000 0.530090 0.846185 0.054547 0.000000
58.23239899 245.36099243 267.50000000 -0.123923 0.841216 -0.526307 0.000000
35.98630142 203.48599243 242.50000000 -0.939124 -0.032030 -0.342082 0.000000
194.65299988 143.94500732 327.00000000 -0.457502 0.133378 0.879149 0.000000
96.83589935 185.16600037 314.50000000 -0.000978 -0.000978 -0.999999 0.000000
167.17300415 95.52729797 329.00000000 -0.951720 0.131409 0.277419 0.000000
35.98630142 204.14100647 242.50000000 -0.939124 -0.032030 -0.342082 0.000000
117.11900330 229.00399780 298.50000000 0.469361 0.124876 -0.874132 0.000000
31.07909966 146.56199646 290.00000000 -0.866765 -0.381990 -0.320626 0.000000
133.80400085 230.96699524 317.00000000 0.976545 0.037145 -0.212084 0.000000
143.29100037 90.29299927 334.50000000 -0.212513 -0.329467 0.919940 0.000000
24.53610039 229.00399780 312.00000000 -0.934570 0.343611 0.092254 0.000000
46.78219986 113.84799957 325.00000000 -0.714964 -0.688097 -0.123887 0.000000
128.89599609 113.19300079 341.50000000 0.057735 -0.406831 0.911677 0.000000
75.57129669 246.66999817 274.00000000 0.520596 0.083692 -0.849692 0.000000
51.68949890 172.08000183 360.50000000 -0.251597 -0.504738 0.825795 0.000000
20.93750000 196.94299316 311.50000000 -0.999999 0.000978 0.000978 0.000000
94.21880341 182.87600708 367.00000000 -0.006934 0.664262 0.747468 0.000000
132.16799927 114.82900238 342.00000000 -0.001280 -0.385251 0.922811 0.000000
92.91020203 100.76200104 335.50000000 -0.205047 -0.766228 0.608974 0.000000
51.03519821 115.48300171 338.00000000 -0.865505 -0.083032 0.493971 0.000000
25.84469986 213.95500183 326.00000000 -0.948452 0.314453 -0.039466 0.000000
63.46680069 119.73600006 354.50000000 -0.358286 -0.714936 0.600415 0.000000
124.31600189 196.28900146 296.50000000 0.891494 -0.126141 -0.435117 0.000000
171.42599487 104.68800354 335.50000000 0.404259 0.288321 0.868013 0.000000
50.05369949 119.08200073 342.00000000 -0.641258 -0.641258 0.421398 0.000000
45.47359848 206.10400391 243.00000000 0.738126 -0.001380 -0.674661 0.000000
91.60160065 174.04299927 313.50000000 0.729145 -0.080046 -0.679662 0.000000
119.08200073 88.65720367 329.00000000 -0.211661 -0.516210 0.829895 0.000000
166.19099426 141.98199463 310.50000000 -0.836802 -0.001352 0.547504 0.000000
130.85899353 124.31600189 293.50000000 -0.447987 0.368274 0.814667 0.000000
129.55099487 139.36500549 294.50000000 -0.279230 -0.458183 0.843859 0.000000
143.29100037 78.18849945 321.00000000 -0.180735 -0.947162 0.264988 0.000000
37.62210083 160.30299377 253.00000000 0.731944 0.080034 -0.676648 0.000000
89.31150055 87.02149963 286.00000000 -0.623894 -0.692670 -0.361891 0.000000
120.06300354 223.11500549 298.00000000 0.421987 0.310694 -0.851702 0.000000
98.14450073 181.89500427 277.50000000 0.363114 -0.101998 -0.926145 0.000000
123.66200256 164.88299561 361.50000000 0.535323 0.175442 0.826226 0.000000
163.90100098 124.31600189 312.00000000 -0.487442 0.415712 0.767844 0.000000
61.50389862 119.73600006 269.50000000 0.402635 -0.009063 -0.915316 0.000000
52.34379959 109.59500122 317.00000000 -0.580716 -0.580716 0.570558 0.000000
147.87100220 152.45100403 307.50000000 -0.476988 -0.762198 0.437649 0.000000
77.53420258 108.61299896 278.00000000 0.530746 0.020466 -0.847284 0.000000
105.99600220 102.06999969 289.50000000 -0.020904 -0.636886 0.770674 0.000000
64.44819641 259.10198975 326.00000000 -0.434430 0.861237 0.263706 0.000000
123.66200256 213.95500183 297.50000000 0.249465 0.200390 -0.947423 0.000000
95.52729797 214.60899353 307.50000000 -0.089090 0.725861 -0.682047 0.000000
100.10700226 157.03100586 297.50000000 -0.144821 -0.437330 0.887564 0.000000
109.92199707 127.91500092 314.00000000 -0.631739 -0.244188 -0.735716 0.000000
112.53900146 151.14300537 303.50000000 0.999153 0.032031 0.025831 0.000000
47.43650055 185.16600037 250.00000000 0.712386 -0.136478 -0.688390 0.000000
55.94240189 232.92999268 256.00000000 0.373904 0.637449 -0.673687 0.000000
121.37200165 190.39999390 294.00000000 0.881576 -0.255941 -0.396634 0.000000
113.84799957 178.94999695 298.00000000 0.339345 -0.925867 -0.166181 0.000000
191.70899963 151.47000122 327.00000000 -0.526613 -0.278240 0.803281 0.000000
96.50879669 212.64599609 305.00000000 -0.199218 0.730465 -0.653249 0.000000
144.60000610 98.79879761 337.50000000 -0.226434 -0.212875 0.950480 0.000000
20.93750000 193.01800537 299.50000000 -0.850937 0.340686 -0.399800 0.000000
144.92700195 163.57400513 343.00000000 0.631737 0.618332 0.467519 0.000000
30.42480087 212.64599609 344.00000000 -0.806229 0.267699 0.527571 0.000000
50.05369949 170.77099609 257.00000000 0.175342 -0.267771 -0.947393 0.000000
85.71289825 92.91020203 322.50000000 -0.065224 -0.925116 0.374040 0.000000
60.19530106 104.36000061 320.00000000 0.678459 -0.732735 -0.052848 0.000000
176.66000366 121.37200165 325.00000000 -0.138008 -0.323840 0.935992 0.000000
83.09570313 106.32299805 340.00000000 -0.385218 -0.772062 0.505497 0.000000
123.66200256 123.98899841 346.00000000 0.309103 -0.574964 0.757543 0.000000
72.62699890 256.81201172 336.00000000 -0.038314 0.915576 0.400317 0.000000
87.02149963 178.29600525 309.00000000 -0.699059 -0.436704 -0.566221 0.000000
180.58599854 126.93399811 332.50000000 0.399819 0.127662 0.907660 0.000000
80.47850037 141.65499878 291.00000000 -0.641258 0.641258 -0.421398 0.000000
125.62500000 151.79699707 318.50000000 0.018986 -0.135139 -0.990645 0.000000
119.40899658 113.19300079 342.00000000 0.001261 -0.356781 0.934187 0.000000
135.43899536 216.24499512 329.00000000 0.526722 0.550281 0.647885 0.000000
121.37200165 189.74600220 295.00000000 0.874320 -0.235452 -0.424413 0.000000
96.50879669 183.85699463 277.00000000 0.382285 0.068409 -0.921509 0.000000
157.03100586 175.67900085 320.00000000 0.887439 0.393922 0.239326 0.000000
74.58979797 259.10198975 281.50000000 -0.918223 0.197881 -0.343088 0.000000
128.89599609 92.25589752 290.50000000 -0.286640 -0.667759 0.686975 0.000000
109.26799774 215.91799927 354.50000000 0.419466 0.137926 0.897231 0.000000
81.13279724 165.53700256 274.50000000 0.740015 -0.522460 -0.423572 0.000000
157.03100586 129.55099487 339.50000000 0.290170 0.115273 0.950007 0.000000
84.73139954 213.30099487 277.00000000 0.565594 0.112534 -0.816969 0.000000
59.86819839 233.58399963 260.00000000 0.553412 0.590645 -0.587260 0.000000
35.98630142 214.60899353 351.50000000 -0.432962 0.344796 0.832862 0.000000
42.52930069 128.89599609 341.50000000 -0.814766 -0.422530 0.397019 0.000000
30.75200081 175.35200500 243.50000000 -0.876602 -0.380012 0.295229 0.000000
77.20700073 236.85499573 276.50000000 0.830457 -0.118220 -0.544394 0.000000
66.08399963 206.10400391 260.50000000 0.735772 -0.166044 -0.656558 0.000000
58.23239899 197.59800720 253.50000000 0.366770 0.229414 -0.901582 0.000000
126.93399811 78.51560211 308.50000000 -0.190765 -0.966803 0.170002 0.000000
134.78500366 90.62010193 333.00000000 -0.226642 -0.367014 0.902183 0.000000
130.85899353 109.26799774 298.50000000 -0.432361 0.038819 0.900864 0.000000
105.34200287 182.87600708 284.00000000 -0.336934 0.672240 -0.659218 0.000000
70.33689880 94.87300110 291.00000000 -0.362201 -0.926530 0.101742 0.000000
158.33999634 124.31600189 339.50000000 0.340224 0.166612 0.925466 0.000000
62.15819931 230.31199646 259.50000000 0.655793 0.203094 -0.727109 0.000000
125.62500000 141.98199463 294.50000000 -0.043462 -0.177372 0.983184 0.000000
88.33010101 169.46299744 289.50000000 -0.894926 0.394002 0.209451 0.000000
59.21390152 103.37899780 321.00000000 0.678459 -0.732735 -0.052848 0.000000
43.18360138 133.47700500 258.50000000 0.374460 -0.917359 -0.135028 0.000000
109.26799774 157.03100586 311.50000000 0.322014 0.208529 -0.923484 0.000000
106.65000153 160.95700073 369.50000000 0.162626 0.648985 0.743217 0.000000
105.99600220 232.92999268 294.50000000 -0.132345 0.290090 -0.947804 0.000000
160.95700073 173.06199646 309.00000000 0.967184 0.124261 -0.221620 0.000000
116.46499634 205.44900513 353.50000000 0.514977 0.245890 0.821180 0.000000
92.58300018 125.62500000 365.00000000 0.155224 -0.607334 0.779135 0.000000
129.22399902 225.73199463 306.00000000 0.738126 -0.001380 -0.674661 0.000000
114.50199890 250.26899719 332.00000000 0.598200 0.497096 0.628532 0.000000
21.26460075 206.10400391 300.00000000 -0.993241 -0.110113 0.036704 0.000000
115.81099701 176.00599670 362.50000000 0.429536 0.273619 0.860600 0.000000
108.61299896 136.74800110 318.50000000 0.597003 -0.103636 -0.795517 0.000000
149.17999268 157.35800171 318.00000000 -0.799600 -0.593533 0.091424 0.000000
117.11900330 220.17100525 295.00000000 0.519153 0.312762 -0.795399 0.000000
96.18160248 111.55799866 349.00000000 0.151203 -0.800924 0.579360 0.000000
116.46499634 131.84100342 311.00000000 -0.553880 0.789240 -0.265172 0.000000
23.55470085 212.64599609 317.50000000 -0.928656 -0.311431 0.201514 0.000000
122.35399628 222.78799438 343.00000000 0.744371 0.483594 0.460487 0.000000
135.43899536 134.78500366 350.50000000 0.492747 -0.476157 0.728337 0.000000
150.48800659 96.83589935 337.50000000 0.114714 -0.205476 0.971916 0.000000
49.07229996 140.02000427 263.50000000 0.432045 -0.138312 -0.891183 0.000000
95.52729797 270.22500610 311.50000000 -0.352651 0.838526 -0.415345 0.000000
127.91500092 206.10400391 301.00000000 0.904525 -0.185507 -0.383956 0.000000
27.15329933 198.25199890 270.00000000 -0.917722 0.117303 -0.379509 0.000000
40.56639862 141.32800293 347.50000000 -0.758669 -0.267672 0.593947 0.000000
99.45310211 249.61399841 342.00000000 0.262366 0.666250 0.698051 0.000000
94.21880341 189.74600220 308.50000000 -0.572146 -0.743951 -0.345232 0.000000
70.00980377 129.87800598 282.00000000 -0.606331 -0.001369 -0.795211 0.000000
104.03299713 236.20100403 348.50000000 0.444603 0.520631 0.728884 0.000000
32.38769913 157.68600464 340.00000000 -0.675920 -0.388365 0.626342 0.000000
120.71800232 229.00399780 342.00000000 0.936483 -0.350710 -0.001257 0.000000
157.03100586 85.38569641 314.00000000 -0.817886 -0.259178 0.513701 0.000000
105.34200287 182.87600708 312.00000000 -0.515940 -0.755073 -0.404562 0.000000
39.91210175 194.97999573 360.50000000 -0.676210 0.104599 0.729246 0.000000
20.61039925 170.77099609 304.00000000 -0.660894 -0.046902 -0.749013 0.000000
102.72499847 253.53999329 337.00000000 0.241294 0.670261 0.701803 0.000000
71.31839752 245.68800354 272.00000000 0.410888 0.417283 -0.810584 0.000000
107.63200378 216.57200623 290.00000000 0.274876 0.489185 -0.827733 0.000000
75.89839935 138.05700684 290.50000000 -0.234551 0.348184 -0.907609 0.000000
45.47359848 223.11500549 354.00000000 -0.690500 0.402378 0.601083 0.000000
40.89360046 242.74400330 319.00000000 -0.259415 0.781390 -0.567569 0.000000
120.39099884 80.15139771 319.00000000 0.103960 -0.989376 0.101624 0.000000
52.99800110 133.47700500 264.50000000 0.561092 0.109304 -0.820505 0.000000
155.06799316 165.53700256 339.50000000 0.252332 0.578325 0.775802 0.000000
107.30500031 196.94299316 359.50000000 0.343590 -0.024268 0.938806 0.000000
130.85899353 217.22700500 335.50000000 0.806229 0.267699 0.527571 0.000000
29.11619949 160.30299377 259.00000000 -0.963989 -0.231616 -0.130688 0.000000
113.84799957 214.60899353 291.50000000 0.273120 0.362668 -0.890998 0.000000
35.65919876 199.56100464 356.00000000 0.146408 0.729023 0.668648 0.000000
85.05860138 102.06999969 283.50000000 0.432309 -0.635945 -0.639283 0.000000
158.33999634 126.60600281 307.00000000 -0.379847 0.254721 0.889288 0.000000
154.41400146 80.80570221 331.00000000 0.031053 -0.884345 0.465800 0.000000
127.58799744 138.71099854 293.50000000 -0.279230 -0.458183 0.843859 0.000000
161.28399658 105.99600220 314.00000000 -0.630472 0.711095 0.311205 0.000000
62.81250000 101.08899689 279.00000000 -0.559583 -0.822747 -0.099771 0.000000
80.47850037 198.25199890 269.50000000 0.291673 0.084261 -0.952799 0.000000
100.10700226 164.22900391 304.50000000 0.704652 0.351509 -0.616366 0.000000
104.68800354 160.30299377 370.50000000 0.162626 0.648985 0.743217 0.000000
37.29489899 229.65800476 280.50000000 -0.890130 0.429966 -0.150991 0.000000
84.40429688 268.91598511 305.50000000 0.369635 0.896843 0.242987 0.000000
36.31349945 179.93200684 244.00000000 0.649352 -0.416847 -0.636066 0.000000
90.29299927 130.20500183 368.50000000 0.001313 -0.452981 0.891519 0.000000
89.63870239 238.16400146 287.50000000 0.353582 0.140046 -0.924860 0.000000
110.57599640 262.70001221 322.00000000 0.524935 0.765463 0.372168 0.000000
58.88669968 215.91799927 254.50000000 0.674661 0.001380 -0.738126 0.000000
136.74800110 198.25199890 329.50000000 0.370664 -0.819280 -0.437480 0.000000
149.17999268 157.68600464 346.50000000 0.258067 0.156445 0.953376 0.000000
183.20300293 131.51400757 331.50000000 0.166341 0.213492 0.962680 0.000000
116.46499634 256.48400879 324.50000000 0.494727 0.736300 0.461635 0.000000
60.84960175 239.47300720 351.50000000 -0.325008 0.590189 0.738949 0.000000
145.90800476 122.35399628 342.50000000 0.247487 -0.152198 0.956862 0.000000
30.75200081 213.62800598 344.00000000 -0.770799 0.322101 0.549655 0.000000
90.29299927 176.66000366 306.50000000 -0.687092 -0.536634 -0.489825 0.000000
105.34200287 213.95500183 356.50000000 0.415945 0.214634 0.883698 0.000000
47.76369858 166.19099426 257.50000000 0.220411 -0.149984 -0.963807 0.000000
51.68949890 109.92199707 323.50000000 -0.606140 -0.548734 -0.575748 0.000000
81.13279724 86.04000092 310.00000000 -0.184039 -0.925815 0.330146 0.000000
83.09570313 88.00289917 295.00000000 -0.454928 -0.859981 -0.231243 0.000000
153.10499573 154.41400146 309.50000000 0.225343 -0.917162 0.328686 0.000000
106.65000153 182.87600708 311.00000000 -0.360795 -0.919535 -0.155830 0.000000
120.39099884 204.79499817 292.50000000 0.670138 0.283089 -0.686131 0.000000
126.27899933 243.39799500 307.50000000 0.708067 0.372926 -0.599639 0.000000
90.62010193 83.75000000 304.00000000 -0.316937 -0.948307 -0.016285 0.000000
149.83399963 79.82420349 327.50000000 -0.073782 -0.951394 0.299009 0.000000
141.00100708 130.85899353 345.00000000 0.345880 -0.257571 0.902233 0.000000
88.98439789 88.00289917 285.00000000 -0.623894 -0.692670 -0.361891 0.000000
74.58979797 112.53900146 275.50000000 0.559169 0.333568 -0.758988 0.000000
98.14450073 82.11430359 302.00000000 -0.310618 -0.929043 -0.200988 0.000000
49.07229996 170.11700439 257.50000000 0.249763 -0.222165 -0.942476 0.000000
167.50000000 90.94730377 329.50000000 -0.634852 0.123402 0.762715 0.000000
179.27699280 112.53900146 330.50000000 -0.078606 0.355725 0.931279 0.000000
123.33499908 155.06799316 318.00000000 -0.046087 -0.183165 -0.982001 0.000000
119.73600006 93.23729706 284.00000000 -0.512633 -0.670624 0.536163 0.000000
123.66200256 151.79699707 363.50000000 0.355725 -0.089938 0.930253 0.000000
57.57809830 110.57599640 271.50000000 -0.212622 -0.001162 -0.977134 0.000000
40.56639862 180.58599854 360.50000000 -0.630890 -0.073628 0.772371 0.000000
29.11619949 189.09199524 256.00000000 -0.898251 -0.081408 -0.431878 0.000000
51.68949890 175.35200500 362.50000000 -0.251597 -0.504738 0.825795 0.000000
100.43499756 180.58599854 279.00000000 0.677281 -0.456538 -0.576943 0.000000
48.74509811 199.56100464 365.00000000 -0.337949 0.094840 0.936374 0.000000
71.64550018 216.57200623 267.00000000 0.836802 0.001352 -0.547504 0.000000
78.51560211 194.32600403 313.50000000 0.423389 -0.317930 -0.848329 0.000000
107.30500031 233.58399963 294.50000000 -0.413424 0.844008 -0.341659 0.000000
123.00800323 187.78300476 356.50000000 0.000978 0.000978 0.999999 0.000000
86.36720276 171.42599487 273.50000000 0.370074 -0.404719 -0.836210 0.000000
88.98439789 189.41900635 273.00000000 0.566934 0.020691 -0.823503 0.000000
38.60350037 241.10800171 308.00000000 -0.193536 0.972739 0.127759 0.000000
25.19039917 169.46299744 277.00000000 -0.997738 -0.058565 -0.033009 0.000000
123.66200256 142.63699341 294.50000000 0.050669 -0.054981 0.997201 0.000000
98.79879761 265.31698608 322.00000000 0.121208 0.909754 0.397060 0.000000
44.81930161 132.16799927 348.00000000 -0.772062 -0.385218 0.505497 0.000000
37.94919968 172.40699768 250.00000000 -0.704720 0.213127 0.676718 0.000000
79.82420349 151.79699707 373.50000000 -0.174097 -0.449140 0.876335 0.000000
81.13279724 202.17799377 368.50000000 0.138241 0.021354 0.990168 0.000000
22.57320023 215.26400757 293.00000000 -0.641258 0.641258 -0.421398 0.000000
141.32800293 78.84279633 322.00000000 -0.180735 -0.947162 0.264988 0.000000
79.16989899 203.48599243 368.50000000 0.161091 0.095685 0.982290 0.000000
87.67579651 267.60699463 316.50000000 0.123490 0.934993 0.332472 0.000000
23.88179970 209.37500000 331.00000000 -0.001232 0.950151 0.311788 0.000000
109.92199707 235.54699707 345.50000000 0.447346 0.364563 0.816685 0.000000
34.35060120 138.05700684 291.00000000 -0.563495 -0.604108 -0.563495 0.000000
50.38090134 143.61799622 359.00000000 -0.665502 -0.146380 0.731901 0.000000
105.99600220 141.00100708 290.00000000 -0.378990 -0.323753 0.866920 0.000000
35.33200073 226.71400452 277.00000000 -0.819121 0.573247 -0.020720 0.000000
133.80400085 200.21499634 318.00000000 0.817880 -0.546759 -0.179241 0.000000
80.15139771 140.02000427 289.00000000 -0.630351 0.630351 -0.453117 0.000000
119.08200073 186.47500610 290.50000000 0.627372 -0.456727 -0.630718 0.000000
28.78910065 153.43299866 289.00000000 -0.950280 -0.272083 -0.151455 0.000000
77.86129761 226.38699341 275.50000000 0.634662 0.202289 -0.745844 0.000000
66.73829651 104.03299713 329.50000000 -0.604900 -0.693905 0.390630 0.000000
75.24410248 136.74800110 289.50000000 -0.322677 0.708592 -0.627517 0.000000
35.33200073 138.71099854 289.50000000 -0.807258 -0.548935 -0.216806 0.000000
134.45799255 151.14300537 355.00000000 0.374023 -0.227347 0.899122 0.000000
19.62890053 174.69700623 300.50000000 -0.840812 -0.489838 -0.230422 0.000000
131.18699646 146.56199646 355.00000000 0.489716 -0.216809 0.844495 0.000000
109.26799774 79.82420349 294.50000000 -0.234763 -0.940442 -0.245876 0.000000
141.32800293 209.37500000 325.50000000 0.873858 0.412026 -0.258082 0.000000
116.46499634 179.60400391 307.00000000 -0.306205 -0.937837 -0.163401 0.000000
119.08200073 256.81201172 317.00000000 0.607982 0.786715 0.106946 0.000000
41.87500000 190.72799683 244.00000000 0.566015 -0.426586 -0.705444 0.000000
30.75200081 191.70899963 243.50000000 -0.871243 0.203340 -0.446753 0.000000
102.06999969 134.13099670 287.50000000 0.437995 0.025295 -0.898622 0.000000
134.78500366 125.62500000 295.50000000 -0.434831 0.298656 0.849545 0.000000
70.66410065 240.12699890 353.50000000 -0.064428 0.625664 0.777427 0.000000
181.89500427 120.06300354 327.00000000 -0.265274 0.501073 0.823745 0.000000
93.56449890 112.86599731 351.00000000 0.041092 -0.760911 0.647554 0.000000
26.82620049 217.22700500 325.50000000 -0.943049 0.326490 0.063737 0.000000
129.22399902 215.26400757 339.00000000 0.743567 0.353072 0.567845 0.000000
139.03799438 130.20500183 295.00000000 -0.243910 0.018023 0.969630 0.000000
129.87800598 197.59800720 309.00000000 0.735815 -0.671704 -0.085966 0.000000
114.50199890 131.84100342 362.00000000 0.475410 -0.525453 0.705609 0.000000
162.26600647 79.49710083 327.00000000 0.737806 -0.602782 0.303802 0.000000
74.58979797 220.17100525 365.00000000 0.107744 0.219290 0.969692 0.000000
91.60160065 199.56100464 366.50000000 0.117470 0.171877 0.978090 0.000000
89.63870239 152.12399292 374.00000000 0.129639 -0.156802 0.979085 0.000000
121.69899750 150.48800659 318.50000000 0.110245 -0.089356 -0.989880 0.000000
127.58799744 249.61399841 315.00000000 0.808404 0.528033 -0.260122 0.000000
31.73340034 143.94500732 283.00000000 -0.923701 -0.383061 -0.006406 0.000000
160.95700073 88.65720367 322.00000000 -0.961944 0.080268 0.261190 0.000000
62.81250000 177.31399536 262.50000000 0.390567 -0.130189 -0.911322 0.000000
158.99400330 175.02400208 314.00000000 0.286638 0.075837 0.955033 0.000000
125.95200348 196.94299316 300.00000000 0.896241 -0.364698 -0.252483 0.000000
120.71800232 192.36300659 291.00000000 0.872347 -0.286737 -0.395970 0.000000
135.43899536 82.11430359 328.00000000 -0.230205 -0.542295 0.808035 0.000000
118.42800140 213.95500183 349.50000000 0.526815 0.212253 0.823052 0.000000
97.49019623 82.76860046 310.00000000 -0.116397 -0.985178 0.125997 0.000000
96.83589935 245.03399658 346.00000000 0.330259 0.552580 0.765235 0.000000
178.62300110 115.81099701 328.50000000 0.423356 -0.449309 0.786696 0.000000
26.49900055 196.94299316 271.00000000 -0.941079 0.263944 -0.211432 0.000000
50.38090134 126.60600281 351.00000000 -0.577244 -0.563702 0.590787 0.000000
62.81250000 169.46299744 263.50000000 0.583833 -0.144838 -0.798850 0.000000
112.53900146 199.56100464 357.50000000 0.327227 0.156020 0.931976 0.000000
76.55269623 101.41600037 332.50000000 -0.179171 -0.745780 0.641646 0.000000
153.75999451 126.27899933 302.50000000 -0.228690 0.228690 0.946257 0.000000
55.94240189 254.52099609 297.00000000 -0.641258 0.641258 -0.421398 0.000000
104.68800354 229.00399780 293.50000000 0.644453 -0.061718 -0.762149 0.000000
132.82200623 79.49710083 319.00000000 -0.113458 -0.967581 0.225641 0.000000
54.96089935 206.75799561 365.50000000 -0.350416 0.281824 0.893188 0.000000
25.84469986 229.65800476 316.00000000 -0.903565 0.408923 0.127876 0.000000
106.65000153 155.06799316 297.50000000 -0.064997 -0.929860 0.362128 0.000000
100.10700226 224.42399597 290.50000000 0.242118 0.032850 -0.969690 0.000000
32.38769913 198.25199890 244.00000000 -0.908420 0.350287 -0.228195 0.000000
133.47700500 149.17999268 354.50000000 0.412197 -0.275305 0.868505 0.000000
109.92199707 122.35399628 311.50000000 -0.095155 -0.492817 -0.864915 0.000000
181.89500427 125.29799652 325.00000000 -0.178732 0.336353 0.924620 0.000000
79.16989899 91.92870331 319.00000000 0.000978 -0.999999 0.000978 0.000000
45.47359848 198.90600586 244.00000000 0.673792 -0.179576 -0.716768 0.000000
46.78219986 120.39099884 282.00000000 -0.804107 -0.366084 -0.468396 0.000000
153.43299866 102.06999969 310.00000000 -0.551990 0.764418 0.333125 0.000000
31.73340034 138.71099854 316.00000000 -0.929043 -0.310618 0.200988 0.000000
189.41900635 125.62500000 328.00000000 0.398276 -0.702355 0.589978 0.000000
128.89599609 105.99600220 338.50000000 0.064381 -0.447929 0.891748 0.000000
132.16799927 177.96899414 344.50000000 0.766700 0.243023 0.594231 0.000000
36.31349945 157.03100586 252.00000000 0.463598 -0.097229 -0.880695 0.000000
111.23000336 141.98199463 300.50000000 0.791478 0.224588 0.568439 0.000000
83.75000000 147.87100220 373.50000000 -0.071868 -0.149627 0.986127 0.000000
73.28119659 264.66299438 318.00000000 -0.326874 0.867059 0.375981 0.000000
83.75000000 157.03100586 292.50000000 -0.336814 0.352054 0.873278 0.000000
66.08399963 217.22700500 261.50000000 0.585689 0.064127 -0.807995 0.000000
25.19039917 168.80900574 275.00000000 -0.982628 -0.164774 -0.085394 0.000000
148.85299683 115.81099701 341.00000000 0.268140 -0.160345 0.949942 0.000000
105.34200287 80.15139771 297.00000000 -0.083015 -0.995071 -0.054236 0.000000
130.20500183 188.11000061 323.00000000 0.993369 0.111602 0.027624 0.000000
59.21390152 166.84599304 365.00000000 -0.485836 0.219459 0.846051 0.000000
95.52729797 123.98899841 363.00000000 0.203176 -0.662262 0.721199 0.000000
47.76369858 229.00399780 351.50000000 -0.514358 0.524410 0.678550 0.000000
132.16799927 163.57400513 355.50000000 0.001219 0.291258 0.956644 0.000000
169.46299744 129.55099487 312.50000000 -0.565116 0.190403 0.802739 0.000000
100.76200104 183.20300293 278.50000000 0.228665 -0.183199 -0.956112 0.000000
153.10499573 109.92199707 306.50000000 -0.000978 -0.000978 0.999999 0.000000
20.93750000 194.65299988 312.00000000 -0.999235 -0.015404 0.035944 0.000000
84.73139954 165.53700256 282.00000000 0.452351 -0.840968 0.296904 0.000000
122.02600098 182.54899597 301.00000000 0.542776 -0.670488 -0.505807 0.000000
17.66600037 180.91299438 304.00000000 -0.734356 0.654635 -0.179373 0.000000
128.24200439 163.90100098 313.00000000 -0.443356 -0.715679 -0.539665 0.000000
109.92199707 131.51400757 317.50000000 0.110897 0.726005 -0.678689 0.000000
163.57400513 157.68600464 339.50000000 0.550651 0.343955 0.760577 0.000000
142.63699341 138.71099854 346.50000000 0.383078 -0.192262 0.903486 0.000000
77.20700073 193.01800537 369.50000000 0.140668 -0.040027 0.989247 0.000000
181.56700134 118.42800140 330.00000000 0.659702 -0.142760 0.737844 0.000000
45.14649963 231.62100220 347.50000000 -0.562465 0.535440 0.630029 0.000000
49.07229996 135.43899536 355.50000000 -0.757590 -0.239982 0.607013 0.000000
124.97100067 77.53420258 304.00000000 -0.125396 -0.924622 0.359652 0.000000
136.09399414 84.40429688 285.50000000 -0.000978 -0.000978 -0.999999 0.000000
62.81250000 111.55799866 344.00000000 -0.170824 -0.880403 0.442391 0.000000
158.01300049 90.29299927 318.00000000 -0.789528 -0.151314 0.594768 0.000000
82.44139862 225.73199463 361.50000000 0.127155 0.395438 0.909648 0.000000
114.50199890 146.56199646 295.50000000 0.381297 -0.217676 0.898460 0.000000
132.82200623 125.95200348 294.00000000 -0.439228 0.302648 0.845862 0.000000
152.45100403 101.41600037 337.50000000 -0.000978 -0.000978 0.999999 0.000000
175.35200500 108.94000244 333.00000000 0.063349 0.081131 0.994688 0.000000
92.25589752 122.35399628 362.50000000 0.139241 -0.621345 0.771066 0.000000
138.71099854 168.80900574 345.50000000 0.616369 0.592727 0.518425 0.000000
26.17189980 149.50700378 308.00000000 -0.928656 -0.305794 0.209969 0.000000
112.53900146 93.56449890 280.50000000 -0.257411 -0.740648 0.620629 0.000000
102.72499847 236.85499573 292.50000000 0.741276 0.089187 -0.665248 0.000000
141.98199463 124.31600189 343.50000000 0.157314 -0.267569 0.950610 0.000000
128.24200439 148.19799805 308.00000000 0.560185 -0.765640 0.316208 0.000000
160.63000488 120.39099884 312.00000000 -0.135990 0.135990 0.981332 0.000000
90.62010193 91.60160065 321.00000000 -0.346402 -0.771751 0.533298 0.000000
98.79879761 240.12699890 290.50000000 0.165755 -0.825786 -0.539076 0.000000
114.50199890 247.32400513 334.50000000 0.503695 0.527122 0.684422 0.000000
19.95610046 188.43800354 307.00000000 -0.985996 0.076938 -0.147959 0.000000
162.91999817 82.11430359 323.00000000 -0.991784 0.074355 0.104097 0.000000
38.60350037 121.69899750 331.50000000 -0.866193 -0.207230 -0.454714 0.000000
94.87300110 204.79499817 364.50000000 0.667031 0.067712 0.741946 0.000000
162.91999817 161.28399658 333.00000000 0.640319 0.453072 0.620257 0.000000
85.05860138 246.34300232 283.00000000 0.484725 -0.006677 -0.874641 0.000000
84.40429688 180.58599854 310.50000000 -0.721807 -0.411282 -0.556634 0.000000
40.23929977 152.45100403 349.00000000 -0.836802 -0.001352 0.547504 0.000000
18.64749908 183.85699463 320.00000000 -0.948730 0.126764 0.289556 0.000000
134.78500366 89.63870239 332.50000000 -0.226642 -0.367014 0.902183 0.000000
100.76200104 83.42289734 289.00000000 0.267699 -0.806229 -0.527571 0.000000
44.81930161 162.26600647 257.00000000 0.586477 -0.270317 -0.763527 0.000000
65.42970276 106.32299805 331.00000000 -0.702446 -0.634310 0.322833 0.000000
127.58799744 120.39099884 294.50000000 -0.144060 0.423621 0.894311 0.000000
82.44139862 215.26400757 365.50000000 0.185335 0.310749 0.932248 0.000000
123.00800323 219.84399414 298.50000000 0.415870 0.293104 -0.860896 0.000000
81.45999908 244.70700073 281.00000000 0.662436 -0.133085 -0.737203 0.000000
44.81930161 114.50199890 329.00000000 -0.661474 -0.731423 -0.165749 0.000000
90.29299927 90.29299927 319.50000000 -0.373685 -0.781342 0.499865 0.000000
81.78710175 193.01800537 368.50000000 0.223450 -0.054947 0.973166 0.000000
99.45310211 177.64199829 290.00000000 -0.632595 0.763580 0.129496 0.000000
81.45999908 162.26600647 280.00000000 0.664525 -0.738525 -0.113961 0.000000
190.39999390 151.14300537 326.50000000 -0.536781 -0.358395 0.763819 0.000000
151.14300537 130.20500183 301.50000000 -0.303481 0.079452 0.949519 0.000000
97.49019623 114.17500305 352.00000000 0.098200 -0.766547 0.634636 0.000000
115.15599823 121.69899750 354.50000000 0.845712 -0.193778 0.497213 0.000000
31.07909966 140.02000427 330.00000000 -0.770584 -0.095044 0.630212 0.000000
132.82200623 150.81500244 311.00000000 0.251597 -0.504738 0.825795 0.000000
40.23929977 242.08999634 297.00000000 -0.461681 0.865466 -0.194470 0.000000
88.33010101 207.41200256 365.50000000 0.203503 0.304553 0.930502 0.000000
32.06050110 204.79499817 350.50000000 -0.771540 0.263491 0.579049 0.000000
58.23239899 118.42800140 268.50000000 0.266587 0.066963 -0.961482 0.000000
44.16500092 157.68600464 258.00000000 0.604731 -0.106889 -0.789225 0.000000
43.51070023 132.16799927 346.00000000 -0.773584 -0.405521 0.486951 0.000000
107.95899963 134.13099670 311.50000000 -0.674325 -0.674325 0.300952 0.000000
114.50199890 214.60899353 351.50000000 0.503621 0.402571 0.764396 0.000000
47.10940170 116.46499634 284.50000000 -0.768309 -0.477950 -0.425751 0.000000
33.36909866 224.09700012 284.00000000 -0.829738 0.558138 -0.004074 0.000000
41.22069931 210.35600281 244.00000000 -0.220067 0.441631 -0.869789 0.000000
105.66899872 213.95500183 288.00000000 0.449835 0.427099 -0.784369 0.000000
38.27640152 219.84399414 258.00000000 -0.789168 0.435906 -0.432665 0.000000
78.18849945 132.16799927 286.00000000 -0.507018 0.290397 -0.811543 0.000000
77.20700073 251.25000000 276.50000000 0.569505 0.316035 -0.758805 0.000000
99.78029633 247.32400513 292.00000000 0.772062 0.385218 -0.505497 0.000000
45.80080032 208.72099304 361.50000000 -0.531046 0.195171 0.824559 0.000000
64.12110138 112.21199799 343.00000000 -0.104464 -0.860037 0.499423 0.000000
90.29299927 196.94299316 305.50000000 -0.672240 -0.336934 -0.659218 0.000000
26.49900055 148.52499390 298.00000000 -0.402436 -0.266783 -0.875712 0.000000
64.44819641 94.21880341 301.00000000 -0.558723 -0.821308 -0.115246 0.000000
156.37699890 95.85449982 337.00000000 -0.112506 -0.141540 0.983519 0.000000
19.30179977 183.20300293 328.00000000 -0.961120 0.217537 0.170075 0.000000
115.15599823 130.53199768 317.00000000 0.204589 0.972738 -0.109198 0.000000
135.11199951 128.89599609 294.00000000 -0.374792 0.340860 0.862175 0.000000
137.40199280 81.45999908 328.00000000 -0.154496 -0.580485 0.799480 0.000000
127.58799744 164.55599976 312.00000000 -0.413787 -0.733606 -0.539077 0.000000
26.49900055 151.79699707 297.00000000 -0.971461 -0.070539 -0.226468 0.000000
85.71289825 196.28900146 367.50000000 0.196558 0.001149 0.980491 0.000000
140.02000427 177.31399536 323.50000000 0.310618 0.929043 0.200988 0.000000
84.40429688 256.48400879 282.50000000 0.630074 0.067457 -0.773599 0.000000
72.95410156 155.72300720 282.00000000 0.705724 -0.708486 -0.001381 0.000000
142.63699341 163.57400513 297.50000000 -0.608341 -0.116365 -0.785099 0.000000
115.81099701 143.29100037 295.50000000 0.523979 0.302356 0.796258 0.000000
135.43899536 121.04499817 297.50000000 -0.274563 0.351738 0.894928 0.000000
62.81250000 147.21699524 279.50000000 0.670412 -0.590163 -0.449728 0.000000
79.16989899 170.77099609 270.50000000 0.705167 -0.038309 -0.708005 0.000000
75.24410248 263.02700806 287.50000000 -0.703015 0.380320 0.600938 0.000000
137.07499695 195.63499451 339.00000000 0.640152 -0.358551 -0.679446 0.000000
112.86599731 189.09199524 284.00000000 0.630283 -0.198793 -0.750483 0.000000
134.78500366 181.24000549 332.50000000 0.891187 0.412776 -0.188156 0.000000
96.50879669 83.75000000 315.00000000 -0.701679 -0.481675 0.525009 0.000000
122.35399628 175.67900085 359.00000000 0.518624 0.518624 0.679749 0.000000
134.45799255 217.22700500 315.00000000 0.938202 0.157508 -0.308169 0.000000
58.23239899 113.19300079 343.50000000 -0.450794 -0.710292 0.540620 0.000000
38.93069839 225.07800293 262.00000000 -0.797948 0.480053 -0.364455 0.000000
70.00980377 261.71899414 326.50000000 -0.385218 0.772062 0.505497 0.000000
25.19039917 171.42599487 275.00000000 -0.993655 -0.095436 -0.059507 0.000000
49.72660065 242.74400330 342.50000000 -0.489058 0.660480 0.569727 0.000000
60.84960175 221.47900391 257.00000000 0.760045 0.091906 -0.643339 0.000000
172.40699768 138.05700684 315.00000000 -0.615253 -0.100837 0.781854 0.000000
23.22750092 212.64599609 316.00000000 -0.928656 -0.311431 0.201514 0.000000
21.26460075 189.74600220 289.00000000 -0.998053 -0.061660 -0.009406 0.000000
83.75000000 214.60899353 276.50000000 0.565594 0.112534 -0.816969 0.000000
80.47850037 265.97198486 320.00000000 -0.128730 0.898282 0.420141 0.000000
40.56639862 142.63699341 347.50000000 -0.876819 -0.094297 0.471484 0.000000
138.05700684 87.67579651 332.50000000 -0.200491 -0.447021 0.871766 0.000000
110.57599640 179.93200684 305.50000000 -0.370085 -0.904169 0.213343 0.000000
55.28810120 155.06799316 364.00000000 -0.519464 -0.080680 0.850675 0.000000
159.64799500 138.05700684 338.50000000 0.168054 -0.362941 0.916532 0.000000
150.16099548 155.72300720 297.00000000 0.131882 -0.073527 -0.988535 0.000000
106.97799683 224.42399597 353.00000000 0.428803 0.347126 0.834045 0.000000
84.40429688 187.12899780 302.50000000 -0.670771 -0.384004 -0.634513 0.000000
136.74800110 115.81099701 342.50000000 0.021311 -0.314651 0.948968 0.000000
40.89360046 228.35000610 262.00000000 -0.843937 0.489392 -0.219696 0.000000
135.43899536 77.53420258 313.00000000 -0.093685 -0.946082 0.310083 0.000000
116.79199982 236.20100403 341.00000000 0.491229 0.372045 0.787576 0.000000
63.46680069 164.88299561 368.50000000 -0.523848 0.201947 0.827527 0.000000
40.89360046 159.64799500 350.00000000 -0.836802 0.001352 0.547504 0.000000
100.10700226 201.52299500 362.50000000 0.233086 0.060430 0.970577 0.000000
146.56199646 75.57129669 311.00000000 -0.037919 -0.999217 0.011273 0.000000
166.19099426 85.71289825 334.50000000 0.536982 -0.493488 0.684192 0.000000
117.77300262 148.52499390 297.50000000 -0.177022 -0.392903 0.902381 0.000000
124.97100067 219.84399414 298.50000000 0.577678 0.500205 -0.645045 0.000000
158.66700745 80.47850037 314.00000000 -0.659545 -0.219848 0.718795 0.000000
77.86129761 152.45100403 373.50000000 -0.174097 -0.449140 0.876335 0.000000
38.93069839 136.74800110 341.00000000 -0.832994 -0.366895 0.414135 0.000000
111.23000336 172.73399353 365.50000000 0.437612 0.246819 0.864625 0.000000
86.36720276 91.27439880 318.00000000 -0.295399 -0.889197 0.349381 0.000000
27.80760002 230.31199646 324.00000000 -0.833265 0.267449 0.483881 0.000000
132.16799927 200.21499634 311.50000000 0.824406 -0.513135 -0.238847 0.000000
31.07909966 226.38699341 330.00000000 -0.907660 0.399819 0.127662 0.000000
46.45510101 248.63299561 317.50000000 -0.821623 0.567075 0.057980 0.000000
137.07499695 205.44900513 321.00000000 0.850172 -0.396332 -0.346596 0.000000
107.95899963 200.21499634 281.50000000 0.413525 0.363210 -0.834911 0.000000
166.19099426 122.68099976 314.00000000 -0.466398 0.354972 0.810227 0.000000
117.44599915 136.09399414 364.00000000 0.116624 -0.502490 0.856681 0.000000
47.76369858 232.60299683 349.00000000 -0.545989 0.515749 0.660226 0.000000
64.12110138 259.10198975 289.50000000 -0.530611 0.638417 -0.557562 0.000000
54.96089935 108.94000244 278.00000000 -0.772650 -0.527467 -0.353258 0.000000
96.50879669 228.35000610 288.00000000 0.434305 -0.169946 -0.884589 0.000000
62.81250000 131.18699646 278.00000000 0.819131 0.402408 -0.408770 0.000000
44.16500092 228.35000610 256.00000000 -0.624960 0.735713 -0.261059 0.000000
170.11700439 113.84799957 328.50000000 -0.645193 0.764008 -0.004145 0.000000
125.29799652 143.94500732 360.00000000 0.843894 -0.139426 0.518077 0.000000
57.25099945 110.57599640 338.00000000 -0.297203 -0.777179 0.554674 0.000000
167.82699585 83.75000000 332.00000000 -0.853146 0.519125 -0.051495 0.000000
193.34500122 149.83399963 328.00000000 -0.594082 -0.402122 0.696681 0.000000
155.72300720 92.91020203 336.50000000 -0.023028 -0.248455 0.968370 0.000000
87.67579651 111.55799866 350.00000000 0.037603 -0.828666 0.558479 0.000000
34.67770004 128.56900024 322.00000000 -0.963460 -0.261851 -0.056379 0.000000
55.94240189 104.68800354 312.00000000 -0.763628 -0.604993 -0.225511 0.000000
134.45799255 234.89300537 319.00000000 0.435288 -0.464634 0.771129 0.000000
82.44139862 107.95899963 280.50000000 0.465731 -0.017348 -0.884756 0.000000
37.94919968 127.58799744 303.50000000 -0.918433 -0.281153 -0.278269 0.000000
109.26799774 117.11900330 290.50000000 0.322472 -0.349723 -0.879606 0.000000
106.97799683 198.90600586 280.00000000 0.410764 0.385389 -0.826286 0.000000
27.15329933 181.24000549 262.00000000 -0.952933 0.044293 -0.299927 0.000000
115.81099701 241.43600464 299.50000000 0.442341 0.199719 -0.874326 0.000000
103.37899780 228.02200317 353.00000000 0.422278 0.448164 0.787928 0.000000
33.36909866 146.56199646 256.50000000 0.009740 -0.688753 -0.724930 0.000000
141.98199463 77.53420258 292.00000000 0.339831 -0.820337 -0.459958 0.000000
34.35060120 225.73199463 339.00000000 -0.604427 0.380443 0.699950 0.000000
77.53420258 158.99400330 281.00000000 0.595329 -0.800910 -0.064244 0.000000
123.66200256 140.67399597 311.50000000 -0.538290 0.075275 0.839391 0.000000
157.68600464 180.58599854 305.50000000 0.440056 0.246492 -0.863477 0.000000
53.32519913 147.21699524 264.00000000 0.756626 -0.152533 -0.635807 0.000000
95.52729797 84.73139954 284.00000000 -0.233213 -0.883834 -0.405524 0.000000
163.57400513 169.78999329 324.00000000 0.699001 0.686602 0.199936 0.000000
85.05860138 87.02149963 314.50000000 -0.382453 -0.515904 0.766533 0.000000
159.64799500 84.40429688 318.50000000 -0.867017 -0.162841 0.470918 0.000000
131.84100342 93.56449890 293.00000000 -0.343898 -0.816163 0.464341 0.000000
86.36720276 240.12699890 352.50000000 0.131950 0.594517 0.793183 0.000000
115.15599823 189.74600220 357.50000000 0.291258 0.001219 0.956644 0.000000
113.84799957 131.51400757 320.50000000 0.200107 0.908401 -0.367103 0.000000
34.02339935 237.18299866 312.00000000 -0.001352 0.836802 0.547504 0.000000
157.68600464 177.96899414 318.50000000 0.739747 0.206261 0.640493 0.000000
117.11900330 79.49710083 310.00000000 0.068757 -0.997507 0.015867 0.000000
44.16500092 130.85899353 346.00000000 -0.772062 -0.385218 0.505497 0.000000
148.52499390 174.04299927 328.50000000 -0.135959 0.760475 0.634974 0.000000
70.99120331 213.95500183 266.00000000 0.836802 0.001352 -0.547504 0.000000
116.46499634 173.38900757 311.50000000 -0.172972 -0.220506 -0.959926 0.000000
40.56639862 172.73399353 356.50000000 -0.481479 -0.451900 0.750976 0.000000
116.46499634 212.64599609 291.50000000 0.248768 0.306287 -0.918860 0.000000
150.48800659 170.11700439 299.50000000 0.233503 0.548963 -0.802568 0.000000
85.05860138 121.04499817 361.50000000 -0.029308 -0.607086 0.794096 0.000000
71.31839752 213.95500183 266.50000000 0.836802 0.001352 -0.547504 0.000000
93.56449890 176.66000366 313.50000000 0.178055 -0.142696 -0.973619 0.000000
36.64059830 222.78799438 264.00000000 -0.799284 0.442260 -0.406879 0.000000
51.68949890 233.58399963 255.50000000 -0.111920 0.827046 -0.550880 0.000000
140.02000427 171.75300598 304.00000000 -0.511236 0.531351 -0.675503 0.000000
66.08399963 137.72900391 286.00000000 0.357257 0.186457 -0.915205 0.000000
80.47850037 251.90400696 279.50000000 0.654553 0.088926 -0.750768 0.000000
91.92870331 263.68200684 291.00000000 0.067928 0.721192 -0.689396 0.000000
105.99600220 113.84799957 290.50000000 0.580716 -0.580716 -0.570558 0.000000
89.63870239 231.62100220 286.50000000 0.793433 0.316419 -0.519945 0.000000
102.72499847 95.20020294 280.00000000 -0.001232 -0.950151 0.311788 0.000000
100.10700226 106.65000153 340.50000000 0.346596 -0.850172 0.396332 0.000000
170.11700439 138.71099854 335.50000000 0.258801 0.071959 0.963246 0.000000
48.41799927 250.26899719 318.00000000 -0.611615 0.791096 -0.009664 0.000000
155.72300720 88.98439789 314.50000000 -0.805717 -0.277996 0.523009 0.000000
132.82200623 77.53420258 300.00000000 -0.058068 -0.995924 -0.069024 0.000000
158.99400330 139.36500549 339.50000000 0.038164 -0.662914 0.747722 0.000000
51.68949890 121.69899750 347.50000000 -0.719485 -0.520089 0.460271 0.000000
42.85639954 126.27899933 280.00000000 -0.785043 -0.615070 0.073463 0.000000
132.82200623 186.47500610 348.50000000 0.870501 -0.477556 -0.119031 0.000000
46.45510101 248.96000671 316.00000000 -0.821623 0.567075 0.057980 0.000000
109.26799774 187.78300476 360.50000000 0.333977 0.473265 0.815156 0.000000
128.89599609 237.50999451 307.50000000 0.999999 0.000978 0.000978 0.000000
53.97949982 225.07800293 251.00000000 0.577946 0.141144 -0.803776 0.000000
30.09770012 166.51899719 251.00000000 -0.831389 -0.383354 -0.402285 0.000000
133.47700500 200.86900330 345.50000000 0.619033 0.372733 0.691280 0.000000
115.81099701 244.70700073 300.50000000 0.436898 0.263357 -0.860095 0.000000
80.47850037 244.05299377 350.50000000 0.070004 0.590037 0.804336 0.000000
67.39260101 215.91799927 366.50000000 0.278119 -0.298504 0.912987 0.000000
99.78029633 238.81799316 349.00000000 0.405766 0.530617 0.744178 0.000000
100.10700226 268.91598511 309.50000000 0.230830 0.895384 -0.380795 0.000000
128.24200439 183.20300293 353.50000000 0.605789 0.026460 0.795185 0.000000
92.25589752 94.87300110 324.50000000 -0.229414 -0.366770 0.901582 0.000000
115.48300171 87.02149963 327.00000000 -0.301875 -0.431914 0.849895 0.000000
41.54790115 230.96699524 267.00000000 -0.743473 0.649592 -0.158991 0.000000
96.83589935 96.83589935 329.50000000 -0.150037 -0.918449 0.365978 0.000000
155.39599609 102.06999969 313.00000000 -0.318778 0.915946 0.243771 0.000000
151.14300537 126.93399811 301.50000000 -0.228690 0.228690 0.946257 0.000000
124.97100067 146.23500061 362.00000000 0.759006 -0.082721 0.645808 0.000000
