223.39900208 118.75000000 341.25000000 -0.698335 -0.582222 0.416347 0.000000
127.65599823 73.84770203 315.00000000 -0.016399 0.993750 0.110417 0.000000
53.43750000 148.43800354 236.25000000 0.681301 0.431435 0.591349 0.000000
113.55500031 104.27700043 377.50000000 0.244079 0.716491 -0.653503 0.000000
146.21099854 75.70320129 361.25000000 0.280675 0.884051 -0.373733 0.000000
172.18800354 73.84770203 310.00000000 0.528458 0.271286 0.804448 0.000000
167.73399353 166.99200439 323.75000000 -0.539354 -0.613748 0.576551 0.000000
152.89100647 181.83599854 313.75000000 -0.777223 0.035137 0.628244 0.000000
109.10199738 116.52400208 383.75000000 0.636004 -0.162416 -0.754401 0.000000
86.09380341 227.85200500 303.75000000 -0.303897 -0.489699 0.817215 0.000000
103.90599823 81.26959991 340.00000000 0.356361 0.746893 -0.561390 0.000000
226.36700439 122.46099854 388.75000000 0.000978 0.000978 -0.999999 0.000000
143.24200439 191.48399353 321.25000000 -0.001166 0.218041 -0.975939 0.000000
174.41400146 76.81649780 305.00000000 -0.017556 0.868359 0.495626 0.000000
72.73439789 99.45320129 293.75000000 0.548008 0.797812 0.251365 0.000000
86.09380341 213.75000000 288.75000000 -0.387580 -0.851431 0.353336 0.000000
133.22300720 83.12509918 365.00000000 0.340921 0.500978 -0.795483 0.000000
141.01600647 210.41000366 350.00000000 -0.829656 -0.500256 0.247819 0.000000
80.89849854 98.71099854 278.75000000 0.432839 0.864160 -0.256666 0.000000
233.04699707 133.96499634 365.00000000 -0.351243 -0.830067 0.433147 0.000000
90.54689789 85.35160065 338.75000000 0.462998 0.827118 -0.318605 0.000000
211.52400208 152.52000427 385.00000000 -0.112266 -0.564246 -0.817938 0.000000
224.14100647 147.69500732 376.25000000 -0.688660 -0.606087 0.398003 0.000000
182.57800293 152.14900208 331.25000000 -0.417738 -0.718245 0.556434 0.000000
212.63699341 132.10899353 342.50000000 -0.611237 -0.506838 0.607869 0.000000
165.50799561 109.84400177 383.75000000 -0.143911 0.187212 -0.971721 0.000000
105.01999664 181.83599854 245.00000000 -0.826718 -0.441021 0.349340 0.000000
79.41410065 99.08209991 277.50000000 0.432839 0.864160 -0.256666 0.000000
230.07800293 81.64070129 366.25000000 -0.546152 0.724352 -0.420751 0.000000
121.71900177 191.85600281 287.50000000 -0.541628 -0.541628 0.642867 0.000000
102.79299927 168.47700500 232.50000000 -0.791006 -0.148033 0.593629 0.000000
100.19499969 162.91000366 227.50000000 -0.724525 -0.240461 0.645943 0.000000
132.85200500 201.13299561 363.75000000 -0.067559 -0.642531 -0.763275 0.000000
162.53900146 103.16400146 293.75000000 -0.190792 -0.365805 0.910925 0.000000
79.41410065 176.64100647 211.25000000 -0.609085 -0.642644 0.464784 0.000000
164.76600647 119.49199677 386.25000000 -0.099494 0.178106 -0.978968 0.000000
103.16400146 83.86720276 293.75000000 0.252085 0.897778 0.361175 0.000000
60.11719894 238.98500061 303.75000000 0.073268 -0.797332 0.599077 0.000000
184.06300354 121.71900177 311.25000000 -0.221729 -0.421137 0.879477 0.000000
146.95300293 84.60939789 371.25000000 -0.004106 0.595386 -0.803429 0.000000
135.82000732 211.89500427 340.00000000 -0.832674 -0.553762 0.001354 0.000000
217.46099854 145.46899414 388.75000000 -0.000978 -0.000978 -0.999999 0.000000
172.92999268 179.60899353 336.25000000 -0.480285 -0.820422 0.310217 0.000000
153.63299561 81.26959991 370.00000000 0.276381 0.458576 -0.844583 0.000000
112.81300354 188.51600647 268.75000000 -0.520782 -0.747495 0.412355 0.000000
122.46099854 110.58599854 293.75000000 0.000978 0.000978 0.999999 0.000000
67.16799927 143.24200439 357.50000000 0.642011 0.142836 -0.753273 0.000000
39.70709991 171.44500732 307.50000000 0.974779 0.210198 -0.074983 0.000000
202.61700439 88.32039642 308.75000000 -0.335852 -0.449380 0.827805 0.000000
124.68800354 94.25789642 371.25000000 0.564123 0.754858 0.334595 0.000000
152.89100647 178.12500000 376.25000000 -0.308396 -0.468073 -0.828130 0.000000
50.46879959 209.29699707 253.75000000 0.713265 -0.625926 0.315389 0.000000
166.25000000 113.55500031 298.75000000 -0.174041 -0.254990 0.951152 0.000000
40.44919968 165.50799561 307.50000000 0.980693 0.182146 -0.071170 0.000000
82.38289642 175.89900208 366.25000000 0.606513 0.091631 -0.789776 0.000000
129.88299561 210.78100586 361.25000000 -0.211569 -0.424618 -0.880306 0.000000
202.61700439 65.31250000 333.75000000 -0.242814 0.970072 0.001184 0.000000
95.74220276 80.52739716 327.50000000 0.383564 0.894982 0.227787 0.000000
126.91400146 223.77000427 352.50000000 -0.577450 -0.765161 -0.284748 0.000000
100.93800354 92.77349854 358.75000000 0.190539 0.800265 -0.568569 0.000000
79.41410065 177.01199341 212.50000000 -0.609085 -0.642644 0.464784 0.000000
83.12509918 135.82000732 223.75000000 -0.398137 0.771899 0.495640 0.000000
119.49199677 97.22660065 371.25000000 0.000978 0.000978 -0.999999 0.000000
65.31250000 198.16400146 223.75000000 -0.098209 -0.749029 0.655217 0.000000
137.30499268 77.55860138 360.00000000 0.350894 -0.700155 -0.621816 0.000000
146.95300293 198.16400146 361.25000000 -0.990377 0.131063 0.044447 0.000000
100.19499969 209.29699707 293.75000000 -0.379308 -0.805029 0.456130 0.000000
63.82820129 108.73100281 325.00000000 0.755307 0.645928 -0.110857 0.000000
105.39099884 200.39100647 281.25000000 -0.350894 -0.700155 0.621816 0.000000
60.11719894 195.19500732 351.25000000 0.450982 -0.180686 -0.874053 0.000000
46.75780106 175.15600586 243.75000000 0.860313 -0.001338 0.509765 0.000000
99.45320129 171.44500732 228.75000000 -0.781886 -0.238780 0.575880 0.000000
245.66400146 93.51570129 346.25000000 -0.647309 -0.297152 0.701920 0.000000
167.73399353 173.67199707 378.75000000 -0.162349 -0.738915 -0.653947 0.000000
193.71099854 92.03130341 306.25000000 -0.612439 0.110151 0.782806 0.000000
251.60200500 123.94499969 373.75000000 -0.735189 0.674763 0.064743 0.000000
110.58599854 77.55860138 340.00000000 0.276375 0.707712 -0.650200 0.000000
55.29299927 138.04699707 342.50000000 0.849608 0.113954 -0.514957 0.000000
113.55500031 218.94500732 313.75000000 -0.784092 -0.560964 0.265554 0.000000
41.19139862 189.25799561 335.00000000 0.934461 -0.228361 -0.273193 0.000000
71.99220276 233.41799927 345.00000000 0.561447 -0.796543 -0.224269 0.000000
103.16400146 80.89849854 301.25000000 0.205838 0.940777 0.269386 0.000000
112.81300354 144.72700500 381.25000000 0.696178 -0.408446 -0.590346 0.000000
103.90599823 186.28900146 371.25000000 0.304509 -0.238746 -0.922103 0.000000
89.06259918 181.83599854 366.25000000 -0.000978 -0.000978 -0.999999 0.000000
135.07800293 72.36329651 322.50000000 -0.264633 0.940762 0.211983 0.000000
103.16400146 236.01600647 353.75000000 -0.063673 -0.553248 -0.830580 0.000000
86.09380341 187.77400208 228.75000000 -0.448953 -0.748255 0.488421 0.000000
82.75399780 88.32039642 302.50000000 0.508532 0.847553 0.151822 0.000000
185.54699707 170.70300293 361.25000000 -0.791702 -0.465991 -0.395045 0.000000
56.40629959 127.65599823 338.75000000 0.868119 0.281264 -0.408974 0.000000
129.88299561 221.54299927 347.50000000 -0.743136 -0.630964 -0.222785 0.000000
133.59399414 108.35900116 381.25000000 -0.201667 0.344693 -0.916797 0.000000
243.80900574 96.48439789 347.50000000 -0.597045 -0.593662 0.539539 0.000000
145.46899414 141.75799561 393.75000000 -0.285480 -0.357223 -0.889322 0.000000
94.25789642 91.66020203 285.00000000 0.332914 0.722666 0.605741 0.000000
89.06259918 190.00000000 233.75000000 -0.598970 -0.598970 0.531480 0.000000
142.50000000 124.68800354 298.75000000 0.099541 -0.444432 0.890265 0.000000
75.70320129 209.29699707 253.75000000 -0.422463 -0.843368 0.332047 0.000000
185.54699707 112.81300354 306.25000000 -0.460970 -0.287136 0.839679 0.000000
70.13680267 102.42199707 290.00000000 0.661490 0.739136 0.126922 0.000000
151.40600586 182.57800293 321.25000000 -0.022327 -0.203293 -0.978863 0.000000
77.92970276 192.22700500 226.25000000 -0.598970 -0.598970 0.531480 0.000000
77.18750000 130.62500000 226.25000000 0.029357 0.605319 0.795442 0.000000
120.23400116 82.01180267 290.00000000 -0.152933 0.918999 0.363390 0.000000
48.61330032 138.04699707 325.00000000 0.865768 0.467544 -0.178463 0.000000
213.37899780 123.94499969 337.50000000 -0.722506 -0.339334 0.602359 0.000000
128.39900208 183.32000732 286.25000000 -0.559100 -0.502015 0.659839 0.000000
122.46099854 226.36700439 353.75000000 -0.581755 -0.685104 -0.438400 0.000000
43.78910065 217.08999634 287.50000000 0.882342 -0.240367 0.404593 0.000000
45.27349854 181.83599854 246.25000000 0.932045 0.232659 0.277780 0.000000
117.26599884 186.28900146 268.75000000 -0.660225 -0.319568 0.679691 0.000000
130.62500000 173.67199707 283.75000000 -0.866068 -0.014816 0.499706 0.000000
201.13299561 109.84400177 383.75000000 0.529500 0.519414 -0.670700 0.000000
158.82800293 178.49600220 327.50000000 -0.242814 -0.970072 -0.001184 0.000000
233.78900146 136.56300354 373.75000000 -0.620681 -0.676957 0.395581 0.000000
95.74220276 200.39100647 366.25000000 0.421312 -0.185144 -0.887816 0.000000
141.01600647 170.70300293 301.25000000 -0.732745 0.299832 0.610888 0.000000
139.53100586 210.41000366 345.00000000 -0.663619 -0.682995 0.305168 0.000000
184.80499268 95.74220276 301.25000000 -0.760593 -0.326428 0.561198 0.000000
149.55099487 187.03100586 320.00000000 -0.110720 -0.313483 -0.943117 0.000000
102.42199707 178.86700439 236.25000000 -0.812818 -0.345169 0.469239 0.000000
134.33599854 190.74200439 296.25000000 -0.672543 -0.518244 0.528307 0.000000
53.06639862 141.75799561 240.00000000 0.799479 0.291723 0.525101 0.000000
157.34399414 185.54699707 371.25000000 -0.361174 -0.813040 -0.456639 0.000000
58.63290024 121.34799957 275.00000000 0.692141 0.448641 0.565387 0.000000
90.54689789 135.07800293 373.75000000 0.540166 0.063466 -0.839162 0.000000
184.43400574 101.68000031 302.50000000 -0.401687 -0.297829 0.865994 0.000000
132.10899353 165.50799561 381.25000000 -0.000978 -0.000978 -0.999999 0.000000
103.16400146 78.67189789 308.75000000 0.229121 0.966404 0.116480 0.000000
155.85899353 126.91400146 303.75000000 -0.206017 -0.652129 0.729579 0.000000
79.41410065 135.82000732 366.25000000 0.361752 0.045709 -0.931153 0.000000
92.03130341 171.44500732 368.75000000 0.204177 -0.206846 -0.956831 0.000000
197.05099487 140.27400208 330.00000000 -0.486534 -0.486534 0.725650 0.000000
60.85940170 218.94500732 266.25000000 -0.515568 -0.805674 0.291682 0.000000
103.90599823 138.78900146 243.75000000 -0.928812 0.168495 0.330028 0.000000
239.72700500 92.77349854 376.25000000 0.137249 -0.125103 -0.982605 0.000000
117.26599884 188.51600647 271.25000000 -0.694216 -0.719460 0.021037 0.000000
179.98100281 181.83599854 355.00000000 -0.804290 -0.593874 -0.020765 0.000000
97.22660065 235.27400208 313.75000000 -0.291973 -0.528708 0.797007 0.000000
112.06999969 212.26600647 306.25000000 -0.679691 -0.660225 0.319568 0.000000
71.99220276 143.98399353 361.25000000 0.638295 -0.079606 -0.765665 0.000000
64.57039642 204.84399414 233.75000000 -0.117393 -0.735563 0.667208 0.000000
127.65599823 158.82800293 308.75000000 -0.459475 0.718240 0.522507 0.000000
54.17969894 190.00000000 223.75000000 0.719355 -0.400007 0.567911 0.000000
114.29699707 95.37120056 367.50000000 0.270163 0.766252 -0.582983 0.000000
246.77699280 91.28910065 347.50000000 -0.745961 0.001379 0.665988 0.000000
82.38289642 192.22700500 363.75000000 0.428492 0.104681 -0.897461 0.000000
137.67599487 120.97699738 297.50000000 0.032332 -0.763307 0.645226 0.000000
181.83599854 136.56300354 388.75000000 -0.000978 -0.000978 -0.999999 0.000000
234.53100586 101.68000031 341.25000000 0.000978 0.000978 0.999999 0.000000
62.71490097 112.81300354 277.50000000 0.825728 0.562168 -0.046263 0.000000
230.07800293 143.98399353 381.25000000 -0.819931 -0.524571 0.229212 0.000000
136.56300354 141.75799561 308.75000000 0.000978 0.000978 0.999999 0.000000
243.80900574 111.32800293 357.50000000 -0.768654 0.636967 -0.058687 0.000000
82.75399780 140.27400208 370.00000000 0.534008 0.130210 -0.835393 0.000000
52.32429886 164.76600647 230.00000000 0.927607 0.124686 0.352134 0.000000
111.69899750 123.20300293 290.00000000 -0.778202 0.129452 0.614527 0.000000
114.29699707 190.00000000 371.25000000 0.045939 -0.541523 -0.839430 0.000000
51.21099854 163.28100586 233.75000000 0.932455 0.106914 0.345103 0.000000
40.44919968 169.96099854 277.50000000 0.894688 0.446689 -0.001310 0.000000
96.48439789 115.03900146 246.25000000 -0.550063 0.834146 0.040384 0.000000
89.06259918 159.57000732 371.25000000 0.157755 -0.035696 -0.986833 0.000000
103.16400146 207.81300354 363.75000000 0.397513 -0.426248 -0.812586 0.000000
175.89900208 86.09380341 378.75000000 0.386261 0.846020 -0.367495 0.000000
96.48439789 193.71099854 251.25000000 -0.714672 -0.620679 0.322494 0.000000
92.03130341 91.28910065 286.25000000 0.212630 0.755844 0.619264 0.000000
118.00800323 95.74220276 281.25000000 -0.000978 -0.000978 0.999999 0.000000
59.00389862 131.36700439 245.00000000 0.702007 0.501910 0.505245 0.000000
207.81300354 138.78900146 341.25000000 -0.541628 -0.541628 0.642867 0.000000
146.95300293 132.85200500 391.25000000 -0.370776 0.159307 -0.914957 0.000000
119.49199677 149.92199707 268.75000000 -0.793542 0.088494 0.602047 0.000000
89.06259918 243.06700134 317.50000000 -0.360672 -0.768247 0.528878 0.000000
109.84400177 132.85200500 261.25000000 -0.991259 0.046448 0.123483 0.000000
132.10899353 110.95700073 382.50000000 -0.250074 0.316568 -0.915012 0.000000
136.56300354 195.93800354 301.25000000 -0.096027 -0.168959 0.980934 0.000000
204.10200500 83.12509918 381.25000000 0.004108 0.809262 -0.587434 0.000000
99.45320129 114.29699707 251.25000000 -0.398695 0.408225 0.821215 0.000000
204.10200500 100.93800354 313.75000000 -0.621834 -0.168762 0.764750 0.000000
169.96099854 86.83599854 378.75000000 0.237781 0.797266 -0.554822 0.000000
166.99200439 136.93400574 312.50000000 -0.410187 -0.828292 0.381680 0.000000
52.32429886 203.36000061 345.00000000 0.661126 -0.255255 -0.705519 0.000000
106.87500000 202.61700439 366.25000000 0.000978 0.000978 -0.999999 0.000000
92.77349854 94.25789642 358.75000000 0.315627 0.944239 0.093764 0.000000
207.81300354 89.80470276 383.75000000 -0.000978 -0.000978 -0.999999 0.000000
64.19930267 163.28100586 355.00000000 0.660102 -0.058708 -0.748879 0.000000
98.71099854 150.66400146 228.75000000 -0.824833 0.166164 0.540408 0.000000
44.90240097 173.67199707 252.50000000 0.993853 -0.020865 0.108720 0.000000
63.82820129 157.34399414 356.25000000 0.654300 0.001377 -0.756234 0.000000
198.16400146 113.55500031 313.75000000 -0.371974 -0.329113 0.867940 0.000000
47.12889862 143.98399353 325.00000000 0.964052 0.133644 -0.229660 0.000000
248.63299561 111.32800293 371.25000000 -0.289200 0.309752 -0.905769 0.000000
143.98399353 179.60899353 303.75000000 0.000978 0.000978 0.999999 0.000000
71.25000000 142.87100220 215.00000000 0.611022 0.611022 0.503294 0.000000
133.59399414 210.78100586 333.75000000 -0.831058 -0.414740 0.370585 0.000000
41.19139862 172.18800354 322.50000000 0.970487 0.193075 -0.144486 0.000000
127.65599823 200.76199341 307.50000000 -0.880537 -0.303581 -0.363996 0.000000
80.15630341 143.24200439 213.75000000 -0.502929 0.583667 0.637492 0.000000
84.60939789 123.57399750 232.50000000 -0.384184 0.494414 0.779716 0.000000
110.58599854 185.54699707 371.25000000 0.010287 -0.177166 -0.984127 0.000000
67.91020203 224.88299561 290.00000000 -0.788922 -0.545447 0.283000 0.000000
157.34399414 177.75399780 342.50000000 0.220067 -0.869789 0.441631 0.000000
114.29699707 237.50000000 341.25000000 -0.641647 -0.729501 0.236892 0.000000
202.61700439 87.57820129 383.75000000 -0.025776 0.266352 -0.963531 0.000000
70.50789642 143.98399353 213.75000000 0.709319 0.436887 0.553169 0.000000
80.15630341 101.30899811 357.50000000 0.526963 0.716470 -0.457144 0.000000
201.87500000 131.36700439 388.75000000 0.013982 0.349556 -0.936811 0.000000
183.32000732 95.00009918 298.75000000 -0.259878 -0.133237 0.956405 0.000000
224.14100647 128.39900208 348.75000000 -0.464910 -0.629390 0.622677 0.000000
238.98500061 133.96499634 380.00000000 -0.320250 0.865747 -0.384606 0.000000
82.38289642 143.98399353 213.75000000 -0.488342 0.505009 0.711679 0.000000
244.17999268 111.32800293 356.25000000 -0.768654 0.636967 -0.058687 0.000000
83.49610138 143.98399353 215.00000000 -0.488342 0.505009 0.711679 0.000000
189.25799561 77.55860138 372.50000000 0.191365 0.773113 -0.604712 0.000000
126.91400146 206.69900513 317.50000000 -0.435706 -0.612659 0.659401 0.000000
175.15600586 74.96099854 366.25000000 0.107941 0.731926 -0.672780 0.000000
195.93800354 145.09800720 332.50000000 -0.506797 -0.520178 0.687438 0.000000
55.66410065 205.58599854 236.25000000 0.180331 -0.898771 0.399614 0.000000
113.55500031 221.17199707 361.25000000 -0.001304 -0.434129 -0.900850 0.000000
141.01600647 114.29699707 383.75000000 0.236824 0.803345 -0.546398 0.000000
109.10199738 136.56300354 256.25000000 -0.932783 0.095292 0.347613 0.000000
110.58599854 110.58599854 288.75000000 -0.722396 -0.389995 0.571006 0.000000
109.47299957 113.55500031 277.50000000 -0.768462 -0.639215 0.029502 0.000000
214.12100220 126.91400146 340.00000000 -0.720750 -0.346546 0.600354 0.000000
66.05470276 140.27400208 223.75000000 0.580433 0.383119 0.718553 0.000000
94.62899780 202.61700439 267.50000000 -0.610159 -0.708308 0.354972 0.000000
110.58599854 136.56300354 261.25000000 -0.879719 0.328570 0.343711 0.000000
201.87500000 152.89100647 353.75000000 -0.575202 -0.681906 0.451825 0.000000
50.46879959 150.66400146 338.75000000 0.701551 -0.656805 0.276465 0.000000
127.28500366 175.15600586 280.00000000 -0.792905 -0.113272 0.598724 0.000000
178.12500000 181.09399414 343.75000000 -0.684222 -0.601387 0.412521 0.000000
59.37500000 196.67999268 351.25000000 0.450982 -0.180686 -0.874053 0.000000
69.02349854 231.56300354 343.75000000 0.513920 -0.305189 -0.801715 0.000000
235.27400208 81.64070129 333.75000000 -0.744729 -0.004145 0.667354 0.000000
56.40629959 239.35600281 305.00000000 0.169168 -0.863494 0.475142 0.000000
79.04299927 213.75000000 275.00000000 -0.464092 -0.832866 0.301582 0.000000
90.54689789 213.75000000 361.25000000 0.187238 -0.330834 -0.924927 0.000000
84.98049927 146.21099854 215.00000000 -0.684652 0.344777 0.642168 0.000000
202.61700439 112.06999969 386.25000000 0.406187 0.206759 -0.890092 0.000000
89.80470276 218.57400513 297.50000000 -0.323953 -0.755890 0.568932 0.000000
51.95320129 213.00799561 261.25000000 0.576599 -0.753273 0.316407 0.000000
69.39459991 103.90599823 342.50000000 0.811614 0.405006 -0.421015 0.000000
152.52000427 184.06300354 362.50000000 0.957480 -0.094327 -0.272643 0.000000
57.51959991 117.26599884 325.00000000 0.884121 0.451315 -0.121015 0.000000
176.64100647 106.87500000 298.75000000 -0.362624 0.544749 0.756144 0.000000
95.00009918 92.77349854 283.75000000 0.329303 0.775871 0.538130 0.000000
198.90600586 129.14100647 323.75000000 -0.597352 -0.408715 0.690016 0.000000
219.68800354 103.90599823 386.25000000 -0.000978 -0.000978 -0.999999 0.000000
64.57039642 112.06999969 281.25000000 0.859060 0.501714 -0.101486 0.000000
58.63290024 223.77000427 282.50000000 0.131041 -0.980967 0.143287 0.000000
69.02349854 147.69500732 213.75000000 0.709319 0.436887 0.553169 0.000000
60.11719894 117.26599884 276.25000000 0.812617 0.501402 0.297069 0.000000
186.28900146 106.13300323 383.75000000 -0.735619 -0.293286 -0.610612 0.000000
118.37899780 132.10899353 385.00000000 0.306587 0.265902 -0.913948 0.000000
136.56300354 107.61699677 293.75000000 0.000978 0.000978 0.999999 0.000000
119.86299896 187.03100586 270.00000000 -0.854180 -0.455258 -0.251229 0.000000
80.15630341 93.14459991 340.00000000 0.469586 0.824523 -0.315675 0.000000
131.36700439 158.08599854 311.25000000 -0.353909 0.397563 0.846576 0.000000
196.67999268 135.07800293 388.75000000 -0.000978 -0.000978 -0.999999 0.000000
48.98440170 166.99200439 343.75000000 0.489456 0.650926 -0.580283 0.000000
114.29699707 92.03130341 363.75000000 0.424015 0.623551 -0.656807 0.000000
146.95300293 173.30099487 312.50000000 -0.531608 0.805986 0.260347 0.000000
95.74220276 190.74200439 366.25000000 -0.000978 -0.000978 -0.999999 0.000000
136.56300354 97.96880341 376.25000000 0.392854 0.392854 -0.831463 0.000000
144.72700500 118.75000000 388.75000000 0.138232 0.186423 -0.972696 0.000000
80.89849854 109.84400177 256.25000000 0.611546 0.467456 0.638354 0.000000
97.22660065 238.61300659 352.50000000 0.223730 -0.655544 -0.721254 0.000000
142.12899780 190.00000000 330.00000000 -0.944239 -0.315627 0.093764 0.000000
186.28900146 167.73399353 363.75000000 -0.766925 -0.537654 -0.350363 0.000000
177.38299561 143.24200439 388.75000000 -0.000978 -0.000978 -0.999999 0.000000
47.50000000 160.31300354 338.75000000 0.824163 0.255135 -0.505631 0.000000
244.55099487 117.26599884 377.50000000 -0.641993 0.615174 -0.457609 0.000000
160.31300354 112.06999969 386.25000000 -0.067339 0.108427 -0.991821 0.000000
216.71899414 85.35160065 318.75000000 -0.643939 -0.101211 0.758352 0.000000
220.42999268 109.84400177 333.75000000 -0.507271 -0.380858 0.773061 0.000000
190.74200439 88.32039642 383.75000000 0.141466 0.432972 -0.890237 0.000000
212.26600647 139.53100586 346.25000000 -0.696432 -0.347400 0.627930 0.000000
80.89849854 122.46099854 366.25000000 0.483092 0.172850 -0.858338 0.000000
92.40239716 83.86720276 337.50000000 0.445995 0.847235 -0.288585 0.000000
72.36329651 231.56300354 300.00000000 -0.439574 -0.636797 0.633454 0.000000
138.04699707 164.76600647 308.75000000 -0.282043 0.864423 0.416203 0.000000
177.75399780 167.73399353 377.50000000 -0.637710 -0.460289 -0.617624 0.000000
42.30469894 172.92999268 263.75000000 0.938978 0.340622 -0.047920 0.000000
201.13299561 142.50000000 336.25000000 -0.830933 -0.497943 0.248201 0.000000
62.34379959 214.12100220 255.00000000 0.085577 -0.916894 0.389850 0.000000
110.58599854 201.13299561 366.25000000 -0.000978 -0.000978 -0.999999 0.000000
228.96499634 112.81300354 342.50000000 -0.698557 -0.379686 0.606512 0.000000
203.36000061 117.26599884 386.25000000 -0.000978 -0.000978 -0.999999 0.000000
36.73830032 194.45300293 320.00000000 0.958392 0.001215 -0.285453 0.000000
163.65199280 120.97699738 300.00000000 -0.413221 -0.638915 0.648873 0.000000
66.42579651 200.39100647 227.50000000 -0.006790 -0.835152 0.549978 0.000000
92.03130341 218.20300293 298.75000000 -0.309854 -0.756173 0.576361 0.000000
161.79699707 116.52400208 386.25000000 -0.118519 0.123308 -0.985266 0.000000
63.82820129 207.07000732 351.25000000 0.729201 0.159181 -0.665528 0.000000
136.56300354 81.64070129 366.25000000 0.345286 0.312114 -0.885078 0.000000
168.47700500 125.43000031 306.25000000 -0.347336 -0.308242 0.885632 0.000000
118.75000000 187.77400208 276.25000000 -0.513641 -0.857876 0.014908 0.000000
158.82800293 185.54699707 366.25000000 -0.550880 -0.827046 -0.111920 0.000000
229.33599854 147.69500732 383.75000000 -0.795980 -0.128958 0.591427 0.000000
76.81649780 91.28910065 320.00000000 0.691826 0.691826 -0.206770 0.000000
224.88299561 88.32039642 378.75000000 -0.908474 0.052335 -0.414651 0.000000
236.75799561 85.72270203 365.00000000 -0.564583 0.668452 -0.484167 0.000000
67.53910065 249.00399780 317.50000000 0.279335 -0.950274 0.137663 0.000000
126.91400146 195.93800354 368.75000000 -0.334738 -0.742245 -0.580536 0.000000
123.20300293 220.80099487 327.50000000 -0.721084 -0.562676 0.404269 0.000000
207.07000732 121.34799957 327.50000000 -0.786696 -0.449309 0.423356 0.000000
38.96490097 191.48399353 277.50000000 0.958392 -0.001215 0.285453 0.000000
143.24200439 155.11700439 313.75000000 -0.397375 -0.259419 0.880224 0.000000
63.08599854 207.07000732 351.25000000 0.735965 0.111061 -0.667848 0.000000
62.34379959 229.33599854 341.25000000 0.740739 -0.185568 -0.645655 0.000000
112.81300354 237.50000000 336.25000000 -0.626446 -0.736902 0.254050 0.000000
164.02400208 148.43800354 388.75000000 -0.000978 -0.000978 -0.999999 0.000000
241.21099854 124.31600189 362.50000000 -0.670715 -0.526150 0.522788 0.000000
227.48100281 144.72700500 377.50000000 -0.661307 -0.648113 0.377654 0.000000
57.51959991 118.00800323 327.50000000 0.886229 0.443828 -0.132720 0.000000
123.94499969 161.79699707 276.25000000 -0.984782 0.033638 0.170510 0.000000
184.06300354 67.91020203 355.00000000 -0.001215 0.958392 -0.285453 0.000000
136.56300354 102.42199707 378.75000000 -0.014579 0.446636 -0.894597 0.000000
109.47299957 118.75000000 260.00000000 -0.980485 0.106495 0.165250 0.000000
56.03519821 133.59399414 252.50000000 0.925452 0.354458 -0.133784 0.000000
118.75000000 190.00000000 371.25000000 0.030979 -0.464690 -0.884931 0.000000
141.01600647 121.34799957 297.50000000 0.310605 -0.729036 0.609944 0.000000
166.99200439 122.46099854 303.75000000 -0.496448 -0.476524 0.725578 0.000000
89.06259918 135.82000732 373.75000000 0.611489 -0.032184 -0.790598 0.000000
62.34379959 215.23500061 348.75000000 0.574861 -0.378327 -0.725537 0.000000
126.17199707 218.94500732 358.75000000 0.054976 -0.221128 -0.973694 0.000000
88.32039642 194.45300293 241.25000000 -0.441817 -0.815048 0.374826 0.000000
162.53900146 112.81300354 386.25000000 -0.179217 0.174060 -0.968289 0.000000
194.45300293 136.56300354 388.75000000 -0.000978 -0.000978 -0.999999 0.000000
138.78900146 114.29699707 383.75000000 0.102116 0.530714 -0.841377 0.000000
221.17199707 71.62110138 347.50000000 -0.341152 0.921535 -0.185440 0.000000
126.91400146 89.43370056 367.50000000 0.314601 0.534981 -0.784106 0.000000
143.98399353 204.10200500 356.25000000 -0.893092 -0.392843 -0.219227 0.000000
84.60939789 213.00799561 283.75000000 -0.383405 -0.887649 0.255106 0.000000
146.95300293 152.14900208 313.75000000 0.000978 0.000978 0.999999 0.000000
126.17199707 225.99600220 342.50000000 -0.783957 -0.610398 0.113255 0.000000
100.19499969 216.71899414 361.25000000 -0.048068 -0.346871 -0.936680 0.000000
76.44539642 101.30899811 280.00000000 0.587986 0.742634 0.320573 0.000000
172.18800354 75.70320129 366.25000000 0.146225 0.691928 -0.707003 0.000000
175.89900208 170.33200073 377.50000000 -0.628460 -0.520628 -0.577914 0.000000
46.01570129 192.96899414 248.75000000 0.971186 -0.078342 0.225076 0.000000
87.94930267 191.48399353 365.00000000 0.519836 -0.188346 -0.833244 0.000000
97.22660065 218.94500732 361.25000000 0.241459 -0.355603 -0.902909 0.000000
71.99220276 224.88299561 351.25000000 0.725362 -0.506260 -0.466423 0.000000
148.43800354 122.08999634 297.50000000 -0.209171 -0.757664 0.618217 0.000000
155.85899353 180.35200500 321.25000000 -0.228493 0.081159 -0.970157 0.000000
103.53500366 195.19500732 265.00000000 -0.384184 -0.779716 0.494414 0.000000
102.42199707 215.23500061 361.25000000 0.027103 -0.365239 -0.930519 0.000000
177.38299561 131.36700439 313.75000000 -0.427310 -0.523000 0.737480 0.000000
116.15200043 81.64070129 352.50000000 0.299565 0.883640 -0.359779 0.000000
122.46099854 179.60899353 273.75000000 -0.889798 -0.422400 0.172734 0.000000
168.47700500 76.81649780 305.00000000 0.117655 0.992918 0.016494 0.000000
115.03900146 190.00000000 268.75000000 -0.516025 -0.703063 0.489305 0.000000
41.19139862 161.05499268 295.00000000 0.999999 0.000978 0.000978 0.000000
178.12500000 95.00009918 298.75000000 -0.171643 -0.330726 0.927987 0.000000
221.17199707 127.65599823 346.25000000 -0.410463 -0.639790 0.649761 0.000000
168.47700500 129.88299561 306.25000000 -0.096949 -0.142431 0.985045 0.000000
65.31250000 157.34399414 213.75000000 0.797346 0.309110 0.518354 0.000000
211.52400208 155.11700439 368.75000000 -0.419358 -0.873287 0.248008 0.000000
136.56300354 147.69500732 391.25000000 -0.000978 -0.000978 -0.999999 0.000000
233.04699707 108.73100281 345.00000000 -0.701966 -0.373176 0.606617 0.000000
173.67199707 182.20700073 362.50000000 -0.433668 -0.844020 -0.315536 0.000000
140.27400208 172.18800354 378.75000000 0.311776 -0.557999 -0.769047 0.000000
118.00800323 119.49199677 383.75000000 -0.000978 -0.000978 -0.999999 0.000000
39.70709991 171.44500732 312.50000000 0.957711 0.272708 -0.091764 0.000000
220.05900574 133.59399414 350.00000000 -0.607388 -0.556631 0.566782 0.000000
64.57039642 115.41000366 272.50000000 0.691826 0.691826 0.206770 0.000000
115.03900146 190.00000000 278.75000000 -0.687223 -0.696531 0.206322 0.000000
95.74220276 149.92199707 223.75000000 -0.716685 0.612676 0.333153 0.000000
112.06999969 115.78099823 291.25000000 -0.522850 -0.198532 0.828983 0.000000
111.32800293 191.85600281 272.50000000 -0.758619 -0.615893 0.212538 0.000000
83.86720276 96.85549927 277.50000000 0.432839 0.864160 -0.256666 0.000000
119.49199677 217.46099854 361.25000000 -0.468298 -0.646218 -0.602577 0.000000
177.01199341 161.79699707 382.50000000 0.281671 -0.281671 -0.917237 0.000000
136.93400574 127.65599823 300.00000000 0.017208 -0.443437 0.896140 0.000000
105.39099884 188.88699341 370.00000000 0.127907 -0.356215 -0.925608 0.000000
58.63290024 233.04699707 296.25000000 -0.098553 -0.731057 0.675161 0.000000
115.03900146 74.21880341 321.25000000 0.001215 0.958392 0.285453 0.000000
157.34399414 170.70300293 318.75000000 -0.560008 0.001356 0.828486 0.000000
141.01600647 79.41410065 306.25000000 -0.115778 0.570098 0.813378 0.000000
47.87110138 174.41400146 237.50000000 0.958392 0.001215 0.285453 0.000000
127.65599823 80.89849854 358.75000000 0.358672 0.808208 -0.467071 0.000000
238.61300659 80.89849854 337.50000000 -0.644249 0.509680 0.570236 0.000000
182.57800293 92.03130341 383.75000000 -0.000978 -0.000978 -0.999999 0.000000
54.17969894 191.48399353 348.75000000 0.617417 -0.094875 -0.780894 0.000000
106.13300323 195.93800354 268.75000000 -0.440129 -0.767362 0.466307 0.000000
86.83599854 204.10200500 258.75000000 -0.596123 -0.726068 0.342730 0.000000
134.33599854 195.19500732 301.25000000 -0.096027 -0.168959 0.980934 0.000000
73.47660065 123.20300293 238.75000000 0.273977 0.858667 0.433160 0.000000
134.33599854 116.89499664 385.00000000 -0.046486 0.584600 -0.809989 0.000000
92.77349854 164.76600647 371.25000000 0.289051 -0.073226 -0.954509 0.000000
101.30899811 185.54699707 242.50000000 -0.740196 -0.574262 0.349763 0.000000
195.93800354 133.59399414 323.75000000 -0.668762 -0.445285 0.595381 0.000000
187.03100586 166.99200439 363.75000000 -0.766925 -0.537654 -0.350363 0.000000
63.45709991 161.05499268 215.00000000 0.797346 0.309110 0.518354 0.000000
40.82030106 178.86700439 331.25000000 0.866812 0.200720 -0.456452 0.000000
54.55080032 123.94499969 330.00000000 0.957569 0.173983 -0.229763 0.000000
40.44919968 210.78100586 290.00000000 0.887928 -0.357867 0.288989 0.000000
160.31300354 114.29699707 298.75000000 -0.001376 -0.645448 0.763803 0.000000
96.85549927 210.78100586 292.50000000 -0.473016 -0.743311 0.473016 0.000000
104.64900208 177.75399780 240.00000000 -0.883951 -0.252771 0.393366 0.000000
88.69149780 161.05499268 215.00000000 -0.727704 -0.079888 0.681224 0.000000
54.92190170 165.50799561 346.25000000 0.350894 0.700155 -0.621816 0.000000
109.84400177 126.91400146 383.75000000 0.327237 0.066490 -0.942600 0.000000
61.60160065 172.18800354 353.75000000 0.759563 0.215909 -0.613553 0.000000
109.10199738 105.39099884 376.25000000 0.288861 0.604852 -0.742101 0.000000
223.02699280 74.96099854 357.50000000 -0.270655 0.897745 -0.347562 0.000000
129.14100647 95.74220276 291.25000000 -0.434129 -0.001304 0.900850 0.000000
162.53900146 141.75799561 388.75000000 -0.000978 -0.000978 -0.999999 0.000000
160.31300354 168.47700500 386.25000000 -0.012082 -0.868593 -0.495380 0.000000
123.20300293 225.62500000 333.75000000 -0.673041 -0.646840 0.358628 0.000000
155.11700439 144.72700500 313.75000000 -0.154100 -0.154100 0.975964 0.000000
131.36700439 129.88299561 301.25000000 -0.307526 -0.785547 0.536976 0.000000
227.11000061 140.64500427 387.50000000 -0.776939 0.204619 -0.595397 0.000000
244.17999268 137.30499268 381.25000000 0.704371 0.474576 -0.527862 0.000000
182.57800293 143.98399353 388.75000000 -0.000978 -0.000978 -0.999999 0.000000
110.58599854 103.90599823 376.25000000 0.265173 0.652612 -0.709775 0.000000
45.27349854 154.74600220 325.00000000 0.975790 0.162004 -0.146934 0.000000
61.97269821 231.56300354 340.00000000 0.433147 -0.351243 -0.830067 0.000000
198.16400146 121.71900177 318.75000000 -0.551530 -0.461552 0.694827 0.000000
236.01600647 87.94930267 377.50000000 -0.263640 0.064333 -0.962474 0.000000
123.94499969 117.26599884 386.25000000 0.235088 0.097847 -0.967036 0.000000
62.71490097 163.28100586 215.00000000 0.773061 0.380858 0.507271 0.000000
212.26600647 79.78520203 375.00000000 0.045939 0.839430 -0.541523 0.000000
50.46879959 137.30499268 331.25000000 0.926582 0.296563 -0.231291 0.000000
56.77740097 125.43000031 270.00000000 0.781204 0.607935 0.141901 0.000000
53.43750000 135.07800293 338.75000000 0.836228 0.102543 -0.538710 0.000000
130.99600220 201.87500000 365.00000000 0.020861 -0.621671 -0.783000 0.000000
238.24200439 140.27400208 383.75000000 0.213595 0.678203 -0.703148 0.000000
48.98440170 139.90199280 287.50000000 0.865793 0.499233 -0.034194 0.000000
86.83599854 199.64900208 363.75000000 0.396492 -0.387014 -0.832475 0.000000
123.94499969 104.64900208 378.75000000 0.020777 0.596986 -0.801983 0.000000
125.43000031 210.41000366 320.00000000 -0.590570 -0.590570 0.549958 0.000000
222.28500366 75.70320129 360.00000000 -0.270655 0.897745 -0.347562 0.000000
94.25789642 118.75000000 373.75000000 0.909000 0.371929 -0.188118 0.000000
87.57820129 182.57800293 366.25000000 -0.000978 -0.000978 -0.999999 0.000000
84.98049927 83.86720276 315.00000000 0.548624 0.835934 -0.015050 0.000000
64.94139862 186.28900146 355.00000000 0.638815 0.035255 -0.768552 0.000000
50.46879959 174.41400146 346.25000000 0.587634 -0.020740 -0.808861 0.000000
115.78099823 207.81300354 366.25000000 -0.182790 -0.729624 -0.658966 0.000000
73.47660065 217.46099854 353.75000000 0.790405 -0.526406 -0.313299 0.000000
232.30499268 98.71099854 383.75000000 -0.826077 0.241516 -0.509183 0.000000
163.28100586 100.19499969 383.75000000 0.160639 0.271332 -0.948986 0.000000
187.77400208 161.42599487 375.00000000 -0.136011 -0.965030 -0.224094 0.000000
120.60600281 215.23500061 362.50000000 -0.478523 -0.708614 -0.518539 0.000000
99.08209991 207.07000732 287.50000000 -0.348622 -0.905834 0.240681 0.000000
53.43750000 174.04299927 347.50000000 0.286367 0.859102 -0.424191 0.000000
83.86720276 141.01600647 371.25000000 0.470957 0.064912 -0.879765 0.000000
197.05099487 98.71099854 307.50000000 -0.437886 -0.233238 0.868249 0.000000
105.39099884 222.65600586 361.25000000 0.059272 -0.359583 -0.931229 0.000000
43.78910065 172.92999268 338.75000000 0.775274 -0.009674 -0.631551 0.000000
169.21899414 185.91799927 355.00000000 0.216690 -0.975705 0.032324 0.000000
127.65599823 162.16799927 285.00000000 -0.815088 0.239732 0.527410 0.000000
97.22660065 238.24200439 353.75000000 0.787896 0.590543 0.174582 0.000000
221.91400146 155.11700439 383.75000000 -0.039339 -0.201463 0.978706 0.000000
135.07800293 129.14100647 301.25000000 -0.128952 -0.603258 0.787052 0.000000
157.34399414 106.87500000 386.25000000 0.016829 0.384469 -0.922984 0.000000
86.09380341 137.30499268 371.25000000 0.406796 -0.152727 -0.900661 0.000000
41.19139862 162.53900146 292.50000000 0.999999 0.000978 0.000978 0.000000
222.65600586 123.94499969 388.75000000 -0.000978 -0.000978 -0.999999 0.000000
53.06639862 142.50000000 242.50000000 0.890412 0.398846 0.219292 0.000000
100.19499969 179.60899353 233.75000000 -0.672241 -0.501247 0.544834 0.000000
106.13300323 99.45320129 266.25000000 0.000978 0.000978 0.999999 0.000000
245.66400146 92.77349854 346.25000000 -0.699550 -0.315040 0.641389 0.000000
186.28900146 69.39459991 317.50000000 0.046456 0.812284 0.581409 0.000000
126.91400146 200.39100647 306.25000000 -0.528187 -0.778634 0.338746 0.000000
166.99200439 67.91020203 347.50000000 -0.001110 0.989041 -0.147635 0.000000
104.64900208 210.03900146 363.75000000 0.226632 -0.133389 -0.964803 0.000000
48.98440170 138.78900146 328.75000000 0.833327 0.521017 -0.184683 0.000000
62.34379959 219.68800354 346.25000000 0.519020 -0.401136 -0.754790 0.000000
101.68000031 103.16400146 371.25000000 0.552317 0.391703 -0.735877 0.000000
224.51199341 141.75799561 367.50000000 -0.554660 -0.737911 0.384499 0.000000
142.50000000 194.45300293 363.75000000 -0.114378 -0.280030 -0.953153 0.000000
184.80499268 109.84400177 383.75000000 -0.719467 0.004159 -0.694514 0.000000
70.87899780 121.71900177 242.50000000 0.454248 0.800953 0.390043 0.000000
230.07800293 149.17999268 383.75000000 -0.864160 0.432839 0.256666 0.000000
195.93800354 125.43000031 318.75000000 -0.530824 -0.317219 0.785874 0.000000
141.75799561 187.03100586 368.75000000 -0.217851 -0.946761 -0.237033 0.000000
164.39500427 183.32000732 347.50000000 0.581438 -0.777849 0.238499 0.000000
135.82000732 153.63299561 388.75000000 -0.001330 -0.490829 -0.871255 0.000000
126.91400146 159.19900513 290.00000000 -0.831058 -0.414740 -0.370585 0.000000
224.88299561 81.64070129 371.25000000 -0.150077 0.824678 -0.545328 0.000000
201.87500000 71.25000000 316.25000000 -0.564374 0.678253 0.470590 0.000000
174.41400146 139.53100586 316.25000000 -0.575445 -0.327214 0.749529 0.000000
101.68000031 151.40600586 378.75000000 0.286908 -0.026083 -0.957603 0.000000
123.57399750 181.83599854 280.00000000 -0.582794 -0.525360 0.619958 0.000000
58.63290024 133.59399414 346.25000000 0.860313 0.001338 -0.509765 0.000000
100.56600189 143.98399353 235.00000000 -0.801181 0.193810 0.566168 0.000000
146.95300293 187.03100586 311.25000000 -0.674654 -0.557468 0.483809 0.000000
153.63299561 148.43800354 313.75000000 0.000978 0.000978 0.999999 0.000000
112.81300354 236.75799561 336.25000000 -0.643614 -0.725443 0.243912 0.000000
207.07000732 110.95700073 320.00000000 -0.559869 -0.433608 0.706067 0.000000
252.71499634 108.35900116 367.50000000 -0.567725 0.377938 -0.731335 0.000000
200.76199341 98.71099854 310.00000000 -0.608722 -0.215299 0.763613 0.000000
71.99220276 109.84400177 356.25000000 0.730716 0.335384 -0.594618 0.000000
234.53100586 132.85200500 363.75000000 -0.367027 -0.802972 0.469603 0.000000
204.10200500 88.32039642 383.75000000 -0.000978 -0.000978 -0.999999 0.000000
77.18750000 187.03100586 361.25000000 0.551057 -0.109048 -0.827312 0.000000
83.86720276 85.35160065 308.75000000 0.443828 0.886229 0.132720 0.000000
89.80470276 229.33599854 306.25000000 -0.384253 -0.504231 0.773370 0.000000
86.46489716 169.96099854 215.00000000 -0.737313 -0.332196 0.588230 0.000000
118.00800323 124.68800354 383.75000000 -0.000978 -0.000978 -0.999999 0.000000
119.49199677 227.11000061 356.25000000 -0.655158 -0.326766 -0.681169 0.000000
87.57820129 241.21099854 313.75000000 -0.341879 -0.781667 0.521646 0.000000
169.21899414 177.38299561 373.75000000 -0.306536 -0.286003 -0.907875 0.000000
95.74220276 95.00009918 276.25000000 0.001215 0.958392 0.285453 0.000000
85.35160065 170.70300293 213.75000000 -0.668291 -0.333332 0.665039 0.000000
93.51570129 220.42999268 358.75000000 0.297230 -0.291374 -0.909261 0.000000
143.61300659 187.77400208 335.00000000 -0.967460 -0.252954 0.005994 0.000000
83.86720276 224.88299561 356.25000000 -0.001356 -0.560008 -0.828486 0.000000
42.30469894 218.94500732 293.75000000 0.902232 -0.376293 0.210666 0.000000
249.37500000 129.88299561 381.25000000 -0.115380 -0.087409 -0.989468 0.000000
78.67189789 221.54299927 355.00000000 0.485748 -0.489063 -0.724477 0.000000
249.74600220 120.97699738 375.00000000 -0.777196 0.508974 -0.370016 0.000000
107.61699677 216.71899414 363.75000000 0.176108 -0.246013 -0.953133 0.000000
225.62500000 86.83599854 378.75000000 -0.928748 0.159650 -0.334572 0.000000
172.92999268 154.37500000 388.75000000 -0.000978 -0.000978 -0.999999 0.000000
66.05470276 223.39900208 346.25000000 0.498743 -0.388272 -0.774920 0.000000
105.39099884 166.25000000 373.75000000 0.284647 -0.201336 -0.937251 0.000000
201.87500000 83.12509918 378.75000000 0.098152 0.951418 -0.291838 0.000000
116.52400208 186.28900146 373.75000000 -0.016573 -0.355681 -0.934460 0.000000
184.80499268 129.14100647 388.75000000 -0.114953 0.246698 -0.962250 0.000000
92.03130341 210.03900146 286.25000000 -0.397042 -0.877116 0.270230 0.000000
67.53910065 132.85200500 228.75000000 0.482673 0.597035 0.640762 0.000000
184.06300354 109.10199738 306.25000000 -0.349783 -0.264182 0.898810 0.000000
115.03900146 195.19500732 283.75000000 -0.562264 -0.692403 0.452147 0.000000
145.46899414 106.13300323 381.25000000 0.344186 0.663904 -0.663904 0.000000
166.99200439 70.13680267 335.00000000 0.409015 0.832242 0.374272 0.000000
43.78910065 214.49200439 273.75000000 0.391397 -0.655631 0.645722 0.000000
83.86720276 172.92999268 213.75000000 -0.726277 -0.265401 0.634102 0.000000
169.96099854 149.92199707 388.75000000 -0.000978 -0.000978 -0.999999 0.000000
123.57399750 164.02400208 275.00000000 -0.958392 -0.001215 0.285453 0.000000
189.25799561 123.20300293 386.25000000 -0.043753 0.111065 -0.992850 0.000000
171.44500732 162.16799927 387.50000000 -0.001356 -0.560008 -0.828486 0.000000
63.08599854 129.88299561 351.25000000 0.633448 -0.226790 -0.739804 0.000000
201.13299561 86.83599854 306.25000000 -0.431733 -0.490830 0.756764 0.000000
42.67580032 213.00799561 275.00000000 0.693883 -0.690778 -0.203353 0.000000
193.71099854 83.12509918 306.25000000 -0.456092 0.254740 0.852694 0.000000
144.72700500 184.06300354 366.25000000 -0.165924 -0.468404 0.867795 0.000000
65.68360138 124.68800354 245.00000000 0.585548 0.749180 0.309618 0.000000
154.37500000 131.36700439 306.25000000 -0.268379 -0.538328 0.798859 0.000000
116.89499664 149.17999268 382.50000000 0.000978 -0.999999 0.000978 0.000000
197.42199707 160.31300354 381.25000000 -0.524893 -0.840705 -0.133051 0.000000
42.67580032 162.53900146 272.50000000 0.971569 0.214927 0.099294 0.000000
115.78099823 101.68000031 286.25000000 -0.329740 -0.886836 0.323718 0.000000
135.07800293 103.16400146 378.75000000 -0.000978 -0.000978 -0.999999 0.000000
100.93800354 218.20300293 303.75000000 -0.333016 -0.696896 0.635166 0.000000
69.39459991 155.85899353 360.00000000 0.745961 -0.001379 -0.665988 0.000000
182.57800293 140.27400208 388.75000000 -0.000978 -0.000978 -0.999999 0.000000
83.86720276 143.24200439 371.25000000 0.447604 0.025386 -0.893872 0.000000
53.80860138 161.79699707 227.50000000 0.812361 0.141086 0.565831 0.000000
204.10200500 128.39900208 386.25000000 0.411331 0.573220 -0.708679 0.000000
148.43800354 105.39099884 293.75000000 0.000978 0.000978 0.999999 0.000000
88.32039642 85.72270203 300.00000000 0.446689 0.894688 0.001310 0.000000
51.21099854 156.60200500 238.75000000 0.790405 0.526406 0.313299 0.000000
151.03500366 187.77400208 362.50000000 0.769227 0.419727 -0.481788 0.000000
226.36700439 147.32400513 380.00000000 -0.620439 -0.689560 0.373580 0.000000
181.09399414 74.96099854 368.75000000 0.860313 0.001338 -0.509765 0.000000
109.47299957 121.71900177 280.00000000 -0.909731 0.381775 -0.163212 0.000000
245.66400146 105.39099884 371.25000000 -0.484710 -0.103765 -0.868498 0.000000
52.69530106 129.88299561 296.25000000 -0.001379 0.643838 0.765161 0.000000
141.01600647 158.82800293 388.75000000 0.526955 -0.437752 -0.728486 0.000000
108.35900116 240.09800720 335.00000000 -0.525096 -0.843336 0.114277 0.000000
37.48049927 207.81300354 297.50000000 0.940675 -0.250754 0.228588 0.000000
92.03130341 250.48800659 335.00000000 -0.576046 -0.766475 0.284056 0.000000
56.40629959 191.11300659 222.50000000 0.743109 -0.456411 0.489365 0.000000
178.86700439 143.98399353 388.75000000 -0.000978 -0.000978 -0.999999 0.000000
102.42199707 216.71899414 303.75000000 -0.355280 -0.699100 0.620512 0.000000
43.78910065 168.47700500 338.75000000 0.997665 -0.035137 -0.058561 0.000000
95.00009918 103.16400146 256.25000000 0.113506 0.898239 0.424597 0.000000
86.09380341 226.73800659 355.00000000 -0.015280 -0.626484 -0.779285 0.000000
53.06639862 240.46899414 322.50000000 0.790286 -0.596076 -0.141923 0.000000
172.92999268 147.32400513 320.00000000 -0.268645 -0.420422 0.866646 0.000000
158.82800293 146.21099854 388.75000000 -0.000978 -0.000978 -0.999999 0.000000
63.08599854 149.92199707 353.75000000 0.778673 -0.067399 -0.623799 0.000000
145.46899414 92.77349854 376.25000000 -0.000978 -0.000978 -0.999999 0.000000
207.07000732 89.80470276 383.75000000 -0.000978 -0.000978 -0.999999 0.000000
48.24219894 136.19099426 305.00000000 0.932449 0.167647 0.320053 0.000000
100.19499969 132.85200500 381.25000000 -0.516182 0.740466 -0.430427 0.000000
111.32800293 140.27400208 383.75000000 0.545357 -0.545357 -0.636531 0.000000
178.12500000 137.30499268 318.75000000 -0.578328 -0.288368 0.763139 0.000000
54.92190170 135.07800293 251.25000000 0.883813 0.424995 0.195586 0.000000
67.91020203 115.03900146 352.50000000 0.799927 0.144493 -0.582442 0.000000
77.92970276 193.33999634 227.50000000 -0.598970 -0.598970 0.531480 0.000000
135.82000732 204.10200500 363.75000000 -0.207593 -0.410769 -0.887792 0.000000
50.46879959 137.67599487 270.00000000 0.943200 0.277895 0.182069 0.000000
138.04699707 201.87500000 333.75000000 -0.743279 -0.466403 0.479588 0.000000
90.17579651 195.19500732 365.00000000 0.256178 -0.239380 -0.936520 0.000000
137.30499268 199.27699280 325.00000000 -0.841099 -0.495567 0.216716 0.000000
61.97269821 178.12500000 215.00000000 0.342444 -0.226851 0.911740 0.000000
63.08599854 216.71899414 263.75000000 -0.449751 -0.818452 0.357576 0.000000
38.22269821 173.67199707 302.50000000 0.964818 0.261126 0.030649 0.000000
198.16400146 90.54689789 308.75000000 -0.431157 -0.660886 0.614274 0.000000
191.48399353 147.69500732 331.25000000 -0.450417 -0.503213 0.737496 0.000000
52.32429886 144.72700500 340.00000000 0.789298 0.395456 -0.469705 0.000000
152.89100647 94.25789642 378.75000000 0.365535 0.598297 -0.713039 0.000000
103.16400146 243.06700134 332.50000000 -0.626479 -0.701330 0.340088 0.000000
198.90600586 77.92970276 376.25000000 -0.791785 0.220712 -0.569529 0.000000
232.30499268 90.54689789 378.75000000 -0.187332 0.124469 -0.974379 0.000000
120.23400116 75.70320129 343.75000000 0.432839 0.864160 -0.256666 0.000000
249.74600220 123.20300293 367.50000000 -0.253827 -0.487656 0.835322 0.000000
236.75799561 120.60600281 355.00000000 -0.477325 -0.349612 0.806184 0.000000
63.82820129 205.58599854 233.75000000 -0.012374 -0.815340 0.578850 0.000000
39.70709991 187.03100586 272.50000000 0.944239 -0.315627 0.093764 0.000000
213.75000000 141.01600647 388.75000000 -0.000978 -0.000978 -0.999999 0.000000
87.20709991 137.30499268 372.50000000 0.225113 -0.272652 -0.935406 0.000000
182.94900513 165.50799561 372.50000000 -0.789298 -0.395456 -0.469705 0.000000
170.70300293 80.15630341 376.25000000 0.149736 0.676080 -0.721454 0.000000
44.16019821 206.32800293 270.00000000 0.905219 -0.407139 -0.121722 0.000000
110.58599854 109.84400177 266.25000000 -0.958392 0.001215 0.285453 0.000000
166.99200439 96.48439789 293.75000000 -0.474476 -0.316843 0.821269 0.000000
75.70320129 114.29699707 361.25000000 0.611732 0.303458 -0.730546 0.000000
187.77400208 71.99220276 313.75000000 0.658105 0.470553 0.587773 0.000000
229.70700073 143.24200439 385.00000000 -0.917078 0.051910 -0.395315 0.000000
70.50789642 105.01999664 350.00000000 0.748255 0.448953 -0.488421 0.000000
190.00000000 71.99220276 311.25000000 0.658105 0.470553 0.587773 0.000000
63.08599854 199.64900208 226.25000000 -0.046850 -0.773740 0.631769 0.000000
118.37899780 132.85200500 385.00000000 0.306587 0.265902 -0.913948 0.000000
198.16400146 76.81649780 372.50000000 -0.513461 0.761226 -0.396098 0.000000
201.13299561 151.77699280 352.50000000 -0.573400 -0.680390 0.456379 0.000000
144.72700500 166.99200439 311.25000000 -0.462156 0.171658 0.870026 0.000000
75.70320129 103.16400146 353.75000000 0.578167 0.668663 -0.467561 0.000000
103.90599823 227.11000061 313.75000000 -0.369537 -0.645458 0.668451 0.000000
167.73399353 146.21099854 388.75000000 -0.000978 -0.000978 -0.999999 0.000000
56.77740097 141.75799561 237.50000000 0.560008 0.001356 0.828486 0.000000
129.14100647 83.12509918 363.75000000 0.236459 0.606024 -0.759488 0.000000
63.45709991 180.35200500 215.00000000 0.288750 -0.243233 0.925992 0.000000
43.78910065 197.42199707 261.25000000 0.949123 -0.196885 0.245767 0.000000
141.75799561 152.89100647 311.25000000 -0.450334 -0.117911 0.885040 0.000000
165.50799561 183.32000732 363.75000000 -0.108786 -0.828226 -0.549733 0.000000
