151.89500427 206.73399353 459.20001221 -0.377713 -0.261264 -0.888298 0.000000
241.84800720 185.42999268 423.50000000 -0.609218 -0.435633 0.662629 0.000000
84.03520203 174.38299561 435.39999390 0.945071 -0.077122 -0.317638 0.000000
229.61700439 98.63279724 425.95001221 -0.299371 0.448281 -0.842272 0.000000
155.44500732 176.35499573 397.60000610 -0.307028 -0.529743 0.790637 0.000000
79.69529724 252.89500427 380.79998779 0.802243 -0.547760 -0.237414 0.000000
130.98399353 183.06199646 351.75000000 -0.530692 -0.136716 0.836465 0.000000
143.60899353 163.33599854 458.14999390 -0.053511 0.348474 -0.935790 0.000000
159.78500366 134.92999268 367.50000000 -0.858807 0.501566 0.104314 0.000000
179.11700439 203.57800293 410.54998779 -0.908327 -0.326179 0.261820 0.000000
100.60500336 160.96899414 333.89999390 -0.619239 0.142440 0.772175 0.000000
243.03100586 133.35200500 433.64999390 -0.389504 0.255192 -0.884965 0.000000
160.96899414 149.52699280 449.39999390 -0.115513 0.346538 -0.930896 0.000000
119.14800262 97.44920349 380.10000610 0.475012 0.582435 -0.659646 0.000000
135.71899414 164.91400146 460.25000000 -0.421099 0.667434 -0.614172 0.000000
110.46900177 278.14498901 425.60000610 0.385247 -0.864120 -0.323853 0.000000
249.73800659 151.50000000 419.29998779 -0.571682 -0.193609 0.797305 0.000000
179.11700439 214.22999573 408.10000610 -0.705185 0.535141 0.465122 0.000000
89.16410065 133.74600220 389.89999390 0.796629 0.471540 -0.378197 0.000000
234.35200500 192.53100586 423.14999390 -0.087319 -0.896756 0.433825 0.000000
213.04699707 72.19920349 396.20001221 -0.156132 0.898120 -0.411101 0.000000
153.86700439 188.97999573 394.79998779 0.088433 0.610330 0.787196 0.000000
194.10899353 172.41000366 384.29998779 0.532930 0.840334 0.099116 0.000000
62.73049927 197.26600647 370.29998779 0.911599 -0.003890 -0.411062 0.000000
119.93800354 159.78500366 361.20001221 -0.779478 0.335899 0.528759 0.000000
100.21099854 114.80899811 381.50000000 0.717698 0.694959 -0.044057 0.000000
147.55499268 177.93400574 378.00000000 -0.473080 0.761184 -0.443615 0.000000
82.85160065 153.07800293 320.25000000 -0.664627 -0.032455 0.746470 0.000000
239.08599854 96.26560211 409.14999390 -0.533133 -0.105471 0.839431 0.000000
111.25800323 222.12100220 459.20001221 0.125131 -0.481826 -0.867287 0.000000
194.10899353 189.37500000 420.35000610 -0.019242 -0.932576 -0.360459 0.000000
112.83599854 110.86299896 401.79998779 0.700287 0.615006 -0.362444 0.000000
93.10939789 269.85900879 416.14999390 0.582705 -0.763709 -0.277857 0.000000
64.30860138 170.43800354 338.10000610 0.985072 -0.007972 0.171960 0.000000
180.69500732 149.13299561 447.64999390 0.167360 0.144710 -0.975218 0.000000
186.21899414 119.14800262 372.04998779 -0.414096 -0.038613 0.909414 0.000000
93.50389862 248.55499268 438.20001221 0.596329 -0.609843 -0.521999 0.000000
214.62500000 188.19099426 421.39999390 -0.084037 -0.991181 -0.102457 0.000000
245.39799500 158.60200500 417.54998779 -0.632837 -0.126567 0.763871 0.000000
194.10899353 112.83599854 437.14999390 0.169738 0.485598 -0.857545 0.000000
217.78100586 178.32800293 432.95001221 -0.086663 -0.280685 -0.955880 0.000000
159.39100647 75.75000000 372.75000000 0.563947 0.795706 -0.220944 0.000000
153.47300720 126.25000000 360.50000000 -0.943570 0.235548 0.232793 0.000000
179.90600586 92.32029724 417.54998779 0.186210 0.663279 -0.724836 0.000000
220.14799500 169.64799500 395.85000610 -0.626162 -0.278825 0.728133 0.000000
129.40600586 242.63699341 378.00000000 -0.528459 -0.257214 0.809056 0.000000
153.86700439 125.06600189 363.29998779 -0.887402 0.451387 0.093631 0.000000
82.85160065 247.37100220 421.39999390 0.917427 -0.228280 -0.325909 0.000000
154.26199341 127.03900146 371.70001221 -0.760584 0.626989 -0.168513 0.000000
181.08999634 194.89799500 389.89999390 0.408435 0.875649 -0.257721 0.000000
199.63299561 72.98829651 399.70001221 0.124730 0.875978 -0.465946 0.000000
141.24200439 110.46900177 421.75000000 0.182984 0.708869 -0.681191 0.000000
138.47999573 168.85899353 376.60000610 -0.636047 0.615908 0.464868 0.000000
70.62110138 150.71099854 341.60000610 0.917594 0.249205 -0.309706 0.000000
166.49200439 93.89839935 414.75000000 0.227769 0.509042 -0.830059 0.000000
121.51599884 131.37899780 343.70001221 -0.069939 -0.575215 0.815007 0.000000
136.90199280 115.20300293 424.89999390 0.297311 0.689441 -0.660513 0.000000
159.78500366 132.56199646 369.60000610 -0.816005 0.573061 0.075741 0.000000
236.71899414 187.00799561 432.25000000 0.081513 -0.435195 -0.896639 0.000000
155.44500732 84.82420349 397.60000610 0.379692 0.870699 -0.312598 0.000000
169.64799500 218.96499634 443.10000610 -0.550310 -0.424713 -0.718873 0.000000
118.75399780 185.42999268 345.10000610 -0.478051 -0.134316 0.868001 0.000000
102.57800293 228.82800293 453.95001221 0.305198 -0.261805 -0.915594 0.000000
185.82400513 193.32000732 437.50000000 -0.846548 -0.309106 -0.433370 0.000000
174.38299561 198.44900513 383.60000610 -0.468457 -0.636362 0.612855 0.000000
248.16000366 179.11700439 424.89999390 -0.659538 -0.322477 0.678984 0.000000
107.31199646 231.98399353 360.85000610 -0.561720 -0.255043 0.787034 0.000000
75.35549927 241.45300293 409.50000000 0.881457 -0.246928 -0.402567 0.000000
141.63699341 178.32800293 385.00000000 -0.685607 -0.727668 0.021031 0.000000
192.53100586 192.13699341 417.20001221 -0.219290 -0.851449 -0.476388 0.000000
87.58589935 187.79699707 445.54998779 0.768164 0.221914 -0.600565 0.000000
186.21899414 197.66000366 401.10000610 0.051276 -0.857829 -0.511371 0.000000
172.80499268 137.29699707 368.54998779 0.390822 -0.196137 0.899327 0.000000
157.81199646 187.00799561 386.75000000 0.348559 0.666027 -0.659481 0.000000
78.51170349 220.93800354 329.70001221 -0.169014 0.370696 0.913246 0.000000
189.37500000 100.60500336 427.70001221 0.268379 0.538328 -0.798859 0.000000
105.73400116 142.42599487 435.39999390 0.493440 0.634904 -0.594486 0.000000
74.17189789 239.47999573 373.10000610 0.876322 -0.479858 -0.042381 0.000000
119.14800262 101.39499664 392.70001221 0.604852 0.742101 -0.288861 0.000000
80.48439789 187.79699707 432.25000000 0.841614 -0.043124 -0.538355 0.000000
168.07000732 214.62500000 390.25000000 -0.852799 -0.291463 0.433339 0.000000
132.56199646 279.72299194 431.89999390 0.051735 -0.837544 -0.543914 0.000000
228.03900146 134.14100647 401.45001221 -0.754268 -0.202064 0.624700 0.000000
100.21099854 121.91000366 399.70001221 0.552716 0.552716 -0.623707 0.000000
174.38299561 135.32400513 391.29998779 0.439646 -0.433157 0.786820 0.000000
101.39499664 123.09400177 401.79998779 0.614159 0.610794 -0.499740 0.000000
66.28119659 170.83200073 324.10000610 0.976494 0.200212 0.079839 0.000000
195.68800354 190.16400146 421.04998779 -0.003791 -0.933859 -0.357621 0.000000
171.22700500 231.58999634 434.70001221 -0.867916 -0.433203 -0.243016 0.000000
86.79689789 158.60200500 323.75000000 -0.585689 0.064127 0.807995 0.000000
198.05499268 213.83599854 417.54998779 0.288852 -0.754845 -0.588875 0.000000
113.62500000 142.42599487 440.29998779 0.326043 0.653708 -0.682906 0.000000
220.93800354 100.21099854 395.85000610 -0.612798 -0.094612 0.784556 0.000000
94.68750000 198.44900513 455.00000000 0.640198 -0.091874 -0.762696 0.000000
75.75000000 174.77699280 415.10000610 0.881447 0.234158 -0.410149 0.000000
144.00399780 260.39099121 392.70001221 -0.487967 -0.335378 0.805860 0.000000
169.64799500 155.05099487 376.60000610 0.716571 -0.690086 0.101526 0.000000
76.14450073 243.03100586 357.00000000 0.785735 -0.610803 0.097670 0.000000
82.06250000 169.64799500 320.25000000 -0.673191 0.064869 0.736618 0.000000
172.80499268 94.68750000 360.85000610 -0.181317 -0.407600 0.894979 0.000000
72.19920349 204.36700439 411.60000610 0.910849 0.066317 -0.407378 0.000000
147.94900513 216.20300293 457.10000610 -0.330623 -0.249060 -0.910306 0.000000
75.35549927 214.62500000 418.60000610 0.964813 -0.087710 -0.247877 0.000000
152.28900146 107.31199646 374.14999390 -0.416632 -0.432718 0.799483 0.000000
173.19900513 206.73399353 446.60000610 -0.498455 -0.240792 -0.832803 0.000000
125.46099854 110.46900177 339.14999390 -0.433373 -0.117166 0.893566 0.000000
130.19500732 188.58599854 352.45001221 -0.508302 -0.154701 0.847170 0.000000
70.22660065 229.22300720 347.89999390 0.926688 -0.338624 0.163041 0.000000
93.10939789 200.42199707 453.25000000 0.650191 -0.046950 -0.758319 0.000000
107.31199646 280.51199341 405.29998779 0.541826 -0.801028 0.254518 0.000000
145.97700500 111.65200043 357.00000000 -0.957134 0.281660 0.067547 0.000000
201.60499573 109.68000031 381.50000000 -0.266143 -0.333782 0.904299 0.000000
85.21880341 137.69099426 388.50000000 0.680649 0.459898 -0.570273 0.000000
189.37500000 147.55499268 372.75000000 -0.346050 -0.089519 0.933935 0.000000
95.87110138 125.46099854 394.10000610 0.773113 0.604712 -0.191365 0.000000
251.31599426 119.14800262 424.20001221 -0.723666 0.322169 -0.610340 0.000000
63.51950073 192.53100586 363.29998779 0.972215 -0.062843 -0.225495 0.000000
133.35200500 252.10499573 447.29998779 -0.094763 -0.402398 -0.910547 0.000000
153.07800293 152.28900146 452.54998779 -0.138342 0.332842 -0.932780 0.000000
105.73400116 227.64500427 358.39999390 -0.607005 -0.232503 0.759926 0.000000
114.80899811 101.00000000 380.10000610 0.616887 0.786775 0.020888 0.000000
215.41400146 151.50000000 388.14999390 -0.716488 -0.035330 0.696704 0.000000
105.73400116 122.30500031 341.95001221 0.127700 -0.469191 0.873815 0.000000
101.78900146 173.59399414 455.35000610 0.479660 0.236023 -0.845115 0.000000
83.24610138 175.96099854 320.60000610 -0.699775 0.110958 0.705693 0.000000
136.50799561 108.10199738 346.14999390 -0.552061 0.037546 0.832958 0.000000
170.43800354 182.27299500 453.95001221 -0.424730 -0.110738 -0.898522 0.000000
86.79689789 226.06599426 437.50000000 0.752933 -0.202534 -0.626156 0.000000
93.89839935 123.48799896 377.29998779 0.864219 0.453827 -0.217178 0.000000
207.12899780 201.21099854 397.60000610 -0.911376 -0.193757 0.363115 0.000000
214.62500000 73.77729797 373.79998779 -0.647313 -0.506081 0.569972 0.000000
117.56999969 108.10199738 404.25000000 0.315475 0.629332 -0.710223 0.000000
204.36700439 123.88300323 382.54998779 -0.512508 0.132872 0.848340 0.000000
153.86700439 106.52300262 422.45001221 0.185324 0.632553 -0.752018 0.000000
214.62500000 188.19099426 419.29998779 -0.119767 -0.979126 0.164217 0.000000
107.31199646 155.05099487 348.60000610 -0.734880 0.603019 0.310354 0.000000
149.92199707 274.19900513 403.89999390 -0.897741 -0.196426 0.394307 0.000000
62.73049927 198.84399414 354.20001221 0.999999 0.000978 0.000978 0.000000
196.47700500 86.79689789 417.54998779 0.180518 0.848884 -0.496799 0.000000
198.44900513 204.36700439 406.00000000 0.735394 -0.205910 -0.645598 0.000000
226.85499573 80.48439789 392.70001221 -0.629332 -0.315475 0.710223 0.000000
67.46479797 164.91400146 348.60000610 0.960304 0.261667 -0.096675 0.000000
168.46499634 191.74200439 453.60000610 -0.492337 -0.213598 -0.843789 0.000000
189.77000427 173.59399414 444.50000000 -0.721653 -0.199343 -0.662932 0.000000
127.82800293 269.07000732 383.95001221 -0.609899 -0.064275 0.789869 0.000000
112.83599854 230.40600586 364.35000610 -0.461343 -0.347196 0.816466 0.000000
149.92199707 236.32400513 448.00000000 -0.375582 -0.350853 -0.857811 0.000000
175.17199707 127.03900146 439.25000000 0.084446 0.360569 -0.928902 0.000000
171.62100220 260.39099121 424.20001221 -0.959527 -0.250027 0.129595 0.000000
236.71899414 107.31199646 409.14999390 -0.486344 -0.053732 0.872113 0.000000
161.75799561 181.87899780 380.79998779 -0.156967 0.985468 -0.064911 0.000000
204.76199341 208.31199646 396.20001221 -0.843018 -0.305846 0.442468 0.000000
145.97700500 130.98399353 354.54998779 -0.529761 -0.114661 0.840361 0.000000
185.82400513 115.99199677 371.70001221 -0.408325 -0.024946 0.912495 0.000000
182.27299500 216.99200439 423.85000610 -0.033432 0.899994 -0.434618 0.000000
87.58589935 264.73001099 407.39999390 0.899204 -0.401405 -0.174086 0.000000
234.74600220 130.19500732 436.79998779 -0.192369 -0.034225 -0.980726 0.000000
165.70300293 185.82400513 389.20001221 0.160334 0.984572 0.070072 0.000000
104.15599823 106.91799927 366.10000610 0.720263 0.661148 -0.210012 0.000000
110.46900177 203.57800293 463.75000000 0.173380 -0.088509 -0.980870 0.000000
198.05499268 198.84399414 417.54998779 0.794627 -0.535544 -0.285939 0.000000
158.99600220 274.59399414 428.39999390 -0.421281 -0.657732 -0.624429 0.000000
111.25800323 141.24200439 437.85000610 0.370060 0.685845 -0.626635 0.000000
134.92999268 144.00399780 448.00000000 0.012023 0.474225 -0.880322 0.000000
126.25000000 98.63279724 338.45001221 -0.472439 -0.156505 0.867357 0.000000
100.21099854 108.49600220 356.29998779 0.705724 0.708486 -0.001381 0.000000
192.92599487 179.90600586 405.29998779 0.798124 0.306239 0.518860 0.000000
132.56199646 161.75799561 458.85000610 -0.315475 0.629332 -0.710223 0.000000
181.48399353 198.84399414 398.64999390 0.385247 0.864120 -0.323853 0.000000
184.64100647 217.78100586 425.25000000 -0.672558 0.322504 0.666076 0.000000
209.49600220 170.43800354 387.79998779 -0.561909 -0.378429 0.735561 0.000000
176.75000000 129.40600586 439.95001221 0.087190 0.358151 -0.929584 0.000000
241.45300293 134.92999268 435.04998779 -0.389504 0.255192 -0.884965 0.000000
66.67579651 220.14799500 347.20001221 0.920777 -0.280111 0.271493 0.000000
214.62500000 79.69529724 411.25000000 -0.001379 0.663079 -0.748548 0.000000
89.55860138 187.79699707 448.70001221 0.743117 0.130083 -0.656395 0.000000
86.79689789 182.27299500 323.75000000 -0.663079 0.001379 0.748548 0.000000
243.42599487 172.80499268 434.00000000 -0.174303 -0.058101 -0.982976 0.000000
114.41400146 94.29299927 355.60000610 0.530380 0.793195 -0.299229 0.000000
192.53100586 173.19900513 385.00000000 0.528597 0.843750 0.093113 0.000000
110.46900177 231.98399353 453.95001221 0.014561 -0.448754 -0.893537 0.000000
150.71099854 111.65200043 426.29998779 0.152710 0.678881 -0.718192 0.000000
117.56999969 162.54699707 353.85000610 -0.662771 0.694712 0.279482 0.000000
82.85160065 163.33599854 423.85000610 0.816566 -0.519069 0.252562 0.000000
134.14100647 289.98001099 406.70001221 -0.169019 -0.985371 0.021846 0.000000
82.85160065 255.65600586 355.95001221 0.510102 0.734613 0.447371 0.000000
155.44500732 185.82400513 366.10000610 -0.421584 0.510166 0.749665 0.000000
158.99600220 207.52299500 375.89999390 -0.541936 -0.336097 0.770289 0.000000
101.39499664 203.57800293 341.60000610 -0.494540 -0.432106 0.754132 0.000000
105.73400116 276.17199707 425.25000000 0.478935 -0.780907 -0.401006 0.000000
222.91000366 147.55499268 396.20001221 -0.711237 -0.001381 0.702951 0.000000
72.19920349 235.92999268 369.60000610 0.885355 -0.462458 -0.047746 0.000000
87.98049927 143.60899353 408.10000610 0.739885 0.563489 -0.367493 0.000000
70.62110138 164.12500000 371.00000000 0.969381 0.163061 -0.183605 0.000000
72.98829651 238.29699707 359.10000610 0.872908 -0.483092 -0.068218 0.000000
149.13299561 275.77700806 432.60000610 -0.383754 -0.620924 -0.683510 0.000000
155.44500732 243.42599487 443.10000610 -0.411895 -0.146800 -0.899329 0.000000
74.96089935 153.47300720 371.70001221 0.606502 0.336584 -0.720323 0.000000
249.34399414 112.04699707 414.75000000 -0.705688 0.308436 0.637865 0.000000
191.74200439 80.08979797 359.79998779 -0.552716 -0.552716 0.623707 0.000000
153.86700439 127.82800293 375.54998779 -0.818356 0.573822 -0.031956 0.000000
256.44500732 144.39799500 421.75000000 -0.602389 -0.058388 0.796064 0.000000
231.19500732 121.51599884 404.25000000 -0.851643 0.148048 0.502777 0.000000
62.73049927 196.47700500 369.60000610 0.962445 0.266581 0.051314 0.000000
221.72700500 119.14800262 437.85000610 -0.198040 0.206014 -0.958300 0.000000
239.87500000 159.39100647 413.35000610 -0.604398 -0.119697 0.787639 0.000000
135.71899414 101.78900146 409.85000610 0.395443 0.766476 -0.506102 0.000000
102.57800293 193.71499634 338.10000610 -0.535326 -0.300227 0.789487 0.000000
172.01600647 71.01560211 381.85000610 0.392365 0.874111 -0.286321 0.000000
114.41400146 231.98399353 365.75000000 -0.442847 -0.254143 0.859824 0.000000
70.22660065 202.39500427 320.60000610 0.730907 -0.465725 0.498873 0.000000
73.77729797 161.75799561 388.50000000 0.923544 0.356919 -0.140268 0.000000
188.19099426 187.79699707 436.79998779 -0.751122 -0.461849 -0.471711 0.000000
84.42970276 217.78100586 334.25000000 -0.711344 -0.354854 0.606686 0.000000
137.29699707 170.83200073 372.39999390 -0.451358 0.787854 0.419002 0.000000
160.57400513 158.60200500 382.89999390 -0.871255 -0.001330 -0.490829 0.000000
168.85899353 268.28100586 423.14999390 -0.916251 -0.400127 -0.019550 0.000000
175.17199707 130.19500732 386.04998779 0.284494 -0.523407 -0.803186 0.000000
153.07800293 262.75799561 399.35000610 -0.535454 -0.357508 0.765165 0.000000
158.20700073 276.96099854 427.00000000 -0.448953 -0.748255 -0.488421 0.000000
251.71099854 149.92199707 430.14999390 -0.325122 0.146785 -0.934211 0.000000
160.17999268 144.79299927 384.29998779 -0.878490 0.259793 -0.400952 0.000000
189.77000427 88.37500000 416.50000000 0.230426 0.732033 -0.641117 0.000000
144.39799500 154.26199341 361.89999390 0.117160 -0.734106 0.668852 0.000000
67.46479797 202.00000000 326.20001221 0.960040 -0.217891 0.175633 0.000000
118.35900116 224.09399414 365.04998779 -0.474476 -0.316843 0.821269 0.000000
127.03900146 102.18399811 403.89999390 0.355251 0.289297 -0.888878 0.000000
173.59399414 183.45700073 399.00000000 0.287450 0.776591 0.560606 0.000000
236.71899414 110.46900177 429.45001221 -0.353909 0.397563 -0.846576 0.000000
160.96899414 88.37500000 407.04998779 0.344932 0.662073 -0.665343 0.000000
150.71099854 148.34399414 359.45001221 -0.355889 -0.149334 0.922520 0.000000
198.84399414 65.09770203 373.10000610 -0.057935 0.991706 -0.114733 0.000000
97.05470276 155.05099487 332.50000000 -0.695711 0.297244 0.653936 0.000000
222.12100220 151.50000000 395.50000000 -0.711237 -0.001381 0.702951 0.000000
117.56999969 161.75799561 355.95001221 -0.901330 0.328963 0.281758 0.000000
98.23829651 183.85200500 455.70001221 0.601978 0.263859 -0.753658 0.000000
113.62500000 205.55099487 350.70001221 -0.552716 -0.552716 0.623707 0.000000
179.11700439 130.58999634 441.00000000 0.168932 0.330883 -0.928428 0.000000
250.13299561 153.47300720 420.00000000 -0.571682 -0.193609 0.797305 0.000000
63.51950073 220.14799500 381.50000000 0.915674 -0.102962 -0.388509 0.000000
184.24600220 144.39799500 371.00000000 -0.351669 -0.050986 0.934735 0.000000
143.60899353 264.33599854 440.64999390 -0.075010 -0.525067 -0.847749 0.000000
175.96099854 184.24600220 386.39999390 0.364628 0.879042 0.307135 0.000000
179.11700439 145.18800354 369.25000000 -0.331232 -0.058453 0.941737 0.000000
62.73049927 195.68800354 349.29998779 0.994423 -0.043140 0.096235 0.000000
123.48799896 97.84380341 392.70001221 0.592402 0.784286 -0.184269 0.000000
154.65600586 203.97300720 458.50000000 -0.703083 -0.608028 -0.368750 0.000000
147.55499268 181.48399353 396.54998779 -0.387542 -0.085667 0.917863 0.000000
109.68000031 250.52699280 445.20001221 0.284622 -0.377990 -0.880973 0.000000
219.35899353 79.30079651 410.89999390 -0.001321 0.463513 -0.886089 0.000000
89.95310211 187.00799561 448.35000610 0.743117 0.130083 -0.656395 0.000000
86.00779724 151.10499573 417.20001221 0.840038 0.447293 -0.307027 0.000000
183.85200500 196.08200073 394.10000610 0.280870 0.869938 -0.405364 0.000000
158.99600220 220.14799500 449.39999390 -0.536401 -0.289562 -0.792734 0.000000
175.96099854 193.71499634 382.89999390 -0.457825 -0.431757 0.777163 0.000000
113.62500000 145.97700500 356.64999390 -0.391273 -0.136034 0.910165 0.000000
86.40229797 261.96899414 409.50000000 0.822132 -0.505090 -0.262647 0.000000
81.66799927 221.72700500 430.50000000 0.853595 -0.119879 -0.506957 0.000000
124.27700043 171.22700500 348.60000610 -0.593995 0.434265 0.677188 0.000000
115.20300293 183.85200500 464.45001221 0.254774 -0.050955 -0.965657 0.000000
168.07000732 262.36300659 413.00000000 -0.719334 -0.456852 0.523303 0.000000
100.21099854 231.19500732 355.25000000 -0.586853 -0.245696 0.771516 0.000000
77.72270203 244.60899353 349.29998779 0.788078 -0.615119 -0.023712 0.000000
92.71479797 130.98399353 399.00000000 0.850038 0.436590 -0.294659 0.000000
65.09770203 209.89100647 341.60000610 0.971959 -0.133058 0.193885 0.000000
72.98829651 182.27299500 407.39999390 0.955035 0.216260 -0.202827 0.000000
132.56199646 120.72699738 428.75000000 0.417957 0.715318 -0.560029 0.000000
86.00779724 240.66400146 344.04998779 -0.672678 -0.176214 0.718647 0.000000
117.56999969 280.51199341 426.29998779 0.249194 -0.845424 -0.472398 0.000000
152.28900146 124.27700043 436.79998779 -0.001379 0.663079 -0.748548 0.000000
123.09400177 115.20300293 339.14999390 -0.344493 -0.204409 0.916265 0.000000
171.62100220 157.81199646 378.70001221 0.309025 -0.947937 0.076930 0.000000
66.28119659 225.27699280 369.60000610 0.833677 -0.500206 0.234042 0.000000
78.11720276 250.13299561 372.04998779 0.971663 -0.230999 0.050111 0.000000
229.61700439 129.40600586 437.85000610 -0.176909 0.021969 -0.983982 0.000000
105.73400116 131.37899780 347.20001221 -0.190928 -0.578895 0.792734 0.000000
89.95310211 222.12100220 342.29998779 -0.713280 -0.216950 0.666457 0.000000
233.95700073 169.64799500 409.50000000 -0.736922 -0.117137 0.665751 0.000000
189.37500000 63.12500000 367.85000610 0.074162 0.995106 -0.065307 0.000000
69.04299927 156.23399353 340.89999390 0.925063 0.338301 -0.172660 0.000000
186.21899414 72.19920349 352.79998779 -0.194273 -0.245898 0.949627 0.000000
97.44920349 175.96099854 453.60000610 0.611129 0.325827 -0.721359 0.000000
211.86300659 179.90600586 387.10000610 -0.808907 0.049410 0.585857 0.000000
189.37500000 207.52299500 435.04998779 -0.592739 -0.141839 -0.792807 0.000000
100.21099854 246.97700500 357.35000610 -0.612798 -0.094612 0.784556 0.000000
132.56199646 190.16400146 353.85000610 -0.451504 -0.090860 0.887631 0.000000
133.35200500 87.98049927 363.29998779 0.372047 0.928213 -0.001270 0.000000
142.03100586 197.26600647 463.75000000 -0.213630 -0.184439 -0.959346 0.000000
207.52299500 163.72999573 384.29998779 -0.001257 -0.936483 0.350710 0.000000
63.51950073 178.32800293 345.10000610 0.999999 0.000978 0.000978 0.000000
95.87110138 217.78100586 346.50000000 -0.632107 -0.438639 0.638778 0.000000
148.34399414 172.01600647 385.35000610 -0.448875 -0.754703 0.478472 0.000000
198.05499268 214.22999573 399.00000000 -0.191119 -0.866703 0.460760 0.000000
102.57800293 154.65600586 338.45001221 -0.744307 0.457146 0.486852 0.000000
87.58589935 157.81199646 427.35000610 0.813615 0.394819 -0.426788 0.000000
67.46479797 160.17999268 343.70001221 0.900992 0.402510 -0.161863 0.000000
151.50000000 149.13299561 360.14999390 -0.355889 -0.149334 0.922520 0.000000
254.47300720 175.17199707 433.29998779 -0.779512 -0.181530 -0.599507 0.000000
73.77729797 158.60200500 373.10000610 0.958157 0.249094 -0.141022 0.000000
188.58599854 192.92599487 427.00000000 0.250035 -0.399757 0.881860 0.000000
84.03520203 143.60899353 321.29998779 -0.610430 0.168133 0.774019 0.000000
112.83599854 133.35200500 429.45001221 0.467089 0.678032 -0.567538 0.000000
78.11720276 249.34399414 389.54998779 0.818938 -0.539375 0.195998 0.000000
198.84399414 214.22999573 408.79998779 0.037933 -0.967914 -0.248403 0.000000
63.51950073 211.46899414 368.89999390 0.999999 0.000978 0.000978 0.000000
71.80470276 234.35200500 404.95001221 0.846718 -0.114343 -0.519610 0.000000
157.81199646 77.32810211 374.85000610 -0.315475 0.629332 -0.710223 0.000000
228.82800293 156.62899780 436.10000610 -0.035367 -0.142611 -0.989147 0.000000
151.50000000 118.75399780 364.70001221 -0.979720 0.161033 0.119238 0.000000
63.51950073 190.16400146 364.70001221 0.972215 -0.062843 -0.225495 0.000000
67.46479797 197.26600647 394.79998779 0.985368 -0.001129 -0.170436 0.000000
102.57800293 121.51599884 341.95001221 0.000978 0.000978 0.999999 0.000000
88.37500000 173.98800659 441.00000000 0.956866 0.075576 -0.280527 0.000000
159.78500366 276.96099854 422.79998779 -0.830715 -0.461509 -0.311323 0.000000
91.92579651 129.40600586 338.10000610 -0.800536 0.240938 0.548717 0.000000
174.38299561 82.06250000 404.95001221 0.122828 0.788763 -0.602301 0.000000
179.90600586 92.32029724 361.54998779 -0.443690 -0.392433 0.805690 0.000000
110.46900177 235.53500366 452.20001221 0.194470 -0.461681 -0.865466 0.000000
259.60198975 154.65600586 428.04998779 -0.900059 -0.229771 -0.370268 0.000000
187.00799561 153.86700439 446.95001221 -0.363595 -0.062142 -0.929482 0.000000
134.53500366 234.35200500 378.00000000 -0.446582 -0.345588 0.825308 0.000000
83.24610138 248.55499268 422.10000610 0.938417 -0.221049 -0.265537 0.000000
168.85899353 81.27339935 402.14999390 0.108264 0.890012 -0.442897 0.000000
201.21099854 180.69500732 406.35000610 0.201723 -0.464710 0.862179 0.000000
195.29299927 71.80470276 394.10000610 0.170779 0.931647 -0.320731 0.000000
76.93360138 246.18800354 374.50000000 0.968711 -0.201441 0.144986 0.000000
95.47660065 185.42999268 453.95001221 0.663898 0.133379 -0.735833 0.000000
234.35200500 130.98399353 437.14999390 -0.192369 -0.034225 -0.980726 0.000000
249.73800659 103.36699677 417.89999390 -0.940997 0.332808 0.061341 0.000000
140.05900574 235.92999268 381.50000000 -0.451891 -0.335376 0.826630 0.000000
179.90600586 165.70300293 392.35000610 0.315475 -0.629332 0.710223 0.000000
83.24610138 249.34399414 420.00000000 0.957348 -0.174426 -0.230349 0.000000
191.34800720 82.85160065 361.89999390 -0.552716 -0.552716 0.623707 0.000000
134.14100647 149.52699280 359.10000610 0.133054 -0.659292 0.740021 0.000000
220.93800354 150.71099854 437.85000610 -0.315475 0.629332 -0.710223 0.000000
173.59399414 66.28119659 362.95001221 0.277016 0.955902 -0.097541 0.000000
173.59399414 204.36700439 446.95001221 -0.473464 -0.195659 -0.858807 0.000000
108.49600220 116.78099823 402.50000000 0.644037 0.650660 -0.402316 0.000000
174.38299561 144.39799500 393.04998779 0.909116 -0.390426 0.145177 0.000000
93.10939789 159.39100647 438.54998779 0.665456 0.431963 -0.608750 0.000000
206.33999634 198.84399414 394.79998779 -0.925206 -0.228814 0.302717 0.000000
140.45300293 174.77699280 367.50000000 -0.500851 0.787511 0.359131 0.000000
68.25389862 175.17199707 376.60000610 0.952907 0.302688 0.018684 0.000000
180.69500732 220.54299927 403.89999390 -0.748539 0.465575 0.472155 0.000000
220.54299927 129.40600586 393.39999390 -0.663079 0.001379 0.748548 0.000000
86.79689789 132.95700073 378.00000000 0.867916 0.433203 0.243016 0.000000
98.23829651 235.14100647 354.89999390 -0.616317 -0.171960 0.768494 0.000000
67.46479797 224.09399414 393.39999390 0.969488 -0.126123 -0.210204 0.000000
82.06250000 172.01600647 430.14999390 0.927148 0.174802 -0.331424 0.000000
158.20700073 80.48439789 389.89999390 0.555516 0.775176 -0.300838 0.000000
184.64100647 71.41020203 390.60000610 0.127443 0.833509 -0.537606 0.000000
170.83200073 195.68800354 380.10000610 -0.613000 -0.318631 0.722984 0.000000
97.05470276 134.53500366 413.00000000 0.660847 0.600618 -0.450045 0.000000
158.20700073 211.46899414 454.29998779 -0.423932 -0.182101 -0.887198 0.000000
123.09400177 111.65200043 414.39999390 0.542624 0.566290 -0.620383 0.000000
101.78900146 274.98800659 421.39999390 0.555611 -0.756473 -0.345029 0.000000
100.21099854 151.50000000 438.54998779 0.572600 0.599625 -0.559087 0.000000
65.49220276 218.96499634 350.00000000 0.919700 -0.364251 0.146538 0.000000
160.17999268 160.17999268 371.35000610 -0.476856 -0.674291 0.563861 0.000000
172.01600647 183.85200500 398.64999390 0.314150 0.928362 0.198633 0.000000
83.64060211 205.94500732 439.25000000 0.845468 -0.123691 -0.519504 0.000000
76.53910065 246.58200073 387.10000610 0.857075 -0.514788 0.020374 0.000000
157.81199646 130.58999634 369.60000610 -0.794268 0.606557 -0.035021 0.000000
107.31199646 213.83599854 352.45001221 -0.438586 -0.461412 0.771194 0.000000
154.26199341 239.87500000 391.29998779 -0.367747 -0.450530 0.813501 0.000000
114.41400146 205.55099487 351.39999390 -0.552716 -0.552716 0.623707 0.000000
218.17599487 157.02299500 391.29998779 -0.663079 -0.001379 0.748548 0.000000
158.60200500 139.66400146 362.25000000 -0.563413 -0.115609 0.818047 0.000000
158.99600220 183.85200500 372.39999390 -0.537327 0.741084 0.402584 0.000000
106.52300262 211.46899414 460.95001221 0.400348 -0.106667 -0.910134 0.000000
151.89500427 116.78099823 368.20001221 -0.978319 0.140114 0.152514 0.000000
105.73400116 279.72299194 405.29998779 0.554795 -0.782403 0.282929 0.000000
170.04299927 190.95300293 373.10000610 -0.748302 -0.320241 0.580939 0.000000
136.50799561 286.03500366 399.00000000 -0.502238 -0.757448 0.417169 0.000000
166.49200439 185.03500366 389.89999390 0.088532 0.994023 0.063877 0.000000
122.30500031 119.93800354 339.85000610 -0.350740 -0.234312 0.906686 0.000000
109.28500366 108.10199738 388.50000000 0.750417 0.601285 -0.274465 0.000000
111.25800323 126.25000000 419.64999390 0.512332 0.660152 -0.549287 0.000000
117.96499634 98.63279724 380.10000610 0.628167 0.777929 -0.015254 0.000000
149.52699280 212.25799561 373.79998779 -0.392993 -0.520185 0.758264 0.000000
110.07399750 157.02299500 347.89999390 -0.533405 0.802453 0.267484 0.000000
135.71899414 182.27299500 355.25000000 -0.562093 0.049060 0.825618 0.000000
78.51170349 149.92199707 384.29998779 0.922062 0.367998 -0.119909 0.000000
95.08200073 205.15600586 455.00000000 0.663079 0.001379 -0.748548 0.000000
110.46900177 235.14100647 452.54998779 0.194470 -0.461681 -0.865466 0.000000
207.91799927 198.84399414 398.29998779 -0.897002 -0.212178 0.387774 0.000000
134.92999268 270.25399780 438.20001221 0.114585 -0.535215 -0.836908 0.000000
145.18800354 140.84800720 446.60000610 0.138146 0.487148 -0.862324 0.000000
144.00399780 123.88300323 435.39999390 0.177730 0.596989 -0.782314 0.000000
114.41400146 107.70700073 399.00000000 0.685260 0.629387 -0.366458 0.000000
106.12899780 108.89099884 380.10000610 0.706003 0.706003 -0.055850 0.000000
91.53119659 187.40199280 450.10000610 0.725515 0.152979 -0.670988 0.000000
142.82000732 127.03900146 351.75000000 -0.428111 -0.255656 0.866811 0.000000
71.41020203 234.35200500 370.29998779 0.881777 -0.355433 0.310059 0.000000
70.22660065 148.73800659 329.70001221 0.975092 0.221772 0.003520 0.000000
82.45700073 213.83599854 434.00000000 0.916671 -0.030249 -0.398496 0.000000
177.53900146 159.78500366 390.60000610 0.918250 -0.246500 0.309927 0.000000
91.53119659 260.39099121 353.85000610 0.369808 -0.616347 0.695240 0.000000
210.67999268 183.45700073 408.10000610 -0.222216 -0.907745 0.355836 0.000000
193.32000732 143.60899353 444.85000610 -0.051229 -0.021955 -0.998446 0.000000
146.76600647 284.06201172 409.85000610 -0.621069 -0.705835 0.340691 0.000000
239.87500000 89.55860138 410.20001221 -0.572580 0.626629 0.528666 0.000000
199.63299561 145.18800354 377.64999390 -0.418466 -0.063650 0.905999 0.000000
88.76950073 127.82800293 367.50000000 0.812659 0.556347 -0.173387 0.000000
114.01999664 99.42189789 371.70001221 0.549362 0.831891 -0.078480 0.000000
193.71499634 86.00779724 366.79998779 -0.454988 -0.564985 0.688315 0.000000
109.68000031 257.62899780 367.50000000 -0.616830 -0.058407 0.784927 0.000000
253.28900146 142.82000732 419.64999390 -0.582373 0.091041 0.807808 0.000000
123.09400177 233.56199646 455.35000610 0.091781 -0.395891 -0.913699 0.000000
157.41799927 258.02301025 399.70001221 -0.521767 -0.263220 0.811464 0.000000
133.74600220 228.03900146 375.20001221 -0.523845 -0.239516 0.817446 0.000000
164.12500000 203.18400574 453.60000610 -0.508965 -0.283454 -0.812778 0.000000
133.74600220 178.32800293 464.10000610 -0.115218 0.208912 -0.971123 0.000000
240.66400146 100.21099854 423.14999390 -0.477286 0.447763 -0.756113 0.000000
142.03100586 175.56599426 366.79998779 -0.535448 0.773425 0.339278 0.000000
76.53910065 251.71099854 401.45001221 0.827803 -0.558872 -0.049024 0.000000
233.95700073 115.99199677 407.39999390 -0.509765 0.001338 0.860313 0.000000
224.88299561 129.40600586 438.54998779 -0.149339 0.028500 -0.988375 0.000000
147.16000366 194.89799500 463.39999390 -0.147000 -0.137117 -0.979587 0.000000
73.38279724 150.31599426 357.00000000 0.446689 0.894688 -0.001310 0.000000
218.17599487 166.49200439 436.10000610 -0.169235 -0.187321 -0.967611 0.000000
205.94500732 72.19920349 398.29998779 0.189331 0.740394 -0.644958 0.000000
100.60500336 114.41400146 380.10000610 0.708486 0.705724 -0.001381 0.000000
130.19500732 263.54699707 383.95001221 -0.531672 -0.229621 0.815230 0.000000
89.95310211 265.12500000 419.64999390 0.737313 -0.588230 -0.332196 0.000000
141.24200439 107.70700073 418.60000610 0.156000 0.716388 -0.680038 0.000000
251.71099854 136.50799561 428.04998779 -0.454952 0.039150 -0.889655 0.000000
144.79299927 181.48399353 362.60000610 -0.741929 -0.070866 0.666723 0.000000
236.71899414 121.51599884 433.64999390 -0.410961 0.194512 -0.890660 0.000000
164.12500000 124.27700043 436.79998779 0.113665 0.499263 -0.858963 0.000000
124.67199707 246.97700500 449.75000000 0.019270 -0.363557 -0.931373 0.000000
240.27000427 164.91400146 414.39999390 -0.615679 -0.110205 0.780252 0.000000
198.84399414 205.94500732 411.95001221 0.984394 0.057767 0.166227 0.000000
136.50799561 113.62500000 423.14999390 0.269482 0.671313 -0.690448 0.000000
206.33999634 199.63299561 421.39999390 -0.516807 0.045723 -0.854880 0.000000
192.13699341 161.75799561 378.00000000 -0.251317 -0.687566 0.681244 0.000000
96.26560211 162.15199280 444.50000000 0.713576 0.369091 -0.595467 0.000000
107.31199646 258.81201172 440.64999390 0.332967 -0.456054 -0.825316 0.000000
180.69500732 118.75399780 436.79998779 0.273862 0.273862 -0.921954 0.000000
126.25000000 273.01599121 382.54998779 -0.608965 -0.006873 0.793167 0.000000
200.42199707 130.58999634 378.70001221 -0.500991 0.164041 0.849764 0.000000
177.53900146 80.08979797 403.20001221 0.174476 0.790452 -0.587149 0.000000
102.57800293 265.12500000 362.25000000 -0.482122 -0.205765 0.851598 0.000000
85.21880341 157.41799927 322.70001221 -0.360738 -0.300363 0.882978 0.000000
91.53119659 231.98399353 444.14999390 0.940612 -0.029354 -0.338212 0.000000
126.25000000 249.34399414 449.04998779 0.035328 -0.378142 -0.925073 0.000000
239.08599854 185.42999268 420.35000610 -0.627784 -0.405823 0.664225 0.000000
248.16000366 174.38299561 423.50000000 -0.568439 -0.224588 0.791478 0.000000
62.73049927 189.37500000 361.89999390 0.990210 0.096351 -0.100994 0.000000
73.77729797 215.41400146 410.89999390 0.931149 -0.006352 -0.364584 0.000000
171.22700500 179.90600586 453.95001221 -0.403876 -0.030258 -0.914313 0.000000
73.77729797 190.95300293 413.00000000 0.963072 -0.038424 -0.266487 0.000000
142.03100586 155.05099487 363.29998779 0.133140 -0.731522 0.668692 0.000000
134.92999268 263.54699707 442.04998779 -0.053499 -0.473257 -0.879298 0.000000
122.69899750 251.71099854 376.60000610 -0.574005 -0.103176 0.812326 0.000000
83.24610138 259.60198975 396.89999390 0.639430 -0.741615 0.202822 0.000000
226.46099854 188.19099426 416.50000000 0.165958 -0.741480 0.650127 0.000000
199.63299561 74.96089935 401.45001221 0.204732 0.774287 -0.598803 0.000000
167.28100586 216.20300293 446.25000000 -0.497016 -0.431403 -0.752905 0.000000
94.68750000 117.96499634 363.29998779 0.708486 0.705724 0.001381 0.000000
130.98399353 181.48399353 465.14999390 -0.096785 0.180094 -0.978876 0.000000
90.34770203 130.98399353 391.29998779 0.828805 0.483599 -0.281451 0.000000
88.37500000 179.11700439 444.14999390 0.867368 0.168777 -0.468173 0.000000
84.03520203 197.26600647 325.50000000 -0.624700 -0.202064 0.754268 0.000000
224.88299561 183.06199646 431.54998779 0.087651 -0.443822 -0.891818 0.000000
94.68750000 250.92199707 353.14999390 -0.686659 -0.064779 0.724087 0.000000
65.88670349 213.04699707 340.20001221 0.958157 -0.249094 0.141022 0.000000
100.60500336 141.24200439 343.70001221 -0.813549 0.203006 0.544910 0.000000
120.72699738 183.06199646 465.85000610 0.254774 -0.050955 -0.965657 0.000000
125.85500336 93.89839935 382.89999390 0.412755 0.910683 0.017034 0.000000
182.66799927 178.32800293 399.00000000 0.046986 0.693395 0.719024 0.000000
100.60500336 268.28100586 431.89999390 0.724644 -0.543071 -0.424222 0.000000
225.27699280 93.89839935 398.29998779 -0.675597 -0.219998 0.703682 0.000000
77.32810211 151.89500427 382.89999390 0.922062 0.367998 -0.119909 0.000000
174.38299561 184.24600220 386.39999390 0.330449 0.892662 0.306525 0.000000
205.94500732 203.57800293 395.85000610 -0.912815 -0.245256 0.326524 0.000000
171.22700500 179.11700439 453.95001221 -0.403876 -0.030258 -0.914313 0.000000
66.67579651 203.57800293 389.20001221 0.973901 0.101006 -0.203260 0.000000
115.59799957 276.96099854 375.89999390 -0.615319 -0.250219 0.747511 0.000000
145.97700500 86.40229797 386.39999390 0.996817 -0.037799 0.070198 2.000000
145.18800354 112.83599854 425.25000000 0.716963 0.554694 -0.422230 2.000000
147.94900513 93.10939789 405.29998779 0.974736 -0.172308 0.142123 2.000000
147.55499268 97.44920349 410.20001221 0.974736 -0.172308 0.142123 2.000000
145.18800354 105.73400116 418.25000000 0.974736 -0.172308 0.142123 2.000000
149.13299561 86.40229797 391.29998779 0.974736 -0.172308 0.142123 2.000000
144.79299927 107.31199646 419.29998779 0.974736 -0.172308 0.142123 2.000000
146.76600647 115.59799957 429.10000610 0.716963 0.554694 -0.422230 2.000000
149.52699280 85.21880341 377.29998779 0.976311 0.211192 -0.047066 2.000000
149.13299561 115.59799957 429.10000610 0.092045 0.764121 -0.638472 2.000000
147.94900513 111.25800323 424.89999390 0.716963 0.554694 -0.422230 2.000000
146.76600647 97.84380341 409.85000610 0.974736 -0.172308 0.142123 2.000000
145.18800354 97.44920349 408.79998779 0.974736 -0.172308 0.142123 2.000000
146.37100220 104.94499969 417.89999390 0.974736 -0.172308 0.142123 2.000000
147.94900513 93.89839935 406.00000000 0.974736 -0.172308 0.142123 2.000000
144.00399780 92.32029724 400.39999390 0.974736 -0.172308 0.142123 2.000000
70.22660065 153.86700439 312.54998779 -0.172579 0.270420 0.947148 1.000000
69.83200073 153.86700439 312.89999390 -0.172579 0.270420 0.947148 1.000000
150.31599426 84.42970276 375.89999390 -0.377759 0.024665 0.925575 1.000000
74.56639862 156.23399353 312.89999390 -0.172579 0.270420 0.947148 1.000000
155.05099487 82.85160065 371.70001221 -0.377759 0.024665 0.925575 1.000000
192.53100586 63.51950073 355.60000610 -0.431846 -0.104817 0.895836 1.000000
187.79699707 62.73049927 355.60000610 -0.420376 -0.069382 0.904693 1.000000
70.22660065 161.36300659 312.89999390 -0.238796 0.208776 0.948361 1.000000
200.42199707 66.67579651 359.10000610 -0.502422 -0.348324 0.791355 1.000000
71.80470276 161.36300659 312.89999390 -0.216442 0.230054 0.948803 1.000000
70.22660065 174.77699280 312.89999390 -0.349034 0.112723 0.930306 1.000000
73.38279724 175.96099854 312.54998779 -0.322427 0.131964 0.937351 1.000000
137.29699707 87.19139862 364.70001221 -0.377759 0.024665 0.925575 1.000000
172.80499268 77.32810211 355.25000000 -0.377759 0.024665 0.925575 1.000000
165.70300293 86.00779724 359.45001221 -0.377759 0.024665 0.925575 1.000000
169.25399780 69.43750000 357.70001221 -0.377759 0.024665 0.925575 1.000000
178.72300720 63.91410065 357.00000000 -0.391439 -0.001283 0.920203 1.000000
228.43400574 77.32810211 392.70001221 -0.437580 -0.738107 0.513538 1.000000
73.38279724 149.13299561 313.25000000 -0.150446 0.291405 0.944695 1.000000
69.43750000 154.65600586 313.25000000 -0.183494 0.262328 0.947372 1.000000
69.43750000 155.44500732 313.25000000 -0.202754 0.243577 0.948452 1.000000
70.22660065 161.75799561 313.25000000 -0.238796 0.208776 0.948361 1.000000
72.59380341 173.98800659 313.60000610 -0.322427 0.131964 0.937351 1.000000
83.64060211 136.50799561 323.04998779 -0.240393 0.202364 0.949347 1.000000
69.83200073 179.90600586 313.60000610 -0.363928 0.104953 0.925495 1.000000
82.45700073 127.82800293 335.29998779 -0.306632 0.121849 0.943997 1.000000
70.62110138 185.42999268 313.60000610 -0.386006 0.091387 0.917958 1.000000
72.59380341 190.95300293 313.25000000 -0.391707 0.088714 0.915803 1.000000
128.61700439 95.08200073 340.89999390 -0.377759 0.024665 0.925575 1.000000
74.17189789 148.34399414 313.95001221 -0.147560 0.296474 0.943573 1.000000
169.25399780 71.01560211 357.00000000 -0.377759 0.024665 0.925575 1.000000
130.58999634 88.37500000 356.29998779 -0.377759 0.024665 0.925575 1.000000
145.18800354 86.40229797 375.20001221 -0.377759 0.024665 0.925575 1.000000
105.73400116 111.25800323 337.75000000 -0.377759 0.024665 0.925575 1.000000
86.00779724 122.69899750 343.70001221 -0.377759 0.024665 0.925575 1.000000
144.79299927 88.37500000 365.39999390 -0.377759 0.024665 0.925575 1.000000
71.01560211 192.13699341 314.29998779 -0.397303 0.088745 0.913387 1.000000
190.95300293 64.70310211 353.14999390 -0.422288 -0.075164 0.903340 1.000000
102.97299957 102.57800293 341.60000610 -0.377759 0.024665 0.925575 1.000000
171.22700500 76.14450073 355.60000610 -0.377759 0.024665 0.925575 1.000000
138.08599854 87.19139862 363.29998779 -0.377759 0.024665 0.925575 1.000000
144.39799500 86.40229797 375.20001221 -0.377759 0.024665 0.925575 1.000000
205.94500732 68.64839935 364.35000610 -0.524410 -0.514358 0.678550 1.000000
108.10199738 101.00000000 334.25000000 -0.377759 0.024665 0.925575 1.000000
210.28500366 66.28119659 370.29998779 -0.518378 -0.589296 0.619689 1.000000
173.59399414 65.88670349 357.70001221 -0.387064 0.009001 0.922009 1.000000
123.88300323 97.05470276 337.04998779 -0.377759 0.024665 0.925575 1.000000
141.24200439 86.40229797 372.39999390 -0.377759 0.024665 0.925575 1.000000
218.17599487 72.59380341 379.39999390 -0.492219 -0.643412 0.586295 1.000000
228.03900146 75.75000000 392.35000610 -0.437580 -0.738107 0.513538 1.000000
69.83200073 146.76600647 315.70001221 -0.155861 0.288682 0.944653 1.000000
226.46099854 76.14450073 401.79998779 -0.432452 -0.744869 0.508090 1.000000
144.39799500 89.95310211 362.95001221 -0.377759 0.024665 0.925575 1.000000
226.06599426 75.75000000 401.10000610 -0.432452 -0.744869 0.508090 1.000000
114.41400146 93.10939789 337.04998779 -0.377759 0.024665 0.925575 1.000000
85.61329651 133.35200500 326.89999390 -0.256058 0.180189 0.949719 1.000000
71.01560211 166.09800720 315.70001221 -0.238796 0.208776 0.948361 1.000000
217.78100586 68.25389862 382.89999390 -0.488385 -0.652858 0.579013 1.000000
163.33599854 92.32029724 362.95001221 -0.377759 0.024665 0.925575 1.000000
66.67579651 164.91400146 322.70001221 -0.257658 0.189495 0.947473 1.000000
181.48399353 64.30860138 351.39999390 -0.391439 -0.001283 0.920203 1.000000
163.33599854 85.21880341 361.54998779 -0.377759 0.024665 0.925575 1.000000
122.30500031 92.32029724 338.45001221 -0.377759 0.024665 0.925575 1.000000
229.61700439 76.93360138 402.50000000 -0.432452 -0.744869 0.508090 1.000000
74.96089935 141.24200439 316.04998779 -0.155983 0.286194 0.945390 1.000000
68.25389862 149.13299561 316.39999390 -0.172579 0.270420 0.947148 1.000000
148.34399414 90.34770203 366.79998779 -0.377759 0.024665 0.925575 1.000000
78.90619659 131.37899780 329.00000000 -0.240393 0.202364 0.949347 1.000000
166.49200439 84.42970276 358.75000000 -0.377759 0.024665 0.925575 1.000000
69.43750000 173.19900513 316.39999390 -0.322427 0.131964 0.937351 1.000000
220.93800354 69.83200073 385.00000000 -0.470005 -0.687446 0.553636 1.000000
75.35549927 138.08599854 317.10000610 -0.161517 0.280959 0.946031 1.000000
212.65199280 71.01560211 371.00000000 -0.518378 -0.589296 0.619689 1.000000
74.96089935 139.66400146 316.75000000 -0.161517 0.280959 0.946031 1.000000
162.54699707 93.10939789 363.64999390 -0.377759 0.024665 0.925575 1.000000
69.83200073 143.60899353 317.10000610 -0.147560 0.296474 0.943573 1.000000
97.84380341 108.49600220 344.39999390 -0.377759 0.024665 0.925575 1.000000
84.82420349 126.25000000 333.20001221 -0.338173 0.080896 0.937601 1.000000
67.85939789 161.75799561 316.75000000 -0.238796 0.208776 0.948361 1.000000
162.15199280 77.32810211 362.60000610 -0.377759 0.024665 0.925575 1.000000
119.93800354 90.34770203 347.20001221 -0.377759 0.024665 0.925575 1.000000
104.94499969 112.83599854 338.45001221 -0.377759 0.024665 0.925575 1.000000
173.59399414 68.64839935 352.45001221 -0.381328 0.019390 0.924236 1.000000
126.25000000 97.84380341 338.45001221 -0.377759 0.024665 0.925575 1.000000
213.83599854 72.19920349 372.39999390 -0.514960 -0.602756 0.609510 1.000000
161.75799561 76.53910065 364.35000610 -0.377759 0.024665 0.925575 1.000000
192.13699341 67.85939789 352.79998779 -0.420376 -0.069382 0.904693 1.000000
170.43800354 78.11720276 356.64999390 -0.377759 0.024665 0.925575 1.000000
80.48439789 130.19500732 327.95001221 -0.256058 0.180189 0.949719 1.000000
226.46099854 74.56639862 394.79998779 -0.437580 -0.738107 0.513538 1.000000
77.32810211 138.87500000 317.45001221 -0.161517 0.280959 0.946031 1.000000
112.44100189 94.68750000 336.70001221 -0.377759 0.024665 0.925575 1.000000
147.16000366 92.32029724 364.00000000 -0.377759 0.024665 0.925575 1.000000
162.15199280 85.21880341 362.60000610 -0.377759 0.024665 0.925575 1.000000
210.67999268 66.67579651 383.60000610 -0.503151 -0.627677 0.594021 1.000000
184.64100647 63.12500000 353.85000610 -0.394215 -0.009048 0.918974 1.000000
69.43750000 169.25399780 317.79998779 -0.257658 0.189495 0.947473 1.000000
140.45300293 87.19139862 369.60000610 -0.377759 0.024665 0.925575 1.000000
88.37500000 121.12100220 341.60000610 -0.377759 0.024665 0.925575 1.000000
110.86299896 95.47660065 338.10000610 -0.377759 0.024665 0.925575 1.000000
215.41400146 68.25389862 386.39999390 -0.492219 -0.643412 0.586295 1.000000
198.44900513 64.70310211 363.29998779 -0.508544 -0.381814 0.771752 1.000000
207.12899780 69.43750000 365.39999390 -0.523036 -0.529764 0.667670 1.000000
68.25389862 186.21899414 317.79998779 -0.391707 0.088714 0.915803 1.000000
206.73399353 65.88670349 377.29998779 -0.518378 -0.589296 0.619689 1.000000
74.17189789 137.69099426 318.50000000 -0.161517 0.280959 0.946031 1.000000
132.56199646 93.89839935 344.04998779 -0.377759 0.024665 0.925575 1.000000
134.92999268 88.76950073 358.39999390 -0.377759 0.024665 0.925575 1.000000
163.72999573 91.53119659 362.60000610 -0.377759 0.024665 0.925575 1.000000
200.42199707 65.09770203 368.89999390 -0.524410 -0.514358 0.678550 1.000000
65.88670349 172.80499268 322.00000000 -0.333318 0.123804 0.934651 1.000000
214.62500000 66.67579651 378.00000000 -0.503151 -0.627677 0.594021 1.000000
67.07029724 167.28100586 318.14999390 -0.279514 0.170435 0.944894 1.000000
69.43750000 169.64799500 318.14999390 -0.257658 0.189495 0.947473 1.000000
89.16410065 125.85500336 336.00000000 -0.377759 0.024665 0.925575 1.000000
224.09399414 72.19920349 392.70001221 -0.446264 -0.721653 0.529212 1.000000
196.47700500 63.51950073 359.79998779 -0.490129 -0.289693 0.822102 1.000000
219.35899353 69.04299927 385.70001221 -0.477027 -0.671185 0.567411 1.000000
65.09770203 179.11700439 323.39999390 -0.363928 0.104953 0.925495 1.000000
90.74220276 129.01199341 336.70001221 -0.377759 0.024665 0.925575 1.000000
150.71099854 89.95310211 369.25000000 -0.377759 0.024665 0.925575 1.000000
77.32810211 135.32400513 319.20001221 -0.183494 0.262328 0.947372 1.000000
78.90619659 136.50799561 318.85000610 -0.183494 0.262328 0.947372 1.000000
72.59380341 139.27000427 319.20001221 -0.155983 0.286194 0.945390 1.000000
66.67579651 169.64799500 319.20001221 -0.322427 0.131964 0.937351 1.000000
90.34770203 118.35900116 342.29998779 -0.377759 0.024665 0.925575 1.000000
66.67579651 164.12500000 322.70001221 -0.238796 0.208776 0.948361 1.000000
223.69900513 74.96089935 399.00000000 -0.446264 -0.721653 0.529212 1.000000
205.94500732 65.88670349 365.39999390 -0.523137 -0.550051 0.650978 1.000000
97.05470276 110.46900177 341.95001221 -0.377759 0.024665 0.925575 1.000000
127.82800293 91.13670349 343.00000000 -0.377759 0.024665 0.925575 1.000000
114.41400146 96.26560211 335.64999390 -0.377759 0.024665 0.925575 1.000000
67.46479797 157.02299500 319.89999390 -0.202754 0.243577 0.948452 1.000000
82.06250000 135.71899414 321.64999390 -0.218740 0.224174 0.949684 1.000000
147.55499268 88.37500000 368.54998779 -0.377759 0.024665 0.925575 1.000000
98.23829651 109.68000031 341.60000610 -0.377759 0.024665 0.925575 1.000000
