55.45309830 130.05099487 355.50000000 -0.766453 -0.346921 0.540551 0.000000
101.00399780 209.26899719 304.50000000 0.069903 0.996922 -0.035489 0.000000
153.81599426 82.51950073 361.50000000 -0.802517 -0.400455 0.442269 0.000000
52.15230179 147.21499634 232.50000000 -0.963879 -0.160429 0.212601 0.000000
136.65199280 87.14060211 358.50000000 -0.355196 -0.760671 0.543337 0.000000
72.28710175 110.90599823 240.00000000 -0.708486 -0.705724 -0.001381 0.000000
163.71899414 81.52929688 315.00000000 -0.201095 -0.975866 -0.085126 0.000000
81.85929871 205.96899414 349.50000000 0.004156 0.735593 0.677411 0.000000
145.23399353 121.13899994 381.00000000 -0.509147 0.042774 0.859616 0.000000
87.80079651 173.62100220 370.50000000 0.000978 0.000978 0.999999 0.000000
156.45700073 109.58599854 379.50000000 -0.190711 -0.584339 0.788782 0.000000
93.41210175 95.72260284 264.00000000 -0.346178 -0.936639 -0.053560 0.000000
186.82400513 86.48040009 286.50000000 -0.649472 -0.756511 0.076664 0.000000
166.68899536 132.69099426 327.00000000 0.548846 0.596132 -0.585999 0.000000
134.01199341 134.01199341 376.50000000 -0.478948 0.452614 0.752163 0.000000
195.07600403 87.14060211 297.00000000 -0.975451 -0.151904 -0.159437 0.000000
77.89839935 155.13699341 373.50000000 -0.455479 -0.148934 0.877700 0.000000
101.66400146 106.28500366 265.50000000 0.976541 0.001164 -0.215328 0.000000
141.27299500 82.51950073 307.50000000 0.000978 0.000978 0.999999 0.000000
180.88299561 113.54699707 328.50000000 -0.635945 -0.639283 0.432309 0.000000
100.34400177 139.95300293 262.50000000 0.459289 0.039290 -0.887417 0.000000
209.26899719 84.50000000 346.50000000 -0.408698 -0.063395 0.910465 0.000000
128.07000732 135.00199890 303.00000000 -0.222418 -0.963809 -0.146978 0.000000
144.24400330 178.90199280 339.00000000 0.936631 0.332875 0.109161 0.000000
85.82029724 102.98400116 361.50000000 -0.433513 -0.743400 0.509336 0.000000
140.61300659 132.03100586 316.50000000 0.001164 -0.976541 -0.215328 0.000000
108.92600250 80.86910248 330.00000000 -0.134773 -0.987944 0.076176 0.000000
168.33999634 142.26400757 345.00000000 -0.044863 0.887744 0.458147 0.000000
56.77339935 167.01899719 250.50000000 -0.917700 -0.132294 0.374600 0.000000
97.04290009 205.96899414 349.50000000 0.212099 0.532535 0.819402 0.000000
67.00579834 112.88700104 291.00000000 -0.698771 -0.698771 -0.153093 0.000000
132.03100586 86.48040009 352.50000000 -0.146809 -0.825989 0.544233 0.000000
63.37500000 161.07800293 364.50000000 -0.834588 -0.443130 0.327259 0.000000
66.67579651 117.17800140 219.00000000 -0.716814 -0.693644 0.070957 0.000000
72.28710175 133.35200500 369.00000000 -0.510234 -0.168095 0.843448 0.000000
80.20899963 117.50800323 219.00000000 0.916769 0.285313 -0.279520 0.000000
212.24000549 102.98400116 369.00000000 0.547392 0.012286 0.836786 0.000000
145.89399719 155.13699341 331.50000000 -0.000978 -0.000978 -0.999999 0.000000
122.78900146 208.93899536 324.00000000 0.558192 0.789600 -0.254861 0.000000
201.67799377 95.06250000 348.00000000 -0.852163 -0.251533 0.458857 0.000000
142.59399414 164.04899597 357.00000000 0.581735 0.323903 0.746104 0.000000
77.89839935 176.26199341 256.50000000 0.700481 0.101754 -0.706380 0.000000
200.02699280 91.10150146 370.50000000 0.000978 0.000978 0.999999 0.000000
67.99610138 208.27900696 336.00000000 -0.566930 0.754291 0.331113 0.000000
122.12899780 132.03100586 292.50000000 0.000978 0.000978 -0.999999 0.000000
149.85499573 133.02099609 324.00000000 0.522688 0.851940 0.031553 0.000000
101.99400330 103.64399719 267.00000000 0.994038 0.096844 -0.050092 0.000000
60.73440170 166.35899353 226.50000000 0.789792 0.460308 -0.405394 0.000000
110.90599823 130.71099854 376.50000000 0.000978 0.000978 0.999999 0.000000
116.84799957 183.52299500 361.50000000 0.407611 0.518926 0.751378 0.000000
49.51169968 177.91200256 327.00000000 -0.873103 0.396313 -0.283948 0.000000
64.03510284 119.48799896 217.50000000 -0.736285 -0.672638 0.073773 0.000000
200.02699280 91.76170349 337.50000000 -0.805802 -0.562999 0.183620 0.000000
177.58200073 104.96499634 298.50000000 -0.170639 -0.959019 0.226196 0.000000
55.45309830 169.33000183 234.00000000 -0.628274 0.749275 -0.209425 0.000000
160.41799927 93.74220276 376.50000000 -0.190371 0.167060 0.967393 0.000000
178.90199280 135.33200073 352.50000000 0.698771 0.698771 -0.153093 0.000000
109.58599854 126.08999634 268.50000000 0.978374 0.104606 -0.178445 0.000000
75.25779724 202.66799927 304.50000000 -0.640296 0.728395 -0.243847 0.000000
205.30900574 91.43160248 351.00000000 -0.608080 -0.765902 0.208882 0.000000
211.25000000 73.60739899 342.00000000 0.698771 -0.698771 0.153093 0.000000
66.67579651 187.15400696 285.00000000 -0.842365 0.525205 -0.120753 0.000000
116.18699646 155.79699707 376.50000000 0.119946 -0.108070 0.986881 0.000000
111.23600006 167.01899719 288.00000000 0.632317 0.391277 -0.668638 0.000000
113.54699707 195.73599243 354.00000000 -0.095318 0.705352 0.702419 0.000000
62.38470078 122.78900146 273.00000000 -0.925124 -0.360456 -0.119238 0.000000
158.43699646 128.72999573 319.50000000 -0.079345 -0.194089 -0.977770 0.000000
141.93400574 79.21869659 325.50000000 0.698771 -0.698771 0.153093 0.000000
131.37100220 180.22300720 355.50000000 0.439635 0.413869 0.797141 0.000000
183.85299683 92.42179871 375.00000000 0.152293 -0.399948 0.903797 0.000000
155.79699707 94.40229797 373.50000000 -0.677445 -0.044027 0.734254 0.000000
207.28900146 96.38279724 370.50000000 0.123483 -0.175870 0.976638 0.000000
170.32000732 145.56399536 357.00000000 0.127413 0.966536 0.222651 0.000000
77.89839935 121.46900177 217.50000000 0.689563 0.606882 -0.395217 0.000000
46.21089935 174.28100586 334.50000000 -0.892786 0.147603 0.425614 0.000000
113.54699707 89.78119659 358.50000000 -0.274565 -0.760211 0.588807 0.000000
130.71099854 186.16400146 352.50000000 0.330662 0.476216 0.814789 0.000000
119.48799896 128.72999573 310.50000000 0.198157 -0.833469 -0.515813 0.000000
91.10150146 138.30299377 255.00000000 0.479109 0.525852 -0.702805 0.000000
48.19139862 165.03900146 352.50000000 -0.656299 0.219806 0.721773 0.000000
84.16989899 124.76899719 231.00000000 0.608449 0.517434 -0.601707 0.000000
190.78500366 103.64399719 373.50000000 0.000978 0.000978 0.999999 0.000000
108.26599884 128.72999573 268.50000000 0.861300 0.131728 -0.490724 0.000000
153.15600586 82.18939972 318.00000000 0.132284 -0.934173 -0.331393 0.000000
89.12110138 137.31199646 376.50000000 0.000978 0.000978 0.999999 0.000000
161.07800293 126.08999634 322.50000000 0.172942 -0.953194 -0.248018 0.000000
204.64799500 72.61720276 346.50000000 -0.242814 -0.970072 0.001184 0.000000
117.50800323 130.38099670 306.00000000 0.575022 -0.668903 -0.471082 0.000000
122.78900146 161.07800293 370.50000000 0.322312 0.325310 0.888982 0.000000
122.12899780 132.69099426 307.50000000 0.387373 -0.753498 -0.531208 0.000000
129.72099304 127.41000366 378.00000000 -0.583923 0.328356 0.742440 0.000000
70.63670349 134.01199341 367.50000000 -0.445754 -0.535236 0.717514 0.000000
157.11700439 125.76000214 321.00000000 0.129110 -0.790983 -0.598060 0.000000
49.51169968 179.56199646 328.50000000 -0.920200 0.263532 -0.289453 0.000000
82.18939972 186.82400513 363.00000000 0.009575 0.573161 0.819387 0.000000
199.69700623 91.76170349 336.00000000 -0.805802 -0.562999 0.183620 0.000000
54.79290009 142.59399414 256.50000000 -0.989830 -0.123584 0.070455 0.000000
143.25399780 182.20300293 340.50000000 0.964052 0.255820 0.071831 0.000000
169.00000000 146.22500610 354.00000000 0.223154 0.967852 0.116040 0.000000
110.24600220 102.32399750 370.50000000 -0.162158 -0.641054 0.750170 0.000000
64.69529724 127.41000366 361.50000000 -0.726485 -0.364059 0.582821 0.000000
176.26199341 128.07000732 376.50000000 -0.000978 -0.000978 0.999999 0.000000
60.07419968 125.09999847 219.00000000 -0.832674 -0.553762 0.001354 0.000000
87.80079651 214.22099304 318.00000000 -0.196055 0.961853 -0.190792 0.000000
98.36319733 214.88099670 339.00000000 -0.067191 0.892680 0.445654 0.000000
116.51799774 79.87889862 333.00000000 -0.114244 -0.988154 0.102467 0.000000
76.57810211 170.97999573 253.50000000 0.911076 0.208698 -0.355507 0.000000
217.52099609 79.21869659 351.00000000 0.743514 -0.665855 0.061840 0.000000
59.41400146 126.08999634 217.50000000 -0.844090 -0.535908 0.017727 0.000000
110.90599823 193.75599670 300.00000000 0.731655 0.251259 -0.633680 0.000000
81.85929871 215.54100037 330.00000000 -0.358938 0.930035 -0.078726 0.000000
94.40229797 186.82400513 277.50000000 0.671779 0.001379 -0.740750 0.000000
89.12110138 180.22300720 271.50000000 0.768950 -0.101062 -0.631271 0.000000
145.23399353 125.43000031 325.50000000 -0.088864 -0.867486 -0.489460 0.000000
152.82600403 131.37100220 324.00000000 0.482352 0.859973 0.166684 0.000000
216.53100586 85.82029724 352.50000000 -0.262895 -0.165826 0.950467 0.000000
129.39100647 187.48399353 352.50000000 0.900018 0.285228 0.329563 0.000000
161.07800293 83.50969696 306.00000000 -0.261911 -0.948578 -0.177773 0.000000
96.38279724 99.68360138 235.50000000 0.620586 -0.155524 -0.768560 0.000000
146.55499268 144.57400513 364.50000000 0.952238 0.054961 0.300370 0.000000
138.63299561 144.57400513 304.50000000 0.839545 0.518586 -0.161965 0.000000
126.08999634 130.71099854 376.50000000 0.000978 0.000978 0.999999 0.000000
118.82800293 149.85499573 376.50000000 0.000978 0.000978 0.999999 0.000000
71.95700073 127.41000366 217.50000000 0.726468 0.431909 -0.534508 0.000000
188.14399719 95.06250000 373.50000000 0.000978 0.000978 0.999999 0.000000
98.36319733 93.41210175 279.00000000 -0.446689 -0.894688 0.001310 0.000000
125.43000031 145.23399353 289.50000000 0.202129 -0.191560 -0.960442 0.000000
182.86300659 106.94499969 319.50000000 -0.477153 -0.831521 0.284427 0.000000
163.71899414 79.87889862 334.50000000 0.001044 -0.997400 -0.072063 0.000000
58.09370041 120.14800262 316.50000000 -0.848340 -0.512508 -0.132872 0.000000
125.76000214 177.58200073 306.00000000 0.634704 0.341011 -0.693443 0.000000
156.45700073 81.52929688 321.00000000 0.434921 -0.651548 -0.621554 0.000000
76.57810211 102.98400116 292.50000000 -0.516392 -0.817233 -0.255870 0.000000
125.43000031 195.40600586 313.50000000 0.741758 0.464218 -0.484042 0.000000
53.80270004 147.21499634 252.00000000 -0.974273 -0.114104 0.194353 0.000000
66.67579651 173.62100220 364.50000000 -0.059391 0.276739 0.959108 0.000000
60.40430069 122.12899780 297.00000000 -0.928937 -0.308706 -0.204394 0.000000
83.50969696 182.20300293 366.00000000 -0.360951 0.417695 0.833814 0.000000
129.39100647 91.76170349 361.50000000 0.070698 -0.745937 0.662254 0.000000
172.30099487 105.62500000 298.50000000 -0.129738 -0.983341 0.127313 0.000000
118.82800293 133.35200500 376.50000000 0.000978 0.000978 0.999999 0.000000
87.80079651 209.92999268 346.50000000 -0.061438 0.778696 0.624386 0.000000
88.46089935 91.76170349 349.50000000 -0.000978 -0.000978 0.999999 0.000000
202.66799927 77.23829651 364.50000000 0.370585 -0.414740 0.831058 0.000000
57.43360138 185.50399780 313.50000000 -0.830983 0.433625 -0.348477 0.000000
71.29689789 129.39100647 217.50000000 0.711727 0.498376 -0.495042 0.000000
71.95700073 129.39100647 217.50000000 0.711727 0.498376 -0.495042 0.000000
72.28710175 129.39100647 219.00000000 0.711727 0.498376 -0.495042 0.000000
93.74220276 95.72260284 274.50000000 -0.493673 -0.856969 0.147955 0.000000
172.30099487 108.92600250 310.50000000 -0.435516 -0.831725 0.344325 0.000000
189.46499634 97.04290009 298.50000000 -0.544248 -0.707356 0.451044 0.000000
60.40430069 126.75000000 234.00000000 -0.830303 -0.554005 0.060616 0.000000
167.67999268 128.07000732 376.50000000 -0.591950 0.716572 0.368944 0.000000
76.57810211 105.62500000 358.50000000 -0.339955 -0.862964 0.373797 0.000000
53.47259903 153.15600586 301.50000000 -0.964935 -0.043354 -0.258885 0.000000
103.97499847 151.83599854 273.00000000 0.177088 0.358426 -0.916608 0.000000
102.98400116 193.42599487 358.50000000 0.362311 0.334794 0.869853 0.000000
149.52499390 92.42179871 285.00000000 -0.446108 -0.893572 -0.050170 0.000000
116.18699646 169.00000000 370.50000000 0.000978 0.000978 0.999999 0.000000
70.63670349 130.71099854 217.50000000 0.711727 0.498376 -0.495042 0.000000
113.54699707 159.75799561 373.50000000 0.064277 0.143746 0.987525 0.000000
137.97300720 78.88860321 330.00000000 0.192710 -0.958232 0.211316 0.000000
200.02699280 120.14800262 370.50000000 -0.415631 -0.909111 0.027709 0.000000
188.80499268 122.45899963 366.00000000 -0.335773 -0.893903 0.296973 0.000000
81.19920349 131.70100403 234.00000000 0.705185 0.465122 -0.535141 0.000000
96.38279724 164.37899780 373.50000000 0.000978 0.000978 0.999999 0.000000
126.08999634 99.02339935 370.50000000 -0.069831 -0.436787 0.896851 0.000000
138.63299561 153.81599426 367.50000000 0.249480 0.525302 0.813521 0.000000
123.44899750 98.03320313 267.00000000 0.072254 -0.906581 0.415800 0.000000
111.56600189 101.00399780 370.50000000 -0.000978 -0.000978 0.999999 0.000000
66.67579651 175.60200500 364.50000000 -0.332487 0.458549 0.824127 0.000000
69.31639862 132.03100586 217.50000000 0.713319 0.503813 -0.487185 0.000000
56.44329834 169.66000366 243.00000000 -0.925631 0.369447 0.081950 0.000000
75.25779724 159.75799561 370.50000000 -0.167732 0.196337 0.966084 0.000000
184.84399414 113.54699707 334.50000000 -0.685421 -0.534595 0.494375 0.000000
203.32800293 74.92769623 330.00000000 -0.258100 -0.957723 -0.127085 0.000000
55.12300110 152.49600220 264.00000000 -0.999999 0.000978 0.000978 0.000000
65.02539825 118.16799927 279.00000000 -0.820473 -0.562899 -0.099846 0.000000
186.82400513 124.43900299 369.00000000 -0.359901 -0.909147 0.209581 0.000000
69.97650146 132.36099243 219.00000000 0.713319 0.503813 -0.487185 0.000000
57.43360138 126.75000000 355.50000000 -0.660375 -0.529309 0.532669 0.000000
57.43360138 132.36099243 291.00000000 -0.992612 -0.111289 -0.048338 0.000000
112.88700104 173.62100220 367.50000000 0.582761 0.771255 0.256038 0.000000
70.30660248 159.75799561 369.00000000 -0.520760 0.349860 0.778721 0.000000
219.83200073 84.16989899 354.00000000 0.058640 0.647903 0.759462 0.000000
48.19139862 174.28100586 349.50000000 -0.767870 0.381500 0.514619 0.000000
165.03900146 114.86699677 382.50000000 0.469080 -0.385258 0.794695 0.000000
167.67999268 134.01199341 370.50000000 -0.437983 0.352600 0.826949 0.000000
75.91790009 96.71289825 339.00000000 -0.735668 -0.675904 -0.044112 0.000000
77.56829834 213.89100647 330.00000000 -0.399209 0.885976 -0.235963 0.000000
46.54100037 173.62100220 348.00000000 -0.711284 0.471413 0.521387 0.000000
54.13280106 134.67199707 217.50000000 -0.941947 -0.314876 0.116571 0.000000
120.80899811 194.08599854 352.50000000 0.000978 0.999999 0.000978 0.000000
75.91790009 186.82400513 262.50000000 -0.022149 0.918515 -0.394766 0.000000
67.99610138 134.67199707 217.50000000 0.819034 0.300260 -0.488905 0.000000
142.26400757 172.96099854 327.00000000 0.890260 0.111459 -0.441603 0.000000
83.83979797 214.55099487 340.50000000 -0.104829 0.848687 0.518403 0.000000
196.06599426 98.69329834 372.00000000 0.171862 -0.465644 0.868124 0.000000
128.72999573 173.62100220 307.50000000 0.822841 0.029139 -0.567524 0.000000
73.27729797 201.67799377 306.00000000 -0.640296 0.728395 -0.243847 0.000000
117.50800323 88.13079834 354.00000000 0.126922 -0.739136 0.661490 0.000000
164.37899780 135.00199890 333.00000000 -0.233579 0.935714 -0.264350 0.000000
55.45309830 133.02099609 225.00000000 -0.910277 -0.360947 0.202763 0.000000
142.59399414 179.56199646 346.50000000 0.888748 0.402368 0.219608 0.000000
207.94900513 93.74220276 370.50000000 -0.649818 -0.420471 0.633199 0.000000
105.62500000 159.75799561 277.50000000 0.863920 0.166308 -0.475377 0.000000
116.18699646 97.70310211 268.50000000 0.131445 -0.807869 0.574517 0.000000
124.10900116 142.26400757 282.00000000 0.882186 0.093969 -0.461430 0.000000
64.36519623 161.07800293 228.00000000 0.841806 0.420122 -0.338909 0.000000
168.33999634 144.57400513 358.50000000 -0.214235 0.902119 0.374547 0.000000
93.74220276 94.73239899 288.00000000 -0.438191 -0.877857 -0.193276 0.000000
108.92600250 176.92199707 367.50000000 0.570043 0.352420 0.742193 0.000000
68.65619659 143.91400146 370.50000000 -0.670316 -0.258301 0.695670 0.000000
115.85700226 212.57000732 324.00000000 0.336278 0.909843 -0.243110 0.000000
207.28900146 106.94499969 370.50000000 0.000978 0.000978 0.999999 0.000000
146.55499268 146.55499268 343.50000000 0.701577 0.351606 -0.619808 0.000000
200.68699646 106.94499969 373.50000000 0.199321 -0.150455 0.968315 0.000000
70.30660248 110.90599823 285.00000000 -0.698771 -0.698771 -0.153093 0.000000
91.76170349 171.64100647 370.50000000 0.000978 0.000978 0.999999 0.000000
123.44899750 126.75000000 316.50000000 0.545007 -0.778354 -0.311661 0.000000
135.33200073 159.09800720 364.50000000 0.241342 0.131760 0.961454 0.000000
121.13899994 182.20300293 360.00000000 0.126618 0.251931 0.959426 0.000000
128.72999573 199.36700439 319.50000000 0.721653 0.529212 -0.446264 0.000000
142.92399597 181.54299927 333.00000000 0.926037 0.261117 -0.272532 0.000000
143.25399780 150.51600647 364.50000000 0.549162 -0.183054 0.815422 0.000000
54.46289825 145.89399719 258.00000000 -0.996926 -0.071899 0.031120 0.000000
104.30500031 213.89100647 316.50000000 -0.049732 0.904581 -0.423392 0.000000
105.62500000 205.30900574 301.50000000 0.673712 0.515784 -0.529225 0.000000
66.67579651 138.63299561 217.50000000 0.912335 0.224108 -0.342668 0.000000
110.90599823 85.82029724 352.50000000 -0.085924 -0.761667 0.642247 0.000000
121.46900177 147.87500000 283.50000000 0.757273 0.188934 -0.625173 0.000000
86.48040009 192.76600647 271.50000000 0.598755 0.464580 -0.652425 0.000000
79.87889862 171.64100647 370.50000000 -0.215920 0.398057 0.891588 0.000000
102.32399750 205.96899414 298.50000000 0.255015 0.829959 -0.496121 0.000000
189.46499634 121.79900360 363.00000000 -0.494644 -0.861683 0.113266 0.000000
212.57000732 74.59760284 340.50000000 0.797066 -0.442815 0.410610 0.000000
186.16400146 103.64399719 319.50000000 -0.625518 -0.766522 0.145504 0.000000
137.97300720 84.50000000 355.50000000 -0.187317 -0.790385 0.583270 0.000000
119.48799896 116.84799957 292.50000000 0.915238 0.001287 -0.402911 0.000000
117.17800140 125.43000031 285.00000000 0.748183 -0.638021 -0.182073 0.000000
112.55699921 141.27299500 273.00000000 0.640356 0.640356 -0.424132 0.000000
129.39100647 131.04100037 315.00000000 0.278212 -0.925947 -0.255384 0.000000
98.36319733 202.99800110 291.00000000 -0.446689 0.894688 0.001310 0.000000
63.70510101 120.80899811 264.00000000 -0.275293 -0.828989 0.486817 0.000000
111.23600006 211.91000366 315.00000000 0.336885 0.897864 -0.283458 0.000000
144.57400513 106.94499969 376.50000000 -0.417394 -0.119456 0.900840 0.000000
185.50399780 88.46089935 286.50000000 -0.000978 -0.000978 0.999999 0.000000
83.83979797 170.97999573 262.50000000 0.633634 0.178639 -0.752726 0.000000
161.07800293 81.85929871 358.50000000 -0.123381 -0.988226 0.090480 0.000000
96.05269623 150.51600647 267.00000000 0.516828 0.313277 -0.796710 0.000000
83.83979797 203.32800293 352.50000000 -0.145646 0.773274 0.617118 0.000000
219.50199890 83.17970276 354.00000000 0.058640 0.647903 0.759462 0.000000
66.01560211 141.93400574 217.50000000 0.857403 0.297089 -0.420235 0.000000
137.31199646 112.22699738 376.50000000 -0.400442 -0.183596 0.897741 0.000000
97.70310211 89.78119659 304.50000000 -0.339320 -0.779953 -0.525866 0.000000
140.61300659 134.67199707 376.50000000 0.563063 0.414454 0.714974 0.000000
51.82220078 142.59399414 219.00000000 -0.955949 -0.293092 -0.016077 0.000000
131.37100220 200.02699280 337.50000000 0.682135 0.642876 0.348429 0.000000
124.76899719 109.58599854 376.50000000 0.000978 0.000978 0.999999 0.000000
108.92600250 112.22699738 277.50000000 0.001368 -0.603278 -0.797530 0.000000
131.37100220 176.92199707 358.50000000 0.635358 0.544352 0.547723 0.000000
205.30900574 72.94719696 339.00000000 -0.160429 -0.963879 -0.212601 0.000000
118.16799927 134.67199707 376.50000000 0.000978 0.000978 0.999999 0.000000
95.06250000 127.41000366 376.50000000 -0.042159 -0.133315 0.990177 0.000000
112.88700104 200.68699646 349.50000000 0.181618 0.370386 0.910950 0.000000
131.37100220 143.91400146 376.50000000 0.203860 0.307899 0.929322 0.000000
126.41999817 81.19920349 309.00000000 -0.176591 -0.983527 -0.038593 0.000000
65.35540009 143.91400146 217.50000000 0.841199 0.249755 -0.479591 0.000000
66.67579651 134.01199341 367.50000000 -0.469586 -0.315675 0.824523 0.000000
106.28500366 126.75000000 376.50000000 0.000978 0.000978 0.999999 0.000000
175.60200500 133.35200500 340.50000000 0.858164 0.332442 -0.391199 0.000000
64.69529724 144.57400513 217.50000000 0.841199 0.249755 -0.479591 0.000000
188.14399719 125.76000214 372.00000000 -0.952638 -0.302484 0.031378 0.000000
69.64649963 103.64399719 318.00000000 -0.641361 -0.764755 -0.061697 0.000000
73.93750000 155.13699341 370.50000000 -0.071032 -0.179387 0.981211 0.000000
168.33999634 80.20899963 330.00000000 0.000978 -0.999999 0.000978 0.000000
64.03510284 172.96099854 241.50000000 -0.310551 0.359027 -0.880146 0.000000
95.72260284 127.73999786 252.00000000 0.702270 0.583297 -0.408143 0.000000
66.01560211 144.90400696 219.00000000 0.860782 0.260520 -0.437247 0.000000
50.83200073 145.89399719 217.50000000 -0.953194 -0.172942 0.248018 0.000000
102.98400116 135.33200073 262.50000000 0.845860 -0.203549 -0.493041 0.000000
87.14060211 169.66000366 370.50000000 0.000978 0.000978 0.999999 0.000000
120.80899811 136.98199463 297.00000000 -0.733447 0.611474 -0.296910 0.000000
97.70310211 108.26599884 370.50000000 -0.420471 -0.633199 0.649818 0.000000
99.02339935 93.74220276 262.50000000 0.176499 -0.386003 -0.905456 0.000000
71.62689972 135.99200439 225.00000000 0.769645 0.315219 -0.555233 0.000000
73.27729797 199.03700256 297.00000000 -0.676677 0.695605 -0.241332 0.000000
214.55099487 77.89839935 346.50000000 -0.791197 -0.451419 0.412587 0.000000
58.75389862 169.00000000 361.50000000 -0.000978 -0.000978 0.999999 0.000000
209.26899719 99.68360138 370.50000000 0.000978 0.000978 0.999999 0.000000
88.46089935 189.46499634 271.50000000 0.553935 0.210219 -0.805583 0.000000
144.57400513 112.88700104 379.50000000 -0.000978 -0.000978 0.999999 0.000000
190.12500000 120.14800262 358.50000000 -0.507342 -0.829221 0.234512 0.000000
125.09999847 137.97300720 294.00000000 -0.183859 0.403911 -0.896132 0.000000
64.69529724 147.21499634 217.50000000 0.905810 0.166897 -0.389427 0.000000
99.68360138 149.19500732 268.50000000 0.626866 0.158605 -0.762813 0.000000
73.93750000 169.66000366 367.50000000 -0.509640 0.373736 0.774976 0.000000
50.83200073 135.33200073 349.50000000 -0.898286 -0.011872 0.439250 0.000000
95.06250000 213.55999756 312.00000000 -0.100862 0.975001 -0.197989 0.000000
61.72460175 121.46900177 291.00000000 -0.864896 -0.479849 -0.147309 0.000000
73.93750000 208.93899536 321.00000000 -0.698771 0.698771 -0.153093 0.000000
213.22999573 88.46089935 352.50000000 -0.274333 -0.597823 0.753226 0.000000
167.67999268 112.88700104 379.50000000 0.036013 -0.428153 0.902989 0.000000
210.58999634 101.66400146 361.50000000 -0.178721 0.123730 0.976089 0.000000
95.06250000 118.82800293 373.50000000 -0.223382 -0.372303 0.900828 0.000000
166.35899353 93.74220276 277.50000000 -0.000978 -0.000978 0.999999 0.000000
116.84799957 82.51950073 343.50000000 0.001287 -0.915238 0.402911 0.000000
123.11900330 170.97999573 300.00000000 0.819740 0.172973 -0.545992 0.000000
49.84180069 133.35200500 327.00000000 -0.901420 -0.359102 -0.241844 0.000000
133.35200500 112.22699738 280.50000000 0.274052 -0.590874 0.758791 0.000000
164.37899780 110.24600220 379.50000000 0.000978 0.000978 0.999999 0.000000
76.57810211 173.62100220 367.50000000 0.000978 0.000978 0.999999 0.000000
81.19920349 123.11900330 225.00000000 0.590940 0.801887 -0.088135 0.000000
109.91600037 163.71899414 285.00000000 0.613431 0.379900 -0.692371 0.000000
70.30660248 112.88700104 243.00000000 -0.705724 -0.708486 0.001381 0.000000
55.12300110 145.89399719 294.00000000 -0.978801 -0.104652 -0.176061 0.000000
50.50189972 149.85499573 219.00000000 -0.803792 -0.267931 0.531161 0.000000
68.98629761 155.13699341 234.00000000 0.948635 0.238179 -0.208237 0.000000
64.03510284 149.85499573 217.50000000 0.699161 0.149497 -0.699161 0.000000
184.18400574 77.56829834 321.00000000 -0.196384 -0.979538 -0.044038 0.000000
64.69529724 116.84799957 355.50000000 -0.443953 -0.411666 0.795887 0.000000
104.96499634 135.99200439 376.50000000 -0.000978 -0.000978 0.999999 0.000000
86.48040009 149.85499573 373.50000000 -0.400259 0.393931 0.827412 0.000000
134.34199524 161.73800659 312.00000000 0.852863 0.284288 -0.437956 0.000000
64.03510284 150.51600647 217.50000000 0.699161 0.149497 -0.699161 0.000000
72.94719696 199.36700439 300.00000000 -0.669331 0.715705 -0.199408 0.000000
220.49200439 100.01399994 363.00000000 0.767250 0.631766 -0.110449 0.000000
88.46089935 159.75799561 373.50000000 0.020020 0.455114 0.890208 0.000000
77.23829651 143.91400146 244.50000000 0.845690 0.269573 -0.460585 0.000000
67.99610138 120.80899811 361.50000000 -0.835222 -0.046014 0.547984 0.000000
154.47700500 117.83799744 324.00000000 0.293886 -0.948149 0.121012 0.000000
147.54499817 124.10900116 327.00000000 -0.086054 -0.707395 -0.701561 0.000000
112.55699921 120.14800262 288.00000000 0.651973 -0.703234 -0.283536 0.000000
143.25399780 118.82800293 379.50000000 -0.691454 0.354718 0.629338 0.000000
97.70310211 194.08599854 358.50000000 0.000978 0.000978 0.999999 0.000000
198.70700073 116.18699646 364.50000000 -0.490176 -0.526981 0.694276 0.000000
149.85499573 106.28500366 376.50000000 -0.281147 -0.479969 0.831015 0.000000
102.32399750 198.70700073 355.50000000 0.304502 0.457534 0.835429 0.000000
145.23399353 165.03900146 355.50000000 0.585284 0.438546 0.681997 0.000000
77.89839935 187.48399353 361.50000000 -0.268718 0.733011 0.624888 0.000000
130.71099854 118.49800110 303.00000000 -0.446108 -0.893572 -0.050170 0.000000
54.79290009 140.61300659 244.50000000 -0.989441 -0.141672 0.030601 0.000000
129.39100647 139.95300293 376.50000000 0.000978 0.000978 0.999999 0.000000
123.44899750 83.50969696 288.00000000 0.000978 0.000978 0.999999 0.000000
112.22699738 180.88299561 364.50000000 0.000978 0.000978 0.999999 0.000000
96.38279724 202.00799561 289.50000000 0.450460 0.550193 -0.703117 0.000000
72.28710175 102.98400116 330.00000000 -0.705724 -0.708486 -0.001381 0.000000
148.86500549 155.79699707 357.00000000 0.484294 0.209710 0.849400 0.000000
208.60899353 101.66400146 361.50000000 -0.530266 -0.264351 0.805566 0.000000
124.76899719 137.64300537 282.00000000 0.863458 0.217742 -0.455005 0.000000
166.68899536 81.85929871 306.00000000 -0.141794 -0.985410 -0.094132 0.000000
110.90599823 126.08999634 376.50000000 0.000978 0.000978 0.999999 0.000000
110.90599823 104.96499634 373.50000000 -0.046936 -0.647141 0.760924 0.000000
106.28500366 178.24200439 289.50000000 0.675806 0.254812 -0.691633 0.000000
87.14060211 120.14800262 235.50000000 0.661978 0.297971 -0.687749 0.000000
171.64100647 137.31199646 337.50000000 0.600043 0.600043 -0.529052 0.000000
160.41799927 119.48799896 325.50000000 0.190180 -0.874237 0.446701 0.000000
87.14060211 99.35350037 258.00000000 -0.634562 -0.772811 -0.009677 0.000000
179.23199463 129.39100647 354.00000000 0.907814 -0.350053 0.230948 0.000000
64.69529724 185.50399780 289.50000000 -0.838449 0.488968 -0.240652 0.000000
48.19139862 161.07800293 319.50000000 -0.930443 0.171068 -0.324056 0.000000
136.98199463 91.76170349 297.00000000 -0.812520 0.486245 0.321523 0.000000
74.59760284 123.44899750 367.50000000 -0.299575 -0.381692 0.874395 0.000000
88.46089935 89.12110138 340.50000000 0.001379 -0.671779 0.740750 0.000000
72.61720276 179.56199646 364.50000000 -0.233122 0.532629 0.813610 0.000000
96.71289825 91.76170349 297.00000000 -0.511575 -0.851664 -0.113843 0.000000
104.30500031 134.67199707 265.50000000 0.732657 0.313996 -0.603838 0.000000
48.85150146 182.53300476 342.00000000 -0.866499 0.464987 -0.181566 0.000000
93.08200073 143.25399780 259.50000000 0.554694 0.422230 -0.716963 0.000000
196.06599426 97.04290009 370.50000000 0.077759 -0.213528 0.973837 0.000000
60.73440170 157.11700439 217.50000000 0.752288 0.603414 -0.264489 0.000000
67.66600037 108.92600250 303.00000000 -0.734388 -0.647807 -0.202536 0.000000
182.53300476 110.24600220 327.00000000 -0.750096 -0.562167 0.348317 0.000000
162.72799683 125.43000031 378.00000000 -0.307853 0.813049 0.494144 0.000000
143.58399963 134.01199341 300.00000000 0.478312 -0.478312 -0.736502 0.000000
180.22300720 131.37100220 349.50000000 0.991259 0.046448 0.123483 0.000000
192.10499573 89.45110321 294.00000000 -0.803989 -0.415635 0.425264 0.000000
169.66000366 80.86910248 318.00000000 -0.001164 -0.976541 -0.215328 0.000000
190.78500366 80.53900146 367.50000000 0.163383 -0.983877 -0.072747 0.000000
66.67579651 166.35899353 238.50000000 0.383914 0.775928 -0.500546 0.000000
73.27729797 189.46499634 358.50000000 -0.185990 0.647124 0.739350 0.000000
102.32399750 143.91400146 268.50000000 0.000978 0.000978 -0.999999 0.000000
53.47259903 141.27299500 355.50000000 -0.756781 -0.165309 0.632420 0.000000
87.80079651 117.83799744 372.00000000 -0.097214 -0.469163 0.877744 0.000000
49.51169968 135.99200439 346.50000000 -0.885808 -0.341390 0.314319 0.000000
124.10900116 189.46499634 355.50000000 0.937426 0.233309 0.258456 0.000000
102.98400116 157.77699280 376.50000000 0.000978 0.000978 0.999999 0.000000
44.89059830 164.37899780 346.50000000 -0.875042 0.079804 0.477423 0.000000
145.89399719 95.06250000 370.50000000 0.031683 -0.530352 0.847185 0.000000
104.96499634 119.48799896 376.50000000 -0.191894 -0.624807 0.756831 0.000000
98.69329834 198.70700073 288.00000000 0.824078 0.557592 -0.099932 0.000000
101.66400146 193.42599487 289.50000000 0.443877 0.295403 -0.845996 0.000000
83.17970276 124.76899719 370.50000000 -0.471891 -0.001322 0.881656 0.000000
104.96499634 191.44500732 292.50000000 0.667203 0.202792 -0.716740 0.000000
54.79290009 138.63299561 355.50000000 -0.759551 -0.253184 0.599149 0.000000
108.26599884 124.10900116 376.50000000 0.000978 0.000978 0.999999 0.000000
92.75189972 103.64399719 231.00000000 0.972696 0.186423 -0.138232 0.000000
124.76899719 180.22300720 307.50000000 0.731295 0.523297 -0.437456 0.000000
161.07800293 112.22699738 310.50000000 -0.181202 -0.946881 0.265672 0.000000
102.98400116 86.48040009 307.50000000 -0.233932 -0.908120 -0.347265 0.000000
58.09370041 160.41799927 217.50000000 0.601528 0.798841 -0.004111 0.000000
202.66799927 91.10150146 370.50000000 0.000978 0.000978 0.999999 0.000000
68.32610321 196.72599792 306.00000000 -0.674976 0.674976 -0.298020 0.000000
159.75799561 101.66400146 280.50000000 -0.486245 -0.812520 0.321523 0.000000
139.95300293 137.31199646 292.50000000 0.882855 -0.070684 -0.464296 0.000000
143.25399780 135.99200439 298.50000000 0.965524 0.251712 0.066372 0.000000
173.62100220 107.60500336 310.50000000 -0.452122 -0.820165 0.350593 0.000000
53.47259903 161.07800293 217.50000000 -0.608040 0.684252 -0.402599 0.000000
83.83979797 178.24200439 262.50000000 0.797067 -0.132102 -0.589265 0.000000
206.62899780 108.92600250 361.50000000 -0.375895 -0.525602 0.763181 0.000000
200.68699646 93.08200073 343.50000000 -0.882287 -0.262140 0.390963 0.000000
127.41000366 118.16799927 316.50000000 -0.237369 0.730970 -0.639796 0.000000
81.85929871 101.66400146 286.50000000 -0.485100 -0.860283 -0.156815 0.000000
176.92199707 81.85929871 367.50000000 -0.166442 -0.820213 0.547309 0.000000
147.54499817 149.19500732 357.00000000 0.980271 -0.153744 0.124225 0.000000
99.02339935 91.76170349 289.50000000 -0.438191 -0.877857 -0.193276 0.000000
93.74220276 182.86300659 367.50000000 -0.065481 0.923412 0.378184 0.000000
138.96299744 147.87500000 315.00000000 0.947841 0.262458 -0.180865 0.000000
119.48799896 167.67999268 370.50000000 0.425725 0.365586 0.827711 0.000000
65.35540009 110.24600220 349.50000000 -0.731085 -0.643418 0.226997 0.000000
85.16010284 124.76899719 232.50000000 0.671131 0.618103 -0.409307 0.000000
110.24600220 111.56600189 283.50000000 0.917598 -0.062959 -0.392491 0.000000
128.07000732 86.48040009 352.50000000 -0.084028 -0.902273 0.422898 0.000000
57.76369858 184.18400574 354.00000000 -0.779701 0.625166 0.035122 0.000000
54.79290009 145.23399353 259.50000000 -0.986743 -0.129118 0.098319 0.000000
221.15199280 94.40229797 364.50000000 -0.130244 0.675172 0.726072 0.000000
164.37899780 119.48799896 382.50000000 0.000978 0.000978 0.999999 0.000000
134.01199341 114.86699677 283.50000000 -0.077010 -0.684371 0.725056 0.000000
202.00799561 95.06250000 370.50000000 0.000978 0.000978 0.999999 0.000000
64.03510284 134.67199707 364.50000000 -0.506518 -0.258680 0.822511 0.000000
131.37100220 157.44700623 303.00000000 0.665979 0.287254 -0.688446 0.000000
118.16799927 149.85499573 376.50000000 0.000978 0.000978 0.999999 0.000000
72.28710175 110.90599823 237.00000000 -0.705724 -0.708486 0.001381 0.000000
87.14060211 172.30099487 265.50000000 0.636904 0.319263 -0.701729 0.000000
159.09800720 117.50800323 382.50000000 0.000978 0.000978 0.999999 0.000000
114.86699677 93.08200073 364.50000000 -0.052883 -0.658898 0.750371 0.000000
128.72999573 138.63299561 376.50000000 0.000978 0.000978 0.999999 0.000000
86.48040009 120.80899811 235.50000000 0.225942 0.474629 -0.850693 0.000000
58.75389862 116.51799774 345.00000000 -0.770149 -0.619435 0.152221 0.000000
136.65199280 112.22699738 280.50000000 0.000978 0.000978 0.999999 0.000000
47.53120041 162.39799500 319.50000000 -0.900788 0.205188 -0.382726 0.000000
97.70310211 153.15600586 268.50000000 0.439871 0.348428 -0.827714 0.000000
165.03900146 114.20700073 316.50000000 -0.504806 -0.843341 0.184247 0.000000
109.58599854 192.76600647 298.50000000 0.644734 0.315096 -0.696442 0.000000
161.07800293 100.34400177 376.50000000 0.000978 0.000978 0.999999 0.000000
76.57810211 106.61499786 246.00000000 -0.315275 -0.943164 -0.105092 0.000000
126.08999634 124.10900116 376.50000000 -0.265246 0.326794 0.907111 0.000000
46.87110138 175.60200500 346.50000000 -0.711284 0.471413 0.521387 0.000000
134.01199341 115.19699860 315.00000000 -0.337857 -0.919484 -0.201003 0.000000
192.76600647 119.81800079 363.00000000 -0.504806 -0.843341 0.184247 0.000000
69.97650146 159.75799561 367.50000000 -0.465800 -0.031053 0.884345 0.000000
173.62100220 99.68360138 379.50000000 0.230634 -0.238920 0.943252 0.000000
151.83599854 104.30500031 277.50000000 -0.388297 -0.679107 0.622928 0.000000
73.27729797 201.01800537 351.00000000 0.217249 0.371803 0.902533 0.000000
57.76369858 166.35899353 279.00000000 -0.993456 0.111364 0.025360 0.000000
57.10350037 160.41799927 279.00000000 -0.993456 0.111364 0.025360 0.000000
89.78119659 188.80499268 361.50000000 -0.094411 0.599873 0.794505 0.000000
162.39799500 91.76170349 376.50000000 0.026683 -0.681124 0.731682 0.000000
57.43360138 131.37100220 232.50000000 -0.889398 -0.446800 0.096643 0.000000
116.18699646 148.20500183 279.00000000 0.481128 0.331867 -0.811407 0.000000
205.30900574 105.62500000 370.50000000 0.000978 0.000978 0.999999 0.000000
83.17970276 189.13499451 267.00000000 0.004140 0.652716 -0.757592 0.000000
136.65199280 132.36099243 315.00000000 0.018883 -0.991912 -0.125516 0.000000
124.10900116 122.78900146 376.50000000 -0.000978 -0.000978 0.999999 0.000000
56.44329834 170.32000732 240.00000000 -0.698771 0.698771 0.153093 0.000000
87.14060211 101.00399780 220.50000000 0.732936 -0.089240 -0.674419 0.000000
180.22300720 82.51950073 370.50000000 -0.157101 -0.806450 0.570051 0.000000
165.69900513 111.23600006 312.00000000 -0.293513 -0.855952 0.425671 0.000000
114.20700073 121.79900360 285.00000000 0.734286 -0.672974 -0.089049 0.000000
78.22850037 156.45700073 249.00000000 0.842012 0.342116 -0.417100 0.000000
140.61300659 160.41799927 322.50000000 0.862651 0.153783 -0.481854 0.000000
122.12899780 101.33399963 273.00000000 0.020846 -0.796310 0.604529 0.000000
109.58599854 116.18699646 376.50000000 -0.639612 -0.395006 0.659445 0.000000
111.56600189 111.56600189 286.50000000 0.615191 0.611820 -0.497209 0.000000
94.40229797 95.39250183 273.00000000 -0.493673 -0.856969 0.147955 0.000000
145.56399536 132.03100586 375.00000000 0.442245 0.727137 0.525063 0.000000
87.14060211 101.66400146 220.50000000 0.908959 -0.175513 -0.378138 0.000000
81.85929871 193.42599487 271.50000000 -0.001353 0.834745 -0.550634 0.000000
81.85929871 111.23600006 366.00000000 -0.001164 -0.976541 0.215328 0.000000
91.76170349 96.05269623 255.00000000 -0.698771 -0.698771 -0.153093 0.000000
184.18400574 105.95500183 321.00000000 -0.698771 -0.698771 0.153093 0.000000
89.78119659 110.57599640 231.00000000 0.728145 0.466079 -0.502569 0.000000
119.15799713 128.07000732 312.00000000 -0.234371 -0.693675 -0.681091 0.000000
201.34800720 90.11129761 339.00000000 -0.596586 -0.800644 -0.055266 0.000000
197.38699341 102.98400116 373.50000000 0.147707 0.019168 0.988845 0.000000
85.16010284 154.47700500 259.50000000 0.685321 -0.490951 0.537868 0.000000
153.48599243 89.12110138 294.00000000 -0.419850 -0.900079 -0.116547 0.000000
94.40229797 112.88700104 247.50000000 -0.000978 -0.000978 -0.999999 0.000000
102.98400116 209.26899719 304.50000000 0.080448 0.856700 -0.509503 0.000000
86.48040009 96.38279724 355.50000000 -0.358655 -0.705845 0.610859 0.000000
80.53900146 170.32000732 259.50000000 0.632538 0.384808 -0.672175 0.000000
114.20700073 96.38279724 268.50000000 -0.000978 -0.000978 0.999999 0.000000
172.96099854 120.80899811 379.50000000 0.000978 0.000978 0.999999 0.000000
64.69529724 111.89600372 306.00000000 -0.749293 -0.655814 -0.092018 0.000000
123.44899750 149.85499573 286.50000000 0.834745 0.001353 -0.550634 0.000000
90.44139862 97.04290009 358.50000000 -0.276122 -0.781030 0.560133 0.000000
182.86300659 81.19920349 367.50000000 -0.001287 -0.915238 0.402911 0.000000
58.09370041 122.78900146 307.50000000 -0.915482 -0.393127 -0.085699 0.000000
108.26599884 206.62899780 346.50000000 -0.958637 0.143335 -0.245906 0.000000
217.19099426 90.44139862 364.50000000 0.000978 0.000978 0.999999 0.000000
104.30500031 105.62500000 370.50000000 -0.403161 -0.222994 0.887544 0.000000
180.22300720 78.22850037 348.00000000 -0.211493 -0.977122 0.022449 0.000000
122.12899780 96.71289825 264.00000000 0.293817 -0.921583 0.253686 0.000000
54.13280106 128.72999573 352.50000000 -0.773732 -0.444692 0.451208 0.000000
132.03100586 83.17970276 349.50000000 -0.548717 -0.666180 0.505088 0.000000
116.84799957 115.52700043 376.50000000 0.000978 0.000978 0.999999 0.000000
58.09370041 124.76899719 352.50000000 -0.916201 -0.399773 0.027525 0.000000
109.58599854 205.96899414 304.50000000 0.282500 0.630438 -0.723009 0.000000
66.34570313 185.50399780 279.00000000 -0.851664 0.511575 -0.113843 0.000000
52.48239899 157.11700439 240.00000000 -0.957930 0.239814 0.157668 0.000000
139.95300293 79.54879761 345.00000000 -0.834745 -0.001353 0.550634 0.000000
79.21869659 187.81399536 264.00000000 0.001353 0.834745 -0.550634 0.000000
124.76899719 104.96499634 373.50000000 0.298117 -0.506325 0.809173 0.000000
121.79900360 130.71099854 285.00000000 0.748884 -0.639068 -0.175400 0.000000
75.58789825 105.62500000 357.00000000 -0.446815 -0.715900 0.536510 0.000000
89.12110138 103.31400299 222.00000000 0.766706 0.009705 -0.641925 0.000000
85.82029724 141.60299683 375.00000000 -0.758051 -0.568136 0.320281 0.000000
118.16799927 167.01899719 370.50000000 0.230081 0.192407 0.953961 0.000000
143.91400146 126.08999634 379.50000000 0.000978 0.000978 0.999999 0.000000
75.25779724 177.58200073 367.50000000 -0.402255 0.230072 0.886148 0.000000
185.50399780 118.49800110 345.00000000 -0.674976 -0.674976 0.298020 0.000000
95.06250000 190.78500366 361.50000000 0.036367 0.453908 0.890306 0.000000
80.53900146 186.16400146 364.50000000 -0.116671 0.496933 0.859910 0.000000
138.96299744 142.59399414 300.00000000 0.756213 0.620126 -0.208771 0.000000
209.92999268 82.51950073 346.50000000 -0.499740 -0.614159 0.610794 0.000000
54.13280106 134.01199341 307.50000000 -0.927432 -0.154340 0.340661 0.000000
106.94499969 100.34400177 271.50000000 -0.610888 -0.732745 0.299832 0.000000
125.43000031 110.24600220 376.50000000 0.000978 0.000978 0.999999 0.000000
83.83979797 167.67999268 370.50000000 0.000978 0.000978 0.999999 0.000000
62.05469894 191.44500732 352.50000000 -0.478312 0.478312 0.736502 0.000000
88.79100037 104.96499634 222.00000000 0.766706 0.009705 -0.641925 0.000000
81.19920349 213.89100647 340.50000000 -0.170670 0.801999 0.572425 0.000000
66.01560211 185.17399597 360.00000000 -0.496102 0.693206 0.522828 0.000000
172.96099854 138.63299561 367.50000000 0.253459 0.807027 0.533353 0.000000
93.08200073 152.49600220 376.50000000 -0.000978 -0.000978 0.999999 0.000000
168.66999817 135.99200439 333.00000000 -0.064370 0.782449 -0.619379 0.000000
145.56399536 136.65199280 321.00000000 0.708486 0.705724 -0.001381 0.000000
76.57810211 96.38279724 334.50000000 -0.799524 -0.586712 -0.128574 0.000000
157.77699280 88.13079834 285.00000000 -0.459118 -0.879618 -0.124434 0.000000
68.98629761 114.86699677 264.00000000 -0.738383 -0.672938 -0.044104 0.000000
204.64799500 112.88700104 364.50000000 -0.000978 -0.000978 0.999999 0.000000
76.24800110 102.98400116 294.00000000 -0.551555 -0.808235 -0.206260 0.000000
101.00399780 168.33999634 280.50000000 0.552776 0.304265 -0.775797 0.000000
143.58399963 143.25399780 330.00000000 0.976541 -0.001164 -0.215328 0.000000
89.12110138 89.12110138 340.50000000 0.001379 -0.671779 0.740750 0.000000
143.25399780 82.51950073 307.50000000 0.000978 0.000978 0.999999 0.000000
76.24800110 96.38279724 336.00000000 -0.799524 -0.586712 -0.128574 0.000000
76.90820313 135.99200439 372.00000000 -0.490944 -0.293311 0.820331 0.000000
49.84180069 135.33200073 324.00000000 -0.901420 -0.359102 -0.241844 0.000000
134.01199341 110.90599823 376.50000000 0.000978 0.000978 0.999999 0.000000
94.40229797 209.26899719 346.50000000 0.262050 0.719447 0.643215 0.000000
130.71099854 162.72799683 306.00000000 0.696503 0.300799 -0.651463 0.000000
69.97650146 197.38699341 352.50000000 -0.419727 0.481788 0.769227 0.000000
100.34400177 121.46900177 256.50000000 0.731310 0.192450 -0.654330 0.000000
118.16799927 111.56600189 289.50000000 0.132173 0.785615 0.604433 0.000000
88.13079834 106.94499969 222.00000000 -0.000978 -0.000978 -0.999999 0.000000
84.16989899 100.34400177 285.00000000 -0.573210 -0.800074 -0.176954 0.000000
194.08599854 93.08200073 370.50000000 0.185461 0.010367 0.982597 0.000000
103.64399719 89.12110138 355.50000000 0.006888 -0.792144 0.610295 0.000000
77.89839935 95.39250183 333.00000000 -0.781983 -0.592226 -0.194348 0.000000
92.42179871 209.60000610 348.00000000 0.268551 0.551236 0.789949 0.000000
74.26750183 109.58599854 261.00000000 -0.698771 -0.698771 0.153093 0.000000
192.10499573 122.78900146 367.50000000 -0.178732 -0.924620 0.336353 0.000000
200.02699280 77.23829651 364.50000000 0.000978 0.000978 0.999999 0.000000
72.61720276 193.42599487 283.50000000 -0.615810 0.719253 -0.321643 0.000000
66.01560211 115.85700226 285.00000000 -0.849679 -0.494277 -0.183674 0.000000
165.03900146 124.76899719 379.50000000 -0.224192 0.790084 0.570530 0.000000
64.36519623 182.86300659 282.00000000 -0.879301 0.458952 -0.127248 0.000000
140.61300659 96.71289825 306.00000000 0.214562 0.290290 0.932574 0.000000
57.10350037 127.41000366 354.00000000 -0.625702 -0.541375 0.561614 0.000000
203.32800293 88.79100037 342.00000000 -0.768453 -0.612624 0.184857 0.000000
56.44329834 155.13699341 273.00000000 -0.993011 0.117406 0.012070 0.000000
105.62500000 189.46499634 361.50000000 0.587939 0.441371 0.677879 0.000000
101.00399780 175.60200500 280.50000000 -0.300975 0.298039 -0.905862 0.000000
141.93400574 139.62300110 306.00000000 0.698771 -0.698771 0.153093 0.000000
107.60500336 172.96099854 370.50000000 0.019576 0.173883 0.984572 0.000000
173.62100220 122.12899780 379.50000000 0.000978 0.000978 0.999999 0.000000
116.18699646 209.26899719 313.50000000 0.569393 0.663451 -0.485411 0.000000
131.04100037 184.18400574 315.00000000 0.802850 0.426363 -0.416710 0.000000
201.34800720 74.26750183 336.00000000 -0.146373 -0.958677 -0.243955 0.000000
74.59760284 128.39999390 369.00000000 -0.383697 0.132550 0.913897 0.000000
160.74800110 134.67199707 342.00000000 -0.316255 0.946163 0.068978 0.000000
156.45700073 133.68200684 360.00000000 0.515126 0.856721 -0.025961 0.000000
141.60299683 139.95300293 309.00000000 0.698771 -0.698771 0.153093 0.000000
70.63670349 170.32000732 247.50000000 0.696456 0.196120 -0.690279 0.000000
129.39100647 161.73800659 367.50000000 0.534528 0.240150 0.810313 0.000000
148.86500549 110.90599823 288.00000000 -0.404134 -0.853171 0.329810 0.000000
57.43360138 133.68200684 288.00000000 -0.992612 -0.111289 -0.048338 0.000000
184.18400574 94.40229797 289.50000000 -0.744015 -0.496560 0.447069 0.000000
140.61300659 116.18699646 292.50000000 -0.340522 -0.889557 0.304520 0.000000
86.48040009 109.91600037 222.00000000 0.597903 0.412404 -0.687340 0.000000
92.42179871 88.13079834 312.00000000 0.001164 -0.976541 0.215328 0.000000
136.65199280 172.30099487 319.50000000 0.762897 0.088980 -0.640367 0.000000
81.85929871 198.04699707 280.50000000 -0.435519 0.841380 -0.320005 0.000000
127.73999786 192.76600647 315.00000000 0.677527 0.041191 -0.734343 0.000000
87.14060211 92.42179871 349.50000000 -0.368175 -0.795837 0.480718 0.000000
77.23829651 95.06250000 340.50000000 -0.722208 -0.691356 0.021035 0.000000
188.14399719 95.72260284 373.50000000 0.000978 0.000978 0.999999 0.000000
57.76369858 192.10499573 348.00000000 -0.604214 0.486400 0.631142 0.000000
111.56600189 166.68899536 372.00000000 0.229548 0.607443 0.760474 0.000000
85.49019623 111.56600189 222.00000000 0.355792 0.513564 -0.780810 0.000000
77.56829834 134.67199707 372.00000000 -0.543260 -0.186131 0.818672 0.000000
129.39100647 190.78500366 316.50000000 0.698771 0.698771 0.153093 0.000000
75.91790009 113.54699707 364.50000000 -0.535416 -0.397878 0.744998 0.000000
110.24600220 146.55499268 376.50000000 0.000978 0.000978 0.999999 0.000000
166.35899353 116.18699646 322.50000000 -0.060212 -0.847167 0.527904 0.000000
172.30099487 116.18699646 325.50000000 -0.698771 -0.698771 0.153093 0.000000
123.44899750 198.04699707 313.50000000 0.776970 0.526023 -0.345856 0.000000
69.97650146 141.27299500 226.50000000 0.723869 0.589880 -0.357849 0.000000
64.03510284 182.86300659 361.50000000 0.108927 0.132867 0.985130 0.000000
168.33999634 86.48040009 274.50000000 -0.798355 0.079116 0.596968 0.000000
77.56829834 157.11700439 249.00000000 0.842012 0.342116 -0.417100 0.000000
194.74600220 96.38279724 370.50000000 0.173953 -0.112268 0.978333 0.000000
63.04489899 122.12899780 252.00000000 -0.894688 -0.446689 0.001310 0.000000
129.39100647 131.70100403 312.00000000 0.123509 -0.960772 -0.248319 0.000000
189.46499634 76.24800110 327.00000000 -0.001164 -0.976541 -0.215328 0.000000
79.21869659 136.65199280 373.50000000 -0.410056 -0.282009 0.867367 0.000000
95.72260284 174.94099426 370.50000000 0.000978 0.000978 0.999999 0.000000
93.08200073 173.62100220 370.50000000 0.000978 0.000978 0.999999 0.000000
114.86699677 197.38699341 304.50000000 0.742241 0.363780 -0.562798 0.000000
188.14399719 102.32399750 319.50000000 -0.544695 -0.838310 0.023324 0.000000
93.74220276 151.17599487 265.50000000 0.583879 0.302337 -0.753444 0.000000
132.03100586 132.36099243 309.00000000 0.088682 -0.980361 -0.176149 0.000000
103.64399719 176.92199707 367.50000000 0.226103 0.746919 0.625291 0.000000
168.33999634 80.20899963 324.00000000 -0.057373 -0.998287 -0.011475 0.000000
197.38699341 100.34400177 373.50000000 0.535141 -0.465122 0.705185 0.000000
134.67199707 115.52700043 328.50000000 0.698771 -0.698771 -0.153093 0.000000
72.94719696 109.58599854 252.00000000 -0.642391 -0.740984 0.195644 0.000000
105.95500183 212.57000732 312.00000000 0.393127 0.915482 -0.085699 0.000000
126.08999634 170.97999573 304.50000000 0.729586 0.346106 -0.589843 0.000000
205.96899414 82.51950073 364.50000000 0.312380 -0.568692 0.760926 0.000000
91.76170349 87.14060211 319.50000000 -0.484725 -0.831621 -0.271012 0.000000
90.44139862 120.80899811 238.50000000 0.707203 0.089315 -0.701346 0.000000
