69.44819641 171.72700500 180.00000000 0.917835 0.362340 0.162137 0.000000
180.98599243 182.66999817 162.50000000 0.000000 0.000000 0.000000 0.000000
235.70300293 189.40400696 187.50000000 -0.694162 -0.304401 0.652287 0.000000
114.48400116 199.50599670 112.50000000 0.000978 0.000978 0.999999 0.000000
106.06600189 284.52700806 132.50000000 0.000978 0.000978 0.999999 0.000000
82.49610138 287.05300903 212.50000000 0.822393 -0.518031 -0.235189 0.000000
148.15600586 180.56500244 160.00000000 -0.230857 -0.673727 0.701995 0.000000
191.92999268 93.86039734 170.00000000 -0.683534 0.107771 0.721918 0.000000
181.82800293 208.76600647 162.50000000 -0.000978 -0.000978 0.999999 0.000000
119.53500366 199.50599670 112.50000000 0.000978 0.000978 0.999999 0.000000
121.63999939 300.52200317 250.00000000 -0.048707 -0.532993 -0.844717 0.000000
166.67599487 297.99600220 187.50000000 -0.844608 -0.321978 0.427748 0.000000
132.16200256 285.36898804 152.50000000 -0.723512 0.001383 0.690311 0.000000
123.74400330 199.50599670 112.50000000 -0.000978 -0.000978 0.999999 0.000000
211.29100037 180.98599243 202.50000000 -0.000978 -0.000978 -0.999999 0.000000
122.06099701 199.50599670 257.50000000 -0.000978 -0.000978 -0.999999 0.000000
176.77699280 159.10000610 212.50000000 -0.000978 -0.000978 -0.999999 0.000000
127.95300293 182.24899292 245.00000000 -0.460894 0.856809 -0.231203 0.000000
140.15899658 250.01400757 140.00000000 -0.530460 -0.554036 0.641604 0.000000
75.34079742 276.10900879 175.00000000 0.781948 -0.609831 0.129088 0.000000
87.54689789 167.51800537 137.50000000 0.865145 0.141040 0.481282 0.000000
163.30900574 283.68600464 242.50000000 -0.436180 -0.348000 -0.829845 0.000000
159.10000610 292.10400391 247.50000000 -0.000978 -0.000978 -0.999999 0.000000
81.23339844 208.76600647 120.00000000 0.963153 0.160743 -0.215631 0.000000
196.13900757 108.59200287 167.50000000 -0.651021 0.230603 0.723183 0.000000
83.33789825 162.04600525 215.00000000 0.608076 0.608076 -0.510380 0.000000
125.42800140 159.10000610 157.50000000 -0.734388 -0.202536 0.647807 0.000000
66.08110046 246.64700317 155.00000000 0.986241 0.001125 0.165311 0.000000
64.81839752 237.80799866 180.00000000 0.993804 -0.001079 -0.111142 0.000000
66.50199890 176.77699280 187.50000000 0.954787 0.226947 0.192032 0.000000
109.01300049 150.68200684 135.00000000 -0.944718 0.276736 0.175857 0.000000
145.63099670 143.94700623 137.50000000 0.222868 0.276132 0.934923 0.000000
163.30900574 230.65199280 242.50000000 -0.000978 -0.000978 -0.999999 0.000000
155.73199463 271.05899048 167.50000000 -0.846180 -0.457770 0.272812 0.000000
193.61300659 159.10000610 207.50000000 -0.000978 -0.000978 -0.999999 0.000000
70.29000092 170.04299927 180.00000000 -0.000978 -0.000978 0.999999 0.000000
195.29699707 101.85700226 167.50000000 -0.749990 -0.149394 0.644357 0.000000
170.04299927 297.15399170 192.50000000 -0.001125 -0.986241 0.165311 0.000000
90.91410065 276.95098877 252.50000000 -0.194818 0.524045 -0.829109 0.000000
166.67599487 281.16000366 187.50000000 -0.948187 -0.001236 0.317711 0.000000
170.04299927 252.53900146 182.50000000 -0.570882 -0.396492 0.718949 0.000000
151.52299500 244.96299744 147.50000000 -0.638569 -0.500409 0.584653 0.000000
64.39749908 213.81599426 180.00000000 0.019475 -0.999368 0.029725 0.000000
159.10000610 152.36500549 212.50000000 -0.000978 -0.000978 -0.999999 0.000000
128.79499817 250.01400757 257.50000000 -0.000978 -0.000978 -0.999999 0.000000
163.30900574 214.65800476 242.50000000 -0.311443 0.937074 -0.157780 0.000000
174.67300415 294.62899780 225.00000000 -0.976675 -0.138810 0.163821 0.000000
88.38870239 260.53601074 120.00000000 0.296665 -0.604556 0.739258 0.000000
155.73199463 263.48199463 252.50000000 -0.305774 -0.265198 -0.914425 0.000000
220.55099487 138.89599609 197.50000000 -0.000978 -0.000978 -0.999999 0.000000
166.67599487 307.25601196 227.50000000 -0.688082 -0.688082 -0.230406 0.000000
106.90799713 187.72099304 252.50000000 -0.000978 -0.000978 -0.999999 0.000000
113.64299774 140.58000183 192.50000000 0.970064 0.172997 -0.170434 0.000000
92.17680359 175.09399414 240.00000000 0.461304 0.625695 -0.629050 0.000000
161.62500000 175.93600464 162.50000000 -0.391013 -0.592294 0.704483 0.000000
70.71089935 175.09399414 167.50000000 0.892187 0.375580 0.250881 0.000000
158.25799561 277.79299927 247.50000000 -0.000978 -0.000978 -0.999999 0.000000
117.85199738 160.78300476 147.50000000 -0.802647 0.274879 0.529339 0.000000
187.72099304 167.51800537 147.50000000 0.000978 0.000978 0.999999 0.000000
172.14700317 220.55099487 230.00000000 -0.892127 0.445374 -0.075838 0.000000
172.56799316 157.41600037 147.50000000 -0.224442 -0.263475 0.938193 0.000000
186.03700256 113.22200012 190.00000000 -0.009465 0.850457 -0.525959 0.000000
94.28130341 216.34199524 262.50000000 0.398155 0.280071 -0.873518 0.000000
125.42800140 292.94500732 257.50000000 -0.280208 -0.837527 -0.469077 0.000000
132.58299255 182.66999817 135.00000000 -0.839765 0.409680 0.356311 0.000000
190.24600220 184.35400391 157.50000000 0.275580 -0.935853 0.219625 0.000000
130.47900391 246.64700317 257.50000000 -0.000978 -0.000978 -0.999999 0.000000
94.28130341 147.31399536 192.50000000 0.394002 0.894926 -0.209451 0.000000
143.10499573 280.31799316 257.50000000 -0.000978 -0.000978 -0.999999 0.000000
95.96489716 152.36500549 207.50000000 0.226997 0.643418 -0.731085 0.000000
130.47900391 175.09399414 237.50000000 -0.000978 -0.000978 -0.999999 0.000000
161.62500000 264.32400513 172.50000000 -0.903871 -0.290477 0.314069 0.000000
81.65429688 173.41000366 147.50000000 0.854037 -0.104781 0.509551 0.000000
129.21600342 271.89999390 145.00000000 -0.695781 -0.361806 0.620472 0.000000
154.89100647 308.93899536 182.50000000 -0.687150 -0.341127 0.641449 0.000000
87.54689789 279.47698975 247.50000000 0.875532 -0.196367 -0.441457 0.000000
162.46699524 225.60200500 157.50000000 -0.720488 -0.044054 0.692067 0.000000
65.23930359 255.90600586 170.00000000 0.920506 -0.338985 0.194313 0.000000
202.87300110 117.01000214 167.50000000 0.000978 0.000978 0.999999 0.000000
102.69899750 303.46798706 235.00000000 0.688082 -0.688082 -0.230406 0.000000
131.32000732 127.11100006 182.50000000 0.252809 0.198148 -0.947009 0.000000
165.83399963 110.27500153 162.50000000 0.000978 0.000978 0.999999 0.000000
202.03100586 174.25199890 202.50000000 -0.753684 0.471258 -0.458122 0.000000
110.27500153 155.73199463 132.50000000 -0.805461 0.490902 0.332034 0.000000
154.89100647 266.85000610 252.50000000 -0.235029 -0.100364 -0.966793 0.000000
175.09399414 275.26800537 202.50000000 -0.918427 0.035578 0.393988 0.000000
111.11699677 294.62899780 252.50000000 0.405281 -0.875347 -0.263659 0.000000
146.47300720 104.38300323 162.50000000 0.392047 0.853827 -0.342460 0.000000
122.90200043 308.09799194 242.50000000 -0.000978 -0.000978 -0.999999 0.000000
101.85700226 143.52600098 190.00000000 0.272734 0.911545 -0.307737 0.000000
163.30900574 254.22300720 247.50000000 -0.601565 0.079343 -0.794874 0.000000
131.74099731 186.87899780 130.00000000 -0.778613 0.404749 0.479521 0.000000
143.10499573 237.38699341 137.50000000 -0.169576 -0.190288 0.966972 0.000000
155.31199646 212.97500610 150.00000000 -0.862456 0.289528 0.415143 0.000000
164.99200439 138.05499268 202.50000000 0.319434 0.692377 -0.646975 0.000000
148.99800110 282.00201416 162.50000000 -0.295904 0.942258 0.156816 0.000000
111.11699677 201.18899536 112.50000000 -0.000978 -0.000978 0.999999 0.000000
209.60699463 168.35899353 157.50000000 -0.459331 -0.009266 0.888217 0.000000
226.44299316 169.20100403 197.50000000 0.620586 0.155524 -0.768560 0.000000
72.81539917 222.23399353 140.00000000 0.917514 0.357675 0.173889 0.000000
85.86329651 155.73199463 207.50000000 0.168910 0.983931 -0.057878 0.000000
69.86910248 241.59599304 217.50000000 -0.156139 0.465498 -0.871167 0.000000
94.28130341 240.75399780 257.50000000 0.000978 0.000978 -0.999999 0.000000
164.99200439 156.57400513 212.50000000 -0.000978 -0.000978 -0.999999 0.000000
160.78300476 207.08200073 162.50000000 0.000978 0.000978 0.999999 0.000000
133.84599304 305.57199097 157.50000000 0.000978 0.000978 0.999999 0.000000
207.92399597 140.15899658 200.00000000 -0.632218 0.504088 -0.588384 0.000000
190.24600220 125.42800140 197.50000000 -0.000978 -0.000978 -0.999999 0.000000
65.23930359 213.81599426 220.00000000 0.990429 -0.118759 -0.070333 0.000000
90.07230377 296.73300171 195.00000000 0.702227 -0.702227 0.117285 0.000000
177.61900330 120.37699890 192.50000000 0.074640 0.400341 -0.913321 0.000000
83.33789825 285.79000854 160.00000000 0.688082 -0.688082 0.230406 0.000000
97.64849854 202.87300110 257.50000000 0.056033 0.184791 -0.981179 0.000000
138.89599609 276.10900879 257.50000000 -0.000978 -0.000978 -0.999999 0.000000
177.61900330 145.63099670 202.50000000 -0.000978 -0.000978 -0.999999 0.000000
164.99200439 257.16900635 175.00000000 -0.885371 -0.014645 0.464654 0.000000
85.02149963 202.03100586 112.50000000 0.731901 0.146380 0.665502 0.000000
145.63099670 115.32599640 177.50000000 0.361048 0.579964 -0.730264 0.000000
104.38300323 274.84698486 130.00000000 -0.772308 -0.551648 0.314999 0.000000
206.24000549 193.61300659 207.50000000 -0.457869 -0.061874 -0.886864 0.000000
82.91699982 154.04899597 155.00000000 0.840575 0.534130 0.090215 0.000000
143.10499573 270.21701050 157.50000000 -0.647731 -0.230548 0.726149 0.000000
87.54689789 286.21099854 147.50000000 0.788451 -0.591716 0.167981 0.000000
90.91410065 202.03100586 112.50000000 0.000978 0.000978 0.999999 0.000000
174.25199890 142.26400757 202.50000000 -0.000978 -0.000978 -0.999999 0.000000
178.46099854 231.07299805 210.00000000 -0.353111 0.917522 0.182937 0.000000
144.78900146 156.57400513 217.50000000 -0.258278 0.667086 -0.698777 0.000000
139.73800659 319.88299561 202.50000000 -0.001125 -0.986241 -0.165311 0.000000
64.39749908 218.86700439 210.00000000 0.986241 -0.001125 -0.165311 0.000000
149.83999634 240.75399780 252.50000000 -0.893111 -0.001311 -0.449834 0.000000
98.49019623 295.47100830 242.50000000 -0.284301 -0.855976 -0.431830 0.000000
84.17970276 282.00201416 222.50000000 0.820182 -0.327124 -0.469352 0.000000
145.63099670 245.80499268 142.50000000 -0.579915 -0.499232 0.643790 0.000000
90.91410065 175.09399414 237.50000000 0.220712 0.569529 -0.791785 0.000000
167.93899536 250.85499573 175.00000000 -0.892600 -0.347205 0.287599 0.000000
133.84599304 316.09500122 170.00000000 -0.295399 -0.889197 0.349381 0.000000
187.72099304 121.21900177 197.50000000 -0.000978 -0.000978 -0.999999 0.000000
219.70899963 119.53500366 197.50000000 -0.000978 -0.000978 -0.999999 0.000000
140.58000183 143.94700623 202.50000000 -0.000978 -0.000978 -0.999999 0.000000
202.03100586 204.13600159 155.00000000 0.698872 -0.189760 -0.689615 0.000000
154.89100647 143.10499573 137.50000000 -0.119575 0.197613 0.972960 0.000000
212.13299561 196.97999573 202.50000000 0.000978 0.000978 -0.999999 0.000000
96.80670166 206.66099548 260.00000000 0.590580 0.361546 -0.721457 0.000000
130.47900391 308.09799194 157.50000000 -0.000978 -0.000978 0.999999 0.000000
169.20100403 169.20100403 217.50000000 0.000978 0.000978 -0.999999 0.000000
193.61300659 94.28130341 172.50000000 -0.091815 -0.779699 0.619387 0.000000
69.86910248 271.48001099 190.00000000 0.881525 -0.467664 -0.064838 0.000000
170.46400452 224.75999451 190.00000000 -0.893026 0.448533 -0.036368 0.000000
88.38870239 189.40400696 132.50000000 0.482432 -0.482432 0.731108 0.000000
143.10499573 202.03100586 137.50000000 -0.835545 0.048985 0.547233 0.000000
228.12699890 158.25799561 197.50000000 -0.000978 -0.000978 -0.999999 0.000000
185.19500732 122.06099701 197.50000000 0.211395 0.594066 -0.776143 0.000000
96.80670166 218.86700439 262.50000000 0.148596 -0.082025 -0.985490 0.000000
165.83399963 180.14500427 162.50000000 0.000978 0.000978 0.999999 0.000000
160.78300476 128.79499817 142.50000000 0.000978 0.000978 0.999999 0.000000
212.97500610 137.21299744 172.50000000 -0.649784 0.293606 0.701125 0.000000
119.53500366 232.33599854 117.50000000 0.000978 0.000978 0.999999 0.000000
228.96899414 199.50599670 202.50000000 -0.000978 -0.000978 -0.999999 0.000000
171.72700500 129.63699341 197.50000000 -0.000978 -0.000978 -0.999999 0.000000
164.99200439 175.09399414 162.50000000 0.339594 -0.529509 0.777365 0.000000
207.08200073 123.74400330 172.50000000 0.000978 0.000978 0.999999 0.000000
143.94700623 280.31799316 162.50000000 -0.328167 0.908659 -0.258158 0.000000
110.27500153 252.11799622 125.00000000 -0.572652 -0.407622 0.711276 0.000000
198.66400146 212.13299561 162.50000000 0.698354 -0.538349 0.471680 0.000000
152.36500549 151.52299500 212.50000000 -0.000978 -0.000978 -0.999999 0.000000
122.06099701 266.85000610 257.50000000 -0.000978 -0.000978 -0.999999 0.000000
155.73199463 161.62500000 137.50000000 -0.779986 0.519454 -0.348983 0.000000
68.18560028 171.72700500 212.50000000 0.878052 0.350311 -0.326047 0.000000
176.77699280 182.66999817 217.50000000 -0.790101 0.161030 -0.591447 0.000000
180.98599243 139.73800659 147.50000000 -0.199752 -0.661194 0.723133 0.000000
79.97070313 277.79299927 152.50000000 0.916747 -0.304620 0.258422 0.000000
186.45799255 244.12100220 220.00000000 -0.797516 -0.500246 -0.337226 0.000000
146.05200195 106.90799713 165.00000000 0.471413 0.711284 -0.521387 0.000000
92.59770203 202.87300110 112.50000000 0.000978 0.000978 0.999999 0.000000
165.83399963 308.09799194 227.50000000 -0.688082 -0.688082 -0.230406 0.000000
93.43949890 162.46699524 222.50000000 -0.001356 0.828486 -0.560008 0.000000
174.25199890 189.40400696 162.50000000 0.000978 0.000978 0.999999 0.000000
106.90799713 169.20100403 237.50000000 -0.000978 -0.000978 -0.999999 0.000000
132.16200256 182.24899292 150.00000000 -0.665757 0.665757 0.336948 0.000000
69.44819641 174.25199890 175.00000000 0.921122 0.343829 0.182526 0.000000
161.62500000 157.41600037 137.50000000 -0.945390 -0.155983 0.286194 0.000000
148.99800110 164.14999390 137.50000000 -0.445374 0.892127 -0.075838 0.000000
137.63400269 217.18400574 130.00000000 -0.787328 -0.262443 0.557887 0.000000
203.71499634 151.52299500 202.50000000 -0.000978 -0.000978 -0.999999 0.000000
101.85700226 202.87300110 112.50000000 0.000978 0.000978 0.999999 0.000000
114.48400116 162.04600525 225.00000000 -0.041995 0.887320 -0.459239 0.000000
190.24600220 192.77200317 152.50000000 0.080151 -0.490752 -0.867605 0.000000
170.04299927 157.41600037 212.50000000 -0.000978 -0.000978 -0.999999 0.000000
159.94099426 226.44299316 242.50000000 -0.421413 0.069554 -0.904198 0.000000
122.06099701 287.05300903 142.50000000 0.000978 0.000978 0.999999 0.000000
122.90200043 202.03100586 257.50000000 -0.000978 -0.000978 -0.999999 0.000000
191.92999268 202.87300110 212.50000000 0.367756 -0.724070 -0.583506 0.000000
132.16200256 164.14999390 157.50000000 0.000978 0.000978 0.999999 0.000000
220.55099487 180.98599243 167.50000000 -0.769452 0.188156 0.610361 0.000000
173.41000366 185.19500732 222.50000000 -0.311253 0.204216 -0.928126 0.000000
171.72700500 266.85000610 192.50000000 -0.817162 -0.084732 0.570146 0.000000
202.03100586 159.10000610 152.50000000 -0.495186 0.135051 0.858226 0.000000
130.47900391 160.36199951 220.00000000 -0.009691 0.629885 -0.776628 0.000000
67.76470184 236.54499817 145.00000000 0.970614 0.175197 0.164966 0.000000
169.20100403 243.27900696 242.50000000 -0.316613 0.134526 -0.938967 0.000000
224.33900452 193.61300659 175.00000000 -0.594614 -0.761800 0.257088 0.000000
204.97799683 145.63099670 160.00000000 -0.457255 0.463810 0.758814 0.000000
173.83099365 206.24000549 155.00000000 0.757579 0.089041 0.646642 0.000000
117.85199738 202.87300110 112.50000000 0.000978 0.000978 0.999999 0.000000
186.87899780 184.35400391 212.50000000 -0.000978 -0.000978 -0.999999 0.000000
116.16799927 315.25299072 220.00000000 0.487897 -0.813162 -0.317370 0.000000
68.60649872 170.04299927 205.00000000 0.785555 0.610012 -0.103863 0.000000
196.13900757 215.50000000 202.50000000 0.514742 0.171581 -0.840000 0.000000
119.53500366 171.72700500 127.50000000 -0.686791 0.424048 0.590341 0.000000
103.54100037 161.62500000 222.50000000 0.172982 0.885261 -0.431728 0.000000
88.80960083 272.74200439 250.00000000 0.876819 -0.298330 -0.377078 0.000000
143.10499573 234.86099243 137.50000000 -0.534128 -0.243067 0.809707 0.000000
138.05499268 143.94700623 142.50000000 0.000978 0.000978 0.999999 0.000000
85.86329651 240.75399780 252.50000000 0.706205 -0.213576 -0.675026 0.000000
133.00399780 299.67999268 152.50000000 0.000978 0.000978 0.999999 0.000000
98.06939697 135.52900696 145.00000000 0.590603 0.789988 0.164644 0.000000
116.58899689 244.96299744 125.00000000 -0.402193 -0.376957 0.834353 0.000000
139.73800659 241.59599304 137.50000000 -0.542798 -0.573235 0.613818 0.000000
134.68800354 129.63699341 182.50000000 0.059596 0.928371 -0.366846 0.000000
168.35899353 242.43800354 242.50000000 -0.324958 0.102970 -0.940106 0.000000
142.26400757 233.59899902 135.00000000 -0.445380 -0.320361 0.836065 0.000000
228.96899414 149.83999634 197.50000000 -0.251790 0.001193 -0.967781 0.000000
191.92999268 176.77699280 207.50000000 -0.000978 -0.000978 -0.999999 0.000000
163.72999573 172.56799316 220.00000000 -0.633313 0.629971 -0.449502 0.000000
216.34199524 147.73500061 170.00000000 -0.746739 0.117281 0.654696 0.000000
118.27200317 143.94700623 200.00000000 -0.153580 0.931163 -0.330680 0.000000
123.74400330 276.10900879 257.50000000 -0.000978 -0.000978 -0.999999 0.000000
124.58599854 222.23399353 262.50000000 -0.000978 -0.000978 -0.999999 0.000000
133.84599304 166.67599487 157.50000000 0.000978 0.000978 0.999999 0.000000
95.12310028 203.71499634 112.50000000 0.000978 0.000978 0.999999 0.000000
212.13299561 193.61300659 172.50000000 0.557429 -0.803127 -0.210379 0.000000
112.80100250 243.27900696 122.50000000 -0.228493 -0.323339 0.918283 0.000000
113.64299774 254.22300720 257.50000000 -0.000978 -0.000978 -0.999999 0.000000
149.83999634 292.94500732 167.50000000 0.000978 0.000978 0.999999 0.000000
172.56799316 296.31298828 232.50000000 -0.734865 -0.289783 -0.613188 0.000000
86.70510101 152.36500549 142.50000000 0.994233 0.005409 0.107105 0.000000
153.20700073 171.72700500 222.50000000 -0.000978 -0.000978 -0.999999 0.000000
175.93600464 148.99800110 207.50000000 -0.175400 0.639068 -0.748884 0.000000
127.11100006 150.68200684 212.50000000 -0.000978 -0.000978 -0.999999 0.000000
64.81839752 254.22300720 167.50000000 0.986241 0.001125 -0.165311 0.000000
145.63099670 104.38300323 157.50000000 0.385188 0.908247 -0.163456 0.000000
215.50000000 200.34800720 202.50000000 0.082304 -0.798497 -0.596346 0.000000
185.19500732 125.42800140 197.50000000 -0.000978 -0.000978 -0.999999 0.000000
140.58000183 141.42199707 202.50000000 0.277533 0.857133 -0.433933 0.000000
199.50599670 116.16799927 167.50000000 0.000978 0.000978 0.999999 0.000000
174.25199890 297.99600220 202.50000000 -0.827714 -0.439871 0.348428 0.000000
160.78300476 189.40400696 232.50000000 -0.482012 0.039599 -0.875269 0.000000
148.15600586 145.63099670 207.50000000 0.208789 0.941626 -0.264098 0.000000
90.07230377 205.39799500 257.50000000 -0.000978 -0.000978 -0.999999 0.000000
147.31399536 211.29100037 247.50000000 -0.062760 0.112969 -0.991614 0.000000
171.72700500 223.91799927 222.50000000 -0.795754 0.597181 0.100747 0.000000
167.51800537 255.90600586 177.50000000 -0.751878 -0.317174 0.577996 0.000000
119.53500366 292.10400391 142.50000000 0.000978 0.000978 0.999999 0.000000
90.91410065 251.69700623 252.50000000 0.066809 0.336664 -0.939252 0.000000
85.86329651 147.31399536 157.50000000 0.800658 0.534294 0.271064 0.000000
95.96489716 227.28500366 262.50000000 0.145995 -0.277257 -0.949639 0.000000
159.94099426 205.39799500 242.50000000 -0.573778 0.415038 -0.706061 0.000000
125.42800140 159.52099609 220.00000000 -0.082498 0.623800 -0.777218 0.000000
191.92999268 154.04899597 147.50000000 0.000978 0.000978 0.999999 0.000000
232.33599854 139.73800659 182.50000000 0.000978 0.000978 0.999999 0.000000
239.91200256 180.98599243 197.50000000 -0.000978 -0.000978 -0.999999 0.000000
106.90799713 302.20498657 242.50000000 -0.000978 -0.000978 -0.999999 0.000000
118.69300079 140.58000183 152.50000000 0.000978 0.000978 0.999999 0.000000
72.81539917 223.91799927 135.00000000 0.991496 0.123230 0.041831 0.000000
92.59770203 201.18899536 257.50000000 0.084567 0.077801 -0.993376 0.000000
145.63099670 159.94099426 217.50000000 -0.392167 0.546408 -0.740030 0.000000
186.03700256 101.01599884 177.50000000 -0.426572 -0.736207 0.525391 0.000000
65.66020203 198.66400146 232.50000000 0.884212 -0.442827 -0.148571 0.000000
106.90799713 260.95700073 127.50000000 -0.283577 -0.038726 0.958167 0.000000
93.43949890 256.74798584 117.50000000 0.000978 0.000978 0.999999 0.000000
237.38699341 156.57400513 192.50000000 -0.853402 0.503288 0.135669 0.000000
75.76170349 233.17799377 237.50000000 0.894943 -0.360649 -0.262695 0.000000
167.51800537 214.65800476 162.50000000 0.310682 -0.139739 0.940186 0.000000
170.88499451 246.64700317 177.50000000 -0.821529 -0.457460 0.340325 0.000000
196.97999573 205.39799500 212.50000000 0.000978 0.000978 -0.999999 0.000000
215.07899475 212.97500610 185.00000000 0.935835 0.330055 0.123601 0.000000
166.67599487 143.94700623 202.50000000 -0.272063 0.641178 -0.717546 0.000000
79.12889862 259.27301025 242.50000000 0.634711 0.347541 -0.690187 0.000000
152.36500549 180.98599243 162.50000000 -0.188133 -0.130052 0.973495 0.000000
179.30299377 163.30900574 147.50000000 0.000978 0.000978 0.999999 0.000000
106.06600189 218.86700439 262.50000000 -0.000978 -0.000978 -0.999999 0.000000
95.96489716 204.55700684 112.50000000 0.000978 0.000978 0.999999 0.000000
221.39300537 201.18899536 192.50000000 -0.138810 -0.976675 0.163821 0.000000
76.18260193 282.00201416 205.00000000 0.839391 -0.538290 -0.075275 0.000000
99.33200073 236.54499817 262.50000000 -0.000978 -0.000978 -0.999999 0.000000
103.54100037 173.41000366 242.50000000 0.000978 0.000978 -0.999999 0.000000
101.01599884 204.55700684 112.50000000 0.000978 0.000978 0.999999 0.000000
154.04899597 288.73599243 247.50000000 -0.000978 -0.000978 -0.999999 0.000000
96.80670166 191.08799744 252.50000000 0.384376 0.384376 -0.839351 0.000000
141.42199707 213.81599426 252.50000000 -0.369527 -0.079280 -0.925832 0.000000
186.87899780 191.50900269 155.00000000 -0.137992 -0.580160 -0.802728 0.000000
222.23399353 138.05499268 197.50000000 -0.000978 -0.000978 -0.999999 0.000000
179.30299377 264.32400513 232.50000000 -0.929278 -0.115989 -0.350697 0.000000
126.26999664 313.14801025 237.50000000 0.225176 -0.781128 -0.582352 0.000000
138.05499268 165.83399963 227.50000000 -0.790494 0.396055 0.467183 0.000000
201.18899536 158.67900085 205.00000000 -0.668512 0.351418 -0.655436 0.000000
70.71089935 225.60200500 142.50000000 0.912930 0.337104 0.230041 0.000000
192.77200317 192.77200317 212.50000000 -0.889197 0.295399 -0.349381 0.000000
127.95300293 159.94099426 217.50000000 -0.067634 0.634605 -0.769872 0.000000
86.70510101 236.54499817 257.50000000 0.531818 -0.357239 -0.767822 0.000000
97.64849854 295.47100830 142.50000000 0.493626 -0.800345 0.340266 0.000000
118.69300079 191.08799744 252.50000000 -0.000978 -0.000978 -0.999999 0.000000
244.12100220 186.87899780 192.50000000 0.644217 -0.620791 0.446769 0.000000
205.39799500 133.00399780 167.50000000 -0.372348 0.326379 0.868812 0.000000
116.16799927 164.57099915 230.00000000 0.000000 0.000000 0.000000 0.000000
117.01000214 204.55700684 112.50000000 0.000978 0.000978 0.999999 0.000000
92.59770203 148.99800110 197.50000000 0.402510 0.900992 -0.161863 0.000000
133.84599304 111.11699677 157.50000000 0.638842 0.638842 -0.428675 0.000000
140.15899658 110.27500153 165.00000000 0.284985 0.798273 -0.530607 0.000000
197.82200623 143.94700623 202.50000000 -0.000978 -0.000978 -0.999999 0.000000
112.80100250 296.73300171 250.00000000 0.334093 -0.881342 -0.334093 0.000000
107.75000000 263.48199463 127.50000000 -0.258049 -0.176986 0.949782 0.000000
143.94700623 152.36500549 212.50000000 -0.000978 -0.000978 -0.999999 0.000000
92.59770203 167.51800537 232.50000000 0.097739 0.792125 -0.602482 0.000000
161.62500000 206.24000549 162.50000000 0.000978 0.000978 0.999999 0.000000
122.06099701 186.03700256 117.50000000 -0.917836 0.345790 0.194951 0.000000
182.66999817 234.86099243 227.50000000 -0.763803 0.001376 -0.645448 0.000000
184.35400391 112.80100250 187.50000000 0.157641 0.938992 -0.305686 0.000000
72.39450073 202.03100586 157.50000000 0.766300 -0.001376 0.642481 0.000000
206.66099548 202.03100586 160.00000000 0.703222 -0.104673 -0.703222 0.000000
117.85199738 143.94700623 197.50000000 0.022742 0.889601 -0.456171 0.000000
79.97070313 249.17199707 117.50000000 0.890875 -0.297957 0.342875 0.000000
83.33789825 185.61599731 245.00000000 0.437737 0.295434 -0.849179 0.000000
118.69300079 299.25900269 250.00000000 -0.020926 -0.645926 -0.763113 0.000000
90.07230377 205.39799500 112.50000000 0.000978 0.000978 0.999999 0.000000
150.68200684 125.42800140 187.50000000 -0.000978 -0.000978 -0.999999 0.000000
114.48400116 164.57099915 230.00000000 -0.001311 0.893111 -0.449834 0.000000
203.71499634 149.83999634 202.50000000 -0.000978 -0.000978 -0.999999 0.000000
151.52299500 209.18699646 160.00000000 0.573737 0.641037 0.509801 0.000000
86.70510101 286.63198853 225.00000000 0.714836 -0.535713 -0.449468 0.000000
162.04600525 285.36898804 245.00000000 -0.655381 -0.110956 -0.747104 0.000000
246.64700317 178.46099854 197.50000000 -0.505891 0.312416 -0.804034 0.000000
159.94099426 148.99800110 207.50000000 0.000978 0.000978 -0.999999 0.000000
156.57400513 196.97999573 237.50000000 -0.320807 0.442870 -0.837227 0.000000
156.99499512 287.05300903 175.00000000 -0.803058 -0.100564 0.587354 0.000000
152.36500549 183.51199341 162.50000000 -0.188133 -0.130052 0.973495 0.000000
169.62199402 223.07600403 210.00000000 -0.613215 0.391730 0.685941 0.000000
185.19500732 210.02799988 195.00000000 0.172975 -0.976874 -0.125687 0.000000
170.88499451 301.36300659 232.50000000 -0.684192 -0.493488 -0.536982 0.000000
150.68200684 124.58599854 187.50000000 0.117903 0.455987 -0.882142 0.000000
120.37699890 162.46699524 147.50000000 -0.844699 0.335694 0.416885 0.000000
186.87899780 170.04299927 147.50000000 0.000978 0.000978 0.999999 0.000000
85.02149963 161.62500000 142.50000000 0.871409 0.404637 0.277335 0.000000
162.46699524 257.58999634 247.50000000 -0.588118 0.263313 -0.764711 0.000000
66.92289734 181.82800293 175.00000000 0.959926 0.220506 0.172972 0.000000
87.54689789 144.78900146 157.50000000 0.800658 0.534294 0.271064 0.000000
154.89100647 148.99800110 137.50000000 0.000978 0.000978 0.999999 0.000000
90.49320221 179.30299377 125.00000000 0.903486 0.383078 0.192262 0.000000
89.23049927 273.16299438 250.00000000 0.878351 -0.307954 -0.365600 0.000000
168.35899353 195.29699707 232.50000000 -0.221043 0.196929 -0.955175 0.000000
199.50599670 183.51199341 207.50000000 -0.000978 -0.000978 -0.999999 0.000000
142.26400757 320.30398560 200.00000000 -0.001125 -0.986241 -0.165311 0.000000
185.19500732 232.75700378 220.00000000 -0.619334 0.783734 0.046769 0.000000
69.44819641 260.95700073 160.00000000 0.665757 -0.665757 -0.336948 0.000000
141.84300232 195.29699707 140.00000000 -0.871120 0.449658 0.197375 0.000000
156.57400513 241.59599304 152.50000000 -0.000978 -0.000978 0.999999 0.000000
176.77699280 273.58401489 207.50000000 -0.949634 0.106982 0.294532 0.000000
221.39300537 185.19500732 202.50000000 -0.000978 -0.000978 -0.999999 0.000000
118.69300079 205.39799500 112.50000000 0.000978 0.000978 0.999999 0.000000
119.53500366 205.39799500 112.50000000 0.000978 0.000978 0.999999 0.000000
120.37699890 263.90301514 135.00000000 -0.175362 -0.470089 0.865023 0.000000
170.88499451 308.51901245 215.00000000 -0.740487 -0.660031 -0.126643 0.000000
150.68200684 176.77699280 157.50000000 -0.230183 -0.551513 0.801779 0.000000
113.64299774 149.41900635 210.00000000 -0.008694 0.950127 -0.311741 0.000000
79.97070313 284.52700806 187.50000000 0.744619 -0.640219 0.188842 0.000000
156.57400513 173.41000366 227.50000000 0.819098 -0.367401 -0.440563 0.000000
190.24600220 183.51199341 207.50000000 -0.631194 0.212466 -0.745957 0.000000
172.56799316 299.67999268 202.50000000 -0.901733 -0.351573 0.251544 0.000000
150.68200684 167.51800537 222.50000000 -0.000978 -0.000978 -0.999999 0.000000
194.45500183 99.33200073 177.50000000 -0.147143 -0.866832 0.476394 0.000000
183.51199341 204.55700684 217.50000000 0.321496 -0.592909 -0.738309 0.000000
65.66020203 248.33000183 157.50000000 0.977506 -0.167679 0.127933 0.000000
176.77699280 118.69300079 192.50000000 0.113364 0.356482 -0.927399 0.000000
193.61300659 145.63099670 152.50000000 -0.225903 0.188475 0.955743 0.000000
66.92289734 247.48800659 150.00000000 0.972284 -0.193950 0.130567 0.000000
111.53800201 143.94700623 145.00000000 -0.899329 0.146800 0.411895 0.000000
168.35899353 209.60699463 232.50000000 -0.757855 0.326634 -0.564771 0.000000
164.14999390 296.31298828 182.50000000 -0.986241 -0.001125 -0.165311 0.000000
229.81100464 203.71499634 197.50000000 0.001236 -0.948187 0.317711 0.000000
160.78300476 133.84599304 142.50000000 0.000978 0.000978 0.999999 0.000000
162.46699524 160.78300476 212.50000000 -0.000978 -0.000978 -0.999999 0.000000
208.76600647 191.92999268 167.50000000 -0.000978 -0.000978 0.999999 0.000000
154.04899597 296.31298828 167.50000000 -0.147000 -0.137117 0.979587 0.000000
148.99800110 115.32599640 147.50000000 -0.720263 0.210012 0.661148 0.000000
157.41600037 296.31298828 247.50000000 -0.460459 -0.383449 -0.800590 0.000000
125.42800140 121.21900177 167.50000000 0.490395 0.838714 -0.236795 0.000000
177.19799805 228.96899414 225.00000000 -0.448533 0.893026 0.036368 0.000000
211.29100037 186.03700256 162.50000000 -0.420134 -0.525580 0.739766 0.000000
177.61900330 140.58000183 147.50000000 -0.169582 -0.679857 0.713468 0.000000
233.17799377 201.18899536 202.50000000 -0.000978 -0.000978 -0.999999 0.000000
138.05499268 287.89498901 157.50000000 0.000978 0.000978 0.999999 0.000000
118.69300079 160.78300476 147.50000000 -0.802647 0.274879 0.529339 0.000000
130.47900391 256.74798584 137.50000000 -0.284204 -0.467462 0.837083 0.000000
207.92399597 108.59200287 192.50000000 0.282047 0.490855 -0.824325 0.000000
137.21299744 142.26400757 142.50000000 0.000978 0.000978 0.999999 0.000000
208.76600647 206.24000549 162.50000000 0.825004 -0.099694 -0.556264 0.000000
168.35899353 147.31399536 207.50000000 -0.000978 -0.000978 -0.999999 0.000000
107.75000000 254.22300720 122.50000000 -0.345513 -0.297650 0.889958 0.000000
119.53500366 148.15600586 207.50000000 0.038664 0.907943 -0.417307 0.000000
157.41600037 176.77699280 157.50000000 0.000978 0.000978 0.999999 0.000000
110.27500153 206.24000549 112.50000000 0.000978 0.000978 0.999999 0.000000
195.29699707 146.47300720 152.50000000 -0.178711 0.245896 0.952679 0.000000
148.15600586 224.75999451 137.50000000 0.000978 0.000978 0.999999 0.000000
81.65429688 276.52999878 145.00000000 0.753595 -0.504039 0.421948 0.000000
82.49610138 253.38099670 112.50000000 -0.000978 -0.000978 0.999999 0.000000
232.33599854 138.89599609 182.50000000 0.000978 0.000978 0.999999 0.000000
179.30299377 196.13900757 222.50000000 -0.000978 -0.000978 -0.999999 0.000000
180.98599243 242.43800354 187.50000000 -0.324896 -0.930068 0.171512 0.000000
150.68200684 301.78399658 245.00000000 -0.361743 -0.840934 -0.402458 0.000000
164.14999390 272.74200439 182.50000000 -0.821872 -0.255384 0.509220 0.000000
111.53800201 132.16200256 175.00000000 -0.312246 0.936739 -0.158186 0.000000
101.01599884 223.07600403 262.50000000 -0.000978 -0.000978 -0.999999 0.000000
213.81599426 133.84599304 172.50000000 -0.383609 0.108620 0.917086 0.000000
100.17400360 197.82200623 257.50000000 0.068826 0.244021 -0.967324 0.000000
163.30900574 231.49400330 157.50000000 -0.722145 -0.104851 0.683749 0.000000
171.30599976 244.96299744 175.00000000 -0.805482 -0.512293 0.297918 0.000000
107.75000000 225.60200500 262.50000000 -0.000978 -0.000978 -0.999999 0.000000
132.16200256 150.68200684 212.50000000 -0.198157 0.833469 -0.515813 0.000000
124.58599854 313.98999023 167.50000000 0.350311 -0.878052 0.326047 0.000000
192.77200317 136.37100220 202.50000000 -0.000978 -0.000978 -0.999999 0.000000
67.34380341 257.58999634 162.50000000 0.665757 -0.665757 -0.336948 0.000000
122.90200043 160.78300476 152.50000000 -0.770767 -0.174829 0.612661 0.000000
80.39160156 159.10000610 205.00000000 0.527234 0.767329 -0.365008 0.000000
217.18400574 156.57400513 167.50000000 0.000978 0.000978 0.999999 0.000000
112.80100250 255.06399536 127.50000000 -0.270039 -0.337917 0.901605 0.000000
120.37699890 169.62199402 135.00000000 -0.811002 0.566957 0.144343 0.000000
124.58599854 206.24000549 257.50000000 -0.000978 -0.000978 -0.999999 0.000000
68.18560028 212.13299561 167.50000000 0.871082 0.216650 0.440771 0.000000
72.39450073 208.76600647 157.50000000 0.755073 0.404562 0.515940 0.000000
71.13179779 272.74200439 195.00000000 0.841077 -0.527307 -0.120569 0.000000
139.73800659 277.79299927 157.50000000 -0.257658 -0.189495 0.947473 0.000000
231.91499329 181.82800293 200.00000000 -0.620577 0.232912 -0.748757 0.000000
204.55700684 163.30900574 202.50000000 -0.000978 -0.000978 -0.999999 0.000000
140.58000183 147.31399536 207.50000000 0.001377 0.758770 -0.651358 0.000000
195.71800232 159.10000610 150.00000000 -0.479263 0.179538 0.859112 0.000000
198.66400146 101.85700226 172.50000000 -0.230898 0.201192 0.951949 0.000000
200.76899719 118.69300079 195.00000000 0.404877 0.489430 -0.772356 0.000000
186.87899780 234.44000244 215.00000000 -0.555821 0.827302 0.081444 0.000000
133.84599304 292.94500732 257.50000000 -0.101589 -0.505085 -0.857070 0.000000
246.64700317 185.19500732 192.50000000 0.408116 -0.874965 -0.260532 0.000000
193.61300659 133.00399780 202.50000000 -0.000978 -0.000978 -0.999999 0.000000
73.23629761 268.95401001 160.00000000 -0.000978 -0.000978 -0.999999 0.000000
153.20700073 172.56799316 152.50000000 -0.397099 -0.827421 0.397099 0.000000
139.73800659 297.15399170 157.50000000 -0.586138 -0.001366 0.810210 0.000000
151.52299500 207.50300598 150.00000000 -0.787087 0.568884 0.238464 0.000000
169.20100403 214.23699951 220.00000000 -0.966676 -0.119074 0.226625 0.000000
111.11699677 300.52200317 242.50000000 0.233801 -0.496636 -0.835877 0.000000
74.07810211 264.74499512 145.00000000 0.810990 -0.517221 0.273455 0.000000
172.14700317 248.33000183 180.00000000 -0.768244 -0.402880 0.497483 0.000000
88.38870239 228.96899414 257.50000000 0.187929 -0.152133 -0.970329 0.000000
106.06600189 207.08200073 112.50000000 0.000978 0.000978 0.999999 0.000000
148.99800110 206.24000549 247.50000000 -0.602192 0.306716 -0.737082 0.000000
91.75589752 244.96299744 257.50000000 0.380245 -0.330983 -0.863634 0.000000
161.20399475 218.86700439 155.00000000 -0.699299 0.280039 0.657693 0.000000
99.33200073 133.00399780 152.50000000 0.660210 0.749002 0.055853 0.000000
110.27500153 207.08200073 112.50000000 0.000978 0.000978 0.999999 0.000000
160.78300476 166.67599487 147.50000000 -0.557844 -0.755111 0.344408 0.000000
154.89100647 250.01400757 252.50000000 -0.130486 0.041983 -0.990561 0.000000
239.91200256 179.30299377 187.50000000 -0.886328 -0.169722 0.430834 0.000000
94.28130341 276.95098877 252.50000000 0.116178 -0.308472 -0.944112 0.000000
66.92289734 187.72099304 230.00000000 0.641546 0.557354 -0.527044 0.000000
170.04299927 238.22900391 242.50000000 -0.345861 -0.021696 -0.938035 0.000000
86.70510101 284.52700806 142.50000000 0.391688 -0.880922 0.265627 0.000000
140.58000183 285.36898804 257.50000000 -0.000978 -0.000978 -0.999999 0.000000
209.60699463 207.92399597 202.50000000 0.664627 -0.032455 0.746470 0.000000
109.43399811 150.68200684 137.50000000 -0.802584 0.319444 0.503800 0.000000
203.71499634 117.43099976 195.00000000 0.359059 0.470766 -0.805888 0.000000
126.26999664 164.14999390 157.50000000 0.000978 0.000978 0.999999 0.000000
72.39450073 252.53900146 132.50000000 0.956127 -0.147198 0.253287 0.000000
68.18560028 267.69100952 192.50000000 0.924088 -0.382161 0.003834 0.000000
69.86910248 197.82200623 162.50000000 0.000978 0.000978 0.999999 0.000000
90.07230377 168.35899353 232.50000000 0.258952 0.779995 -0.569694 0.000000
149.83999634 220.55099487 247.50000000 -0.065344 0.290845 -0.954536 0.000000
165.83399963 161.62500000 212.50000000 -0.000978 -0.000978 -0.999999 0.000000
140.58000183 111.11699677 167.50000000 0.373491 0.692686 -0.617001 0.000000
163.30900574 227.28500366 157.50000000 -0.701160 -0.092219 0.707015 0.000000
89.23049927 179.30299377 132.50000000 0.870273 0.085762 0.485047 0.000000
103.54100037 306.41400146 197.50000000 0.566660 -0.820730 0.072795 0.000000
112.80100250 312.72799683 205.00000000 0.515087 -0.856657 -0.028692 0.000000
205.39799500 167.51800537 152.50000000 0.000978 0.000978 0.999999 0.000000
76.60350037 242.43800354 227.50000000 -0.037498 0.353001 -0.934871 0.000000
126.26999664 221.39300537 262.50000000 -0.000978 -0.000978 -0.999999 0.000000
179.30299377 164.14999390 147.50000000 0.000978 0.000978 0.999999 0.000000
108.59200287 291.26199341 137.50000000 -0.355313 -0.192640 0.914682 0.000000
176.77699280 207.08200073 217.50000000 -0.418545 -0.847981 -0.325189 0.000000
123.74400330 188.14199829 250.00000000 -0.275662 0.457383 -0.845465 0.000000
141.42199707 170.88499451 157.50000000 0.599801 -0.417036 0.682876 0.000000
165.83399963 153.20700073 142.50000000 -0.275737 -0.356222 0.892791 0.000000
180.98599243 121.21900177 192.50000000 -0.049828 0.310464 -0.949278 0.000000
95.96489716 207.92399597 112.50000000 0.000978 0.000978 0.999999 0.000000
221.39300537 183.51199341 202.50000000 -0.000978 -0.000978 -0.999999 0.000000
114.90499878 160.78300476 140.00000000 0.000978 0.000978 0.999999 0.000000
137.21299744 319.88299561 202.50000000 -0.001125 -0.986241 -0.165311 0.000000
127.95300293 271.89999390 142.50000000 -0.708778 -0.314833 0.631280 0.000000
74.91989899 203.71499634 157.50000000 0.000978 0.000978 0.999999 0.000000
215.50000000 189.82499695 165.00000000 -0.445568 -0.605772 0.659173 0.000000
169.20100403 230.65199280 242.50000000 -0.577379 0.270498 -0.770366 0.000000
112.80100250 143.10499573 147.50000000 -0.893111 0.001311 0.449834 0.000000
103.54100037 207.92399597 112.50000000 0.000978 0.000978 0.999999 0.000000
128.79499817 134.68800354 187.50000000 0.273925 0.574768 -0.771107 0.000000
163.72999573 300.52200317 185.00000000 -0.750608 -0.351797 0.559309 0.000000
137.21299744 136.37100220 142.50000000 0.000978 0.000978 0.999999 0.000000
213.39599609 171.72700500 160.00000000 -0.578678 0.280619 0.765758 0.000000
144.78900146 294.62899780 252.50000000 -0.000978 -0.000978 -0.999999 0.000000
108.59200287 207.92399597 112.50000000 0.000978 0.000978 0.999999 0.000000
147.31399536 215.50000000 247.50000000 -0.473464 0.195659 -0.858807 0.000000
98.06939697 303.88900757 210.00000000 0.507785 -0.860908 -0.031480 0.000000
139.73800659 242.43800354 257.50000000 -0.000978 -0.000978 -0.999999 0.000000
151.52299500 301.36300659 247.50000000 -0.528640 -0.679680 -0.508502 0.000000
88.38870239 288.73599243 147.50000000 0.947621 -0.315016 -0.052717 0.000000
120.37699890 238.22900391 262.50000000 -0.000978 -0.000978 -0.999999 0.000000
211.29100037 154.89100647 202.50000000 -0.000978 -0.000978 -0.999999 0.000000
212.55400085 101.85700226 185.00000000 -0.264764 0.869940 0.416058 0.000000
64.39749908 238.22900391 165.00000000 0.000978 0.000978 -0.999999 0.000000
106.90799713 197.82200623 257.50000000 -0.000978 -0.000978 -0.999999 0.000000
145.63099670 182.66999817 237.50000000 -0.246977 0.740930 -0.624520 0.000000
179.30299377 201.18899536 222.50000000 -0.641231 -0.384079 -0.664309 0.000000
222.23399353 120.37699890 182.50000000 0.000978 0.000978 0.999999 0.000000
182.66999817 138.05499268 202.50000000 0.000978 0.000978 -0.999999 0.000000
120.37699890 314.83200073 232.50000000 0.215353 -0.856894 -0.468355 0.000000
106.90799713 226.44299316 117.50000000 0.000978 0.000978 0.999999 0.000000
148.99800110 292.94500732 252.50000000 -0.000978 -0.000978 -0.999999 0.000000
66.50199890 172.56799316 192.50000000 0.996229 0.066561 0.055649 0.000000
240.75399780 172.56799316 187.50000000 -0.523469 0.644658 0.557132 0.000000
81.65429688 153.62800598 180.00000000 -0.000978 -0.000978 0.999999 0.000000
114.48400116 149.83999634 212.50000000 -0.008694 0.950127 -0.311741 0.000000
102.69899750 301.36300659 152.50000000 0.419414 -0.884448 0.204556 0.000000
171.72700500 300.52200317 197.50000000 -0.986241 0.001125 0.165311 0.000000
100.17400360 303.88900757 222.50000000 0.688683 -0.691807 -0.217068 0.000000
96.80670166 165.83399963 227.50000000 0.457292 0.811017 -0.364878 0.000000
169.20100403 247.48800659 172.50000000 -0.852298 -0.479512 0.208941 0.000000
141.42199707 181.82800293 157.50000000 -0.171451 -0.871910 0.458669 0.000000
146.47300720 114.90499878 175.00000000 0.361048 0.579964 -0.730264 0.000000
171.72700500 175.93600464 162.50000000 0.000978 0.000978 0.999999 0.000000
189.40400696 99.33200073 177.50000000 -0.230392 -0.805600 0.545829 0.000000
81.65429688 180.98599243 242.50000000 0.439138 0.429415 -0.789152 0.000000
206.66099548 138.05499268 200.00000000 -0.548546 0.538419 -0.639689 0.000000
141.42199707 240.75399780 137.50000000 -0.635270 -0.283231 0.718479 0.000000
119.53500366 160.78300476 222.50000000 -0.237693 0.659560 -0.713080 0.000000
191.08799744 165.83399963 207.50000000 -0.474696 -0.273685 -0.836517 0.000000
77.44529724 267.69100952 142.50000000 0.790629 -0.570924 0.221252 0.000000
196.13900757 192.77200317 157.50000000 0.401722 -0.808246 -0.430531 0.000000
136.37100220 303.88900757 247.50000000 -0.189313 -0.709541 -0.678758 0.000000
78.28710175 186.03700256 242.50000000 0.471589 0.384675 -0.793492 0.000000
86.70510101 153.20700073 142.50000000 0.911597 -0.100676 0.398565 0.000000
217.18400574 159.94099426 167.50000000 0.000978 0.000978 0.999999 0.000000
125.42800140 122.90200043 172.50000000 0.888284 0.449038 -0.096522 0.000000
186.87899780 234.02000427 222.50000000 -0.853168 0.141951 0.501950 0.000000
94.28130341 155.73199463 212.50000000 0.317867 0.831465 -0.455661 0.000000
191.92999268 212.97500610 197.50000000 0.554433 -0.830951 -0.046086 0.000000
76.18260193 276.10900879 170.00000000 0.814169 -0.567718 0.121759 0.000000
115.32599640 302.20498657 247.50000000 0.620257 -0.453072 -0.640319 0.000000
107.75000000 208.76600647 112.50000000 0.000978 0.000978 0.999999 0.000000
89.23049927 174.25199890 132.50000000 0.897735 0.052808 0.437358 0.000000
207.92399597 165.83399963 202.50000000 -0.000978 -0.000978 -0.999999 0.000000
95.12310028 271.05899048 257.50000000 0.867168 -0.386937 -0.313526 0.000000
92.59770203 174.67300415 240.00000000 0.461304 0.625695 -0.629050 0.000000
139.73800659 249.17199707 257.50000000 -0.000978 -0.000978 -0.999999 0.000000
135.52900696 112.80100250 162.50000000 0.654312 0.573574 -0.492837 0.000000
226.44299316 174.25199890 202.50000000 -0.387340 0.225335 -0.893975 0.000000
87.54689789 200.34800720 257.50000000 0.405006 0.421015 -0.811614 0.000000
152.36500549 244.12100220 147.50000000 -0.544494 -0.380982 0.747248 0.000000
77.44529724 202.03100586 147.50000000 0.818044 0.272681 0.506408 0.000000
232.33599854 137.21299744 182.50000000 0.000978 0.000978 0.999999 0.000000
144.36799622 232.33599854 255.00000000 -0.627352 0.265235 -0.732175 0.000000
127.11100006 163.30900574 222.50000000 -0.038133 0.755605 -0.653916 0.000000
82.49610138 173.83099365 235.00000000 0.426031 0.508277 -0.748433 0.000000
158.67900085 268.53298950 170.00000000 -0.843124 -0.389495 0.370724 0.000000
159.94099426 118.69300079 187.50000000 0.752735 0.428026 -0.500184 0.000000
112.80100250 241.59599304 122.50000000 -0.228493 -0.323339 0.918283 0.000000
159.10000610 176.77699280 227.50000000 -0.000978 -0.000978 -0.999999 0.000000
98.49019623 285.36898804 132.50000000 0.000978 0.000978 0.999999 0.000000
198.24299622 100.17400360 170.00000000 -0.785685 -0.379129 0.488835 0.000000
116.16799927 297.99600220 142.50000000 0.000978 0.000978 0.999999 0.000000
86.70510101 209.60699463 112.50000000 -0.008660 0.308039 0.951334 0.000000
244.12100220 177.61900330 197.50000000 -0.196360 0.150158 -0.968966 0.000000
88.38870239 209.60699463 112.50000000 -0.008660 0.308039 0.951334 0.000000
192.77200317 213.39599609 200.00000000 0.634480 0.271920 -0.723530 0.000000
90.07230377 209.60699463 112.50000000 0.021446 0.326732 0.944874 0.000000
165.83399963 296.31298828 237.50000000 -0.692430 -0.663645 -0.283049 0.000000
130.47900391 319.04098511 232.50000000 -0.463064 -0.076482 -0.883019 0.000000
160.78300476 315.25299072 215.00000000 -0.541324 -0.809673 -0.226709 0.000000
131.32000732 266.85000610 142.50000000 -0.657568 -0.230698 0.717205 0.000000
212.97500610 188.56300354 202.50000000 -0.000978 -0.000978 -0.999999 0.000000
158.25799561 196.13900757 162.50000000 0.000978 0.000978 0.999999 0.000000
184.35400391 168.35899353 147.50000000 0.000978 0.000978 0.999999 0.000000
96.80670166 209.60699463 112.50000000 0.000978 0.000978 0.999999 0.000000
156.57400513 317.35699463 217.50000000 -0.541324 -0.809673 -0.226709 0.000000
174.25199890 242.43800354 177.50000000 -0.790097 -0.473412 0.389394 0.000000
99.33200073 209.60699463 112.50000000 0.000978 0.000978 0.999999 0.000000
70.29000092 255.90600586 145.00000000 0.920427 -0.308724 0.239799 0.000000
234.86099243 175.09399414 182.50000000 -0.278684 0.241903 0.929418 0.000000
102.69899750 209.60699463 112.50000000 0.000978 0.000978 0.999999 0.000000
200.76899719 208.76600647 155.00000000 0.633649 0.290355 -0.717066 0.000000
122.06099701 266.00799561 137.50000000 -0.189917 -0.494980 0.847896 0.000000
130.05799866 225.60200500 260.00000000 -0.537534 0.368641 -0.758394 0.000000
236.54499817 194.45500183 187.50000000 -0.476667 0.109562 0.872230 0.000000
159.94099426 227.28500366 242.50000000 -0.421413 0.069554 -0.904198 0.000000
166.67599487 167.51800537 157.50000000 -0.766968 -0.479150 0.426820 0.000000
91.75589752 264.32400513 252.50000000 -0.000978 -0.000978 -0.999999 0.000000
124.58599854 170.04299927 152.50000000 -0.885319 0.330298 0.327282 0.000000
186.87899780 138.89599609 147.50000000 -0.702227 0.702227 0.117285 0.000000
140.58000183 269.37500000 152.50000000 -0.572584 -0.663257 0.481911 0.000000
93.43949890 138.89599609 167.50000000 0.140017 0.709116 -0.691050 0.000000
126.26999664 269.37500000 257.50000000 -0.000978 -0.000978 -0.999999 0.000000
94.28130341 271.89999390 122.50000000 0.088844 -0.758818 0.645214 0.000000
136.37100220 139.73800659 197.50000000 -0.017978 0.598796 -0.800700 0.000000
105.22499847 216.34199524 262.50000000 -0.000978 -0.000978 -0.999999 0.000000
133.84599304 247.48800659 257.50000000 -0.000978 -0.000978 -0.999999 0.000000
158.67900085 266.85000610 170.00000000 -0.843124 -0.389495 0.370724 0.000000
196.97999573 148.15600586 152.50000000 -0.224720 0.105377 0.968709 0.000000
108.59200287 294.20800781 250.00000000 0.642082 -0.715372 -0.275633 0.000000
201.18899536 188.56300354 162.50000000 -0.015204 -0.794737 0.606764 0.000000
147.31399536 141.42199707 142.50000000 0.518787 0.742771 0.423264 0.000000
69.86910248 180.98599243 227.50000000 0.716161 0.496826 -0.490180 0.000000
180.14500427 202.87300110 152.50000000 -0.306655 -0.361037 0.880690 0.000000
169.20100403 297.15399170 192.50000000 -0.788258 -0.467775 0.399794 0.000000
156.57400513 126.26999664 142.50000000 -0.387580 0.851431 0.353336 0.000000
140.58000183 288.73599243 157.50000000 -0.779010 0.135545 0.612186 0.000000
211.29100037 137.21299744 167.50000000 -0.663050 0.452611 0.596244 0.000000
135.52900696 246.64700317 257.50000000 -0.000978 -0.000978 -0.999999 0.000000
157.41600037 191.08799744 162.50000000 0.000978 0.000978 0.999999 0.000000
117.85199738 240.75399780 122.50000000 -0.352195 -0.355271 0.865876 0.000000
137.21299744 253.38099670 257.50000000 -0.000978 -0.000978 -0.999999 0.000000
170.88499451 118.69300079 187.50000000 0.538328 0.268379 -0.798859 0.000000
70.71089935 165.83399963 187.50000000 0.702227 0.702227 0.117285 0.000000
166.67599487 225.60200500 242.50000000 -0.300843 0.251902 -0.919803 0.000000
202.03100586 199.92700195 205.00000000 -0.325182 -0.613154 -0.719930 0.000000
