93.04689789 207.02900696 207.50000000 0.521874 0.619831 0.586053 0.000000
147.32400513 182.60499573 250.00000000 -0.195343 0.534542 -0.822256 0.000000
147.32400513 166.32099915 295.00000000 -0.431602 -0.861678 0.266891 0.000000
202.37699890 216.33399963 347.50000000 0.316601 0.947241 0.049990 0.000000
92.27149963 197.72500610 337.50000000 0.000978 0.000978 0.999999 0.000000
97.31159973 186.86900330 300.00000000 -0.740798 -0.669154 -0.058748 0.000000
104.67800140 265.95901489 252.50000000 -0.098566 0.852813 -0.512830 0.000000
131.42900085 218.66000366 250.00000000 0.458923 0.695895 -0.552377 0.000000
107.00399780 268.28500366 342.50000000 0.000978 0.000978 0.999999 0.000000
90.72070313 208.58000183 207.50000000 0.521874 0.619831 0.586053 0.000000
108.55500031 177.17700195 320.00000000 -0.484905 -0.874442 0.014776 0.000000
126.38899994 288.83300781 285.00000000 0.216576 0.949395 -0.227473 0.000000
140.34599304 179.11500549 357.50000000 0.310144 -0.166788 0.935945 0.000000
125.61299896 172.91200256 277.50000000 0.671719 -0.671719 0.312390 0.000000
78.70220184 236.49400330 275.00000000 -0.950930 -0.095485 -0.294304 0.000000
242.69700623 196.94900513 347.50000000 0.507034 0.183968 0.842065 0.000000
83.35449982 234.94299316 255.00000000 -0.988281 -0.001114 -0.152643 0.000000
68.23439789 245.79899597 312.50000000 -0.951235 0.228675 -0.207026 0.000000
91.49610138 209.35600281 207.50000000 -0.000978 -0.000978 -0.999999 0.000000
204.70300293 218.66000366 312.50000000 -0.464990 -0.736373 0.491467 0.000000
160.89399719 278.36499023 315.00000000 0.906778 0.001297 -0.421606 0.000000
130.26600647 205.47900391 242.50000000 0.564332 0.399804 -0.722279 0.000000
106.22899628 271.38699341 342.50000000 -0.000978 -0.000978 0.999999 0.000000
72.11139679 234.16799927 332.50000000 -0.658602 -0.001381 0.752490 0.000000
142.67199707 222.53700256 262.50000000 0.167455 0.045669 -0.984821 0.000000
233.39300537 160.89399719 295.00000000 0.142300 -0.989273 0.033014 0.000000
230.29100037 198.11199951 330.00000000 -0.850180 0.411879 -0.327949 0.000000
138.79499817 207.02900696 357.50000000 0.000978 0.000978 0.999999 0.000000
91.49610138 235.71899414 352.50000000 0.000978 0.000978 0.999999 0.000000
103.12699890 243.47300720 237.50000000 0.740120 0.149230 -0.655707 0.000000
89.16999817 245.02400208 347.50000000 -0.418117 -0.258115 0.870951 0.000000
214.00799561 211.29400635 340.00000000 -0.236891 -0.946193 0.220459 0.000000
160.50599670 220.98599243 357.50000000 0.171338 0.407467 0.897003 0.000000
134.91799927 264.40798950 287.50000000 0.167646 0.198836 -0.965588 0.000000
184.54299927 199.27499390 282.50000000 0.139704 -0.650450 0.746591 0.000000
145.77299500 272.93798828 332.50000000 0.306908 -0.036627 0.951034 0.000000
207.02900696 190.74600220 357.50000000 0.000978 0.000978 0.999999 0.000000
202.37699890 198.50000000 277.50000000 0.070957 -0.693644 0.716814 0.000000
218.66000366 199.27499390 352.50000000 0.000978 0.000978 0.999999 0.000000
158.17999268 272.16198730 327.50000000 0.491558 0.475007 0.729889 0.000000
88.00689697 207.80499268 255.00000000 -0.920864 -0.307909 -0.239167 0.000000
123.28700256 226.41400146 247.50000000 0.354109 0.072944 -0.932355 0.000000
225.25100708 199.27499390 320.00000000 0.000978 0.000978 0.999999 0.000000
112.43199921 231.84199524 242.50000000 0.974219 0.189816 -0.121934 0.000000
206.25399780 195.39900208 272.50000000 -0.257214 -0.809056 0.528459 0.000000
87.61920166 261.69400024 340.00000000 -0.304575 0.626876 0.717120 0.000000
134.91799927 196.17399597 252.50000000 0.850867 -0.284648 -0.441589 0.000000
184.54299927 192.29699707 362.50000000 0.000978 0.000978 0.999999 0.000000
198.11199951 217.88499451 350.00000000 -0.883974 0.227308 0.408560 0.000000
141.89700317 269.83599854 287.50000000 -0.000978 -0.000978 -0.999999 0.000000
136.46899414 205.47900391 357.50000000 0.000978 0.000978 0.999999 0.000000
93.82230377 190.35800171 295.00000000 -0.705724 -0.708486 -0.001381 0.000000
171.36099243 210.90600586 357.50000000 0.000978 0.000978 0.999999 0.000000
88.00689697 252.77699280 255.00000000 -0.886050 0.442309 -0.138848 0.000000
142.67199707 280.69198608 292.50000000 0.398710 0.229740 -0.887834 0.000000
141.12100220 222.53700256 357.50000000 0.089360 0.413804 0.905970 0.000000
89.16999817 214.00799561 207.50000000 0.878976 0.472017 -0.067827 0.000000
120.18599701 223.31300354 247.50000000 0.481242 -0.109957 -0.869664 0.000000
116.30899811 222.53700256 242.50000000 0.471606 0.218476 -0.854316 0.000000
100.80100250 182.99200439 332.50000000 -0.530675 -0.707012 0.467460 0.000000
110.10600281 208.58000183 352.50000000 0.000978 0.000978 0.999999 0.000000
153.52699280 178.33999634 352.50000000 0.000978 0.000978 0.999999 0.000000
88.39459991 214.78300476 207.50000000 0.878976 0.472017 -0.067827 0.000000
170.58599854 168.64799500 340.00000000 -0.027063 -0.931736 0.362127 0.000000
145.77299500 203.15199280 272.50000000 -0.000978 -0.000978 0.999999 0.000000
97.69930267 245.02400208 352.50000000 0.000978 0.000978 0.999999 0.000000
111.65599823 178.33999634 337.50000000 -0.328611 -0.869674 0.368350 0.000000
160.50599670 221.76199341 352.50000000 0.428870 0.903365 -0.001304 0.000000
88.39459991 215.55900574 207.50000000 0.878976 0.472017 -0.067827 0.000000
155.85400391 205.47900391 357.50000000 0.000978 0.000978 0.999999 0.000000
258.98098755 165.15800476 327.50000000 -0.795890 -0.237371 0.556968 0.000000
88.00689697 216.33399963 210.00000000 0.522954 0.654112 -0.546495 0.000000
93.04689789 270.61099243 277.50000000 -0.555785 0.630115 -0.542271 0.000000
70.56060028 253.55299377 322.50000000 -0.922660 0.268332 0.276941 0.000000
186.09399414 194.62300110 262.50000000 -0.513779 -0.447698 0.731846 0.000000
166.70899963 236.49400330 312.50000000 0.938818 -0.312031 -0.145796 0.000000
193.84800720 173.68800354 272.50000000 -0.360749 -0.899664 -0.245898 0.000000
99.25000000 197.33700562 215.00000000 -0.204498 -0.579666 -0.788776 0.000000
144.99800110 167.87199402 335.00000000 -0.196938 -0.979973 0.029482 0.000000
138.79499817 267.51000977 287.50000000 -0.000978 -0.000978 -0.999999 0.000000
166.70899963 243.47300720 307.50000000 0.911572 -0.022297 -0.410535 0.000000
193.84800720 167.09700012 300.00000000 -0.259002 -0.959217 -0.113232 0.000000
241.14700317 183.76800537 322.50000000 -0.715900 -0.536510 0.446815 0.000000
243.47300720 178.72799683 345.00000000 0.762011 0.064577 0.644337 0.000000
174.46299744 223.31300354 327.50000000 0.107539 -0.970377 0.216342 0.000000
107.00399780 177.95199585 295.00000000 -0.514100 -0.857729 -0.001342 0.000000
108.55500031 289.22100830 292.50000000 -0.409833 0.836939 -0.362726 0.000000
118.63500214 278.36499023 272.50000000 0.023700 0.612029 -0.790480 0.000000
196.94900513 222.53700256 347.50000000 -0.229407 -0.475526 -0.849263 0.000000
217.88499451 193.84800720 352.50000000 0.183272 0.317579 0.930352 0.000000
86.84380341 244.24800110 347.50000000 -0.282669 0.204691 0.937123 0.000000
252.00199890 168.25999451 317.50000000 -0.357256 -0.832549 0.423357 0.000000
71.33599854 245.02400208 327.50000000 0.000978 0.000978 0.999999 0.000000
100.41300201 199.27499390 215.00000000 0.423851 0.086979 -0.901546 0.000000
143.44700623 185.31799316 252.50000000 -0.300030 0.598455 -0.742855 0.000000
237.27000427 160.89399719 330.00000000 -0.040042 -0.996719 0.070344 0.000000
96.53620148 200.05099487 215.00000000 -0.511241 -0.849155 -0.132544 0.000000
173.68800354 183.76800537 357.50000000 -0.100392 -0.589259 0.801683 0.000000
133.36700439 279.52801514 330.00000000 0.327393 0.793728 0.512649 0.000000
142.67199707 214.00799561 257.50000000 0.443030 0.105483 -0.890280 0.000000
155.85400391 212.45700073 282.50000000 0.845131 -0.421787 -0.328403 0.000000
197.72500610 224.86300659 342.50000000 -0.649624 -0.622904 -0.435866 0.000000
177.56500244 180.66600037 292.50000000 0.000978 0.000978 0.999999 0.000000
90.72070313 193.84800720 332.50000000 -0.599265 -0.685586 0.413344 0.000000
95.76080322 200.82600403 215.00000000 -0.473167 -0.725522 -0.499730 0.000000
187.64500427 222.53700256 302.50000000 0.077031 -0.693282 0.716537 0.000000
139.57000732 243.47300720 272.50000000 0.503213 0.450417 -0.737496 0.000000
121.73600006 283.01800537 277.50000000 0.142356 0.144832 -0.979162 0.000000
212.45700073 191.52200317 277.50000000 -0.000978 -0.000978 0.999999 0.000000
220.98599243 204.70300293 327.50000000 -0.566168 -0.801181 0.193810 0.000000
196.17399597 214.78300476 302.50000000 0.000978 0.000978 0.999999 0.000000
95.37310028 201.60200500 212.50000000 -0.552085 -0.636502 -0.538579 0.000000
102.35199738 181.82899475 285.00000000 -0.671719 -0.671719 -0.312390 0.000000
207.02900696 194.62300110 272.50000000 -0.257214 -0.809056 0.528459 0.000000
162.83200073 265.18399048 322.50000000 0.000978 0.000978 0.999999 0.000000
216.33399963 182.21699524 357.50000000 0.000978 0.000978 0.999999 0.000000
117.08399963 219.43600464 242.50000000 0.233200 -0.017938 -0.972263 0.000000
77.53910065 253.94099426 290.00000000 -0.825786 0.165755 -0.539076 0.000000
151.20100403 196.94900513 267.50000000 -0.142648 -0.650174 0.746274 0.000000
95.37310028 189.19500732 332.50000000 -0.682709 -0.676314 0.276601 0.000000
120.96099854 280.69198608 332.50000000 0.103993 0.604917 0.789468 0.000000
88.39459991 254.32800293 257.50000000 -0.886050 0.442309 -0.138848 0.000000
233.00500488 166.70899963 345.00000000 0.520103 -0.540301 0.661490 0.000000
189.97099304 219.82299805 350.00000000 0.511212 -0.848114 -0.139155 0.000000
252.00199890 182.21699524 332.50000000 -0.280891 -0.805010 0.522551 0.000000
171.36099243 177.17700195 295.00000000 -0.566283 -0.456033 0.686555 0.000000
159.73100281 244.24800110 292.50000000 0.831860 0.241408 -0.499731 0.000000
131.81599426 270.61099243 277.50000000 0.928866 0.029796 -0.369215 0.000000
164.38299561 215.55900574 357.50000000 0.001199 0.262509 0.964929 0.000000
94.59770203 255.87899780 247.50000000 -0.614594 0.463876 -0.638039 0.000000
162.83200073 241.14700317 297.50000000 0.619586 0.619586 -0.481900 0.000000
134.14300537 174.46299744 347.50000000 -0.240751 -0.858528 0.452734 0.000000
137.24400330 233.39300537 352.50000000 0.000978 0.000978 0.999999 0.000000
93.43460083 203.15199280 215.00000000 -0.614688 -0.490066 -0.618056 0.000000
201.60200500 208.58000183 357.50000000 0.000978 0.000978 0.999999 0.000000
204.70300293 215.55900574 347.50000000 0.316601 0.947241 0.049990 0.000000
137.24400330 201.60200500 257.50000000 0.249476 -0.475994 -0.843321 0.000000
196.94900513 197.72500610 357.50000000 0.363222 0.931632 0.011470 0.000000
152.75199890 277.58999634 327.50000000 0.000978 0.000978 0.999999 0.000000
198.50000000 226.02600098 335.00000000 -0.702968 -0.702968 0.108035 0.000000
96.92389679 249.67599487 352.50000000 -0.239921 0.288189 0.927030 0.000000
193.84800720 220.98599243 347.50000000 -0.158721 -0.224308 -0.961506 0.000000
235.33099365 168.25999451 345.00000000 0.369537 -0.645458 0.668451 0.000000
111.65599823 286.89498901 282.50000000 0.000978 0.000978 -0.999999 0.000000
116.30899811 243.47300720 352.50000000 0.000978 0.000978 0.999999 0.000000
197.72500610 218.66000366 347.50000000 -0.229593 -0.626303 -0.745004 0.000000
129.87800598 256.65399170 275.00000000 0.855225 0.287122 -0.431451 0.000000
169.42300415 234.94299316 330.00000000 -0.001373 -0.627537 0.778585 0.000000
97.69930267 191.90899658 270.00000000 -0.588080 -0.792630 -0.160932 0.000000
96.92389679 203.92799377 212.50000000 0.700052 -0.203341 -0.684529 0.000000
138.79499817 204.70300293 357.50000000 0.000978 0.000978 0.999999 0.000000
174.46299744 191.52200317 362.50000000 0.000978 0.000978 0.999999 0.000000
100.41300201 194.62300110 345.00000000 -0.626916 -0.555944 0.545805 0.000000
113.98200226 256.65399170 352.50000000 0.000978 0.000978 0.999999 0.000000
105.45300293 205.47900391 352.50000000 0.000978 0.000978 0.999999 0.000000
75.98829651 215.17100525 310.00000000 -0.930924 -0.356609 -0.078801 0.000000
101.57599640 190.74600220 257.50000000 -0.589007 -0.786865 -0.184160 0.000000
224.86300659 194.62300110 352.50000000 0.000978 0.000978 0.999999 0.000000
143.44700623 252.00199890 342.50000000 0.000978 0.000978 0.999999 0.000000
231.84199524 201.98899841 335.00000000 -0.582260 -0.675688 0.452127 0.000000
238.82000732 198.50000000 337.50000000 -0.382779 -0.392230 0.836442 0.000000
144.99800110 172.13699341 347.50000000 -0.061758 -0.650613 0.756894 0.000000
124.83799744 262.85800171 272.50000000 0.613809 0.232716 -0.754375 0.000000
233.39300537 202.37699890 347.50000000 0.261427 0.113155 0.958567 0.000000
143.44700623 207.80499268 257.50000000 0.221890 -0.243941 -0.944064 0.000000
81.41609955 226.41400146 342.50000000 0.000978 0.000978 0.999999 0.000000
214.78300476 197.33700562 290.00000000 -0.001114 -0.988281 0.152643 0.000000
105.45300293 280.69198608 327.50000000 -0.273046 0.675430 0.685011 0.000000
187.64500427 206.25399780 292.50000000 0.246928 -0.881457 0.402567 0.000000
91.10839844 205.47900391 215.00000000 -0.558953 -0.535312 -0.633255 0.000000
129.49000549 276.81500244 277.50000000 0.481191 0.186219 -0.856608 0.000000
119.41000366 178.72799683 255.00000000 -0.364588 -0.931161 -0.003811 0.000000
200.43899536 193.07200623 360.00000000 0.464831 0.639353 0.612503 0.000000
188.41999817 223.31300354 302.50000000 0.006932 -0.702918 0.711237 0.000000
220.98599243 209.74299622 340.00000000 -0.100472 -0.936399 0.336246 0.000000
100.02500153 215.55900574 352.50000000 0.000978 0.000978 0.999999 0.000000
139.57000732 234.94299316 352.50000000 0.094863 0.233995 0.967599 0.000000
191.52200317 207.02900696 357.50000000 0.000978 0.000978 0.999999 0.000000
113.98200226 266.73400879 262.50000000 0.876085 0.437301 -0.203086 0.000000
146.54899597 245.02400208 342.50000000 0.670700 0.519414 0.529500 0.000000
166.70899963 173.68800354 257.50000000 0.293426 -0.883288 -0.365654 0.000000
94.59770203 206.25399780 212.50000000 0.236105 -0.005932 -0.971709 0.000000
168.25999451 216.33399963 357.50000000 0.000978 0.000978 0.999999 0.000000
151.20100403 238.04499817 347.50000000 0.370345 0.246405 0.895616 0.000000
160.50599670 248.12500000 332.50000000 0.980397 -0.197001 -0.003456 0.000000
244.24800110 196.94900513 347.50000000 0.486245 0.321523 0.812520 0.000000
80.64070129 253.55299377 277.50000000 -0.808833 0.470623 -0.352568 0.000000
79.08989716 220.21099854 282.50000000 -0.883628 -0.403817 -0.236926 0.000000
157.40400696 172.91200256 352.50000000 -0.000978 -0.000978 0.999999 0.000000
142.28399658 274.48800659 290.00000000 0.666684 0.251788 -0.701523 0.000000
127.16400146 234.16799927 352.50000000 0.000978 0.000978 0.999999 0.000000
135.69299316 272.16198730 287.50000000 0.328078 -0.174510 -0.928392 0.000000
97.69930267 239.59599304 352.50000000 0.000978 0.000978 0.999999 0.000000
150.42599487 242.30999756 280.00000000 0.336820 0.714318 -0.613435 0.000000
79.47760010 255.10400391 285.00000000 -0.879291 0.408938 -0.244164 0.000000
107.39199829 185.31799316 260.00000000 -0.576564 -0.808364 -0.118834 0.000000
98.08699799 207.02900696 215.00000000 0.742769 0.114158 -0.659745 0.000000
155.07800293 247.35000610 337.50000000 0.487151 0.349791 0.800206 0.000000
124.06300354 207.80499268 357.50000000 0.000978 0.000978 0.999999 0.000000
90.33300018 207.80499268 215.00000000 -0.742855 -0.300030 -0.598455 0.000000
159.73100281 250.45100403 332.50000000 0.000978 0.000978 0.999999 0.000000
155.07800293 265.18399048 297.50000000 -0.000978 -0.000978 -0.999999 0.000000
95.37310028 249.67599487 347.50000000 -0.748548 -0.299740 0.591465 0.000000
127.16400146 252.77699280 267.50000000 -0.000978 -0.000978 -0.999999 0.000000
73.66210175 239.59599304 297.50000000 -0.954848 0.001223 -0.297091 0.000000
117.85900116 227.96499634 247.50000000 -0.000978 -0.000978 -0.999999 0.000000
98.08699799 207.80499268 215.00000000 0.758233 0.165626 -0.630595 0.000000
192.29699707 179.11500549 257.50000000 -0.349394 -0.900758 -0.257991 0.000000
96.92389679 267.51000977 342.50000000 -0.377666 0.651433 0.658030 0.000000
177.56500244 166.70899963 332.50000000 0.001223 -0.954848 0.297091 0.000000
189.97099304 181.44099426 362.50000000 0.060955 -0.125361 0.990237 0.000000
116.30899811 219.43600464 237.50000000 0.043908 0.403153 -0.914079 0.000000
86.84380341 281.85501099 310.00000000 -0.906999 0.411521 -0.089461 0.000000
165.15800476 260.53100586 322.50000000 0.603548 0.328472 0.726523 0.000000
72.88670349 260.53100586 312.50000000 -0.931815 0.331710 -0.147274 0.000000
245.79899597 175.62600708 345.00000000 -0.928397 0.092974 0.359771 0.000000
127.16400146 169.42300415 300.00000000 -0.341250 -0.935426 -0.092338 0.000000
210.90600586 195.39900208 357.50000000 0.000978 0.000978 0.999999 0.000000
99.25000000 248.12500000 352.50000000 -0.208484 0.292438 0.933282 0.000000
104.67800140 292.32199097 307.50000000 -0.495187 0.866923 -0.056870 0.000000
217.10899353 165.15800476 282.50000000 -0.180243 -0.929160 -0.322761 0.000000
135.69299316 222.53700256 252.50000000 0.345840 0.024247 -0.937980 0.000000
223.31300354 161.66900635 290.00000000 0.002950 -0.999991 0.002950 0.000000
159.73100281 194.62300110 357.50000000 0.000978 0.000978 0.999999 0.000000
83.74220276 203.15199280 337.50000000 -0.210716 -0.507840 0.835283 0.000000
244.24800110 162.05700684 297.50000000 0.001114 -0.988281 0.152643 0.000000
232.61700439 174.46299744 277.50000000 -0.001345 -0.848828 0.528668 0.000000
75.98829651 253.55299377 297.50000000 -0.904434 0.219919 -0.365560 0.000000
168.25999451 194.62300110 362.50000000 0.000978 0.000978 0.999999 0.000000
234.16799927 180.66600037 292.50000000 -0.587240 -0.779371 0.218472 0.000000
167.48399353 214.00799561 357.50000000 0.000978 0.000978 0.999999 0.000000
131.04100037 293.87298584 312.50000000 -0.020592 0.967835 0.250741 0.000000
237.27000427 160.50599670 327.50000000 0.001114 -0.988281 0.152643 0.000000
191.52200317 174.46299744 357.50000000 0.000978 0.000978 0.999999 0.000000
96.14849854 210.13099670 212.50000000 0.655793 0.203094 -0.727109 0.000000
159.73100281 226.41400146 282.50000000 0.868013 -0.288321 -0.404259 0.000000
117.85900116 235.71899414 252.50000000 -0.000978 -0.000978 -0.999999 0.000000
113.20700073 289.22100830 322.50000000 -0.114783 0.832537 0.541948 0.000000
162.83200073 248.90100098 297.50000000 0.649624 0.435866 -0.622904 0.000000
192.68499756 169.03500366 345.00000000 -0.230189 -0.949360 0.213844 0.000000
224.86300659 210.13099670 342.50000000 -0.192604 -0.667179 0.719567 0.000000
149.64999390 169.81100464 347.50000000 0.165040 -0.971046 0.172716 0.000000
214.78300476 193.84800720 282.50000000 -0.272530 -0.782932 0.559237 0.000000
168.25999451 201.60200500 277.50000000 -0.120254 -0.278831 0.952781 0.000000
203.92799377 187.64500427 262.50000000 0.000978 0.000978 0.999999 0.000000
122.51200104 237.65699768 255.00000000 0.513004 0.563463 -0.647562 0.000000
84.12989807 213.23300171 340.00000000 -0.840497 0.006789 0.541774 0.000000
96.92389679 210.51899719 215.00000000 0.704931 0.304879 -0.640407 0.000000
246.18699646 188.41999817 335.00000000 -0.767163 -0.576563 0.281134 0.000000
163.60699463 200.82600403 362.50000000 -0.896937 0.298979 -0.325753 0.000000
101.57599640 270.99899292 265.00000000 -0.307094 0.906590 -0.289462 0.000000
186.09399414 173.30000305 285.00000000 -0.323725 -0.900223 -0.291205 0.000000
214.78300476 211.68200684 342.50000000 -0.236891 -0.946193 0.220459 0.000000
93.82230377 211.68200684 212.50000000 0.605912 0.538401 -0.585658 0.000000
93.82230377 283.79299927 322.50000000 0.000978 0.000978 0.999999 0.000000
97.31159973 193.07200623 340.00000000 -0.439476 -0.650023 0.619945 0.000000
138.02000427 290.77200317 317.50000000 0.236243 0.887024 0.396709 0.000000
115.53299713 276.03900146 267.50000000 0.313360 0.307420 -0.898498 0.000000
162.05700684 197.72500610 357.50000000 -0.084273 -0.189308 0.978295 0.000000
172.13699341 222.14999390 340.00000000 -0.210559 -0.960095 -0.184073 0.000000
134.14300537 244.24800110 267.50000000 -0.000978 -0.000978 -0.999999 0.000000
225.63900757 208.58000183 337.50000000 -0.543089 -0.786925 0.292920 0.000000
222.53700256 203.15199280 352.50000000 0.000978 0.000978 0.999999 0.000000
239.59599304 181.44099426 347.50000000 0.000978 0.000978 0.999999 0.000000
212.45700073 185.31799316 267.50000000 -0.436887 -0.553169 0.709319 0.000000
167.09700012 238.82000732 310.00000000 0.944719 -0.299676 -0.133040 0.000000
179.89100647 176.78900146 357.50000000 -0.019524 -0.396984 0.917618 0.000000
220.21099854 185.70599365 275.00000000 -0.671719 -0.671719 0.312390 0.000000
240.37100220 199.27499390 337.50000000 -0.376983 -0.408530 0.831256 0.000000
149.64999390 242.69700623 342.50000000 0.243934 0.449990 0.859072 0.000000
86.84380341 247.35000610 347.50000000 -0.438084 0.114099 0.891663 0.000000
203.15199280 212.45700073 352.50000000 0.166433 0.210990 0.963215 0.000000
203.92799377 179.11500549 357.50000000 0.092961 -0.199556 0.975467 0.000000
158.95500183 254.32800293 297.50000000 0.676736 0.258332 -0.689415 0.000000
93.82230377 213.23300171 212.50000000 0.605912 0.538401 -0.585658 0.000000
163.22000122 228.74000549 295.00000000 0.868013 0.288321 -0.404259 0.000000
191.52200317 185.31799316 362.50000000 0.000978 0.000978 0.999999 0.000000
76.37599945 234.16799927 285.00000000 -0.988281 0.001114 -0.152643 0.000000
122.51200104 282.24200439 327.50000000 -0.044065 0.749110 0.660979 0.000000
251.61399841 158.95500183 320.00000000 0.001223 0.954848 -0.297091 0.000000
236.49400330 200.05099487 347.50000000 0.000978 0.000978 0.999999 0.000000
122.51200104 215.55900574 357.50000000 0.000978 0.000978 0.999999 0.000000
107.77899933 274.48800659 337.50000000 -0.236081 0.867636 0.437577 0.000000
91.49610138 214.00799561 212.50000000 0.600900 0.463647 -0.651115 0.000000
158.95500183 254.32800293 332.50000000 0.928292 0.282031 0.242348 0.000000
97.31159973 264.40798950 255.00000000 -0.323105 0.686801 -0.651081 0.000000
167.87199402 241.14700317 310.00000000 0.898811 -0.193121 -0.393502 0.000000
208.96800232 196.17399597 280.00000000 -0.591751 -0.734420 0.332353 0.000000
94.98539734 214.00799561 215.00000000 0.640240 0.475559 -0.603271 0.000000
98.47470093 267.51000977 257.50000000 -0.498245 0.751479 -0.432470 0.000000
144.22300720 266.73400879 287.50000000 0.000978 0.000978 -0.999999 0.000000
213.23300171 162.05700684 327.50000000 0.001114 -0.988281 0.152643 0.000000
130.26600647 167.87199402 325.00000000 -0.391929 -0.914502 0.100389 0.000000
108.55500031 280.69198608 332.50000000 0.000978 0.000978 0.999999 0.000000
82.19139862 255.87899780 337.50000000 -0.407432 0.569085 0.714242 0.000000
158.17999268 164.77099609 285.00000000 0.189715 -0.945844 -0.263417 0.000000
189.97099304 206.25399780 292.50000000 0.115609 -0.818047 0.563413 0.000000
165.54600525 258.20498657 305.00000000 0.936227 0.267293 -0.228109 0.000000
257.04199219 179.89100647 340.00000000 0.790832 -0.184375 0.583601 0.000000
192.29699707 194.23500061 265.00000000 -0.052245 -0.951875 0.302001 0.000000
74.04979706 219.43600464 315.00000000 -0.312031 -0.938818 -0.145796 0.000000
110.88099670 244.24800110 247.50000000 -0.000978 -0.000978 -0.999999 0.000000
116.30899811 252.77699280 352.50000000 0.000978 0.000978 0.999999 0.000000
156.62899780 232.61700439 347.50000000 -0.020521 0.245040 0.969296 0.000000
132.20399475 171.36099243 275.00000000 -0.193890 -0.969452 -0.150233 0.000000
138.02000427 258.98098755 287.50000000 -0.000978 -0.000978 -0.999999 0.000000
225.63900757 185.31799316 282.50000000 -0.585284 -0.438546 0.681997 0.000000
204.70300293 176.78900146 357.50000000 0.000978 0.000978 0.999999 0.000000
151.20100403 236.49400330 347.50000000 0.370874 0.298213 0.879501 0.000000
113.98200226 292.70999146 315.00000000 -0.001297 0.906778 0.421606 0.000000
86.06839752 216.33399963 212.50000000 -0.845972 0.199848 -0.494360 0.000000
193.07200623 194.62300110 267.50000000 -0.052245 -0.951875 0.302001 0.000000
203.15199280 164.38299561 302.50000000 -0.671719 -0.671719 -0.312390 0.000000
107.77899933 246.57400513 352.50000000 0.000978 0.000978 0.999999 0.000000
146.54899597 220.98599243 262.50000000 0.147544 -0.228497 -0.962299 0.000000
99.25000000 212.45700073 352.50000000 0.000978 0.000978 0.999999 0.000000
135.69299316 291.54699707 297.50000000 0.402409 0.849876 -0.340261 0.000000
80.64070129 205.47900391 307.50000000 -0.677534 0.001380 -0.735490 0.000000
231.84199524 184.54299927 297.50000000 -0.798244 -0.464170 0.383864 0.000000
127.16400146 265.18399048 342.50000000 0.128023 0.406578 0.904602 0.000000
231.84199524 201.60200500 332.50000000 -0.474681 -0.612220 0.632348 0.000000
120.18599701 262.85800171 347.50000000 0.000978 0.000978 0.999999 0.000000
124.83799744 291.15899658 290.00000000 0.014206 0.923404 -0.383568 0.000000
215.94599915 208.58000183 330.00000000 -0.236100 -0.848436 0.473723 0.000000
209.35600281 192.29699707 357.50000000 0.000978 0.000978 0.999999 0.000000
119.41000366 233.39300537 357.50000000 0.000978 0.000978 0.999999 0.000000
228.35299683 160.50599670 290.00000000 -0.180333 -0.962213 -0.204026 0.000000
197.72500610 203.92799377 357.50000000 0.000978 0.000978 0.999999 0.000000
236.49400330 160.11799622 325.00000000 0.001114 -0.988281 0.152643 0.000000
149.64999390 279.91598511 327.50000000 0.000978 0.000978 0.999999 0.000000
153.52699280 258.98098755 292.50000000 -0.000978 -0.000978 -0.999999 0.000000
203.53999329 214.78300476 325.00000000 -0.886050 0.442309 -0.138848 0.000000
205.47900391 217.88499451 322.50000000 -0.828495 -0.175287 -0.531855 0.000000
107.00399780 231.06700134 352.50000000 -0.323987 0.074766 0.943103 0.000000
204.70300293 165.15800476 292.50000000 -0.260201 -0.946804 -0.189361 0.000000
165.15800476 205.09100342 295.00000000 -0.833608 0.317490 -0.451994 0.000000
86.84380341 217.88499451 212.50000000 -0.545245 0.575630 -0.609391 0.000000
222.53700256 161.66900635 290.00000000 0.002950 -0.999991 0.002950 0.000000
130.26600647 194.62300110 357.50000000 0.000978 0.000978 0.999999 0.000000
97.69930267 280.69198608 327.50000000 0.000978 0.000978 0.999999 0.000000
245.02400208 191.52200317 337.50000000 0.011695 -0.406713 0.913481 0.000000
89.16999817 191.90899658 315.00000000 -0.702968 -0.702968 -0.108035 0.000000
99.25000000 256.65399170 347.50000000 0.000978 0.000978 0.999999 0.000000
223.31300354 178.33999634 352.50000000 0.000978 0.000978 0.999999 0.000000
132.20399475 200.05099487 245.00000000 0.988281 0.001114 -0.152643 0.000000
129.87800598 262.85800171 345.00000000 0.127110 0.695364 0.707327 0.000000
144.22300720 200.05099487 272.50000000 0.000978 0.000978 0.999999 0.000000
85.68070221 218.66000366 215.00000000 -0.676065 0.488176 -0.551924 0.000000
94.59770203 201.60200500 247.50000000 -0.759705 -0.625190 -0.178844 0.000000
149.64999390 255.87899780 337.50000000 0.000978 0.000978 0.999999 0.000000
113.98200226 208.58000183 352.50000000 -0.409055 -0.352634 0.841619 0.000000
216.33399963 168.25999451 272.50000000 -0.138286 -0.965420 -0.221000 0.000000
95.37310028 193.84800720 267.50000000 -0.650591 -0.758315 -0.041105 0.000000
174.46299744 167.48399353 337.50000000 -0.015773 -0.964588 0.263290 0.000000
212.45700073 183.76800537 262.50000000 -0.528610 0.378973 0.759573 0.000000
131.81599426 249.28799438 270.00000000 0.215680 0.622213 -0.752551 0.000000
103.12699890 287.67001343 297.50000000 -0.637686 0.765514 0.085703 0.000000
200.82600403 175.62600708 260.00000000 -0.367921 -0.884513 -0.286829 0.000000
126.38899994 266.73400879 342.50000000 0.036292 0.286584 0.957367 0.000000
245.79899597 193.07200623 347.50000000 0.482388 0.303260 0.821788 0.000000
86.84380341 219.43600464 212.50000000 -0.645722 0.391397 -0.655631 0.000000
249.28799438 196.17399597 340.00000000 0.819562 0.512807 -0.255629 0.000000
123.28700256 215.55900574 242.50000000 0.522592 0.407917 -0.748666 0.000000
165.15800476 216.33399963 357.50000000 -0.003607 0.260877 0.965365 0.000000
89.94539642 219.43600464 212.50000000 0.463348 0.152513 -0.872954 0.000000
93.04689789 261.30700684 342.50000000 -0.463185 0.715529 0.522951 0.000000
113.20700073 180.66600037 347.50000000 0.000978 0.000978 0.999999 0.000000
76.76370239 243.47300720 282.50000000 -0.954848 -0.001223 0.297091 0.000000
92.65920258 219.43600464 215.00000000 0.691818 0.461767 -0.555121 0.000000
117.08399963 242.69700623 252.50000000 0.516325 0.241979 -0.821496 0.000000
98.47470093 281.46701050 327.50000000 -0.180978 0.513021 0.839081 0.000000
138.79499817 171.36099243 342.50000000 0.000978 0.000978 0.999999 0.000000
84.51760101 202.37699890 287.50000000 -0.782268 -0.610731 -0.122738 0.000000
145.77299500 200.05099487 357.50000000 0.000978 0.000978 0.999999 0.000000
89.16999817 220.21099854 212.50000000 0.006500 0.417317 -0.908738 0.000000
155.07800293 224.08799744 352.50000000 0.000978 0.000978 0.999999 0.000000
123.28700256 189.19500732 352.50000000 -0.046066 -0.267681 0.962406 0.000000
140.34599304 202.37699890 257.50000000 0.682874 -0.401788 -0.610122 0.000000
242.69700623 166.70899963 292.50000000 -0.478901 -0.320848 0.817135 0.000000
187.64500427 179.11500549 357.50000000 -0.151144 -0.960749 0.232630 0.000000
132.59199524 268.28500366 277.50000000 0.488190 -0.375407 -0.787871 0.000000
119.41000366 237.27000427 252.50000000 0.410646 0.240415 -0.879529 0.000000
199.27499390 221.76199341 307.50000000 -0.615746 -0.286282 0.734097 0.000000
140.34599304 206.25399780 257.50000000 0.609443 -0.236570 -0.756712 0.000000
86.06839752 257.42999268 272.50000000 -0.828093 0.478766 -0.291626 0.000000
119.79799652 262.08200073 265.00000000 0.304909 0.510288 -0.804138 0.000000
107.00399780 274.48800659 337.50000000 -0.243523 0.879968 0.407863 0.000000
136.08099365 245.02400208 350.00000000 0.585212 -0.697944 0.412798 0.000000
129.49000549 231.45399475 255.00000000 0.752082 0.567700 -0.334798 0.000000
137.63200378 170.58599854 270.00000000 -0.559938 -0.559938 -0.610687 0.000000
141.12100220 229.51600647 262.50000000 -0.000978 -0.000978 -0.999999 0.000000
141.89700317 271.38699341 332.50000000 -0.001181 0.235025 0.971989 0.000000
245.02400208 180.27799988 345.00000000 0.648454 -0.049881 0.759618 0.000000
119.41000366 235.71899414 252.50000000 0.361978 0.349655 -0.864126 0.000000
239.59599304 192.29699707 347.50000000 0.000978 0.000978 0.999999 0.000000
115.92099762 207.02900696 355.00000000 -0.690552 -0.444283 0.570746 0.000000
214.78300476 207.80499268 322.50000000 -0.511987 -0.845443 0.151973 0.000000
99.25000000 194.62300110 342.50000000 -0.494569 -0.554923 0.668926 0.000000
130.26600647 188.41999817 352.50000000 0.000978 0.000978 0.999999 0.000000
94.59770203 260.91900635 345.00000000 -0.531105 0.723031 0.441761 0.000000
226.41400146 160.11799622 315.00000000 -0.312031 -0.938818 -0.145796 0.000000
144.22300720 246.57400513 277.50000000 0.814902 0.100229 -0.570867 0.000000
160.50599670 243.47300720 297.50000000 0.625710 0.079478 -0.775996 0.000000
193.07200623 175.23800659 267.50000000 -0.366817 -0.919134 -0.143658 0.000000
163.60699463 202.37699890 277.50000000 -0.000978 -0.000978 0.999999 0.000000
225.63900757 191.52200317 297.50000000 -0.690803 -0.608369 0.390741 0.000000
89.94539642 214.78300476 347.50000000 -0.563567 -0.144237 0.813380 0.000000
91.49610138 264.02099609 265.00000000 -0.791071 0.552966 -0.261602 0.000000
200.82600403 188.41999817 262.50000000 0.000978 0.000978 0.999999 0.000000
89.16999817 223.31300354 212.50000000 -0.104140 0.347583 -0.931848 0.000000
136.46899414 167.09700012 310.00000000 -0.001114 -0.988281 -0.152643 0.000000
201.60200500 204.70300293 357.50000000 0.000978 0.000978 0.999999 0.000000
123.28700256 203.92799377 357.50000000 0.000978 0.000978 0.999999 0.000000
207.80499268 210.90600586 317.50000000 -0.468265 -0.839168 0.276632 0.000000
185.31799316 205.47900391 292.50000000 0.216162 -0.917616 0.333548 0.000000
96.92389679 217.88499451 352.50000000 -0.202708 -0.064332 0.977124 0.000000
137.24400330 245.79899597 272.50000000 0.393526 0.477737 -0.785433 0.000000
203.92799377 217.88499451 312.50000000 -0.464990 -0.736373 0.491467 0.000000
140.34599304 290.77200317 302.50000000 0.251453 0.921035 -0.297433 0.000000
79.86530304 217.88499451 337.50000000 0.000978 0.000978 0.999999 0.000000
118.63500214 291.93499756 295.00000000 -0.001114 0.988281 -0.152643 0.000000
184.54299927 205.86599731 295.00000000 0.526796 -0.818607 0.228841 0.000000
144.61000061 214.00799561 260.00000000 0.702206 0.162985 -0.693067 0.000000
92.65920258 286.11898804 310.00000000 -0.563511 0.811636 0.153957 0.000000
107.77899933 238.04499817 352.50000000 0.000978 0.000978 0.999999 0.000000
127.16400146 219.43600464 247.50000000 0.374476 0.099406 -0.921893 0.000000
225.63900757 189.19500732 352.50000000 0.000978 0.000978 0.999999 0.000000
116.30899811 177.17700195 340.00000000 -0.536493 -0.837276 0.105563 0.000000
99.63770294 196.17399597 345.00000000 -0.586267 -0.562613 0.582888 0.000000
83.74220276 255.87899780 342.50000000 -0.404976 0.274534 0.872139 0.000000
77.53910065 222.14999390 285.00000000 -0.888298 -0.377713 -0.261264 0.000000
138.79499817 241.53399658 270.00000000 0.752056 0.303067 -0.585288 0.000000
89.16999817 225.25100708 215.00000000 0.828937 0.261851 -0.494264 0.000000
137.63200378 219.43600464 255.00000000 0.803309 -0.020811 -0.595198 0.000000
153.52699280 167.09700012 270.00000000 -0.173351 -0.969484 -0.173351 0.000000
243.47300720 197.72500610 337.50000000 -0.312331 -0.430426 0.846867 0.000000
103.12699890 274.87600708 335.00000000 -0.406319 0.738612 0.537920 0.000000
176.01400757 173.68800354 352.50000000 0.143225 -0.719141 0.679943 0.000000
252.00199890 188.41999817 342.50000000 0.619586 0.619586 0.481900 0.000000
140.34599304 205.47900391 357.50000000 0.000978 0.000978 0.999999 0.000000
238.82000732 188.41999817 347.50000000 0.000978 0.000978 0.999999 0.000000
199.27499390 209.35600281 297.50000000 0.000978 0.000978 0.999999 0.000000
75.21289825 222.53700256 332.50000000 -0.000978 -0.000978 0.999999 0.000000
173.68800354 215.55900574 302.50000000 0.000978 0.000978 0.999999 0.000000
179.89100647 179.89100647 272.50000000 -0.508210 -0.852808 -0.120175 0.000000
248.12500000 168.25999451 312.50000000 -0.813893 -0.533877 0.229244 0.000000
204.70300293 214.39599609 330.00000000 -0.833699 -0.540817 -0.111643 0.000000
230.29100037 209.35600281 342.50000000 -0.334438 -0.045194 0.941333 0.000000
202.37699890 182.21699524 357.50000000 0.553630 -0.051859 0.831146 0.000000
80.25299835 222.53700256 275.00000000 -0.959128 -0.240769 -0.148671 0.000000
173.68800354 213.23300171 302.50000000 0.000978 0.000978 0.999999 0.000000
74.82520294 226.41400146 295.00000000 -0.951489 -0.137068 -0.275466 0.000000
109.33000183 291.54699707 317.50000000 -0.000978 -0.000978 0.999999 0.000000
79.47760010 247.35000610 340.00000000 -0.735176 0.363513 0.572166 0.000000
192.29699707 224.47599792 305.00000000 -0.098369 -0.753185 0.650412 0.000000
167.48399353 196.56199646 275.00000000 -0.228084 -0.789761 0.569435 0.000000
108.16699982 189.97099304 220.00000000 0.637947 -0.513387 -0.573984 0.000000
195.39900208 195.39900208 267.50000000 -0.076990 -0.965531 0.248640 0.000000
200.05099487 214.00799561 352.50000000 0.316852 0.359301 0.877786 0.000000
174.46299744 220.98599243 342.50000000 -0.732842 0.001380 0.680398 0.000000
148.10000610 188.80799866 255.00000000 -0.122249 0.924420 -0.361252 0.000000
96.92389679 185.31799316 312.50000000 -0.790530 0.001370 -0.612421 0.000000
132.59199524 196.94900513 247.50000000 0.863477 -0.246492 -0.440056 0.000000
135.30599976 251.22700500 280.00000000 0.725734 0.564460 -0.393312 0.000000
137.24400330 218.66000366 357.50000000 0.000978 0.000978 0.999999 0.000000
116.30899811 266.73400879 347.50000000 0.000978 0.000978 0.999999 0.000000
137.24400330 279.14099121 327.50000000 0.163838 0.095876 0.981817 0.000000
81.80370331 219.43600464 270.00000000 -0.978325 -0.164914 -0.125235 0.000000
227.96499634 203.92799377 352.50000000 0.485835 -0.012045 0.873968 0.000000
130.26600647 285.73199463 325.00000000 -0.153697 0.810268 0.565546 0.000000
87.61920166 203.92799377 272.50000000 -0.000978 -0.000978 -0.999999 0.000000
197.72500610 190.74600220 262.50000000 0.000978 0.000978 0.999999 0.000000
106.22899628 284.95599365 285.00000000 -0.277258 0.834871 -0.475520 0.000000
88.39459991 258.98098755 342.50000000 -0.619433 0.307303 0.722404 0.000000
124.06300354 179.11500549 347.50000000 -0.031418 -0.864687 0.501327 0.000000
143.44700623 193.84800720 357.50000000 0.000978 0.000978 0.999999 0.000000
108.55500031 191.52200317 217.50000000 0.497822 -0.122652 -0.858563 0.000000
108.94200134 191.52200317 220.00000000 0.571991 -0.488121 -0.659215 0.000000
123.28700256 170.19799805 310.00000000 -0.000978 -0.000978 -0.999999 0.000000
106.22899628 238.04499817 352.50000000 0.000978 0.000978 0.999999 0.000000
101.96399689 192.29699707 220.00000000 -0.395143 -0.884225 -0.249014 0.000000
92.65920258 265.95901489 340.00000000 -0.406497 0.432204 0.804960 0.000000
103.90200043 192.29699707 347.50000000 -0.529077 -0.232917 0.815982 0.000000
158.17999268 191.52200317 357.50000000 0.000978 0.000978 0.999999 0.000000
75.60060120 266.73400879 315.00000000 -0.838472 0.510309 0.191178 0.000000
192.29699707 215.55900574 297.50000000 0.000978 0.000978 0.999999 0.000000
169.81100464 181.44099426 357.50000000 0.000978 0.000978 0.999999 0.000000
213.23300171 163.60699463 287.50000000 0.725943 -0.540737 0.424983 0.000000
178.33999634 176.40100098 355.00000000 0.020740 -0.808861 0.587634 0.000000
237.27000427 211.68200684 342.50000000 0.439132 0.666212 -0.602763 0.000000
116.30899811 271.38699341 267.50000000 -0.000978 -0.000978 -0.999999 0.000000
181.44099426 176.78900146 357.50000000 -0.621574 -0.236417 0.746828 0.000000
151.97700500 248.12500000 287.50000000 0.500205 0.577678 -0.645045 0.000000
103.90200043 193.07200623 217.50000000 -0.300656 -0.318428 -0.899005 0.000000
93.04689789 234.16799927 352.50000000 0.000978 0.000978 0.999999 0.000000
76.37599945 225.63900757 290.00000000 -0.559938 -0.559938 -0.610687 0.000000
160.50599670 256.65399170 327.50000000 0.398044 0.161215 0.903089 0.000000
107.00399780 193.07200623 217.50000000 0.496518 -0.128834 -0.858412 0.000000
201.98899841 182.21699524 360.00000000 0.633751 -0.061515 0.771087 0.000000
169.03500366 201.21400452 280.00000000 -0.203082 -0.873104 0.443223 0.000000
183.76800537 197.33700562 275.00000000 0.158267 -0.956250 0.246045 0.000000
196.94900513 177.17700195 260.00000000 -0.312142 -0.919164 -0.240220 0.000000
77.53910065 218.66000366 292.50000000 -0.951665 -0.283784 -0.117473 0.000000
234.16799927 179.89100647 287.50000000 0.000978 0.000978 0.999999 0.000000
163.60699463 206.25399780 357.50000000 0.000978 0.000978 0.999999 0.000000
114.75800323 249.67599487 352.50000000 0.000978 0.000978 0.999999 0.000000
238.04499817 194.62300110 347.50000000 0.000978 0.000978 0.999999 0.000000
206.25399780 209.74299622 310.00000000 -0.217799 -0.970652 0.101975 0.000000
83.74220276 271.38699341 297.50000000 -0.771646 0.394758 -0.498727 0.000000
117.85900116 208.58000183 357.50000000 -0.188729 -0.822858 0.535990 0.000000
101.57599640 249.67599487 352.50000000 0.000978 0.000978 0.999999 0.000000
162.44400024 252.00199890 300.00000000 0.631680 0.454073 -0.628329 0.000000
176.78900146 176.01400757 292.50000000 0.000978 0.000978 0.999999 0.000000
197.72500610 226.02600098 315.00000000 -0.512807 -0.819562 0.255629 0.000000
165.15800476 267.51000977 322.50000000 0.000978 0.000978 0.999999 0.000000
161.28100586 177.56500244 357.50000000 0.163738 -0.983626 -0.075296 0.000000
202.37699890 194.62300110 357.50000000 0.464233 0.493971 0.735174 0.000000
144.99800110 244.24800110 277.50000000 0.814902 0.100229 -0.570867 0.000000
125.61299896 248.90100098 267.50000000 -0.000978 -0.000978 -0.999999 0.000000
245.02400208 179.11500549 342.50000000 0.364074 -0.014052 0.931264 0.000000
139.95799255 247.35000610 275.00000000 0.490532 0.500509 -0.713350 0.000000
132.59199524 210.90600586 357.50000000 0.000978 0.000978 0.999999 0.000000
157.40400696 232.61700439 347.50000000 0.000978 0.000978 0.999999 0.000000
127.94000244 201.60200500 357.50000000 0.000978 0.000978 0.999999 0.000000
160.89399719 279.14099121 315.00000000 0.906778 0.001297 -0.421606 0.000000
228.74000549 185.31799316 352.50000000 0.466833 0.017389 0.884174 0.000000
107.00399780 194.62300110 217.50000000 0.478711 -0.042279 -0.876954 0.000000
130.26600647 265.95901489 342.50000000 0.061260 0.594076 0.802073 0.000000
110.10600281 257.42999268 252.50000000 0.540473 0.253882 -0.802143 0.000000
108.94200134 194.62300110 220.00000000 0.719460 -0.021037 -0.694216 0.000000
90.72070313 207.41700745 240.00000000 -0.848510 -0.528782 0.020495 0.000000
191.52200317 203.92799377 287.50000000 0.000000 0.000000 0.000000 0.000000
118.63500214 272.54998779 340.00000000 0.406381 0.678408 0.612060 0.000000
112.43199921 268.67300415 260.00000000 0.658325 0.547201 -0.516894 0.000000
217.10899353 208.19200134 330.00000000 -0.439478 -0.849658 0.291444 0.000000
124.44999695 217.88499451 245.00000000 0.701670 0.139733 -0.698665 0.000000
225.63900757 201.60200500 327.50000000 -0.000978 -0.000978 -0.999999 0.000000
241.92199707 186.09399414 347.50000000 0.000978 0.000978 0.999999 0.000000
252.00199890 190.35800171 340.00000000 0.901958 0.371566 -0.220025 0.000000
187.64500427 198.50000000 362.50000000 0.000978 0.000978 0.999999 0.000000
134.14300537 234.16799927 352.50000000 0.000978 0.000978 0.999999 0.000000
86.45610046 239.59599304 245.00000000 -0.963034 0.235235 -0.131264 0.000000
228.74000549 213.61999512 345.00000000 -0.112570 -0.949561 0.292682 0.000000
182.21699524 225.25100708 310.00000000 0.137068 -0.951489 0.275466 0.000000
158.17999268 252.00199890 297.50000000 0.738740 0.524851 -0.422842 0.000000
183.76800537 178.33999634 267.50000000 -0.669821 -0.727278 -0.149689 0.000000
217.10899353 171.36099243 262.50000000 -0.000978 -0.000978 -0.999999 0.000000
108.55500031 177.17700195 330.00000000 -0.623185 -0.778622 -0.073401 0.000000
240.37100220 189.19500732 327.50000000 0.000978 0.000978 0.999999 0.000000
99.25000000 196.17399597 217.50000000 0.833677 -0.500206 -0.234042 0.000000
195.01100159 165.15800476 330.00000000 -0.067864 -0.990357 0.120775 0.000000
150.42599487 253.55299377 287.50000000 0.184192 0.294985 -0.937580 0.000000
226.41400146 208.19200134 340.00000000 -0.309905 -0.789862 0.529223 0.000000
117.08399963 260.53100586 262.50000000 0.724856 0.247936 -0.642737 0.000000
215.55900574 177.56500244 357.50000000 0.000978 0.000978 0.999999 0.000000
72.88670349 248.90100098 327.50000000 0.000978 0.000978 0.999999 0.000000
129.49000549 256.65399170 272.50000000 0.539329 0.236439 -0.808221 0.000000
141.89700317 286.89498901 322.50000000 -0.004115 0.607649 0.794195 0.000000
231.84199524 196.94900513 347.50000000 0.338199 0.239497 0.910089 0.000000
73.66210175 250.45100403 332.50000000 -0.340995 -0.510692 0.789251 0.000000
160.50599670 251.22700500 297.50000000 0.621585 0.454042 -0.638340 0.000000
175.23800659 204.70300293 302.50000000 0.117650 0.241764 0.963176 0.000000
201.60200500 190.74600220 362.50000000 0.503429 0.716098 0.483491 0.000000
101.57599640 278.75299072 330.00000000 -0.212538 0.615893 0.758619 0.000000
110.88099670 221.76199341 357.50000000 0.000978 0.000978 0.999999 0.000000
204.70300293 179.89100647 357.50000000 0.310805 0.028941 0.950033 0.000000
97.69930267 184.15499878 320.00000000 -0.655665 -0.755050 -0.001380 0.000000
220.21099854 175.23800659 352.50000000 0.000978 0.000978 0.999999 0.000000
141.12100220 192.29699707 262.50000000 0.269586 0.067080 -0.960637 0.000000
186.86900330 164.77099609 325.00000000 0.001114 -0.988281 0.152643 0.000000
106.22899628 278.36499023 332.50000000 -0.543015 0.597147 0.590381 0.000000
139.57000732 183.76800537 357.50000000 0.000978 0.000978 0.999999 0.000000
110.10600281 209.35600281 352.50000000 0.000978 0.000978 0.999999 0.000000
96.92389679 267.89801025 340.00000000 -0.326033 0.840822 0.432111 0.000000
91.10839844 189.97099304 320.00000000 -0.716223 -0.696288 0.046989 0.000000
93.82230377 252.77699280 242.50000000 -0.619586 -0.619586 0.481900 0.000000
166.70899963 181.44099426 357.50000000 0.000978 0.000978 0.999999 0.000000
210.13099670 162.83200073 302.50000000 -0.238066 -0.953609 -0.184266 0.000000
159.73100281 274.48800659 302.50000000 0.498298 0.144667 -0.854851 0.000000
85.29299927 201.60200500 282.50000000 -0.929061 -0.233326 -0.287062 0.000000
134.91799927 255.10400391 347.50000000 0.000978 0.000978 0.999999 0.000000
79.47760010 215.55900574 285.00000000 -0.988281 0.001114 -0.152643 0.000000
182.21699524 170.58599854 292.50000000 -0.243959 -0.862189 -0.443975 0.000000
187.64500427 176.01400757 272.50000000 -0.328828 -0.924386 -0.193345 0.000000
193.84800720 206.25399780 292.50000000 0.156644 -0.822008 0.547508 0.000000
204.70300293 163.99499512 300.00000000 -0.671719 -0.671719 -0.312390 0.000000
165.15800476 263.63299561 322.50000000 0.000978 0.000978 0.999999 0.000000
107.77899933 270.61099243 257.50000000 -0.196268 0.976401 -0.090110 0.000000
164.38299561 203.15199280 362.50000000 -0.735527 0.514043 -0.441316 0.000000
117.85900116 249.67599487 257.50000000 0.812503 -0.429398 -0.394280 0.000000
103.51499939 179.89100647 315.00000000 -0.597101 -0.798533 -0.076256 0.000000
107.00399780 197.72500610 217.50000000 0.790530 0.001370 -0.612421 0.000000
234.16799927 191.52200317 347.50000000 0.338975 0.075181 0.937787 0.000000
85.29299927 248.12500000 257.50000000 -0.918250 0.309927 -0.246500 0.000000
143.44700623 265.95901489 337.50000000 0.077692 0.327885 0.941518 0.000000
81.02839661 211.68200684 335.00000000 -0.866555 0.053901 0.496162 0.000000
256.65399170 166.70899963 322.50000000 -0.671719 -0.671719 0.312390 0.000000
254.32800293 163.60699463 312.50000000 -0.907070 -0.255616 0.334491 0.000000
75.98829651 265.57101440 305.00000000 -0.742273 0.556297 -0.373584 0.000000
121.73600006 262.08200073 347.50000000 0.000978 0.000978 0.999999 0.000000
227.96499634 174.46299744 347.50000000 0.000978 0.000978 0.999999 0.000000
202.37699890 211.68200684 357.50000000 -0.028373 0.275099 0.960997 0.000000
79.08989716 211.68200684 297.50000000 -0.901426 -0.417871 -0.113202 0.000000
242.69700623 174.46299744 342.50000000 -0.430052 0.096031 0.897682 0.000000
186.86900330 224.08799744 347.50000000 0.322933 0.193196 0.926493 0.000000
120.96099854 176.78900146 342.50000000 0.000978 0.000978 0.999999 0.000000
103.90200043 287.67001343 297.50000000 -0.637686 0.765514 0.085703 0.000000
155.46600342 281.46701050 305.00000000 0.316601 0.947241 -0.049990 0.000000
153.52699280 268.28500366 327.50000000 -0.000978 -0.000978 0.999999 0.000000
246.18699646 169.81100464 310.00000000 -0.727822 -0.663737 0.172419 0.000000
176.78900146 184.54299927 362.50000000 -0.258750 -0.127405 0.957505 0.000000
95.76080322 199.27499390 220.00000000 -0.306510 -0.532026 -0.789304 0.000000
188.41999817 215.55900574 352.50000000 0.000978 0.000978 0.999999 0.000000
161.66900635 232.61700439 290.00000000 0.965270 0.146410 -0.216376 0.000000
119.41000366 223.69999695 245.00000000 0.421598 0.756251 -0.500340 0.000000
190.74600220 208.19200134 295.00000000 0.218974 -0.850221 0.478721 0.000000
113.98200226 183.76800537 347.50000000 0.000978 0.000978 0.999999 0.000000
130.26600647 286.89498901 322.50000000 0.115512 0.466327 0.877038 0.000000
220.21099854 204.70300293 327.50000000 -0.455769 -0.848620 0.268551 0.000000
231.84199524 167.09700012 275.00000000 0.070744 -0.671347 -0.737759 0.000000
146.54899597 200.05099487 357.50000000 0.000978 0.000978 0.999999 0.000000
129.49000549 248.90100098 352.50000000 0.179803 0.134538 0.974459 0.000000
135.69299316 217.10899353 252.50000000 0.603019 0.310354 -0.734880 0.000000
117.85900116 275.26400757 337.50000000 0.169251 0.648032 0.742569 0.000000
158.95500183 169.03500366 342.50000000 0.089415 -0.978671 0.184955 0.000000
152.75199890 165.93400574 282.50000000 -0.442309 -0.886050 -0.138848 0.000000
234.94299316 199.66299438 335.00000000 -0.509761 -0.700294 0.499732 0.000000
134.14300537 198.50000000 357.50000000 0.000978 0.000978 0.999999 0.000000
120.96099854 217.10899353 242.50000000 0.353315 0.322987 -0.877979 0.000000
99.25000000 250.45100403 237.50000000 0.270806 0.521263 -0.809289 0.000000
