169.86300659 180.52699280 127.50000000 -0.518244 0.528307 0.672543 0.000000
160.72300720 95.97660065 177.50000000 -0.616059 -0.558673 0.555297 0.000000
195.76199341 140.15600586 202.50000000 0.000978 0.000978 0.999999 0.000000
157.29499817 187.38299561 120.00000000 0.700373 0.454161 -0.550650 0.000000
201.85600281 136.34800720 197.50000000 0.957775 0.006116 0.287455 0.000000
182.81300354 102.06999969 192.50000000 0.031939 -0.826246 0.562403 0.000000
66.26959991 149.29699707 112.50000000 -0.503699 0.574453 0.645206 0.000000
127.96900177 268.12500000 132.50000000 0.421349 0.208457 -0.882616 0.000000
104.35500336 140.15600586 147.50000000 0.000978 0.000978 0.999999 0.000000
136.34800720 198.80900574 112.50000000 -0.000978 -0.000978 -0.999999 0.000000
185.09800720 118.82800293 167.50000000 0.000978 0.000978 0.999999 0.000000
136.72900391 203.37899780 115.00000000 0.766547 -0.098200 -0.634636 0.000000
165.29299927 176.71899414 207.50000000 0.000978 0.000978 0.999999 0.000000
121.87500000 246.79699707 122.50000000 -0.000978 -0.000978 -0.999999 0.000000
194.23800659 131.77699280 202.50000000 0.000978 0.000978 0.999999 0.000000
177.48100281 140.15600586 202.50000000 0.000978 0.000978 0.999999 0.000000
215.56599426 117.30500031 197.50000000 0.000978 0.000978 0.999999 0.000000
108.16400146 219.37500000 207.50000000 0.449150 0.240454 0.860492 0.000000
97.88089752 249.84399414 105.00000000 0.506758 -0.506758 -0.697419 0.000000
122.63700104 136.34800720 202.50000000 0.000978 0.000978 0.999999 0.000000
135.58599854 137.87100220 202.50000000 0.000978 0.000978 0.999999 0.000000
211.75799561 172.91000366 192.50000000 0.000978 0.000978 0.999999 0.000000
80.74220276 255.93800354 172.50000000 -0.277620 0.914257 0.295062 0.000000
165.29299927 142.44099426 147.50000000 0.000978 0.000978 0.999999 0.000000
62.84180069 239.94099426 170.00000000 -0.729405 0.400103 0.554875 0.000000
82.26560211 250.98599243 180.00000000 -0.649788 0.307964 0.694934 0.000000
182.05099487 181.28900146 137.50000000 -0.499119 0.576423 0.647006 0.000000
146.25000000 118.82800293 197.50000000 0.000978 0.000978 0.999999 0.000000
79.21880341 172.14799500 92.50000000 0.000978 0.000978 0.999999 0.000000
127.96900177 196.52299500 107.50000000 -0.000978 -0.000978 -0.999999 0.000000
183.57400513 181.28900146 197.50000000 -0.952781 -0.120254 -0.278831 0.000000
111.21099854 244.51199341 117.50000000 0.262250 0.099474 -0.959859 0.000000
175.95700073 161.48399353 157.50000000 0.213938 -0.505259 0.836029 0.000000
138.63299561 129.49200439 152.50000000 0.511423 0.748223 0.422623 0.000000
83.02739716 266.60198975 157.50000000 -0.449086 0.772427 0.449086 0.000000
169.48199463 140.15600586 150.00000000 -0.758922 0.605573 0.239413 0.000000
150.05900574 224.32600403 190.00000000 0.579996 0.462994 0.670255 0.000000
178.24200439 161.10400391 155.00000000 0.133257 -0.690241 0.711203 0.000000
204.90199280 127.96900177 202.50000000 0.000978 0.000978 0.999999 0.000000
68.93560028 162.24600220 145.00000000 -0.978780 -0.196238 0.058992 0.000000
105.11699677 182.81300354 97.50000000 0.680357 -0.153042 -0.716723 0.000000
139.39500427 161.48399353 212.50000000 0.000978 0.000978 0.999999 0.000000
142.44099426 224.70700073 132.50000000 0.791427 0.296587 -0.534491 0.000000
111.21099854 226.99200439 202.50000000 0.000978 0.000978 0.999999 0.000000
175.95700073 119.58999634 202.50000000 0.000978 0.000978 0.999999 0.000000
153.86700439 214.80499268 192.50000000 0.000978 0.000978 0.999999 0.000000
55.98630142 227.75399780 160.00000000 -0.988665 -0.001112 0.150135 0.000000
134.82400513 177.48100281 217.50000000 0.823227 -0.043328 0.566056 0.000000
153.86700439 200.33200073 127.50000000 0.657803 0.499661 -0.563591 0.000000
82.26560211 173.67199707 92.50000000 0.000978 0.000978 0.999999 0.000000
191.19099426 119.58999634 172.50000000 0.000978 0.000978 0.999999 0.000000
185.09800720 163.77000427 202.50000000 0.000978 0.000978 0.999999 0.000000
52.55860138 210.99600220 62.50000000 -0.000978 -0.000978 -0.999999 0.000000
81.50389862 252.12899780 177.50000000 -0.369009 0.372123 0.851679 0.000000
53.32030106 210.99600220 62.50000000 -0.000978 -0.000978 -0.999999 0.000000
143.20300293 220.13699341 127.50000000 0.850288 -0.510173 -0.129360 0.000000
106.64099884 231.56300354 197.50000000 0.001112 0.988665 0.150135 0.000000
146.63099670 256.69900513 145.00000000 0.908327 0.261820 -0.326179 0.000000
169.10200500 217.08999634 182.50000000 0.298183 0.324886 0.897516 0.000000
109.68800354 174.43400574 107.50000000 -0.128960 0.321720 0.938011 0.000000
152.34399414 139.39500427 142.50000000 -0.424083 0.321558 0.846613 0.000000
151.58200073 201.09399414 122.50000000 0.702968 0.702968 -0.108035 0.000000
128.73100281 163.00799561 212.50000000 -0.000978 -0.000978 0.999999 0.000000
54.08200073 211.75799561 62.50000000 -0.000978 -0.000978 -0.999999 0.000000
233.08599854 161.48399353 187.50000000 0.000978 0.000978 0.999999 0.000000
200.71299744 110.44899750 185.00000000 -0.687775 0.652173 0.318804 0.000000
137.10899353 204.14100647 207.50000000 0.000978 0.000978 0.999999 0.000000
213.28100586 168.33999634 167.50000000 -0.315293 -0.146045 0.937689 0.000000
138.63299561 267.36300659 152.50000000 0.642545 0.757760 0.113738 0.000000
79.98049927 239.94099426 187.50000000 -0.435076 0.729538 0.527716 0.000000
158.81799316 154.62899780 205.00000000 0.470881 -0.527453 0.707153 0.000000
97.11920166 220.89900208 95.00000000 0.768462 0.029502 -0.639215 0.000000
227.75399780 125.68399811 187.50000000 -0.000978 -0.000978 0.999999 0.000000
131.01600647 186.62100220 102.50000000 0.000978 0.000978 -0.999999 0.000000
56.36719894 214.80499268 177.50000000 -0.940335 0.340228 -0.003766 0.000000
167.57800293 112.73400116 202.50000000 0.000978 0.000978 0.999999 0.000000
220.89900208 135.58599854 197.50000000 0.000978 0.000978 0.999999 0.000000
166.05499268 227.75399780 167.50000000 0.897054 0.441196 -0.025325 0.000000
113.49600220 250.60600281 117.50000000 0.544425 0.213169 -0.811270 0.000000
177.48100281 156.15199280 202.50000000 0.000978 0.000978 0.999999 0.000000
73.88670349 150.05900574 192.50000000 -0.820165 -0.452122 0.350593 0.000000
68.93560028 190.42999268 200.00000000 -0.664772 -0.261784 0.699677 0.000000
126.44499969 170.62500000 122.50000000 0.000978 0.000978 0.999999 0.000000
44.94139862 185.09800720 67.50000000 0.000978 0.000978 -0.999999 0.000000
111.97299957 240.70300293 117.50000000 -0.027336 0.384009 -0.922924 0.000000
161.48399353 177.48100281 207.50000000 0.000978 0.000978 0.999999 0.000000
227.75399780 179.76600647 182.50000000 -0.379439 -0.091120 0.920719 0.000000
132.53900146 140.91799927 202.50000000 -0.173481 -0.312265 0.934021 0.000000
158.43800354 124.92199707 152.50000000 0.000978 0.000978 0.999999 0.000000
167.57800293 144.72700500 202.50000000 0.000978 0.000978 0.999999 0.000000
74.64849854 214.80499268 202.50000000 0.000978 0.000978 0.999999 0.000000
96.73829651 210.99600220 92.50000000 0.587928 -0.001364 -0.808912 0.000000
65.50779724 173.67199707 92.50000000 -0.604488 0.614590 0.506827 0.000000
223.94500732 132.53900146 197.50000000 0.000978 0.000978 0.999999 0.000000
150.05900574 178.62300110 145.00000000 -0.107550 0.960177 0.257861 0.000000
214.80499268 166.05499268 167.50000000 -0.646616 0.104578 0.755613 0.000000
102.83200073 122.63700104 182.50000000 0.768561 -0.256187 0.586244 0.000000
175.19500732 99.02349854 172.50000000 -0.796380 0.190339 0.574064 0.000000
163.00799561 224.70700073 147.50000000 0.438113 0.132718 -0.889069 0.000000
177.48100281 140.15600586 152.50000000 0.000978 0.000978 0.999999 0.000000
152.34399414 143.96499634 142.50000000 0.000978 0.000978 0.999999 0.000000
100.54699707 255.93800354 107.50000000 -0.000978 -0.000978 -0.999999 0.000000
115.01999664 202.61700439 102.50000000 0.688264 0.029557 -0.724858 0.000000
77.31449890 263.55499268 155.00000000 -0.553710 0.828419 0.084416 0.000000
212.52000427 137.10899353 197.50000000 0.000978 0.000978 0.999999 0.000000
198.04699707 142.44099426 162.50000000 0.000978 0.000978 0.999999 0.000000
150.05900574 166.81599426 207.50000000 0.000978 0.000978 0.999999 0.000000
147.01199341 179.00399780 142.50000000 -0.152773 0.116108 0.981417 0.000000
116.54299927 139.39500427 202.50000000 0.000978 0.000978 0.999999 0.000000
232.32400513 157.67599487 192.50000000 0.000978 0.000978 0.999999 0.000000
210.99600220 130.25399780 177.50000000 0.000978 0.000978 0.999999 0.000000
129.49200439 128.73100281 152.50000000 0.567871 0.763026 0.308730 0.000000
81.50389862 261.26998901 167.50000000 0.000000 0.000000 0.000000 0.000000
41.89450073 188.14500427 67.50000000 0.000978 0.000978 -0.999999 0.000000
93.69139862 144.72700500 202.50000000 -0.312360 -0.661945 0.681366 0.000000
60.17580032 237.27499390 115.00000000 -0.909484 0.390585 -0.142415 0.000000
188.14500427 190.42999268 142.50000000 0.000978 0.000978 0.999999 0.000000
181.28900146 116.54299927 167.50000000 -0.003726 0.319205 0.947678 0.000000
184.33599854 144.72700500 157.50000000 0.000978 0.000978 0.999999 0.000000
101.30899811 165.29299927 107.50000000 -0.138482 0.429722 0.892279 0.000000
182.05099487 115.78099823 172.50000000 -0.217346 0.377802 0.900015 0.000000
105.87899780 210.23399353 212.50000000 0.000978 0.000978 0.999999 0.000000
144.72700500 110.83000183 190.00000000 -0.499636 -0.835783 0.227663 0.000000
92.16799927 146.63099670 135.00000000 -0.594407 0.412277 0.690440 0.000000
153.10600281 163.00799561 207.50000000 0.000978 0.000978 0.999999 0.000000
180.52699280 163.77000427 157.50000000 -0.039466 -0.314453 0.948452 0.000000
96.73829651 164.53100586 107.50000000 0.000978 0.000978 0.999999 0.000000
59.03319931 162.24600220 110.00000000 -0.872427 -0.088793 0.480610 0.000000
137.87100220 140.91799927 202.50000000 0.000978 0.000978 0.999999 0.000000
192.71499634 107.02200317 180.00000000 -0.355585 0.634154 0.686591 0.000000
111.21099854 150.05900574 207.50000000 0.177022 -0.392903 0.902381 0.000000
74.64849854 167.57800293 97.50000000 -0.493502 0.631615 0.597929 0.000000
105.11699677 227.75399780 202.50000000 0.000978 0.000978 0.999999 0.000000
99.78520203 172.14799500 222.50000000 0.000978 0.000978 0.999999 0.000000
95.21489716 244.51199341 102.50000000 -0.000978 -0.000978 -0.999999 0.000000
213.28100586 124.92199707 197.50000000 0.000978 0.000978 0.999999 0.000000
79.21880341 182.81300354 207.50000000 -0.700268 -0.104672 0.706165 0.000000
132.53900146 179.00399780 142.50000000 -0.347800 0.658045 0.667842 0.000000
43.41799927 189.66799927 67.50000000 -0.000978 -0.000978 -0.999999 0.000000
54.08200073 209.47300720 157.50000000 -0.995207 -0.036130 0.090871 0.000000
119.58999634 205.66400146 212.50000000 0.000978 0.000978 0.999999 0.000000
170.62500000 223.18400574 162.50000000 0.563495 0.563495 -0.604108 0.000000
129.49200439 160.72300720 142.50000000 0.000978 0.000978 0.999999 0.000000
175.95700073 149.29699707 202.50000000 0.000978 0.000978 0.999999 0.000000
105.87899780 227.75399780 202.50000000 -0.048978 0.382555 0.922634 0.000000
111.21099854 156.91400146 132.50000000 -0.398785 0.899786 0.177078 0.000000
126.44499969 131.77699280 152.50000000 -0.000978 -0.000978 0.999999 0.000000
85.31250000 204.14100647 82.50000000 0.000978 0.000978 0.999999 0.000000
134.82400513 176.33799744 145.00000000 -0.348101 0.558581 0.752870 0.000000
124.92199707 237.65600586 122.50000000 -0.000978 -0.000978 -0.999999 0.000000
206.42599487 145.48800659 167.50000000 -0.434228 0.222337 0.872933 0.000000
185.09800720 175.95700073 197.50000000 0.000978 0.000978 0.999999 0.000000
57.89059830 229.27699280 112.50000000 -0.892121 0.446748 -0.067356 0.000000
118.82800293 277.26599121 137.50000000 -0.001112 0.988665 0.150135 0.000000
127.96900177 202.61700439 212.50000000 0.358029 0.161464 0.919644 0.000000
46.46490097 190.42999268 67.50000000 -0.000978 -0.000978 -0.999999 0.000000
69.31639862 168.33999634 192.50000000 -0.884485 -0.132887 0.447244 0.000000
207.18800354 178.24200439 167.50000000 -0.767650 -0.640856 0.004135 0.000000
86.45510101 122.63700104 165.00000000 -0.424083 -0.846613 0.321558 0.000000
102.83200073 200.33200073 212.50000000 0.000978 0.000978 0.999999 0.000000
104.35500336 147.77299500 207.50000000 0.000978 0.000978 0.999999 0.000000
123.77899933 274.98098755 135.00000000 0.638881 0.678298 -0.362963 0.000000
170.62500000 92.54889679 180.00000000 -0.031582 -0.849958 0.525903 0.000000
61.31840134 161.48399353 125.00000000 -0.867743 0.162427 0.469723 0.000000
128.73100281 193.47700500 107.50000000 0.000978 0.000978 -0.999999 0.000000
153.10600281 159.96099854 157.50000000 0.000978 0.000978 0.999999 0.000000
121.87500000 152.34399414 142.50000000 0.000978 0.000978 0.999999 0.000000
134.06300354 198.04699707 112.50000000 -0.000978 -0.000978 -0.999999 0.000000
216.32800293 112.73400116 197.50000000 0.000978 0.000978 0.999999 0.000000
111.21099854 271.93399048 162.50000000 0.067712 0.741946 0.667031 0.000000
79.21880341 166.43600464 105.00000000 -0.427560 0.781963 0.453571 0.000000
198.04699707 130.25399780 202.50000000 0.000978 0.000978 0.999999 0.000000
201.85600281 135.58599854 202.50000000 0.000978 0.000978 0.999999 0.000000
167.57800293 171.00599670 140.00000000 0.230403 0.691210 0.684940 0.000000
124.16000366 136.34800720 202.50000000 0.000978 0.000978 0.999999 0.000000
75.41020203 141.67999268 122.50000000 0.410909 0.410909 0.813823 0.000000
91.40630341 217.08999634 92.50000000 0.375131 0.302231 -0.876318 0.000000
140.15600586 199.57000732 117.50000000 -0.000978 -0.000978 -0.999999 0.000000
150.05900574 251.36700439 147.50000000 0.765967 0.343476 -0.543433 0.000000
69.69730377 158.43800354 145.00000000 -0.960116 -0.273778 -0.056774 0.000000
210.23399353 142.44099426 172.50000000 -0.356975 0.248267 0.900518 0.000000
150.43899536 234.60899353 180.00000000 0.236426 0.814355 0.530026 0.000000
86.07420349 220.13699341 87.50000000 -0.000978 -0.000978 -0.999999 0.000000
143.96499634 134.82400513 142.50000000 -0.000978 -0.000978 0.999999 0.000000
206.42599487 144.72700500 167.50000000 -0.434228 0.222337 0.872933 0.000000
188.14500427 113.49600220 172.50000000 0.000978 0.000978 0.999999 0.000000
102.06999969 238.41799927 107.50000000 -0.000978 -0.000978 -0.999999 0.000000
110.44899750 136.34800720 147.50000000 -0.077822 0.266635 0.960651 0.000000
190.42999268 147.77299500 202.50000000 0.031344 0.500145 0.865374 0.000000
122.63700104 159.19900513 137.50000000 -0.559132 0.596295 0.576024 0.000000
125.68399811 134.82400513 147.50000000 0.170386 0.441257 0.881057 0.000000
126.44499969 200.33200073 217.50000000 0.000978 0.000978 0.999999 0.000000
216.32800293 118.06600189 197.50000000 0.000978 0.000978 0.999999 0.000000
212.52000427 153.10600281 172.50000000 0.000978 0.000978 0.999999 0.000000
198.04699707 182.81300354 167.50000000 -0.525583 -0.800211 0.288834 0.000000
100.54699707 224.32600403 205.00000000 0.612544 0.155017 0.775087 0.000000
150.82000732 183.57400513 207.50000000 0.984984 0.165140 -0.050362 0.000000
195.00000000 186.62100220 152.50000000 0.947226 0.315742 0.055416 0.000000
151.58200073 127.20700073 202.50000000 0.000978 0.000978 0.999999 0.000000
131.77699280 127.96900177 152.50000000 0.312154 0.939188 0.143127 0.000000
67.79299927 241.46499634 172.50000000 -0.142380 0.512273 0.846938 0.000000
88.35939789 249.84399414 92.50000000 0.923324 -0.006421 -0.383969 0.000000
70.83989716 243.75000000 177.50000000 0.000978 0.000978 0.999999 0.000000
66.65039825 180.52699280 195.00000000 -0.818595 0.208841 0.535059 0.000000
94.83399963 252.89100647 100.00000000 0.906323 0.115909 -0.406379 0.000000
182.05099487 127.20700073 162.50000000 -0.000978 -0.000978 0.999999 0.000000
106.64099884 162.62699890 115.00000000 -0.430817 0.863156 0.263361 0.000000
142.44099426 258.22299194 142.50000000 -0.231178 0.572516 -0.786627 0.000000
98.26170349 275.74200439 112.50000000 0.373779 0.380035 -0.846086 0.000000
127.96900177 222.42199707 202.50000000 0.138245 0.496225 0.857117 0.000000
129.49200439 177.10000610 135.00000000 -0.672704 0.672704 -0.308121 0.000000
97.50000000 188.14500427 92.50000000 -0.000978 -0.000978 -0.999999 0.000000
169.10200500 167.95899963 145.00000000 0.229823 0.923575 0.306907 0.000000
111.97299957 154.24800110 140.00000000 0.379122 0.908461 0.175970 0.000000
83.78910065 225.46899414 87.50000000 -0.000978 -0.000978 -0.999999 0.000000
115.01999664 120.35199738 187.50000000 0.224067 -0.897732 -0.379303 0.000000
89.88279724 156.91400146 112.50000000 -0.089131 0.708662 0.699895 0.000000
87.59770203 264.69699097 165.00000000 -0.480396 0.687954 0.544003 0.000000
141.29899597 159.19900513 145.00000000 0.001345 -0.853912 0.520416 0.000000
122.63700104 163.00799561 132.50000000 -0.518565 0.785072 0.338753 0.000000
150.82000732 167.57800293 152.50000000 0.000978 0.000978 0.999999 0.000000
135.58599854 223.94500732 197.50000000 0.221066 0.173411 0.959718 0.000000
136.34800720 249.08200073 177.50000000 0.541661 0.317966 0.778139 0.000000
188.14500427 147.01199341 202.50000000 0.000978 0.000978 0.999999 0.000000
148.53500366 188.14500427 207.50000000 0.000978 0.000978 0.999999 0.000000
111.21099854 248.32000732 187.50000000 -0.555030 -0.812128 0.179969 0.000000
47.22660065 193.47700500 67.50000000 0.000978 0.000978 -0.999999 0.000000
127.20700073 228.51600647 122.50000000 0.348450 0.336277 -0.874929 0.000000
141.67999268 111.97299957 187.50000000 -0.499636 -0.835783 0.227663 0.000000
66.26959991 249.08200073 162.50000000 -0.609843 0.596329 0.521999 0.000000
183.95500183 150.82000732 155.00000000 0.013042 0.973381 0.228822 0.000000
94.45320129 210.99600220 212.50000000 -0.305976 0.282552 0.909144 0.000000
97.50000000 193.47700500 217.50000000 0.040945 0.983840 -0.174307 0.000000
77.69529724 140.15600586 187.50000000 -0.001352 -0.547504 0.836802 0.000000
123.39800262 208.71099854 107.50000000 0.324617 -0.158855 -0.932410 0.000000
124.92199707 243.75000000 127.50000000 -0.000978 -0.000978 -0.999999 0.000000
201.85600281 104.35500336 187.50000000 -0.212540 0.634516 0.743113 0.000000
92.16799927 265.07800293 167.50000000 0.138665 0.791734 0.594919 0.000000
55.98630142 193.47700500 70.00000000 0.722984 -0.613000 -0.318631 0.000000
112.73400116 196.52299500 97.50000000 -0.044073 0.290879 -0.955744 0.000000
159.19900513 133.30099487 152.50000000 0.000978 0.000978 0.999999 0.000000
104.35500336 194.23800659 217.50000000 0.000978 0.000978 0.999999 0.000000
44.17969894 194.23800659 67.50000000 -0.247654 0.293463 -0.923335 0.000000
113.49600220 266.60198975 167.50000000 0.049818 0.752963 0.656174 0.000000
177.48100281 167.57800293 157.50000000 0.000978 0.000978 0.999999 0.000000
134.06300354 226.99200439 127.50000000 0.702968 0.702968 -0.108035 0.000000
99.78520203 182.05099487 92.50000000 0.672704 -0.672704 -0.308121 0.000000
172.14799500 187.38299561 202.50000000 0.000978 0.000978 0.999999 0.000000
164.14999390 204.14100647 165.00000000 0.885274 -0.444782 0.135866 0.000000
56.36719894 221.66000366 127.50000000 -0.988665 -0.001112 -0.150135 0.000000
230.80099487 164.53100586 192.50000000 0.000978 0.000978 0.999999 0.000000
202.23599243 116.54299927 180.00000000 -0.460176 0.283543 0.841333 0.000000
212.52000427 168.33999634 192.50000000 0.487952 0.189510 0.852050 0.000000
79.21880341 202.61700439 207.50000000 0.000978 0.000978 0.999999 0.000000
129.49200439 163.00799561 142.50000000 0.000978 0.000978 0.999999 0.000000
113.49600220 236.89500427 192.50000000 0.161943 0.975427 0.149390 0.000000
56.36719894 194.23800659 67.50000000 -0.421137 -0.221729 -0.879477 0.000000
206.42599487 116.54299927 202.50000000 -0.973713 0.017834 -0.227081 0.000000
167.57800293 137.10899353 152.50000000 -0.940534 0.318893 -0.117062 0.000000
139.39500427 131.77699280 147.50000000 0.422230 0.744242 0.517519 0.000000
197.28500366 159.19900513 197.50000000 0.000978 0.000978 0.999999 0.000000
223.94500732 163.00799561 192.50000000 0.000978 0.000978 0.999999 0.000000
121.11299896 252.12899780 182.50000000 -0.031932 0.335922 0.941348 0.000000
210.99600220 115.78099823 197.50000000 0.000978 0.000978 0.999999 0.000000
91.40630341 188.90600586 87.50000000 -0.000978 -0.000978 -0.999999 0.000000
162.24600220 190.42999268 207.50000000 0.000978 0.000978 0.999999 0.000000
108.16400146 278.02700806 122.50000000 0.240255 0.959709 -0.145729 0.000000
154.62899780 235.37100220 147.50000000 0.378093 0.438716 -0.815214 0.000000
204.14100647 149.29699707 197.50000000 0.000978 0.000978 0.999999 0.000000
153.86700439 188.90600586 117.50000000 0.185817 0.931882 0.311559 0.000000
66.65039825 165.29299927 185.00000000 -0.675381 -0.537959 0.504441 0.000000
165.29299927 108.92600250 197.50000000 0.000978 0.000978 0.999999 0.000000
195.00000000 175.95700073 162.50000000 0.000978 0.000978 0.999999 0.000000
191.95300293 173.67199707 197.50000000 0.000978 0.000978 0.999999 0.000000
173.67199707 95.21489716 172.50000000 -0.817920 0.327484 0.473033 0.000000
84.16989899 218.61300659 205.00000000 -0.506517 0.634408 0.583924 0.000000
81.50389862 163.77000427 207.50000000 -0.587928 0.001364 0.808912 0.000000
103.59400177 195.00000000 217.50000000 0.000978 0.000978 0.999999 0.000000
99.02349854 219.37500000 97.50000000 0.520263 0.281351 -0.806330 0.000000
124.92199707 252.89100647 127.50000000 -0.000978 -0.000978 -0.999999 0.000000
131.01600647 118.44699860 190.00000000 0.413951 -0.623420 0.663319 0.000000
191.95300293 172.14799500 197.50000000 0.000978 0.000978 0.999999 0.000000
86.83599854 258.98400879 172.50000000 -0.695697 0.707614 0.123646 0.000000
55.98630142 217.08999634 130.00000000 -0.995155 0.031749 -0.093056 0.000000
106.64099884 162.24600220 217.50000000 -0.000978 -0.000978 0.999999 0.000000
137.10899353 182.81300354 212.50000000 0.484163 0.056555 0.873148 0.000000
121.87500000 191.19099426 222.50000000 -0.000978 -0.000978 0.999999 0.000000
84.16989899 169.10200500 100.00000000 -0.462701 0.728049 0.505820 0.000000
127.96900177 244.51199341 187.50000000 0.000978 0.000978 0.999999 0.000000
117.30500031 273.45700073 157.50000000 0.139894 0.878303 0.457179 0.000000
109.68800354 219.37500000 107.50000000 0.340374 0.503370 -0.794206 0.000000
76.93360138 251.36700439 177.50000000 0.000978 0.000978 0.999999 0.000000
154.62899780 101.68900299 180.00000000 -0.646494 -0.730616 0.219652 0.000000
43.03710175 196.52299500 70.00000000 -0.990484 -0.096152 0.098469 0.000000
51.79690170 206.42599487 82.50000000 -0.876158 0.438818 0.199463 0.000000
47.98830032 172.91000366 92.50000000 -0.559056 -0.131282 0.818670 0.000000
147.01199341 118.06600189 197.50000000 0.000978 0.000978 0.999999 0.000000
99.78520203 225.08799744 205.00000000 0.462026 0.350886 0.814500 0.000000
87.97850037 210.23399353 210.00000000 -0.437821 0.590975 0.677541 0.000000
188.90600586 126.44499969 162.50000000 0.000978 0.000978 0.999999 0.000000
106.64099884 210.23399353 97.50000000 -0.000978 -0.000978 -0.999999 0.000000
80.74220276 127.58799744 160.00000000 -0.769596 -0.598575 0.222328 0.000000
126.44499969 155.00999451 210.00000000 -0.018191 -0.729024 0.684247 0.000000
109.68800354 231.56300354 197.50000000 -0.366823 0.897170 0.246022 0.000000
173.67199707 194.61900330 155.00000000 0.001112 0.988665 -0.150135 0.000000
43.41799927 196.90400696 70.00000000 -0.990484 -0.096152 0.098469 0.000000
183.57400513 150.82000732 152.50000000 -0.399430 0.664612 0.631464 0.000000
161.48399353 202.61700439 197.50000000 0.615452 0.688052 0.384451 0.000000
115.40000153 251.36700439 120.00000000 0.628124 0.149123 -0.763690 0.000000
80.74220276 255.17599487 87.50000000 -0.000978 -0.000978 -0.999999 0.000000
169.10200500 173.67199707 137.50000000 -0.070866 0.666723 0.741929 0.000000
124.92199707 133.30099487 152.50000000 0.548532 0.785650 0.286122 0.000000
156.15199280 221.66000366 187.50000000 0.330416 0.659204 0.675481 0.000000
149.29699707 177.48100281 147.50000000 -0.634110 0.734812 0.240741 0.000000
207.94900513 179.76600647 192.50000000 0.000978 0.000978 0.999999 0.000000
152.34399414 180.14700317 140.00000000 -0.107550 0.960177 0.257861 0.000000
195.76199341 145.48800659 162.50000000 -0.392924 0.016858 0.919416 0.000000
153.10600281 215.94700623 135.00000000 0.666250 0.262366 -0.698051 0.000000
58.65240097 197.28500366 67.50000000 0.532730 -0.017712 -0.846100 0.000000
125.30300140 207.18800354 110.00000000 0.799367 0.439089 -0.410138 0.000000
44.17969894 197.66600037 70.00000000 -0.990484 -0.096152 0.098469 0.000000
144.72700500 131.01600647 147.50000000 -0.073917 0.671049 0.737719 0.000000
83.02739716 136.72900391 190.00000000 -0.083406 -0.860923 0.501852 0.000000
209.47300720 152.34399414 167.50000000 -0.757890 -0.015297 0.652203 0.000000
201.85600281 140.15600586 167.50000000 0.000978 0.000978 0.999999 0.000000
65.50779724 202.61700439 197.50000000 -0.833890 -0.066541 0.547904 0.000000
105.87899780 240.70300293 112.50000000 -0.000978 -0.000978 -0.999999 0.000000
62.08010101 155.39100647 125.00000000 -0.922541 -0.307514 0.233138 0.000000
107.40200043 166.05499268 107.50000000 0.000978 0.000978 0.999999 0.000000
55.98630142 207.94900513 125.00000000 -0.978826 -0.162106 -0.124983 0.000000
124.92199707 148.53500366 142.50000000 0.000978 0.000978 0.999999 0.000000
185.09800720 101.30899811 182.50000000 0.000978 0.000978 0.999999 0.000000
79.21880341 233.84800720 192.50000000 -0.270053 0.510447 0.816404 0.000000
181.28900146 160.72300720 202.50000000 0.000978 0.000978 0.999999 0.000000
131.77699280 175.19500732 122.50000000 -0.297345 0.926179 0.231901 0.000000
92.92970276 205.66400146 212.50000000 -0.000978 -0.000978 0.999999 0.000000
143.96499634 182.05099487 142.50000000 0.000978 0.000978 0.999999 0.000000
79.21880341 127.20700073 152.50000000 0.001024 -0.998739 0.050193 0.000000
52.55860138 198.80900574 67.50000000 -0.001369 0.795211 -0.606331 0.000000
63.22269821 242.22700500 167.50000000 -0.797093 0.503175 0.333853 0.000000
150.82000732 164.53100586 152.50000000 0.054870 0.297317 0.953201 0.000000
129.49200439 224.70700073 197.50000000 0.123208 0.505878 0.853760 0.000000
146.63099670 216.32800293 130.00000000 0.572524 0.459020 -0.679350 0.000000
56.36719894 198.80900574 67.50000000 0.261632 -0.018253 -0.964995 0.000000
56.36719894 204.14100647 117.50000000 -0.995370 0.076227 0.058551 0.000000
195.76199341 183.57400513 192.50000000 -0.001380 0.738126 0.674661 0.000000
86.83599854 266.22100830 100.00000000 -0.001364 0.587928 -0.808912 0.000000
95.97660065 124.16000366 182.50000000 -0.001112 -0.988665 -0.150135 0.000000
60.17580032 198.42799377 70.00000000 0.720688 0.104640 -0.685317 0.000000
115.01999664 221.66000366 112.50000000 0.735238 0.467578 -0.490709 0.000000
182.81300354 104.35500336 197.50000000 -0.258668 -0.652224 0.712527 0.000000
92.92970276 185.85899353 217.50000000 -0.475072 0.302603 0.826280 0.000000
89.88279724 159.19900513 112.50000000 -0.111102 0.674019 0.730311 0.000000
151.58200073 137.10899353 202.50000000 0.000978 0.000978 0.999999 0.000000
214.80499268 153.86700439 197.50000000 0.000978 0.000978 0.999999 0.000000
180.52699280 174.05299377 155.00000000 -0.527410 -0.239732 0.815088 0.000000
53.70119858 198.80900574 100.00000000 -0.962346 0.193522 0.190889 0.000000
215.56599426 178.24200439 172.50000000 -0.571313 -0.820311 0.026283 0.000000
140.15600586 214.80499268 202.50000000 0.143670 0.416784 0.897580 0.000000
217.08999634 179.00399780 177.50000000 -0.385458 -0.479000 0.788657 0.000000
65.88870239 147.77299500 130.00000000 -0.371694 -0.371694 0.850698 0.000000
172.91000366 118.82800293 162.50000000 -0.417653 0.131667 0.899016 0.000000
99.78520203 203.37899780 92.50000000 0.253981 0.118525 -0.959919 0.000000
86.83599854 246.03500366 87.50000000 0.906517 0.182453 -0.380708 0.000000
70.83989716 182.81300354 197.50000000 -0.223535 -0.135672 0.965207 0.000000
93.69139862 159.19900513 112.50000000 -0.320021 0.818182 0.477667 0.000000
163.00799561 185.85899353 122.50000000 0.297336 0.663782 -0.686283 0.000000
155.77200317 149.29699707 145.00000000 0.971050 0.107333 -0.213404 0.000000
176.71899414 182.05099487 202.50000000 0.000978 0.000978 0.999999 0.000000
195.76199341 185.85899353 172.50000000 -0.943398 -0.016374 0.331260 0.000000
62.46099854 177.48100281 187.50000000 -0.849538 -0.353844 0.391255 0.000000
89.12110138 133.30099487 147.50000000 -0.622347 0.622347 0.474729 0.000000
227.75399780 184.33599854 187.50000000 -0.038922 -0.955461 0.292539 0.000000
68.55470276 136.34800720 127.50000000 0.134807 -0.182682 0.973886 0.000000
121.87500000 254.03300476 180.00000000 0.037703 0.814097 0.579503 0.000000
164.53100586 204.90199280 182.50000000 0.956644 0.001219 -0.291258 0.000000
137.10899353 258.98400879 167.50000000 0.362624 0.756144 0.544749 0.000000
174.43400574 170.62500000 152.50000000 0.214288 -0.861649 0.460046 0.000000
186.62100220 146.25000000 157.50000000 0.000978 0.000978 0.999999 0.000000
201.85600281 185.09800720 172.50000000 -0.622347 -0.622347 0.474729 0.000000
111.97299957 242.98800659 192.50000000 0.136883 0.459639 0.877493 0.000000
114.25800323 210.23399353 212.50000000 -0.117128 0.376188 0.919110 0.000000
116.54299927 131.77699280 152.50000000 0.892121 -0.446748 -0.067356 0.000000
150.05900574 147.77299500 137.50000000 -0.131853 -0.208661 0.969059 0.000000
163.77000427 219.37500000 182.50000000 0.431088 0.405447 0.806087 0.000000
187.38299561 124.16000366 202.50000000 0.000978 0.000978 0.999999 0.000000
57.12889862 201.09399414 67.50000000 0.610975 0.094781 -0.785956 0.000000
118.06600189 245.27400208 122.50000000 0.320091 -0.183109 -0.929523 0.000000
108.92600250 262.03100586 117.50000000 0.395104 -0.769071 -0.502416 0.000000
104.35500336 197.28500366 92.50000000 -0.000978 -0.000978 -0.999999 0.000000
117.30500031 195.00000000 102.50000000 -0.000978 -0.000978 -0.999999 0.000000
129.49200439 115.78099823 182.50000000 -0.480829 -0.840299 0.250400 0.000000
59.41410065 182.05099487 182.50000000 0.000978 0.000978 0.999999 0.000000
63.98440170 247.55900574 162.50000000 -0.827807 0.512598 0.227991 0.000000
122.63700104 247.17799377 185.00000000 0.531499 0.701446 0.474850 0.000000
152.34399414 200.71299744 125.00000000 0.713039 0.598297 -0.365535 0.000000
134.82400513 181.28900146 137.50000000 -0.505475 0.724238 0.469014 0.000000
191.19099426 147.77299500 157.50000000 0.000978 0.000978 0.999999 0.000000
116.92400360 216.32800293 110.00000000 0.404246 0.835233 -0.372788 0.000000
163.00799561 198.80900574 152.50000000 0.911376 0.363115 -0.193757 0.000000
173.67199707 115.01999664 202.50000000 0.000978 0.000978 0.999999 0.000000
183.57400513 165.29299927 157.50000000 0.000978 0.000978 0.999999 0.000000
169.86300659 159.19900513 152.50000000 0.033462 -0.276367 0.960469 0.000000
122.63700104 271.93399048 157.50000000 0.283753 0.884290 0.370831 0.000000
164.53100586 190.42999268 132.50000000 0.196766 0.893466 -0.403736 0.000000
63.60350037 171.38699341 155.00000000 -0.942127 -0.334385 0.024157 0.000000
140.91799927 232.32400513 187.50000000 0.691826 0.206770 0.691826 0.000000
190.42999268 179.00399780 142.50000000 -0.427050 0.318346 0.846336 0.000000
137.10899353 233.08599854 192.50000000 0.000978 0.000978 0.999999 0.000000
64.74610138 251.36700439 127.50000000 -0.773824 0.568104 -0.280096 0.000000
159.19900513 137.87100220 202.50000000 -0.000978 -0.000978 0.999999 0.000000
60.17580032 179.00399780 182.50000000 -0.896886 -0.384798 0.218003 0.000000
47.98830032 171.38699341 92.50000000 -0.515942 0.062920 0.854310 0.000000
163.00799561 118.06600189 202.50000000 0.000978 0.000978 0.999999 0.000000
123.39800262 255.17599487 177.50000000 0.141283 0.934112 0.327831 0.000000
57.12889862 202.61700439 67.50000000 -0.000978 -0.000978 -0.999999 0.000000
165.29299927 97.50000000 187.50000000 -0.001112 -0.988665 0.150135 0.000000
185.85899353 158.43800354 152.50000000 -0.383037 -0.043437 0.922711 0.000000
82.26560211 175.19500732 92.50000000 0.000978 0.000978 0.999999 0.000000
52.55860138 182.81300354 97.50000000 -0.668034 -0.226850 0.708710 0.000000
189.66799927 175.95700073 197.50000000 0.000978 0.000978 0.999999 0.000000
68.55470276 254.41400146 157.50000000 -0.511596 0.711569 0.481600 0.000000
70.07810211 235.37100220 182.50000000 -0.503323 0.825450 0.255533 0.000000
183.57400513 192.71499634 187.50000000 0.000978 0.000978 0.999999 0.000000
176.71899414 175.95700073 202.50000000 0.000978 0.000978 0.999999 0.000000
201.85600281 124.16000366 202.50000000 0.000978 0.000978 0.999999 0.000000
235.37100220 167.57800293 192.50000000 0.458289 -0.014612 0.888683 0.000000
226.23100281 134.82400513 197.50000000 0.485012 0.199711 0.851398 0.000000
80.36139679 265.83999634 125.00000000 -0.658515 0.720786 -0.216392 0.000000
210.23399353 173.67199707 167.50000000 -0.000978 -0.000978 0.999999 0.000000
62.08010101 182.05099487 190.00000000 -0.714629 -0.086223 0.694169 0.000000
188.90600586 139.39500427 202.50000000 -0.000978 -0.000978 0.999999 0.000000
119.58999634 142.44099426 202.50000000 -0.029251 -0.188376 0.981661 0.000000
163.77000427 223.18400574 147.50000000 -0.000978 -0.000978 -0.999999 0.000000
161.48399353 185.85899353 207.50000000 0.000978 0.000978 0.999999 0.000000
127.96900177 126.06400299 160.00000000 0.446689 0.894688 -0.001310 0.000000
158.43800354 122.63700104 202.50000000 0.000978 0.000978 0.999999 0.000000
79.21880341 211.75799561 82.50000000 0.790112 -0.282295 -0.544089 0.000000
99.78520203 206.42599487 92.50000000 0.245847 0.336039 -0.909196 0.000000
64.74610138 159.96099854 107.50000000 -0.000978 -0.000978 0.999999 0.000000
147.77299500 253.65199280 162.50000000 0.684101 0.441087 0.580903 0.000000
111.21099854 148.53500366 207.50000000 -0.003789 -0.352366 0.935854 0.000000
58.27149963 190.42999268 160.00000000 0.000000 0.000000 0.000000 0.000000
164.53100586 191.95300293 207.50000000 0.000978 0.000978 0.999999 0.000000
123.39800262 270.41000366 157.50000000 0.284427 0.831521 0.477153 0.000000
144.72700500 230.41999817 135.00000000 0.710223 0.315475 -0.629332 0.000000
177.48100281 191.19099426 137.50000000 0.143225 0.719141 -0.679943 0.000000
105.87899780 136.34800720 147.50000000 0.000978 0.000978 0.999999 0.000000
115.01999664 252.89100647 182.50000000 0.000978 0.000978 0.999999 0.000000
63.98440170 166.05499268 132.50000000 -0.413313 -0.828209 0.378474 0.000000
56.36719894 189.66799927 117.50000000 -0.988665 -0.001112 0.150135 0.000000
167.57800293 194.23800659 147.50000000 0.442483 0.886398 -0.136039 0.000000
74.64849854 242.98800659 177.50000000 0.000978 0.000978 0.999999 0.000000
91.40630341 172.91000366 97.50000000 -0.000978 -0.000978 0.999999 0.000000
121.11299896 201.85600281 107.50000000 0.614465 0.781647 -0.107055 0.000000
140.15600586 264.31600952 142.50000000 0.628750 0.642092 -0.438624 0.000000
166.81599426 96.73829651 167.50000000 0.000978 0.000978 0.999999 0.000000
60.17580032 182.05099487 187.50000000 -0.655321 0.061660 0.752830 0.000000
151.58200073 157.67599487 207.50000000 0.000978 0.000978 0.999999 0.000000
125.68399811 254.41400146 177.50000000 0.158824 0.521002 0.838649 0.000000
152.34399414 112.73400116 167.50000000 0.663148 0.176125 0.727472 0.000000
92.92970276 258.60400391 175.00000000 -0.916018 0.350116 -0.195779 0.000000
185.09800720 162.24600220 152.50000000 0.000978 0.000978 0.999999 0.000000
175.19500732 183.57400513 202.50000000 0.000978 0.000978 0.999999 0.000000
100.54699707 202.61700439 212.50000000 0.000978 0.000978 0.999999 0.000000
149.29699707 252.89100647 162.50000000 0.684101 0.441087 0.580903 0.000000
166.05499268 219.37500000 182.50000000 0.294050 0.296976 0.908482 0.000000
123.39800262 244.51199341 122.50000000 -0.000978 -0.000978 -0.999999 0.000000
214.42399597 162.24600220 170.00000000 -0.548770 0.458699 0.698890 0.000000
233.84800720 158.43800354 192.50000000 0.000978 0.000978 0.999999 0.000000
155.39100647 214.04299927 192.50000000 0.000978 0.000978 0.999999 0.000000
58.65240097 189.28700256 155.00000000 -0.997066 0.001048 -0.076536 0.000000
185.09800720 189.66799927 137.50000000 0.866220 0.175605 -0.467788 0.000000
130.25399780 162.24600220 212.50000000 0.000978 0.000978 0.999999 0.000000
85.31250000 266.98300171 160.00000000 -0.472155 0.748539 0.465575 0.000000
65.50779724 182.81300354 192.50000000 -0.720698 -0.032438 0.692490 0.000000
150.82000732 183.57400513 112.50000000 0.265145 -0.381989 -0.885315 0.000000
111.21099854 156.53300476 135.00000000 0.135689 0.889837 0.435635 0.000000
144.72700500 232.32400513 137.50000000 -0.020130 0.476403 -0.878997 0.000000
157.67599487 124.92199707 202.50000000 0.000978 0.000978 0.999999 0.000000
130.25399780 164.53100586 142.50000000 -0.000978 -0.000978 0.999999 0.000000
118.82800293 158.43800354 217.50000000 0.000978 0.000978 0.999999 0.000000
135.58599854 233.84800720 192.50000000 0.000978 0.000978 0.999999 0.000000
58.65240097 206.42599487 67.50000000 0.000978 0.000978 -0.999999 0.000000
185.85899353 106.26000214 200.00000000 -0.120698 -0.713757 0.689915 0.000000
105.11699677 264.31600952 112.50000000 0.674233 0.604313 -0.424517 0.000000
152.34399414 142.44099426 202.50000000 0.000978 0.000978 0.999999 0.000000
151.58200073 111.97299957 167.50000000 0.663148 0.176125 0.727472 0.000000
99.02349854 236.89500427 197.50000000 0.000978 0.000978 0.999999 0.000000
141.67999268 249.84399414 137.50000000 0.596423 -0.119285 -0.793758 0.000000
192.71499634 126.44499969 167.50000000 0.000978 0.000978 0.999999 0.000000
166.81599426 188.52499390 130.00000000 0.049066 0.918995 -0.391203 0.000000
184.33599854 142.44099426 202.50000000 0.000978 0.000978 0.999999 0.000000
223.94500732 140.91799927 182.50000000 -0.863156 -0.430817 0.263361 0.000000
118.82800293 250.60600281 122.50000000 0.498229 0.293908 -0.815712 0.000000
82.26560211 130.25399780 142.50000000 -0.000978 -0.000978 0.999999 0.000000
94.45320129 169.10200500 217.50000000 0.000978 0.000978 0.999999 0.000000
156.91400146 197.28500366 127.50000000 0.679260 0.491415 -0.545085 0.000000
67.79299927 190.42999268 197.50000000 -0.647538 -0.061739 0.759528 0.000000
93.69139862 189.66799927 87.50000000 -0.000978 -0.000978 -0.999999 0.000000
108.16400146 215.56599426 207.50000000 0.000978 0.000978 0.999999 0.000000
158.43800354 190.04899597 125.00000000 0.760760 0.485905 -0.430279 0.000000
97.50000000 137.10899353 147.50000000 0.000978 0.000978 0.999999 0.000000
140.91799927 183.57400513 107.50000000 -0.000978 -0.000978 -0.999999 0.000000
69.69730377 188.14500427 200.00000000 -0.724974 -0.143186 0.673729 0.000000
101.30899811 172.91000366 102.50000000 -0.000978 -0.000978 0.999999 0.000000
183.57400513 157.67599487 152.50000000 0.000978 0.000978 0.999999 0.000000
65.12699890 149.29699707 110.00000000 -0.402880 0.497483 0.768244 0.000000
87.59770203 243.75000000 92.50000000 0.988665 -0.001112 -0.150135 0.000000
208.71099854 167.57800293 162.50000000 -0.400389 -0.713451 0.575045 0.000000
114.25800323 244.51199341 117.50000000 0.279213 0.206979 -0.937657 0.000000
206.42599487 127.20700073 177.50000000 -0.494476 -0.154065 0.855428 0.000000
87.97850037 182.05099487 215.00000000 -0.920253 0.176700 0.349159 0.000000
152.34399414 137.10899353 202.50000000 0.000978 0.000978 0.999999 0.000000
54.46289825 205.66400146 100.00000000 -0.988665 -0.001112 -0.150135 0.000000
120.35199738 193.47700500 102.50000000 -0.000978 -0.000978 -0.999999 0.000000
188.90600586 174.43400574 197.50000000 0.000978 0.000978 0.999999 0.000000
131.77699280 220.13699341 202.50000000 0.310163 0.523300 0.793698 0.000000
93.69139862 250.60600281 182.50000000 0.000978 0.000978 0.999999 0.000000
190.42999268 194.23800659 157.50000000 0.702968 0.702968 -0.108035 0.000000
136.34800720 185.09800720 107.50000000 -0.000978 -0.000978 -0.999999 0.000000
105.11699677 126.44499969 187.50000000 -0.325541 -0.460790 0.825648 0.000000
100.16600037 210.23399353 95.00000000 0.493138 0.489818 -0.718953 0.000000
95.21489716 223.18400574 92.50000000 0.418842 0.025104 -0.907712 0.000000
122.63700104 199.57000732 217.50000000 0.000978 0.000978 0.999999 0.000000
111.21099854 275.36099243 150.00000000 -0.001112 0.988665 0.150135 0.000000
55.98630142 200.33200073 135.00000000 -0.863156 -0.430817 -0.263361 0.000000
75.41020203 172.91000366 92.50000000 0.000978 0.000978 0.999999 0.000000
89.88279724 265.07800293 167.50000000 -0.207441 0.788277 0.579299 0.000000
231.94299316 176.71899414 185.00000000 -0.645548 -0.250959 0.721309 0.000000
134.82400513 134.06300354 147.50000000 0.000978 0.000978 0.999999 0.000000
72.36329651 261.64999390 150.00000000 -0.525012 0.682683 0.508238 0.000000
131.01600647 175.95700073 107.50000000 -0.250725 -0.904662 -0.344563 0.000000
137.10899353 120.35199738 167.50000000 0.000978 0.000978 0.999999 0.000000
59.41410065 237.65600586 162.50000000 -0.930194 0.232902 0.283716 0.000000
156.91400146 158.43800354 207.50000000 0.287512 -0.195842 0.937541 0.000000
54.46289825 170.62500000 100.00000000 -0.837527 -0.280208 0.469077 0.000000
108.92600250 126.44499969 192.50000000 -0.781739 0.591296 0.198123 0.000000
173.67199707 193.85699463 145.00000000 -0.068582 0.948500 -0.309265 0.000000
139.39500427 230.03900146 132.50000000 0.416563 0.251141 -0.873730 0.000000
92.92970276 127.96900177 147.50000000 0.000978 0.000978 0.999999 0.000000
220.89900208 175.95700073 177.50000000 -0.190897 -0.074170 0.978804 0.000000
105.87899780 255.17599487 182.50000000 -0.000978 -0.000978 0.999999 0.000000
142.44099426 206.80700684 205.00000000 0.301261 0.707238 0.639575 0.000000
192.71499634 172.91000366 197.50000000 0.000978 0.000978 0.999999 0.000000
113.87699890 210.23399353 105.00000000 0.483827 0.507104 -0.713271 0.000000
182.05099487 105.87899780 177.50000000 0.000978 0.000978 0.999999 0.000000
52.55860138 210.23399353 67.50000000 0.543342 -0.836887 -0.066330 0.000000
181.28900146 171.38699341 142.50000000 0.000978 0.000978 0.999999 0.000000
77.69529724 255.17599487 97.50000000 -0.956644 -0.001219 -0.291258 0.000000
118.82800293 148.53500366 207.50000000 -0.116987 -0.650095 0.750793 0.000000
199.57000732 147.77299500 162.50000000 -0.308483 0.320405 0.895644 0.000000
124.16000366 165.67399597 130.00000000 -0.694442 0.685079 0.220037 0.000000
201.85600281 118.06600189 177.50000000 -0.355099 0.312789 0.880947 0.000000
168.33999634 175.19500732 207.50000000 0.000978 0.000978 0.999999 0.000000
56.74810028 199.57000732 175.00000000 -0.998739 0.001024 -0.050193 0.000000
140.15600586 184.33599854 212.50000000 0.000978 0.000978 0.999999 0.000000
65.12699890 167.57800293 185.00000000 -0.777179 -0.297203 0.554674 0.000000
136.34800720 266.60198975 137.50000000 0.531081 -0.798986 -0.282088 0.000000
122.63700104 220.51800537 115.00000000 0.100787 0.612027 -0.784388 0.000000
132.53900146 141.67999268 202.50000000 -0.219304 -0.328240 0.918784 0.000000
212.52000427 121.11299896 182.50000000 -0.702968 0.702968 0.108035 0.000000
53.32030106 210.99600220 67.50000000 0.293380 -0.947123 -0.129945 0.000000
134.06300354 216.32800293 122.50000000 0.000978 0.000978 -0.999999 0.000000
212.52000427 117.30500031 187.50000000 0.000978 0.000978 0.999999 0.000000
58.65240097 210.99600220 67.50000000 -0.000978 -0.000978 -0.999999 0.000000
70.45899963 159.19900513 185.00000000 -0.873104 -0.443223 0.203082 0.000000
227.75399780 170.62500000 192.50000000 0.000978 0.000978 0.999999 0.000000
79.98049927 127.20700073 152.50000000 0.001024 -0.998739 0.050193 0.000000
159.96099854 159.96099854 157.50000000 0.000978 0.000978 0.999999 0.000000
94.83399963 130.25399780 190.00000000 -0.300182 -0.544775 0.783014 0.000000
202.61700439 185.09800720 187.50000000 0.067894 0.677495 0.732388 0.000000
150.05900574 241.46499634 142.50000000 -0.000978 -0.000978 -0.999999 0.000000
212.89999390 141.67999268 175.00000000 -0.731036 0.472438 0.492330 0.000000
54.84379959 207.18800354 97.50000000 -0.988665 -0.001112 -0.150135 0.000000
79.98049927 265.07800293 157.50000000 -0.560557 0.737059 0.377518 0.000000
199.57000732 141.67999268 162.50000000 -0.000978 -0.000978 0.999999 0.000000
83.02739716 265.45901489 160.00000000 -0.453411 0.746891 0.486386 0.000000
87.59770203 131.01600647 142.50000000 -0.351727 0.931200 -0.095680 0.000000
66.26959991 175.95700073 192.50000000 -0.789415 -0.364964 0.493585 0.000000
83.02739716 147.01199341 202.50000000 -0.036367 -0.453908 0.890306 0.000000
131.77699280 214.04299927 207.50000000 0.000978 0.000978 0.999999 0.000000
142.06100464 264.31600952 145.00000000 0.622347 0.622347 -0.474729 0.000000
118.82800293 210.23399353 212.50000000 0.000978 0.000978 0.999999 0.000000
127.96900177 273.83801270 145.00000000 0.446689 0.894688 -0.001310 0.000000
61.69919968 211.75799561 67.50000000 -0.000978 -0.000978 -0.999999 0.000000
109.68800354 264.31600952 172.50000000 0.249545 0.582273 0.773748 0.000000
91.40630341 145.48800659 202.50000000 -0.435245 -0.675380 0.595335 0.000000
127.96900177 147.77299500 137.50000000 0.680528 0.123597 0.722223 0.000000
150.05900574 189.66799927 117.50000000 -0.000978 -0.000978 -0.999999 0.000000
75.02929688 140.91799927 150.00000000 -0.000978 -0.000978 -0.999999 0.000000
126.44499969 134.06300354 147.50000000 0.077330 0.496318 0.864690 0.000000
181.28900146 134.06300354 157.50000000 0.000978 0.000978 0.999999 0.000000
206.42599487 185.09800720 187.50000000 0.363339 0.555599 0.747860 0.000000
142.44099426 249.84399414 137.50000000 0.596423 -0.119285 -0.793758 0.000000
140.15600586 160.72300720 147.50000000 -0.248320 -0.874386 0.416876 0.000000
173.67199707 145.48800659 202.50000000 0.000978 0.000978 0.999999 0.000000
127.96900177 157.67599487 142.50000000 0.000978 0.000978 0.999999 0.000000
152.34399414 125.68399811 202.50000000 0.000978 0.000978 0.999999 0.000000
175.19500732 128.73100281 202.50000000 0.000978 0.000978 0.999999 0.000000
153.10600281 193.47700500 207.50000000 0.000978 0.000978 0.999999 0.000000
117.30500031 269.64898682 162.50000000 0.370313 0.738994 0.562810 0.000000
131.01600647 172.14799500 142.50000000 -0.854638 -0.001342 0.519223 0.000000
63.22269821 212.52000427 67.50000000 -0.000978 -0.000978 -0.999999 0.000000
157.67599487 129.49200439 202.50000000 0.000978 0.000978 0.999999 0.000000
153.10600281 173.67199707 152.50000000 -0.063611 0.997961 0.005214 0.000000
99.02349854 247.55900574 107.50000000 0.407526 -0.100845 -0.907608 0.000000
153.10600281 171.38699341 207.50000000 0.552900 -0.173252 0.815037 0.000000
67.03130341 162.24600220 182.50000000 -0.548821 -0.582595 0.599482 0.000000
56.74810028 221.66000366 100.00000000 -0.999999 -0.000978 -0.000978 0.000000
74.64849854 252.89100647 172.50000000 -0.358674 0.852432 0.380411 0.000000
70.83989716 218.61300659 192.50000000 -0.000978 -0.000978 0.999999 0.000000
144.72700500 149.29699707 137.50000000 0.000978 0.000978 0.999999 0.000000
106.64099884 201.09399414 217.50000000 0.169689 0.946184 0.275574 0.000000
58.65240097 213.28100586 67.50000000 -0.000978 -0.000978 -0.999999 0.000000
190.42999268 132.53900146 202.50000000 0.000978 0.000978 0.999999 0.000000
68.55470276 158.05700684 155.00000000 -0.938817 -0.235052 -0.251742 0.000000
72.36329651 155.00999451 110.00000000 -0.000978 -0.000978 0.999999 0.000000
150.05900574 174.43400574 212.50000000 0.820672 0.009590 0.571319 0.000000
76.17189789 264.31600952 132.50000000 -0.795787 0.598652 -0.091320 0.000000
177.48100281 164.53100586 202.50000000 -0.000978 -0.000978 0.999999 0.000000
223.18400574 180.52699280 192.50000000 0.000978 0.000978 0.999999 0.000000
79.98049927 187.38299561 207.50000000 -0.243432 -0.068660 0.967485 0.000000
89.88279724 118.06600189 157.50000000 -0.473500 0.295352 0.829798 0.000000
169.10200500 134.06300354 202.50000000 -0.000978 -0.000978 0.999999 0.000000
134.82400513 197.28500366 212.50000000 0.000978 0.000978 0.999999 0.000000
156.91400146 176.71899414 207.50000000 0.000978 0.000978 0.999999 0.000000
93.69139862 154.62899780 122.50000000 -0.321231 0.885271 0.336312 0.000000
206.42599487 153.86700439 162.50000000 -0.378553 -0.220701 0.898882 0.000000
90.64459991 221.66000366 92.50000000 0.171947 0.139315 -0.975205 0.000000
70.07810211 207.18800354 202.50000000 -0.472194 -0.056443 0.879686 0.000000
120.35199738 140.91799927 147.50000000 0.684708 0.448142 0.574755 0.000000
165.29299927 224.70700073 152.50000000 0.846361 0.289341 -0.447163 0.000000
98.26170349 241.46499634 102.50000000 0.397930 0.459150 -0.794250 0.000000
