211.33599854 126.50399780 182.50000000 -0.000978 -0.000978 -0.999999 0.000000
121.29499817 121.29499817 192.50000000 0.000978 0.000978 0.999999 0.000000
195.70899963 101.94699860 172.50000000 -0.733055 0.679996 -0.015359 0.000000
62.50780106 126.87599945 140.00000000 -0.000978 -0.000978 -0.999999 0.000000
165.19900513 82.22760010 150.00000000 -0.241623 0.967743 0.071360 0.000000
122.78299713 206.12699890 127.50000000 -0.623941 -0.695997 0.355368 0.000000
140.64300537 90.78520203 182.50000000 -0.000978 -0.000978 -0.999999 0.000000
84.83209991 94.50589752 157.50000000 -0.955641 -0.185782 0.228552 0.000000
78.13480377 154.78100586 177.50000000 0.000978 0.000978 0.999999 0.000000
184.54699707 129.85299683 140.00000000 -0.667777 -0.095397 0.738223 0.000000
76.27449799 148.08399963 170.00000000 -0.676202 -0.491631 0.548680 0.000000
206.87100220 126.50399780 187.50000000 -0.000978 -0.000978 -0.999999 0.000000
111.62100220 151.80499268 117.50000000 -0.796744 -0.400786 0.452293 0.000000
50.60160065 210.59199524 162.50000000 0.000978 0.000978 0.999999 0.000000
86.32039642 94.50589752 107.50000000 -0.554401 -0.785007 -0.276411 0.000000
86.32039642 190.50000000 47.50000000 -0.886482 0.058916 0.458998 0.000000
142.87500000 88.55280304 182.50000000 -0.000978 -0.000978 -0.999999 0.000000
39.81150055 192.73300171 130.00000000 -0.960028 -0.131922 0.246864 0.000000
174.12899780 148.82800293 137.50000000 0.000978 0.000978 0.999999 0.000000
142.13099670 197.19700623 177.50000000 -0.432484 -0.384608 -0.815496 0.000000
119.06300354 117.57399750 107.50000000 -0.522782 0.313033 0.792912 0.000000
99.71489716 209.84800720 182.50000000 0.000978 0.000978 0.999999 0.000000
39.81150055 216.54499817 100.00000000 -0.991991 0.085812 -0.092677 0.000000
181.57000732 143.61900330 147.50000000 0.000978 0.000978 0.999999 0.000000
212.08000183 162.96699524 177.50000000 0.168061 -0.400762 0.900636 0.000000
143.61900330 186.40699768 150.00000000 -0.760737 -0.622978 -0.182148 0.000000
183.05900574 112.36499786 132.50000000 0.000978 0.000978 0.999999 0.000000
87.80860138 101.94699860 167.50000000 -0.000978 -0.000978 0.999999 0.000000
53.57820129 151.06100464 92.50000000 -0.881559 -0.472026 -0.006648 0.000000
91.52929688 166.68800354 42.50000000 -0.696771 -0.032507 0.716557 0.000000
118.31800079 139.89799500 192.50000000 0.000978 0.000978 0.999999 0.000000
87.80860138 168.17599487 37.50000000 0.000978 0.000978 0.999999 0.000000
64.74030304 137.66600037 157.50000000 -0.948097 0.042109 0.315182 0.000000
139.15400696 194.96499634 147.50000000 -0.980066 -0.196484 -0.029414 0.000000
104.18000031 227.70700073 167.50000000 0.604700 -0.611438 -0.510374 0.000000
192.73300171 170.40800476 182.50000000 -0.000978 -0.000978 -0.999999 0.000000
58.41510010 152.54899597 50.00000000 -0.997236 0.001046 0.074296 0.000000
57.67089844 155.52499390 40.00000000 -0.842523 -0.538618 0.006784 0.000000
99.71489716 126.13200378 180.00000000 -0.793282 -0.285455 0.537791 0.000000
160.73399353 181.57000732 157.50000000 0.441603 -0.777286 -0.448121 0.000000
186.03500366 160.73399353 157.50000000 -0.665939 -0.632890 0.394937 0.000000
153.29299927 136.92199707 192.50000000 -0.000978 -0.000978 -0.999999 0.000000
136.17799377 208.35899353 157.50000000 -0.835055 -0.478724 0.271122 0.000000
103.43599701 95.25000000 177.50000000 -0.564145 -0.377732 0.734206 0.000000
213.56799316 145.85200500 177.50000000 -0.912475 -0.001291 0.409130 0.000000
94.50589752 171.15199280 52.50000000 0.000978 0.000978 0.999999 0.000000
50.22949982 232.91600037 70.00000000 0.875575 -0.391665 0.282785 0.000000
81.85549927 237.38099670 172.50000000 -0.103551 0.401776 0.909864 0.000000
165.94299316 98.22660065 187.50000000 -0.000978 -0.000978 -0.999999 0.000000
81.11139679 215.80099487 62.50000000 -0.760886 -0.608398 0.225621 0.000000
177.85000610 167.43200684 187.50000000 0.329713 -0.053013 -0.942592 0.000000
63.25199890 226.96299744 167.50000000 0.000978 0.000978 0.999999 0.000000
123.52700043 104.18000031 117.50000000 0.000978 0.000978 0.999999 0.000000
67.71679688 147.33999634 167.50000000 0.000978 0.000978 0.999999 0.000000
101.94699860 222.49800110 177.50000000 0.000978 0.000978 0.999999 0.000000
60.27539825 264.17001343 147.50000000 0.000978 0.000978 0.999999 0.000000
171.89700317 117.57399750 122.50000000 -0.232453 -0.772244 0.591274 0.000000
202.40600586 154.03700256 172.50000000 -0.459347 -0.025445 0.887892 0.000000
127.24800110 209.84800720 177.50000000 -0.000978 -0.000978 -0.999999 0.000000
142.87500000 115.34200287 197.50000000 -0.000978 -0.000978 -0.999999 0.000000
179.71000671 196.45300293 150.00000000 -0.674325 -0.674325 0.300952 0.000000
112.36499786 79.25099945 130.00000000 0.321999 -0.932830 -0.161691 0.000000
91.52929688 149.57200623 182.50000000 0.000978 0.000978 0.999999 0.000000
158.50199890 120.55100250 192.50000000 -0.000978 -0.000978 -0.999999 0.000000
126.50399780 205.38299561 177.50000000 -0.000978 -0.000978 -0.999999 0.000000
86.32039642 127.24800110 102.50000000 -0.744029 0.089167 0.662171 0.000000
60.27539825 142.13099670 82.50000000 -0.797605 -0.556000 -0.233861 0.000000
87.80860138 178.59399414 42.50000000 -0.684356 -0.326735 0.651845 0.000000
46.88090134 204.63900757 57.50000000 -0.990176 0.089174 -0.107703 0.000000
113.10900116 192.73300171 97.50000000 -0.382109 -0.111736 0.917337 0.000000
100.45899963 181.57000732 67.50000000 -0.951665 -0.117473 0.283784 0.000000
65.48439789 224.73100281 167.50000000 0.000978 0.000978 0.999999 0.000000
50.60160065 221.00999451 52.50000000 0.893194 -0.385329 0.231788 0.000000
180.08200073 98.22660065 187.50000000 -0.000978 -0.000978 -0.999999 0.000000
186.77900696 134.69000244 152.50000000 -0.289900 -0.955783 0.049372 0.000000
130.22500610 177.85000610 187.50000000 0.000978 0.000978 0.999999 0.000000
45.39260101 242.58999634 137.50000000 -0.902989 0.428153 0.036013 0.000000
121.29499817 110.87699890 192.50000000 -0.745692 -0.488898 0.452683 0.000000
102.69100189 111.62100220 97.50000000 -0.559921 0.304686 0.770490 0.000000
99.71489716 90.04109955 102.50000000 -0.049894 -0.734161 -0.677139 0.000000
66.22850037 204.26699829 20.00000000 -0.581864 -0.058045 0.811212 0.000000
183.80299377 105.66799927 187.50000000 -0.000978 -0.000978 -0.999999 0.000000
91.52929688 130.22500610 182.50000000 0.000978 0.000978 0.999999 0.000000
95.99420166 158.50199890 57.50000000 -0.935279 0.069915 0.346937 0.000000
93.76180267 177.85000610 52.50000000 -0.817296 -0.069891 0.571964 0.000000
175.61700439 184.54699707 137.50000000 -0.505704 -0.034262 0.862026 0.000000
49.85739899 163.71099854 152.50000000 0.000978 0.000978 0.999999 0.000000
45.39260101 224.35899353 150.00000000 -0.906679 0.412875 0.086416 0.000000
43.53219986 185.29100037 150.00000000 -0.763777 0.305831 0.568429 0.000000
101.94699860 231.42799377 177.50000000 -0.836272 0.240908 0.492557 0.000000
118.31800079 176.36099243 97.50000000 0.000978 0.000978 0.999999 0.000000
84.08789825 91.52929688 127.50000000 -0.768784 -0.639507 -0.001375 0.000000
114.59799957 172.64100647 92.50000000 -0.513511 0.513511 0.687469 0.000000
117.57399750 89.29689789 152.50000000 -0.814577 -0.543559 -0.202502 0.000000
98.22660065 224.73100281 132.50000000 -0.675367 -0.688080 0.265379 0.000000
126.50399780 198.31399536 110.00000000 -0.504583 -0.524699 0.685629 0.000000
170.40800476 120.17900085 120.00000000 -0.266788 -0.809726 0.522655 0.000000
213.56799316 161.47900391 177.50000000 -0.267199 0.346916 0.899029 0.000000
104.18000031 223.24200439 177.50000000 0.000978 0.000978 0.999999 0.000000
114.59799957 197.94099426 182.50000000 0.000978 0.000978 0.999999 0.000000
81.85549927 201.66200256 182.50000000 0.000978 0.000978 0.999999 0.000000
85.20410156 137.66600037 80.00000000 -0.000978 -0.000978 0.999999 0.000000
111.62100220 78.50689697 130.00000000 0.503147 -0.863893 -0.023055 0.000000
98.59870148 211.33599854 100.00000000 -0.518602 -0.814500 0.260079 0.000000
141.38699341 188.26800537 117.50000000 -0.444735 -0.170603 0.879264 0.000000
139.15400696 175.61700439 182.50000000 -0.938717 -0.329819 -0.100148 0.000000
95.99420166 153.29299927 187.50000000 0.000978 0.000978 0.999999 0.000000
174.87300110 116.08599854 187.50000000 -0.774710 -0.259284 -0.576711 0.000000
67.71679688 172.64100647 172.50000000 -0.469483 -0.146804 0.870651 0.000000
112.36499786 92.27349854 177.50000000 0.000978 0.000978 0.999999 0.000000
64.74030304 171.89700317 172.50000000 -0.465725 -0.042092 0.883928 0.000000
65.85649872 245.56700134 110.00000000 -0.674325 -0.674325 -0.300952 0.000000
95.99420166 80.73930359 140.00000000 -0.424104 -0.890184 0.166457 0.000000
84.08789825 93.76180267 147.50000000 -0.728133 -0.626162 0.278825 0.000000
110.13300323 168.91999817 82.50000000 -0.947263 0.203668 0.247409 0.000000
82.97170258 95.99420166 150.00000000 -0.528648 -0.698750 0.481954 0.000000
169.66400146 95.25000000 187.50000000 -0.000978 -0.000978 -0.999999 0.000000
172.64100647 169.66400146 137.50000000 -0.108083 0.313575 0.943392 0.000000
183.80299377 158.50199890 187.50000000 -0.000978 -0.000978 -0.999999 0.000000
80.36720276 188.26800537 37.50000000 -0.685996 0.006929 0.727572 0.000000
95.62210083 81.85549927 150.00000000 -0.638063 -0.760024 0.123448 0.000000
73.66999817 130.96899414 62.50000000 -0.750243 -0.625979 -0.212802 0.000000
106.41200256 111.99299622 180.00000000 -0.505577 -0.505577 0.699131 0.000000
121.66699982 205.38299561 180.00000000 -0.802126 -0.001366 0.597153 0.000000
75.15820313 174.87300110 177.50000000 -0.232486 0.229735 0.945078 0.000000
117.57399750 200.17399597 182.50000000 0.000978 0.000978 0.999999 0.000000
72.92579651 125.76000214 77.50000000 -0.672960 -0.698176 -0.244283 0.000000
112.36499786 78.87889862 137.50000000 0.620761 -0.783901 0.012443 0.000000
114.59799957 165.94299316 192.50000000 -0.135672 0.965207 -0.223535 0.000000
84.83209991 120.55100250 97.50000000 -0.503023 -0.398837 0.766744 0.000000
110.13300323 208.35899353 182.50000000 -0.000978 -0.000978 0.999999 0.000000
73.29789734 217.28900146 50.00000000 -0.703222 -0.703222 0.104673 0.000000
172.64100647 126.50399780 132.50000000 -0.755688 -0.547671 0.359155 0.000000
51.34569931 187.52400208 162.50000000 0.000978 0.000978 0.999999 0.000000
203.14999390 139.15400696 167.50000000 0.000978 0.000978 0.999999 0.000000
52.08990097 243.70599365 160.00000000 -0.626041 0.626041 0.464915 0.000000
140.64300537 177.85000610 172.50000000 -0.492434 -0.193082 -0.848663 0.000000
204.63900757 131.71299744 167.50000000 0.000978 0.000978 0.999999 0.000000
161.47900391 87.80860138 182.50000000 0.548758 0.439338 -0.711230 0.000000
91.52929688 174.12899780 47.50000000 -0.885271 -0.336312 0.321231 0.000000
58.78710175 260.44900513 127.50000000 -0.000978 -0.000978 0.999999 0.000000
59.90340042 250.03100586 100.00000000 -0.603124 -0.740707 0.295963 0.000000
114.59799957 115.34200287 107.50000000 -0.240255 0.145729 0.959709 0.000000
82.59960175 194.96499634 182.50000000 0.000978 0.000978 0.999999 0.000000
72.92579651 249.28700256 167.50000000 0.000978 0.000978 0.999999 0.000000
186.40699768 93.01760101 160.00000000 -0.703222 0.703222 0.104673 0.000000
103.43599701 95.99420166 177.50000000 -0.156281 -0.148779 0.976443 0.000000
94.50589752 229.56700134 130.00000000 -0.703222 -0.703222 0.104673 0.000000
131.71299744 179.33799744 187.50000000 0.212462 0.024926 0.976851 0.000000
95.25000000 193.47700500 182.50000000 0.000978 0.000978 0.999999 0.000000
93.01760101 172.64100647 182.50000000 0.001379 0.745961 0.665988 0.000000
122.78299713 130.96899414 192.50000000 0.000978 0.000978 0.999999 0.000000
96.73829651 163.71099854 187.50000000 0.000978 0.000978 0.999999 0.000000
78.13480377 139.89799500 172.50000000 -0.341932 0.097886 0.934613 0.000000
158.87399292 176.36099243 120.00000000 -0.644348 0.395885 0.654287 0.000000
171.15199280 90.78520203 182.50000000 0.114484 0.839068 -0.531844 0.000000
96.73829651 136.92199707 187.50000000 -0.639280 -0.336720 0.691333 0.000000
134.69000244 159.24600220 192.50000000 0.000978 0.000978 0.999999 0.000000
78.87889862 118.31800079 167.50000000 0.000000 0.000000 0.000000 0.000000
91.52929688 119.80699921 177.50000000 -0.182004 -0.005723 0.983281 0.000000
88.55280304 123.52700043 102.50000000 -0.273364 -0.206757 0.939427 0.000000
162.22300720 165.94299316 132.50000000 -0.240750 0.414209 0.877764 0.000000
109.38899994 113.10900116 102.50000000 -0.561852 -0.458484 0.688560 0.000000
119.80699921 167.43200684 127.50000000 0.000978 0.000978 0.999999 0.000000
160.73399353 184.54699707 132.50000000 0.138569 -0.931565 0.336132 0.000000
165.94299316 136.17799377 132.50000000 0.000978 0.000978 0.999999 0.000000
140.64300537 96.73829651 187.50000000 -0.000978 -0.000978 -0.999999 0.000000
174.12899780 107.15599823 127.50000000 -0.651781 0.651781 0.387768 0.000000
180.08200073 177.10600281 152.50000000 -0.820837 0.471075 -0.322978 0.000000
84.08789825 116.83000183 92.50000000 -0.266161 -0.893646 0.361324 0.000000
184.54699707 107.90000153 132.50000000 0.000978 0.000978 0.999999 0.000000
101.94699860 229.19500732 177.50000000 -0.530485 0.412234 0.740708 0.000000
91.52929688 188.26800537 52.50000000 0.000978 0.000978 0.999999 0.000000
132.45700073 195.70899963 117.50000000 -0.580209 -0.772040 0.259443 0.000000
137.29400635 154.78100586 140.00000000 -0.907026 -0.185430 0.378047 0.000000
72.92579651 246.31100464 167.50000000 0.000978 0.000978 0.999999 0.000000
77.39070129 234.40400696 117.50000000 -0.647675 -0.650988 0.395893 0.000000
162.96699524 107.90000153 192.50000000 -0.371988 0.578465 -0.725950 0.000000
86.32039642 133.94500732 97.50000000 -0.530422 0.500303 0.684361 0.000000
101.20300293 222.49800110 132.50000000 -0.555791 -0.770419 0.312332 0.000000
78.87889862 220.63800049 70.00000000 -0.587404 -0.805706 0.076118 0.000000
111.62100220 194.22099304 182.50000000 0.000978 0.000978 0.999999 0.000000
115.34200287 170.03599548 90.00000000 -0.920487 0.158318 0.357267 0.000000
63.99610138 208.73199463 20.00000000 -0.609449 -0.357826 0.707483 0.000000
92.27349854 133.94500732 102.50000000 0.000978 0.000978 0.999999 0.000000
155.52499390 168.17599487 177.50000000 -0.344566 -0.868306 -0.356817 0.000000
142.87500000 181.57000732 117.50000000 0.000978 0.000978 0.999999 0.000000
151.06100464 92.27349854 117.50000000 -0.499333 0.583396 0.640559 0.000000
176.36099243 188.26800537 162.50000000 0.000978 0.000978 -0.999999 0.000000
63.99610138 230.68400574 57.50000000 -0.590661 -0.763922 0.259891 0.000000
87.80860138 123.52700043 177.50000000 -0.572349 0.078895 0.816206 0.000000
126.50399780 204.26699829 130.00000000 -0.615639 -0.605519 0.504318 0.000000
124.27200317 128.73599243 107.50000000 0.000978 0.000978 0.999999 0.000000
146.59599304 80.36720276 167.50000000 0.000978 0.000978 -0.999999 0.000000
202.03399658 109.38899994 170.00000000 -0.674325 0.674325 -0.300952 0.000000
41.29980087 189.01199341 140.00000000 -0.973802 -0.088076 0.209647 0.000000
52.46189880 168.17599487 40.00000000 -0.938551 -0.334913 -0.083397 0.000000
112.36499786 153.29299927 192.50000000 0.000978 0.000978 0.999999 0.000000
63.25199890 209.47599792 20.00000000 -0.483078 -0.697037 0.529882 0.000000
80.36720276 104.92400360 102.50000000 -0.711053 -0.654042 -0.258133 0.000000
93.76180267 162.22300720 47.50000000 -0.927819 -0.153943 0.339784 0.000000
127.24800110 105.66799927 117.50000000 0.000978 0.000978 0.999999 0.000000
159.24600220 83.34380341 172.50000000 -0.089554 0.985094 -0.146869 0.000000
171.89700317 88.55280304 137.50000000 -0.499259 0.780395 0.376464 0.000000
53.20610046 250.03100586 100.00000000 0.000978 0.000978 0.999999 0.000000
180.08200073 101.94699860 132.50000000 -0.000978 -0.000978 0.999999 0.000000
174.87300110 87.80860138 147.50000000 -0.572242 0.758181 0.312569 0.000000
181.57000732 104.92400360 132.50000000 0.000978 0.000978 0.999999 0.000000
116.83000183 128.73599243 107.50000000 0.000978 0.000978 0.999999 0.000000
161.47900391 91.90139771 180.00000000 -0.120450 0.691472 -0.712291 0.000000
176.36099243 200.17399597 157.50000000 -0.000978 -0.000978 -0.999999 0.000000
162.96699524 122.78299713 192.50000000 -0.000978 -0.000978 -0.999999 0.000000
156.27000427 142.87500000 127.50000000 0.000978 0.000978 0.999999 0.000000
86.32039642 155.52499390 182.50000000 0.000978 0.000978 0.999999 0.000000
99.71489716 147.33999634 97.50000000 -0.781723 0.599574 0.171524 0.000000
74.78620148 232.17199707 110.00000000 -0.649121 -0.544587 0.531099 0.000000
99.71489716 194.22099304 182.50000000 0.000978 0.000978 0.999999 0.000000
115.34200287 169.66400146 97.50000000 -0.974804 0.144648 0.169805 0.000000
133.20100403 137.66600037 117.50000000 0.000978 0.000978 0.999999 0.000000
130.59700012 136.92199707 190.00000000 -0.785120 0.409557 0.464597 0.000000
154.78100586 158.87399292 130.00000000 0.280854 0.272213 0.920338 0.000000
64.74030304 143.61900330 52.50000000 -0.792664 -0.597819 -0.119564 0.000000
183.05900574 116.08599854 187.50000000 -0.000978 -0.000978 -0.999999 0.000000
59.90340042 242.58999634 90.00000000 -0.619365 -0.511355 0.595738 0.000000
119.06300354 95.25000000 117.50000000 -0.202230 0.189013 0.960925 0.000000
179.71000671 189.75599670 150.00000000 -0.873667 -0.290210 -0.390491 0.000000
189.01199341 130.22500610 147.50000000 -0.468998 -0.192066 0.862063 0.000000
183.80299377 135.43400574 192.50000000 -0.000978 -0.000978 -0.999999 0.000000
188.26800537 145.10699463 152.50000000 -0.569358 0.569358 0.593011 0.000000
50.22949982 158.50199890 150.00000000 -0.941324 -0.217016 0.258484 0.000000
59.90340042 132.45700073 100.00000000 -0.917945 -0.377978 -0.120454 0.000000
157.01400757 127.24800110 192.50000000 -0.000978 -0.000978 -0.999999 0.000000
68.46099854 257.47299194 152.50000000 -0.690304 -0.638083 0.341072 0.000000
95.99420166 133.94500732 187.50000000 -0.754621 -0.481708 0.445539 0.000000
116.83000183 199.42999268 107.50000000 -0.105399 -0.538548 0.835977 0.000000
46.13669968 231.42799377 87.50000000 -0.951519 0.266318 -0.153903 0.000000
45.76470184 221.75399780 80.00000000 0.000978 0.000978 -0.999999 0.000000
151.80499268 130.22500610 122.50000000 0.000978 0.000978 0.999999 0.000000
136.92199707 182.31500244 112.50000000 0.000978 0.000978 0.999999 0.000000
174.87300110 177.10600281 172.50000000 -0.000978 -0.000978 -0.999999 0.000000
116.08599854 107.15599823 112.50000000 -0.000978 -0.000978 0.999999 0.000000
63.25199890 217.28900146 32.50000000 -0.456359 -0.656956 0.600120 0.000000
45.76470184 171.15199280 90.00000000 -0.953354 -0.271819 -0.131268 0.000000
73.66999817 108.27300262 110.00000000 -0.769852 -0.627998 0.113779 0.000000
170.40800476 173.38499451 132.50000000 -0.387877 0.065765 0.919362 0.000000
67.71679688 119.80699921 102.50000000 -0.787896 -0.590543 -0.174582 0.000000
76.64649963 183.05900574 182.50000000 -0.495063 -0.141655 0.857232 0.000000
171.15199280 122.03900146 192.50000000 -0.000978 -0.000978 -0.999999 0.000000
40.18360138 197.19700623 97.50000000 -0.989041 0.001110 -0.147635 0.000000
58.41510010 153.29299927 50.00000000 -0.997236 -0.001046 0.074296 0.000000
152.54899597 83.34380341 127.50000000 -0.000978 -0.000978 0.999999 0.000000
163.71099854 87.80860138 132.50000000 -0.620847 0.604022 0.499706 0.000000
37.57910156 209.10400391 120.00000000 -0.999999 -0.000978 -0.000978 0.000000
82.59960175 142.87500000 177.50000000 0.000978 0.000978 0.999999 0.000000
200.91799927 148.08399963 187.50000000 -0.000978 -0.000978 -0.999999 0.000000
217.28900146 152.54899597 187.50000000 -0.000978 -0.000978 -0.999999 0.000000
110.13300323 131.71299744 187.50000000 0.000978 0.000978 0.999999 0.000000
149.57200623 135.43400574 122.50000000 -0.317638 -0.077122 0.945071 0.000000
154.03700256 155.15299988 130.00000000 0.204732 -0.598803 0.774287 0.000000
39.43949890 219.52200317 112.50000000 -0.982062 0.142734 -0.123215 0.000000
61.01959991 175.61700439 172.50000000 -0.681891 -0.330367 0.652597 0.000000
61.76369858 255.24000549 117.50000000 -0.207024 -0.904826 0.372064 0.000000
170.77999878 191.24400330 140.00000000 0.588844 -0.800299 0.113070 0.000000
147.33999634 120.55100250 197.50000000 -0.000978 -0.000978 -0.999999 0.000000
65.48439789 173.38499451 172.50000000 -0.397931 -0.226333 0.889058 0.000000
98.97070313 224.73100281 177.50000000 0.000978 0.000978 0.999999 0.000000
183.80299377 151.80499268 187.50000000 -0.000978 -0.000978 -0.999999 0.000000
58.78710175 154.78100586 162.50000000 -0.858296 0.287122 0.425310 0.000000
66.22850037 125.76000214 92.50000000 -0.774013 -0.507895 -0.378082 0.000000
110.87699890 165.19900513 187.50000000 -0.426867 0.235151 0.873206 0.000000
165.19900513 179.33799744 172.50000000 -0.119169 -0.927329 -0.354768 0.000000
205.38299561 154.78100586 187.50000000 -0.000978 -0.000978 -0.999999 0.000000
98.97070313 209.84800720 97.50000000 -0.582790 -0.735387 0.345778 0.000000
102.69100189 200.91799927 182.50000000 0.000978 0.000978 0.999999 0.000000
149.57200623 103.43599701 187.50000000 0.528695 0.705483 -0.471990 0.000000
79.62310028 192.73300171 182.50000000 -0.382214 0.071078 0.921336 0.000000
130.96899414 207.61500549 177.50000000 -0.335175 -0.039810 -0.941315 0.000000
165.94299316 168.17599487 177.50000000 -0.000978 -0.000978 -0.999999 0.000000
134.69000244 134.69000244 117.50000000 0.000978 0.000978 0.999999 0.000000
90.04109955 234.40400696 137.50000000 -0.599071 -0.800158 0.029325 0.000000
138.78199768 188.26800537 160.00000000 -0.511355 -0.619365 -0.595738 0.000000
182.31500244 145.10699463 147.50000000 0.000978 0.000978 0.999999 0.000000
105.66799927 196.45300293 182.50000000 0.000978 0.000978 0.999999 0.000000
92.27349854 120.55100250 177.50000000 -0.217888 -0.083420 0.972402 0.000000
156.27000427 154.78100586 142.50000000 0.603214 -0.442803 -0.663369 0.000000
67.71679688 175.98899841 170.00000000 -0.781506 -0.009682 0.623822 0.000000
62.13579941 245.56700134 100.00000000 -0.741752 -0.565688 0.360280 0.000000
180.82600403 174.12899780 142.50000000 -0.975324 0.201493 -0.090239 0.000000
165.94299316 133.20100403 132.50000000 0.029699 -0.207895 0.977700 0.000000
110.13300323 87.80860138 177.50000000 -0.000978 -0.000978 0.999999 0.000000
102.69100189 77.76270294 150.00000000 -0.188475 -0.955743 0.225903 0.000000
171.15199280 131.71299744 137.50000000 0.000978 0.000978 0.999999 0.000000
84.08789825 219.52200317 177.50000000 0.000978 0.000978 0.999999 0.000000
136.17799377 180.45399475 180.00000000 0.487952 0.189510 0.852050 0.000000
54.32229996 178.59399414 167.50000000 0.000978 0.000978 0.999999 0.000000
136.92199707 158.50199890 137.50000000 -0.322812 0.347061 0.880535 0.000000
187.52400208 169.66400146 167.50000000 -0.954408 0.239606 0.178031 0.000000
123.52700043 176.36099243 117.50000000 -0.000978 -0.000978 -0.999999 0.000000
177.10600281 198.68600464 157.50000000 -0.183394 -0.001139 -0.983039 0.000000
192.73300171 109.38899994 187.50000000 0.051546 0.195394 -0.979369 0.000000
160.73399353 106.04000092 190.00000000 -0.118867 0.814457 -0.567918 0.000000
142.87500000 119.06300354 197.50000000 -0.000978 -0.000978 -0.999999 0.000000
65.48439789 146.96800232 30.00000000 -0.691826 -0.691826 -0.206770 0.000000
45.02050018 191.98800659 150.00000000 -0.769550 0.212129 0.602324 0.000000
93.76180267 140.64300537 97.50000000 0.000978 0.000978 0.999999 0.000000
49.11330032 226.21899414 162.50000000 -0.596711 0.446279 0.666912 0.000000
133.94500732 149.57200623 192.50000000 0.000978 0.000978 0.999999 0.000000
152.54899597 150.68899536 130.00000000 0.067607 -0.772443 0.631476 0.000000
190.50000000 151.06100464 187.50000000 -0.000978 -0.000978 -0.999999 0.000000
116.83000183 145.85200500 192.50000000 0.000978 0.000978 0.999999 0.000000
105.29599762 218.03300476 130.00000000 -0.474643 -0.635653 0.608818 0.000000
175.61700439 170.77999878 160.00000000 -0.415968 -0.046813 0.908174 0.000000
163.71099854 154.78100586 192.50000000 -0.295963 -0.740707 -0.603124 0.000000
114.59799957 144.36300659 117.50000000 0.000978 0.000978 0.999999 0.000000
125.01599884 107.90000153 117.50000000 -0.136371 0.301096 0.943793 0.000000
133.94500732 180.82600403 112.50000000 0.000978 0.000978 0.999999 0.000000
177.85000610 169.66400146 182.50000000 0.423805 -0.849163 -0.315137 0.000000
170.77999878 200.91799927 140.00000000 -0.886038 0.462574 0.031018 0.000000
144.36300659 131.71299744 197.50000000 -0.112830 -0.346646 -0.931185 0.000000
67.71679688 221.75399780 42.50000000 -0.682792 -0.616662 0.391820 0.000000
65.11229706 143.61900330 50.00000000 -0.727987 -0.656889 -0.196294 0.000000
157.01400757 113.10900116 192.50000000 -0.000978 -0.000978 -0.999999 0.000000
180.82600403 113.10900116 187.50000000 -0.000978 -0.000978 -0.999999 0.000000
47.99710083 228.45100403 160.00000000 -0.912475 -0.001291 0.409130 0.000000
184.54699707 171.89700317 182.50000000 -0.210874 -0.971032 -0.112382 0.000000
151.80499268 150.31599426 192.50000000 -0.000978 -0.000978 -0.999999 0.000000
142.13099670 83.34380341 127.50000000 0.248819 0.909427 0.333214 0.000000
173.38499451 114.97000122 190.00000000 -0.744080 0.215923 -0.632235 0.000000
111.62100220 154.78100586 192.50000000 -0.644617 0.015315 0.764352 0.000000
113.48100281 81.85549927 120.00000000 0.280733 -0.952912 -0.114666 0.000000
70.69339752 154.78100586 172.50000000 -0.326526 -0.152930 0.932734 0.000000
85.57620239 227.70700073 117.50000000 -0.631004 -0.723658 0.279559 0.000000
170.40800476 97.48249817 187.50000000 -0.000978 -0.000978 -0.999999 0.000000
47.62500000 178.59399414 157.50000000 -0.861105 -0.175766 0.477079 0.000000
174.87300110 165.94299316 157.50000000 -0.033130 -0.988183 -0.149655 0.000000
61.76369858 135.06199646 90.00000000 -0.703222 -0.703222 0.104673 0.000000
130.96899414 151.80499268 132.50000000 -0.223031 -0.807525 0.546041 0.000000
151.80499268 112.36499786 192.50000000 -0.000978 -0.000978 -0.999999 0.000000
68.46099854 123.52700043 157.50000000 -0.653326 -0.376855 0.656617 0.000000
46.50880051 225.47500610 80.00000000 0.000978 0.000978 -0.999999 0.000000
183.05900574 149.57200623 187.50000000 -0.000978 -0.000978 -0.999999 0.000000
88.55280304 230.68400574 127.50000000 -0.675298 -0.541244 0.501027 0.000000
75.15820313 132.45700073 167.50000000 -0.959009 0.046383 0.279554 0.000000
55.81060028 252.26400757 157.50000000 -0.413511 0.317490 0.853351 0.000000
205.75500488 111.62100220 160.00000000 -0.786892 0.597315 -0.154971 0.000000
169.66400146 147.33999634 132.50000000 0.000978 0.000978 0.999999 0.000000
48.36920166 226.96299744 72.50000000 0.857446 -0.513922 0.025901 0.000000
47.25299835 247.05499268 120.00000000 0.666766 -0.488738 0.562636 0.000000
162.22300720 95.99420166 187.50000000 -0.288157 0.587458 -0.756213 0.000000
59.53129959 246.31100464 92.50000000 -0.709495 -0.628687 0.318384 0.000000
171.15199280 127.99199677 132.50000000 -0.158253 0.055096 0.985860 0.000000
137.66600037 156.27000427 142.50000000 -0.912839 -0.189996 0.361422 0.000000
122.03900146 130.96899414 107.50000000 0.000978 0.000978 0.999999 0.000000
107.15599823 114.59799957 187.50000000 -0.373816 -0.295118 0.879299 0.000000
179.33799744 127.99199677 142.50000000 -0.637730 -0.486290 0.597346 0.000000
51.34569931 174.12899780 162.50000000 -0.521292 -0.256756 0.813838 0.000000
175.98899841 159.24600220 140.00000000 -0.736314 -0.126951 0.664624 0.000000
50.60160065 169.66400146 157.50000000 -0.958392 -0.001215 -0.285453 0.000000
52.08990097 144.36300659 127.50000000 -0.937086 -0.345379 0.050829 0.000000
98.22660065 228.45100403 147.50000000 -0.599205 -0.798466 0.058355 0.000000
98.97070313 98.22660065 177.50000000 -0.672576 -0.595806 0.438927 0.000000
168.54800415 192.73300171 150.00000000 -0.839650 -0.210291 -0.500764 0.000000
47.62500000 203.14999390 52.50000000 -0.989041 0.001110 -0.147635 0.000000
85.57620239 215.80099487 77.50000000 -0.703222 -0.703222 0.104673 0.000000
61.76369858 214.31300354 172.50000000 0.000978 0.000978 0.999999 0.000000
142.87500000 122.78299713 197.50000000 -0.000978 -0.000978 -0.999999 0.000000
80.36720276 244.82200623 157.50000000 0.000978 0.000978 0.999999 0.000000
120.55100250 174.12899780 122.50000000 -0.000978 -0.000978 -0.999999 0.000000
174.12899780 179.33799744 172.50000000 -0.000978 -0.000978 -0.999999 0.000000
124.27200317 125.76000214 107.50000000 0.000978 0.000978 0.999999 0.000000
87.80860138 145.85200500 42.50000000 -0.783196 0.217812 0.582376 0.000000
116.08599854 133.57299805 110.00000000 0.006151 -0.953472 0.301420 0.000000
84.83209991 207.61500549 182.50000000 -0.343829 0.182526 0.921122 0.000000
157.75799561 119.80699921 127.50000000 -0.130566 0.397314 0.908347 0.000000
171.89700317 119.06300354 122.50000000 -0.262050 -0.719447 0.643215 0.000000
113.85399628 215.05700684 132.50000000 -0.329286 0.394216 0.858000 0.000000
67.71679688 129.48100281 162.50000000 -0.590543 -0.787896 0.174582 0.000000
126.50399780 164.45500183 192.50000000 0.000978 0.000978 0.999999 0.000000
122.03900146 222.49800110 177.50000000 0.520152 0.470298 0.712925 0.000000
94.87799835 83.34380341 120.00000000 -0.534528 -0.810313 -0.240150 0.000000
77.39070129 229.56700134 110.00000000 -0.530255 -0.694183 0.486764 0.000000
85.57620239 127.99199677 97.50000000 -0.839995 0.342568 0.420780 0.000000
90.04109955 127.99199677 102.50000000 -0.224659 0.107887 0.968446 0.000000
100.45899963 147.33999634 187.50000000 0.000978 0.000978 0.999999 0.000000
78.87889862 197.19700623 182.50000000 -0.450386 0.090635 0.888222 0.000000
62.13579941 128.73599243 140.00000000 -0.703222 -0.703222 0.104673 0.000000
116.08599854 95.25000000 182.50000000 -0.485539 -0.807109 0.335897 0.000000
94.50589752 190.50000000 182.50000000 0.000978 0.000978 0.999999 0.000000
45.76470184 224.73100281 150.00000000 -0.906679 0.412875 0.086416 0.000000
157.75799561 151.80499268 192.50000000 -0.000978 -0.000978 -0.999999 0.000000
128.73599243 158.50199890 132.50000000 -0.160303 -0.483851 0.860343 0.000000
67.71679688 135.43400574 67.50000000 -0.786114 -0.534175 -0.310938 0.000000
183.80299377 92.27349854 152.50000000 -0.608341 0.785099 0.116365 0.000000
134.69000244 78.87889862 167.50000000 0.168321 0.835648 -0.522839 0.000000
177.85000610 152.92100525 140.00000000 -0.648726 -0.312229 0.694023 0.000000
46.88090134 226.96299744 157.50000000 -0.894252 0.439501 0.084573 0.000000
98.22660065 106.41200256 177.50000000 -0.197016 -0.243213 0.949754 0.000000
148.82800293 133.94500732 122.50000000 -0.369746 -0.021901 0.928875 0.000000
171.15199280 205.01100159 150.00000000 -0.270638 0.961575 0.046146 0.000000
80.36720276 106.41200256 97.50000000 -0.731263 -0.609118 -0.306970 0.000000
63.99610138 144.36300659 57.50000000 -0.820436 -0.569080 -0.055072 0.000000
199.42999268 172.64100647 177.50000000 -0.636723 -0.757143 -0.146010 0.000000
59.15919876 154.78100586 30.00000000 -0.705724 -0.708486 0.001381 0.000000
213.56799316 127.24800110 172.50000000 -0.228570 0.422781 0.876933 0.000000
82.59960175 125.01599884 97.50000000 0.000978 0.000978 0.999999 0.000000
95.25000000 106.41200256 177.50000000 -0.250918 -0.273600 0.928538 0.000000
82.59960175 159.24600220 182.50000000 -0.580035 -0.177191 0.795087 0.000000
210.59199524 122.78299713 177.50000000 -0.827993 0.372043 -0.419538 0.000000
110.87699890 159.99000549 97.50000000 -0.703222 0.703222 0.104673 0.000000
159.24600220 115.34200287 192.50000000 -0.000978 -0.000978 -0.999999 0.000000
168.17599487 112.36499786 192.50000000 -0.129842 0.295826 -0.946376 0.000000
86.32039642 96.36630249 100.00000000 -0.673853 -0.617561 -0.405636 0.000000
138.78199768 194.22099304 150.00000000 -0.939071 0.313930 0.139977 0.000000
69.94920349 210.59199524 32.50000000 -0.670750 -0.470026 0.573733 0.000000
58.04299927 154.40899658 50.00000000 0.000000 0.000000 0.000000 0.000000
97.48249817 203.14999390 182.50000000 0.000978 0.000978 0.999999 0.000000
77.39070129 110.13300323 97.50000000 -0.585990 -0.646437 -0.488605 0.000000
123.89900208 215.80099487 170.00000000 0.680983 0.172924 0.711589 0.000000
95.25000000 228.45100403 132.50000000 -0.754452 -0.648975 0.098152 0.000000
129.48100281 157.01400757 192.50000000 0.000978 0.000978 0.999999 0.000000
179.33799744 165.19900513 152.50000000 -0.394801 -0.870391 0.294195 0.000000
173.38499451 84.08789825 167.50000000 0.001366 0.802126 0.597153 0.000000
159.99000549 159.24600220 132.50000000 0.000978 0.000978 0.999999 0.000000
79.99520111 156.27000427 30.00000000 -0.146088 0.461405 0.875079 0.000000
45.76470184 200.17399597 70.00000000 -0.989041 -0.001110 -0.147635 0.000000
47.62500000 168.17599487 152.50000000 -0.868099 -0.265126 0.419657 0.000000
151.06100464 157.75799561 192.50000000 -0.000978 -0.000978 -0.999999 0.000000
125.01599884 131.71299744 112.50000000 0.000978 0.000978 0.999999 0.000000
175.98899841 137.66600037 140.00000000 -0.861028 0.095353 0.499538 0.000000
63.25199890 242.58999634 97.50000000 -0.755642 -0.601043 0.260294 0.000000
113.85399628 95.25000000 112.50000000 -0.760030 -0.188856 0.621843 0.000000
130.96899414 214.31300354 157.50000000 -0.485736 -0.804251 0.342404 0.000000
61.76369858 255.98399353 117.50000000 -0.207024 -0.904826 0.372064 0.000000
188.26800537 95.99420166 152.50000000 -0.703222 0.703222 0.104673 0.000000
63.99610138 255.24000549 162.50000000 -0.000978 -0.000978 -0.999999 0.000000
150.31599426 137.66600037 122.50000000 0.000978 0.000978 0.999999 0.000000
75.90239716 226.96299744 172.50000000 -0.308308 0.099241 0.946096 0.000000
104.92400360 184.54699707 187.50000000 0.000978 0.000978 0.999999 0.000000
74.04199982 216.54499817 50.00000000 -0.703222 -0.703222 0.104673 0.000000
101.94699860 118.31800079 102.50000000 -0.347230 -0.621102 0.702612 0.000000
65.48439789 126.13200378 120.00000000 -0.879049 -0.438791 -0.186376 0.000000
75.90239716 251.14799500 160.00000000 -0.703222 -0.703222 0.104673 0.000000
136.92199707 191.61599731 170.00000000 -0.988244 0.068839 -0.136511 0.000000
183.80299377 130.96899414 147.50000000 -0.728202 -0.169456 0.664083 0.000000
61.76369858 156.27000427 167.50000000 0.000978 0.000978 0.999999 0.000000
152.54899597 114.97000122 120.00000000 -0.788763 0.122828 0.602301 0.000000
63.25199890 243.70599365 160.00000000 -0.529740 0.654186 0.539830 0.000000
75.90239716 158.50199890 27.50000000 -0.423630 0.398053 0.813690 0.000000
154.78100586 162.96699524 132.50000000 -0.008420 0.258627 0.965941 0.000000
85.57620239 190.50000000 182.50000000 0.000978 0.000978 0.999999 0.000000
206.87100220 167.80400085 170.00000000 -0.630626 -0.663730 0.402210 0.000000
194.22099304 146.59599304 187.50000000 -0.000978 -0.000978 -0.999999 0.000000
79.62310028 222.49800110 92.50000000 -0.650343 -0.731054 0.206433 0.000000
113.85399628 126.50399780 107.50000000 0.000978 0.000978 0.999999 0.000000
125.76000214 179.33799744 107.50000000 -0.000978 -0.000978 0.999999 0.000000
101.20300293 123.52700043 107.50000000 0.000978 0.000978 0.999999 0.000000
65.48439789 255.98399353 162.50000000 -0.000978 -0.000978 -0.999999 0.000000
162.22300720 85.57620239 177.50000000 -0.000978 -0.000978 -0.999999 0.000000
208.35899353 123.52700043 157.50000000 -0.368685 -0.862323 0.347089 0.000000
65.85649872 249.28700256 110.00000000 -0.911740 -0.342444 0.226851 0.000000
175.61700439 154.78100586 137.50000000 -0.671852 -0.391226 0.628933 0.000000
57.29890060 239.61300659 162.50000000 -0.419223 0.328833 0.846239 0.000000
93.01760101 154.03700256 182.50000000 0.000978 0.000978 0.999999 0.000000
60.27539825 226.21899414 42.50000000 -0.000978 -0.000978 0.999999 0.000000
82.22760010 159.24600220 30.00000000 -0.692670 0.361891 0.623894 0.000000
192.73300171 133.94500732 192.50000000 0.000000 0.000000 0.000000 0.000000
144.36300659 83.71589661 170.00000000 -0.129886 0.756920 -0.640470 0.000000
61.01959991 149.57200623 47.50000000 -0.731263 -0.609118 0.306970 0.000000
212.08000183 161.47900391 187.50000000 -0.000978 -0.000978 -0.999999 0.000000
120.55100250 89.66899872 130.00000000 0.691826 -0.691826 0.206770 0.000000
66.97270203 162.96699524 172.50000000 0.000978 0.000978 0.999999 0.000000
100.45899963 182.31500244 67.50000000 0.000978 0.000978 0.999999 0.000000
197.19700623 155.52499390 187.50000000 -0.000978 -0.000978 -0.999999 0.000000
59.53129959 218.03300476 167.50000000 0.000978 0.000978 0.999999 0.000000
106.41200256 102.69100189 182.50000000 0.000978 0.000978 0.999999 0.000000
154.78100586 136.92199707 192.50000000 -0.000978 -0.000978 -0.999999 0.000000
135.43400574 202.03399658 140.00000000 -0.674325 -0.674325 0.300952 0.000000
202.40600586 125.01599884 187.50000000 -0.000978 -0.000978 -0.999999 0.000000
98.97070313 113.10900116 97.50000000 0.000978 0.000978 0.999999 0.000000
151.06100464 147.33999634 192.50000000 -0.000978 -0.000978 -0.999999 0.000000
43.90430069 200.91799927 152.50000000 -0.864160 0.432839 0.256666 0.000000
203.89500427 153.29299927 187.50000000 -0.000978 -0.000978 -0.999999 0.000000
64.74030304 138.03799438 160.00000000 -0.788643 -0.046724 0.613074 0.000000
158.50199890 181.57000732 157.50000000 0.434285 -0.792692 -0.427827 0.000000
89.29689789 97.48249817 167.50000000 -0.937541 -0.334741 0.094688 0.000000
55.06639862 256.35699463 120.00000000 0.516140 -0.849690 0.107829 0.000000
87.80860138 87.43659973 140.00000000 -0.745961 0.001379 -0.665988 0.000000
44.27640152 169.66400146 120.00000000 -0.724793 -0.563728 -0.396089 0.000000
61.01959991 228.45100403 167.50000000 0.000978 0.000978 0.999999 0.000000
171.15199280 201.28999329 150.00000000 -0.585698 0.799219 -0.134933 0.000000
81.48339844 208.35899353 50.00000000 -0.760281 -0.522591 0.385838 0.000000
43.16019821 234.40400696 142.50000000 -0.912475 0.001291 0.409130 0.000000
158.87399292 115.34200287 120.00000000 0.225033 -0.591294 0.774424 0.000000
76.64649963 177.10600281 182.50000000 0.000978 0.000978 0.999999 0.000000
79.62310028 133.94500732 47.50000000 -0.001215 -0.958392 -0.285453 0.000000
114.97000122 211.33599854 180.00000000 0.631366 0.683843 0.365700 0.000000
55.06639862 162.22300720 27.50000000 -0.989041 0.001110 0.147635 0.000000
204.63900757 126.50399780 162.50000000 -0.220194 -0.913879 0.341086 0.000000
49.85739899 159.99000549 152.50000000 -0.967523 -0.180034 0.177444 0.000000
170.03599548 190.50000000 140.00000000 0.588844 -0.800299 0.113070 0.000000
69.94920349 136.92199707 57.50000000 -0.630318 -0.734581 -0.251179 0.000000
131.34100342 204.63900757 140.00000000 -0.691826 -0.691826 0.206770 0.000000
152.54899597 141.38699341 122.50000000 0.000978 0.000978 0.999999 0.000000
81.11139679 162.22300720 27.50000000 -0.743951 -0.572146 -0.345232 0.000000
155.52499390 117.57399750 127.50000000 -0.407467 0.171338 0.897003 0.000000
125.01599884 132.45700073 112.50000000 0.000978 0.000978 0.999999 0.000000
180.82600403 181.57000732 157.50000000 -0.953258 -0.235289 -0.189576 0.000000
45.76470184 172.64100647 150.00000000 -0.917137 -0.249866 0.310527 0.000000
61.01959991 256.72900391 157.50000000 0.000978 0.000978 0.999999 0.000000
132.45700073 77.01860046 160.00000000 -0.313930 0.939071 -0.139977 0.000000
113.10900116 139.89799500 192.50000000 0.000978 0.000978 0.999999 0.000000
55.81060028 258.96099854 142.50000000 -0.789240 0.553880 0.265172 0.000000
100.45899963 204.26699829 80.00000000 -0.636243 -0.701001 0.322169 0.000000
122.78299713 190.50000000 182.50000000 0.000978 0.000978 0.999999 0.000000
193.47700500 131.34100342 150.00000000 -0.533807 -0.453985 0.713406 0.000000
191.24400330 151.06100464 157.50000000 0.000978 0.000978 0.999999 0.000000
129.85299683 212.82400513 150.00000000 -0.481634 -0.642738 0.595749 0.000000
142.87500000 90.04109955 117.50000000 0.454392 0.756227 0.470796 0.000000
76.64649963 189.75599670 32.50000000 0.000978 0.000978 0.999999 0.000000
142.13099670 189.75599670 122.50000000 -0.470298 -0.787063 0.399188 0.000000
58.78710175 135.80599976 140.00000000 -0.932069 -0.351699 0.086922 0.000000
79.62310028 163.71099854 27.50000000 -0.000978 -0.000978 0.999999 0.000000
39.81150055 226.96299744 130.00000000 -0.000978 -0.000978 -0.999999 0.000000
99.71489716 171.89700317 62.50000000 -0.903089 -0.161215 0.398044 0.000000
74.41410065 255.24000549 167.50000000 0.000978 0.000978 0.999999 0.000000
66.60060120 129.48100281 80.00000000 -0.696014 -0.673918 -0.247787 0.000000
69.94920349 234.40400696 167.50000000 0.000978 0.000978 0.999999 0.000000
175.61700439 99.71489716 187.50000000 -0.000978 -0.000978 -0.999999 0.000000
203.14999390 147.33999634 167.50000000 -0.608912 -0.321415 0.725203 0.000000
55.06639862 164.45500183 27.50000000 -0.986578 -0.156876 0.045320 0.000000
87.06449890 110.13300323 172.50000000 -0.205628 -0.613793 0.762217 0.000000
79.62310028 164.45500183 27.50000000 -0.000978 -0.000978 0.999999 0.000000
171.89700317 111.62100220 122.50000000 -0.759012 0.085953 0.645378 0.000000
122.78299713 151.06100464 192.50000000 0.000978 0.000978 0.999999 0.000000
39.81150055 186.03500366 130.00000000 -0.981985 -0.058324 0.179733 0.000000
159.99000549 171.15199280 172.50000000 -0.000978 -0.000978 -0.999999 0.000000
202.40600586 165.94299316 172.50000000 0.140535 -0.282408 0.948945 0.000000
124.27200317 143.61900330 117.50000000 0.125671 -0.790988 0.598786 0.000000
87.06449890 171.15199280 182.50000000 0.000978 0.000978 0.999999 0.000000
69.94920349 212.82400513 172.50000000 0.000978 0.000978 0.999999 0.000000
55.06639862 238.12500000 72.50000000 0.397042 -0.877116 0.270230 0.000000
159.24600220 84.83209991 132.50000000 -0.532470 0.799490 0.278015 0.000000
60.27539825 237.38099670 72.50000000 -0.358599 -0.907385 0.219224 0.000000
87.06449890 162.22300720 37.50000000 0.000978 0.000978 0.999999 0.000000
153.29299927 88.55280304 122.50000000 0.000978 0.000978 0.999999 0.000000
92.27349854 164.45500183 47.50000000 -0.926067 -0.266833 0.266833 0.000000
138.41000366 180.08200073 172.50000000 -0.000978 -0.000978 -0.999999 0.000000
72.18170166 249.28700256 127.50000000 0.000978 0.000978 0.999999 0.000000
113.10900116 203.89500427 182.50000000 0.000978 0.000978 0.999999 0.000000
49.11330032 203.14999390 37.50000000 -0.996956 0.052926 -0.057247 0.000000
159.24600220 84.08789825 177.50000000 -0.217010 0.952956 -0.211618 0.000000
139.15400696 177.10600281 177.50000000 -0.646975 -0.692377 -0.319434 0.000000
169.66400146 200.91799927 152.50000000 -0.456696 0.620638 -0.637367 0.000000
98.59870148 165.94299316 60.00000000 -0.858296 0.287122 0.425310 0.000000
97.48249817 198.68600464 67.50000000 -0.488623 -0.733763 0.472059 0.000000
185.29100037 134.69000244 147.50000000 -0.924521 0.079398 0.372769 0.000000
75.15820313 105.66799927 147.50000000 -0.814577 -0.543559 0.202502 0.000000
127.99199677 132.45700073 192.50000000 0.000978 0.000978 0.999999 0.000000
80.36720276 233.28799438 120.00000000 -0.647675 -0.650988 0.395893 0.000000
174.12899780 161.47900391 187.50000000 0.041273 -0.182779 -0.982287 0.000000
78.50689697 225.47500610 170.00000000 -0.621069 0.340691 0.705835 0.000000
114.59799957 149.57200623 192.50000000 0.000978 0.000978 0.999999 0.000000
183.80299377 164.45500183 157.50000000 -0.825047 -0.477494 0.302152 0.000000
114.59799957 194.96499634 97.50000000 -0.448696 -0.296543 0.843051 0.000000
160.73399353 81.48339844 140.00000000 -0.674325 0.674325 -0.300952 0.000000
132.45700073 210.59199524 172.50000000 -0.405607 -0.496828 -0.767232 0.000000
150.31599426 124.64399719 190.00000000 -0.664814 -0.226819 -0.711742 0.000000
71.43750000 245.56700134 167.50000000 0.000978 0.000978 0.999999 0.000000
132.45700073 134.69000244 112.50000000 0.000978 0.000978 0.999999 0.000000
199.42999268 139.89799500 167.50000000 0.000978 0.000978 0.999999 0.000000
78.13480377 188.26800537 182.50000000 0.000978 0.000978 0.999999 0.000000
93.76180267 227.70700073 127.50000000 0.000978 0.000978 0.999999 0.000000
190.87199402 117.57399750 140.00000000 -0.453006 -0.580048 0.677001 0.000000
171.15199280 113.85399628 192.50000000 -0.330860 -0.232614 -0.914561 0.000000
88.92489624 177.85000610 40.00000000 -0.873776 -0.171243 0.455183 0.000000
48.74119949 187.52400208 40.00000000 -0.989041 -0.001110 -0.147635 0.000000
114.97000122 98.97070313 110.00000000 -0.796465 -0.029292 0.603974 0.000000
197.19700623 149.57200623 162.50000000 0.000978 0.000978 0.999999 0.000000
190.50000000 122.78299713 142.50000000 -0.759720 -0.441392 0.477491 0.000000
51.34569931 231.80000305 70.00000000 0.751630 -0.620912 0.222532 0.000000
116.08599854 215.80099487 137.50000000 -0.603133 -0.705025 0.373055 0.000000
186.77900696 117.57399750 137.50000000 -0.501027 -0.541244 0.675298 0.000000
51.34569931 173.01300049 30.00000000 -0.939071 -0.313930 -0.139977 0.000000
93.01760101 125.01599884 182.50000000 0.000978 0.000978 0.999999 0.000000
52.46189880 254.49600220 120.00000000 0.721454 -0.676080 0.149736 0.000000
127.62000275 191.24400330 110.00000000 -0.365549 0.432012 0.824463 0.000000
189.01199341 107.90000153 187.50000000 -0.000978 -0.000978 -0.999999 0.000000
131.71299744 160.73399353 137.50000000 0.109841 0.584352 0.804033 0.000000
39.81150055 223.98599243 110.00000000 -0.996937 0.077339 0.011654 0.000000
50.22949982 168.17599487 70.00000000 -0.906026 -0.271661 -0.324525 0.000000
99.71489716 157.01400757 67.50000000 -0.931922 0.304101 0.197596 0.000000
180.82600403 125.01599884 192.50000000 -0.000978 -0.000978 -0.999999 0.000000
194.96499634 113.10900116 192.50000000 0.080236 0.494085 -0.865704 0.000000
87.06449890 235.14900208 172.50000000 0.000978 0.000978 0.999999 0.000000
133.94500732 213.19599915 170.00000000 -0.368817 -0.422636 -0.827860 0.000000
177.85000610 119.80699921 192.50000000 -0.286371 0.269102 -0.919552 0.000000
216.54499817 130.96899414 177.50000000 -0.973058 -0.229866 0.017865 0.000000
81.11139679 169.29200745 30.00000000 -0.666982 -0.380427 0.640632 0.000000
168.91999817 197.19700623 147.50000000 -0.231203 -0.460894 -0.856809 0.000000
106.41200256 212.08000183 117.50000000 -0.329349 -0.855072 0.400477 0.000000
57.29890060 246.31100464 92.50000000 -0.001375 -0.622848 0.782341 0.000000
169.66400146 84.83209991 172.50000000 -0.194392 0.932800 -0.303475 0.000000
67.71679688 257.10101318 140.00000000 -0.708486 -0.705724 -0.001381 0.000000
116.08599854 139.15400696 112.50000000 0.000978 0.000978 0.999999 0.000000
154.03700256 87.80860138 182.50000000 -0.066218 0.536791 -0.841113 0.000000
86.32039642 219.52200317 102.50000000 -0.448696 -0.843051 0.296543 0.000000
88.55280304 235.89300537 142.50000000 -0.608737 -0.791216 0.058450 0.000000
183.80299377 127.99199677 192.50000000 -0.000978 -0.000978 -0.999999 0.000000
127.24800110 140.64300537 112.50000000 0.000978 0.000978 0.999999 0.000000
106.41200256 92.27349854 177.50000000 0.000978 0.000978 0.999999 0.000000
77.39070129 171.15199280 27.50000000 -0.700320 -0.240784 0.671993 0.000000
209.10400391 154.03700256 172.50000000 0.000978 0.000978 0.999999 0.000000
147.33999634 135.06199646 190.00000000 -0.229075 -0.593724 -0.771373 0.000000
58.78710175 227.70700073 42.50000000 -0.456438 -0.876651 0.152146 0.000000
172.64100647 178.59399414 172.50000000 -0.000978 -0.000978 -0.999999 0.000000
155.52499390 155.52499390 132.50000000 0.204732 -0.598803 0.774287 0.000000
133.94500732 202.40600586 177.50000000 -0.150568 -0.378531 -0.913260 0.000000
121.29499817 113.85399628 192.50000000 0.000978 0.000978 0.999999 0.000000
77.39070129 171.89700317 27.50000000 -0.700320 -0.240784 0.671993 0.000000
194.22099304 165.94299316 187.50000000 -0.177130 -0.289725 -0.940577 0.000000
161.47900391 82.22760010 140.00000000 -0.674325 0.674325 -0.300952 0.000000
169.66400146 178.59399414 132.50000000 0.000978 0.000978 0.999999 0.000000
201.66200256 122.78299713 152.50000000 -0.465292 -0.772222 0.432640 0.000000
77.39070129 100.45899963 122.50000000 -0.810228 -0.580783 -0.078872 0.000000
191.24400330 122.78299713 147.50000000 -0.582794 -0.619958 0.525360 0.000000
143.61900330 186.03500366 117.50000000 -0.286920 -0.192666 0.938380 0.000000
120.55100250 127.99199677 107.50000000 0.000978 0.000978 0.999999 0.000000
77.39070129 155.52499390 177.50000000 0.000978 0.000978 0.999999 0.000000
173.01300049 167.43200684 160.00000000 -0.360784 -0.887737 0.285932 0.000000
77.39070129 215.80099487 57.50000000 0.001366 -0.802126 -0.597153 0.000000
92.27349854 120.55100250 102.50000000 -0.099268 -0.530868 0.841620 0.000000
40.18360138 187.52400208 132.50000000 -0.948410 -0.189138 0.254451 0.000000
88.55280304 134.69000244 97.50000000 0.000978 0.000978 0.999999 0.000000
