181.09399414 138.04699707 294.00000000 -0.288696 -0.757628 0.585367 0.000000
106.87500000 94.62889862 340.00000000 0.449367 0.876778 -0.171257 0.000000
76.44529724 220.05900574 272.00000000 -0.644582 -0.637920 0.421393 0.000000
220.42999268 111.32800293 302.00000000 -0.596217 -0.695311 0.401332 0.000000
115.78099823 93.14450073 352.00000000 0.474324 0.832011 -0.287705 0.000000
193.71099854 109.10199738 386.00000000 -0.000978 -0.000978 -0.999999 0.000000
202.98800659 105.39099884 272.00000000 -0.358863 -0.699700 0.617768 0.000000
118.75000000 190.00000000 370.00000000 -0.000978 -0.000978 -0.999999 0.000000
115.03900146 199.64799500 366.00000000 0.000978 0.000978 -0.999999 0.000000
135.82000732 215.23399353 358.00000000 -0.850523 -0.154775 -0.502649 0.000000
135.82000732 198.16400146 286.00000000 -0.174548 -0.980153 0.093987 0.000000
161.79699707 124.68800354 326.00000000 0.000978 0.000978 0.999999 0.000000
89.06250000 225.62500000 294.00000000 -0.660361 -0.536018 0.525936 0.000000
80.15619659 209.29699707 262.00000000 -0.606225 -0.663006 0.439221 0.000000
53.80860138 155.11700439 252.00000000 0.926786 0.369381 0.068009 0.000000
161.79699707 109.10199738 386.00000000 0.222176 0.078196 -0.971866 0.000000
82.38279724 194.82400513 364.00000000 0.214662 -0.421921 -0.880853 0.000000
162.53900146 175.15600586 310.00000000 0.122293 0.056003 0.990913 0.000000
150.66400146 164.39500427 380.00000000 -0.001255 -0.937612 -0.347682 0.000000
48.24219894 185.54699707 298.00000000 0.961753 0.203928 0.182878 0.000000
167.73399353 87.57810211 366.00000000 -0.000978 -0.000978 -0.999999 0.000000
68.28119659 128.39799500 234.00000000 0.610140 0.705014 0.361504 0.000000
161.79699707 178.86700439 306.00000000 -0.643514 -0.599829 0.475495 0.000000
82.38279724 150.29299927 212.00000000 0.042229 -0.989518 0.138099 0.000000
82.38279724 150.66400146 210.00000000 0.057095 -0.975473 0.212587 0.000000
129.14100647 131.73800659 264.00000000 0.365229 -0.920710 0.137482 0.000000
125.43000031 234.53100586 354.00000000 -0.182809 -0.255932 -0.949252 0.000000
92.77339935 208.55499268 362.00000000 0.385810 -0.218577 -0.896312 0.000000
98.71089935 257.53900146 330.00000000 -0.319068 -0.828318 0.460526 0.000000
73.47660065 151.40600586 358.00000000 0.877383 -0.292461 -0.380351 0.000000
64.94139862 134.33599854 300.00000000 0.818414 0.529743 0.222645 0.000000
69.39450073 258.28100586 320.00000000 0.701101 -0.701101 -0.130055 0.000000
117.26599884 89.43360138 336.00000000 0.177000 0.967688 -0.179584 0.000000
121.71900177 138.78900146 382.00000000 -0.000978 -0.000978 -0.999999 0.000000
94.25779724 147.69500732 378.00000000 -0.000978 -0.000978 -0.999999 0.000000
129.14100647 203.72999573 292.00000000 -0.282785 -0.875575 0.391665 0.000000
145.46899414 123.94499969 386.00000000 0.000978 0.000978 -0.999999 0.000000
172.92999268 112.81199646 266.00000000 0.232630 -0.436744 0.868986 0.000000
74.21880341 151.40600586 210.00000000 0.000978 0.000978 0.999999 0.000000
157.34399414 91.28910065 370.00000000 0.078801 0.930924 -0.356609 0.000000
220.42999268 85.35160065 362.00000000 -0.039782 0.943211 -0.329803 0.000000
130.62500000 204.10200500 294.00000000 -0.277906 -0.884792 0.374046 0.000000
146.95300293 104.64800262 382.00000000 -0.123023 0.769265 -0.626974 0.000000
172.18800354 86.09380341 362.00000000 0.399884 0.801374 -0.444851 0.000000
143.98399353 135.07800293 270.00000000 -0.263893 -0.483032 0.834889 0.000000
155.11700439 149.92199707 314.00000000 -0.558334 -0.784813 -0.268944 0.000000
135.07800293 187.77299500 270.00000000 -0.829959 -0.255015 0.496121 0.000000
146.21099854 84.23829651 336.00000000 0.440555 0.882563 -0.164299 0.000000
166.62100220 95.74220276 284.00000000 0.001379 0.668888 -0.743362 0.000000
57.89059830 233.78900146 286.00000000 0.862899 -0.416941 0.285597 0.000000
144.72700500 122.46099854 386.00000000 0.000978 0.000978 -0.999999 0.000000
73.47660065 120.23400116 338.00000000 0.764489 0.644295 -0.020964 0.000000
169.21899414 150.66400146 382.00000000 -0.232311 -0.040137 -0.971813 0.000000
120.97699738 123.20300293 378.00000000 -0.000978 -0.000978 -0.999999 0.000000
74.21880341 119.12100220 336.00000000 0.764489 0.644295 -0.020964 0.000000
74.96089935 258.28100586 306.00000000 -0.478961 -0.791817 0.378976 0.000000
125.43000031 207.07000732 362.00000000 0.000978 0.000978 -0.999999 0.000000
83.86720276 191.48399353 242.00000000 -0.589851 -0.773499 0.231894 0.000000
164.76600647 133.59399414 330.00000000 0.430842 -0.577229 0.693673 0.000000
156.60200500 139.53100586 382.00000000 -0.000978 -0.000978 -0.999999 0.000000
110.58599854 197.42199707 270.00000000 0.001329 -0.873026 -0.487672 0.000000
217.46099854 138.78900146 358.00000000 -0.003625 -0.963008 0.269449 0.000000
185.54699707 97.96880341 258.00000000 0.000978 0.000978 0.999999 0.000000
227.47999573 84.60939789 316.00000000 -0.254700 0.966893 0.015692 0.000000
83.86720276 123.20300293 238.00000000 -0.504214 0.625631 0.595277 0.000000
69.02339935 125.80100250 240.00000000 0.393844 0.918970 -0.019497 0.000000
145.46899414 164.02299500 314.00000000 -0.659557 -0.495087 0.565574 0.000000
202.61700439 131.36700439 306.00000000 -0.239606 -0.954408 0.178031 0.000000
112.81199646 101.68000031 366.00000000 0.442322 0.768760 -0.461909 0.000000
198.90600586 148.43800354 374.00000000 -0.000978 -0.000978 -0.999999 0.000000
178.12500000 160.31199646 374.00000000 -0.000978 -0.000978 -0.999999 0.000000
166.25000000 114.29699707 386.00000000 -0.000978 -0.000978 -0.999999 0.000000
179.60899353 168.47700500 314.00000000 -0.315047 -0.832289 0.456113 0.000000
139.53100586 151.77699280 384.00000000 0.449556 -0.452825 -0.769967 0.000000
125.43000031 87.57810211 338.00000000 -0.001139 0.983039 -0.183394 0.000000
151.40600586 165.87899780 376.00000000 -0.087980 -0.921764 -0.377639 0.000000
196.67999268 102.42199707 382.00000000 0.000978 0.000978 -0.999999 0.000000
105.39099884 164.76600647 234.00000000 -0.640805 -0.113954 0.759199 0.000000
112.81199646 103.53500366 368.00000000 0.517732 0.507679 -0.688634 0.000000
102.42199707 135.07800293 378.00000000 0.265189 0.196487 -0.943964 0.000000
126.17199707 121.71900177 254.00000000 -0.291249 0.935064 -0.202063 0.000000
70.50779724 152.89100647 210.00000000 0.000978 0.000978 0.999999 0.000000
53.06639862 161.05499268 264.00000000 0.950877 0.134696 -0.278728 0.000000
217.46099854 84.23829651 356.00000000 0.001139 0.983039 -0.183394 0.000000
135.07800293 86.09380341 278.00000000 0.281879 0.954752 0.094826 0.000000
95.74220276 237.50000000 310.00000000 -0.785955 -0.485775 0.382487 0.000000
101.68000031 117.26599884 370.00000000 -0.000978 -0.000978 -0.999999 0.000000
187.03100586 108.35900116 386.00000000 -0.000978 -0.000978 -0.999999 0.000000
142.50000000 196.30900574 300.00000000 -0.800496 -0.578220 0.157696 0.000000
164.76600647 120.97699738 314.00000000 0.898023 -0.384032 -0.214649 0.000000
79.41410065 236.75799561 346.00000000 0.465301 -0.505042 -0.726930 0.000000
110.58599854 178.12500000 374.00000000 0.954736 0.280038 -0.100293 0.000000
138.41799927 173.67199707 272.00000000 -0.624329 0.104300 0.774168 0.000000
67.53910065 224.14100647 346.00000000 0.461214 -0.228339 -0.857405 0.000000
120.23400116 161.05499268 378.00000000 0.000978 0.000978 -0.999999 0.000000
112.06999969 187.77299500 370.00000000 -0.000978 -0.000978 -0.999999 0.000000
193.71099854 118.37899780 280.00000000 -0.489491 -0.840217 0.233309 0.000000
196.67999268 116.52300262 386.00000000 -0.703330 -0.152766 -0.694255 0.000000
196.30900574 102.42199707 264.00000000 -0.701101 -0.701101 0.130055 0.000000
77.18750000 148.43800354 366.00000000 0.565594 -0.112534 -0.816969 0.000000
227.85200500 130.62500000 370.00000000 -0.585689 -0.295238 -0.754853 0.000000
161.05499268 159.57000732 382.00000000 -0.000978 -0.000978 -0.999999 0.000000
68.28119659 153.63299561 210.00000000 0.000978 0.000978 0.999999 0.000000
55.29299927 162.53900146 228.00000000 0.979013 0.127161 0.159259 0.000000
69.76560211 153.63299561 210.00000000 0.000978 0.000978 0.999999 0.000000
181.83599854 119.49199677 274.00000000 -0.004101 -0.589223 0.807960 0.000000
136.56199646 92.77339935 262.00000000 0.215099 0.858893 0.464795 0.000000
125.05899811 173.67199707 260.00000000 -0.698891 -0.343744 0.627210 0.000000
116.52300262 207.81199646 294.00000000 -0.343064 -0.863045 0.370756 0.000000
151.03500366 185.54699707 316.00000000 -0.669331 -0.715705 -0.199408 0.000000
104.64800262 114.29699707 250.00000000 0.219306 -0.224754 0.949416 0.000000
114.66799927 208.55499268 292.00000000 -0.343064 -0.863045 0.370756 0.000000
199.64799500 84.60939789 278.00000000 -0.001139 0.983039 0.183394 0.000000
186.28900146 120.97699738 382.00000000 -0.000978 -0.000978 -0.999999 0.000000
54.55080032 187.03100586 232.00000000 0.838742 -0.280614 0.466657 0.000000
104.64800262 241.21099854 350.00000000 0.119214 -0.593128 -0.796233 0.000000
63.08589935 138.78900146 278.00000000 0.971959 0.193885 -0.133058 0.000000
180.35200500 123.20300293 382.00000000 -0.000978 -0.000978 -0.999999 0.000000
199.64799500 131.36700439 302.00000000 -0.683435 -0.586989 0.434006 0.000000
236.75799561 88.69139862 320.00000000 -0.668634 0.712274 -0.213526 0.000000
106.87500000 134.33599854 378.00000000 -0.000978 -0.000978 -0.999999 0.000000
156.60200500 154.37500000 386.00000000 -0.552365 -0.708288 -0.439570 0.000000
220.42999268 134.33599854 358.00000000 -0.667208 -0.101628 0.737906 0.000000
65.31250000 150.29299927 352.00000000 0.539473 0.188891 -0.820542 0.000000
124.68800354 187.77299500 370.00000000 0.000978 0.000978 -0.999999 0.000000
72.36329651 121.71900177 316.00000000 0.762011 0.644337 0.064577 0.000000
100.93800354 257.53900146 330.00000000 -0.424942 -0.654910 0.624914 0.000000
58.26169968 244.17999268 304.00000000 0.857066 -0.514240 0.031540 0.000000
96.48439789 106.87500000 358.00000000 0.452521 0.851352 -0.265376 0.000000
74.58979797 120.97699738 292.00000000 0.803946 0.585086 0.106512 0.000000
95.00000000 138.04699707 230.00000000 -0.701101 0.701101 0.130055 0.000000
202.61700439 120.97699738 382.00000000 -0.000978 -0.000978 -0.999999 0.000000
53.06639862 157.34399414 244.00000000 0.961249 0.274467 0.025847 0.000000
136.56199646 91.28910065 362.00000000 0.200791 0.795501 -0.571718 0.000000
77.92970276 118.00800323 286.00000000 0.736232 0.672338 0.076963 0.000000
104.64800262 95.37110138 316.00000000 0.708486 0.705724 0.001381 0.000000
178.12500000 116.52300262 270.00000000 -0.139417 -0.763048 0.631126 0.000000
125.80100250 218.94500732 360.00000000 -0.481664 -0.426150 -0.765765 0.000000
112.06999969 193.71099854 370.00000000 -0.000978 -0.000978 -0.999999 0.000000
224.88299561 145.46899414 366.00000000 -0.969412 0.221761 -0.105178 0.000000
51.58200073 165.50799561 252.00000000 -0.000978 -0.000978 -0.999999 0.000000
77.92970276 200.39100647 362.00000000 0.489491 -0.233309 -0.840217 0.000000
188.51600647 164.76600647 346.00000000 -0.931771 0.115621 -0.344143 0.000000
162.53900146 163.28100586 318.00000000 0.000978 0.000978 0.999999 0.000000
168.47700500 141.75799561 302.00000000 0.867916 -0.433203 0.243016 0.000000
125.43000031 181.83599854 370.00000000 -0.040447 -0.556497 -0.829864 0.000000
210.78100586 127.28500366 312.00000000 -0.770552 -0.611864 0.178524 0.000000
51.58200073 170.70300293 296.00000000 0.960519 0.262892 0.091051 0.000000
165.87899780 122.46099854 316.00000000 0.964052 -0.071831 -0.255820 0.000000
135.82000732 172.92999268 270.00000000 -0.538328 -0.268379 0.798859 0.000000
111.32800293 192.22700500 370.00000000 -0.000978 -0.000978 -0.999999 0.000000
116.52300262 213.00799561 362.00000000 -0.000978 -0.000978 -0.999999 0.000000
99.45310211 175.15600586 234.00000000 -0.252627 -0.572726 0.779849 0.000000
134.33599854 180.35200500 370.00000000 -0.679524 0.445781 -0.582688 0.000000
67.16799927 126.91400146 244.00000000 0.672779 0.736439 0.070895 0.000000
57.89059830 161.05499268 342.00000000 0.701729 0.319263 -0.636904 0.000000
74.21880341 155.11700439 210.00000000 0.000978 0.000978 0.999999 0.000000
214.49200439 84.60939789 362.00000000 -0.237200 0.711600 -0.661333 0.000000
47.12889862 201.13299561 324.00000000 0.975186 -0.211678 -0.064849 0.000000
97.96880341 175.89799500 370.00000000 0.242926 -0.095390 -0.965343 0.000000
130.62500000 213.75000000 310.00000000 -0.579542 -0.566025 0.586300 0.000000
226.36700439 120.23400116 378.00000000 -0.357714 -0.427050 -0.830463 0.000000
169.58999634 148.43800354 328.00000000 0.967945 0.249596 0.028003 0.000000
190.00000000 82.75389862 348.00000000 -0.001139 0.983039 -0.183394 0.000000
132.85200500 222.65600586 326.00000000 -0.757849 -0.630275 0.168580 0.000000
218.94500732 103.16400146 282.00000000 -0.660480 -0.569727 0.489058 0.000000
119.49199677 97.22660065 262.00000000 0.423805 0.849163 0.315137 0.000000
180.35200500 80.52729797 332.00000000 0.000978 0.999999 0.000978 0.000000
170.70300293 117.26599884 386.00000000 -0.000978 -0.000978 -0.999999 0.000000
204.84399414 135.82000732 318.00000000 -0.749632 -0.603826 0.271009 0.000000
156.60200500 134.33599854 278.00000000 -0.514097 -0.004027 0.857723 0.000000
102.42199707 121.71900177 262.00000000 -0.191119 -0.866703 0.460760 0.000000
156.60200500 118.75000000 386.00000000 -0.000978 -0.000978 -0.999999 0.000000
60.85940170 144.72700500 282.00000000 0.924692 0.380452 0.014186 0.000000
194.45300293 121.71900177 382.00000000 0.000978 0.000978 -0.999999 0.000000
121.71900177 232.30499268 354.00000000 0.009741 -0.691601 -0.722215 0.000000
53.43750000 226.73800659 288.00000000 0.521346 -0.521346 0.675571 0.000000
95.00000000 173.67199707 370.00000000 0.326788 -0.183730 -0.927067 0.000000
192.22700500 137.30499268 298.00000000 -0.396603 -0.729026 0.557877 0.000000
64.57029724 167.73399353 354.00000000 0.827824 -0.130864 -0.545511 0.000000
138.04699707 96.11329651 256.00000000 0.668888 -0.001379 0.743362 0.000000
195.93800354 83.12500000 350.00000000 0.001139 0.983039 -0.183394 0.000000
166.25000000 185.17599487 316.00000000 0.456353 0.456353 0.763861 0.000000
213.75000000 149.17999268 370.00000000 -0.000978 -0.000978 -0.999999 0.000000
164.02299500 148.43800354 334.00000000 -0.690967 0.635428 0.344667 0.000000
209.29699707 104.27700043 276.00000000 -0.670090 -0.593222 0.446170 0.000000
167.73399353 88.32029724 366.00000000 -0.000978 -0.000978 -0.999999 0.000000
164.02299500 114.29699707 386.00000000 -0.000978 -0.000978 -0.999999 0.000000
59.00389862 142.50000000 328.00000000 0.493067 -0.740425 -0.456788 0.000000
89.43360138 109.10199738 348.00000000 0.489288 0.865883 -0.104134 0.000000
95.74220276 187.77299500 242.00000000 -0.295403 -0.845996 0.443877 0.000000
74.21880341 252.34399414 334.00000000 0.535256 -0.419970 -0.732889 0.000000
69.76560211 186.28900146 222.00000000 -0.846881 -0.338440 0.410184 0.000000
120.23400116 119.49199677 254.00000000 -0.006844 0.817214 -0.576293 0.000000
181.09399414 101.68000031 258.00000000 -0.408613 -0.490010 0.770016 0.000000
167.73399353 168.47700500 318.00000000 0.891705 -0.445159 0.081821 0.000000
149.92199707 126.91400146 386.00000000 -0.000978 -0.000978 -0.999999 0.000000
97.22660065 135.07800293 238.00000000 -0.937612 -0.001255 0.347682 0.000000
87.57810211 239.72700500 346.00000000 -0.000978 -0.000978 -0.999999 0.000000
210.78100586 82.01170349 340.00000000 -0.073858 0.995424 -0.060629 0.000000
138.04699707 103.16400146 378.00000000 0.344182 0.660634 -0.667159 0.000000
80.89839935 141.75799561 370.00000000 0.701803 0.241294 -0.670261 0.000000
97.96880341 172.18800354 370.00000000 0.737539 -0.324388 -0.592291 0.000000
76.44529724 262.73400879 322.00000000 0.708393 -0.471707 0.525045 0.000000
146.95300293 177.75399780 360.00000000 -0.423805 -0.849163 -0.315137 0.000000
138.04699707 150.66400146 386.00000000 0.635942 -0.272546 -0.722009 0.000000
166.25000000 141.38699341 324.00000000 0.980013 -0.146694 -0.134367 0.000000
192.59800720 158.08599854 328.00000000 -0.445159 -0.891705 0.081821 0.000000
153.63299561 118.75000000 386.00000000 -0.000978 -0.000978 -0.999999 0.000000
69.76560211 125.43000031 334.00000000 0.818038 0.573049 -0.049279 0.000000
52.32419968 178.86700439 340.00000000 0.960641 0.053997 -0.272495 0.000000
195.19500732 122.46099854 382.00000000 -0.000978 -0.000978 -0.999999 0.000000
134.33599854 126.17199707 258.00000000 0.560008 -0.001356 -0.828486 0.000000
79.41410065 156.60200500 210.00000000 -0.000978 -0.000978 0.999999 0.000000
145.46899414 191.85499573 288.00000000 -0.615043 -0.739005 0.274942 0.000000
80.89839935 156.60200500 210.00000000 0.001139 -0.983039 0.183394 0.000000
120.23400116 215.23399353 362.00000000 -0.000978 -0.000978 -0.999999 0.000000
114.29699707 191.48399353 262.00000000 -0.415215 -0.703054 0.577331 0.000000
238.24200439 112.81199646 362.00000000 -0.662838 -0.558798 0.498387 0.000000
90.54689789 201.87500000 262.00000000 -0.393931 -0.827412 0.400259 0.000000
113.55500031 143.98399353 378.00000000 -0.000978 -0.000978 -0.999999 0.000000
169.96099854 184.80499268 314.00000000 0.231234 -0.065537 0.970688 0.000000
88.32029724 223.77000427 292.00000000 -0.707356 -0.451044 0.544248 0.000000
113.55500031 118.00800323 250.00000000 0.280614 -0.838742 0.466657 0.000000
156.60200500 91.28910065 370.00000000 0.193701 0.943778 -0.267885 0.000000
65.31250000 210.41000366 248.00000000 -0.302554 -0.760387 0.574693 0.000000
207.81199646 146.21099854 342.00000000 -0.893205 -0.421432 0.156778 0.000000
214.49200439 83.49610138 352.00000000 0.001139 0.983039 -0.183394 0.000000
187.77299500 104.64800262 386.00000000 -0.986891 -0.152636 -0.052432 0.000000
137.67599487 163.28100586 284.00000000 0.555464 -0.831128 -0.026188 0.000000
125.43000031 223.02699280 316.00000000 -0.469149 -0.752285 0.462565 0.000000
123.94499969 172.18800354 258.00000000 -0.704652 -0.351509 0.616366 0.000000
120.23400116 240.46899414 338.00000000 -0.723155 -0.623741 0.296638 0.000000
48.24219894 182.57800293 302.00000000 0.999999 0.000978 0.000978 0.000000
113.55500031 222.65600586 362.00000000 -0.000978 -0.000978 -0.999999 0.000000
194.45300293 105.39099884 386.00000000 -0.000978 -0.000978 -0.999999 0.000000
243.06599426 91.28910065 348.00000000 -0.000978 -0.000978 -0.999999 0.000000
93.51560211 168.47700500 370.00000000 0.319496 0.122675 -0.939613 0.000000
109.84400177 142.87100220 248.00000000 -0.795185 0.605789 0.026460 0.000000
59.00389862 141.75799561 268.00000000 0.900507 0.352244 -0.254972 0.000000
92.03119659 215.23399353 286.00000000 -0.585848 -0.394416 0.707968 0.000000
108.35900116 140.64500427 252.00000000 -0.701101 0.701101 0.130055 0.000000
225.62500000 102.79299927 292.00000000 -0.369677 -0.923510 -0.102309 0.000000
193.71099854 114.29699707 274.00000000 0.000978 0.000978 0.999999 0.000000
120.23400116 190.74200439 370.00000000 -0.000978 -0.000978 -0.999999 0.000000
179.60899353 80.52729797 328.00000000 0.000978 0.999999 0.000978 0.000000
81.64060211 211.52299500 266.00000000 -0.594486 -0.634904 0.493440 0.000000
80.89839935 239.35499573 300.00000000 -0.557562 -0.638417 0.530611 0.000000
99.45310211 109.10199738 254.00000000 0.336427 0.536030 0.774266 0.000000
149.17999268 109.10199738 254.00000000 0.224780 -0.161684 -0.960902 0.000000
169.96099854 142.50000000 382.00000000 -0.000978 -0.000978 -0.999999 0.000000
85.35160065 112.06999969 270.00000000 0.616993 0.770864 0.158397 0.000000
66.79689789 140.27299500 350.00000000 0.629254 0.185255 -0.754798 0.000000
124.68800354 190.74200439 370.00000000 -0.393329 -0.580942 -0.712600 0.000000
211.89500427 131.36700439 332.00000000 -0.906640 -0.402173 0.127518 0.000000
86.83589935 130.62500000 230.00000000 -0.500340 0.756251 0.421598 0.000000
176.64100647 135.82000732 382.00000000 -0.000978 -0.000978 -0.999999 0.000000
218.94500732 114.29699707 306.00000000 -0.529547 -0.795111 0.295598 0.000000
55.66410065 192.96899414 342.00000000 0.423805 0.849163 0.315137 0.000000
207.81199646 110.21499634 284.00000000 -0.724938 -0.584205 0.364924 0.000000
204.10200500 81.64060211 342.00000000 -0.001139 0.983039 -0.183394 0.000000
97.96880341 169.96099854 374.00000000 0.567426 -0.389797 -0.725318 0.000000
87.20700073 202.61700439 260.00000000 -0.502630 -0.721597 0.476088 0.000000
111.32800293 158.82800293 378.00000000 -0.000978 -0.000978 -0.999999 0.000000
229.33599854 84.23829651 344.00000000 -0.001139 0.983039 -0.183394 0.000000
135.07800293 142.50000000 274.00000000 0.243008 -0.842123 0.481431 0.000000
124.68800354 157.34399414 298.00000000 -0.667308 -0.502582 0.549647 0.000000
118.75000000 168.47700500 378.00000000 -0.000978 -0.000978 -0.999999 0.000000
161.05499268 115.78099823 386.00000000 -0.000978 -0.000978 -0.999999 0.000000
118.00800323 243.43800354 350.00000000 -0.950603 0.298612 -0.084759 0.000000
239.35499573 109.10199738 372.00000000 -0.491759 -0.039724 -0.869825 0.000000
220.42999268 129.14100647 354.00000000 -0.656450 -0.262262 0.707313 0.000000
132.10899353 198.90600586 286.00000000 -0.322392 -0.717687 0.617243 0.000000
97.96880341 225.62500000 302.00000000 -0.713331 -0.428660 0.554445 0.000000
152.14799500 143.24200439 282.00000000 -0.279169 -0.540989 0.793345 0.000000
206.32800293 149.92199707 370.00000000 -0.129421 -0.504598 -0.853599 0.000000
152.14799500 150.66400146 314.00000000 -0.309940 -0.868749 -0.386280 0.000000
59.37500000 169.21899414 346.00000000 -0.000978 -0.000978 -0.999999 0.000000
71.25000000 219.68800354 266.00000000 -0.738924 -0.534856 0.409782 0.000000
107.98799896 176.64100647 240.00000000 -0.597823 -0.274333 0.753226 0.000000
141.01600647 86.83589935 350.00000000 0.111099 0.985555 -0.127823 0.000000
70.13670349 125.43000031 240.00000000 0.492737 0.845337 0.206437 0.000000
138.78900146 171.44500732 374.00000000 -0.352553 -0.176984 -0.918903 0.000000
174.41400146 180.35200500 314.00000000 -0.127097 0.222098 0.966705 0.000000
138.04699707 151.40600586 382.00000000 0.260732 -0.837737 -0.479809 0.000000
86.09380341 224.88299561 354.00000000 -0.470901 -0.374471 -0.798764 0.000000
95.74220276 238.24200439 310.00000000 -0.776874 -0.543011 0.318758 0.000000
88.32029724 202.61700439 262.00000000 -0.511660 -0.760134 0.400501 0.000000
95.00000000 218.94500732 294.00000000 -0.355082 -0.792106 0.496472 0.000000
152.14799500 100.56600189 380.00000000 0.323185 0.514230 -0.794430 0.000000
76.44529724 119.12100220 252.00000000 0.558160 0.828101 0.052020 0.000000
188.51600647 120.23400116 382.00000000 0.110449 -0.631766 -0.767250 0.000000
143.98399353 101.68000031 378.00000000 0.983039 -0.001139 -0.183394 0.000000
55.29299927 158.08599854 296.00000000 0.853825 0.511725 0.095503 0.000000
65.31250000 219.68800354 346.00000000 -0.000978 -0.000978 -0.999999 0.000000
71.99220276 156.60200500 358.00000000 0.261145 -0.028199 -0.964888 0.000000
95.74220276 203.72999573 268.00000000 -0.463227 -0.683970 0.563565 0.000000
183.32000732 82.01170349 348.00000000 -0.148446 0.966836 -0.207825 0.000000
166.25000000 148.43800354 338.00000000 -0.138400 0.947304 0.288894 0.000000
199.64799500 130.99600220 300.00000000 -0.565419 -0.685508 0.458673 0.000000
162.53900146 128.02699280 304.00000000 0.478319 -0.793978 0.375247 0.000000
165.50799561 146.58200073 340.00000000 -0.074823 0.941192 0.329483 0.000000
93.88670349 103.90599823 292.00000000 0.537872 0.842893 -0.014979 0.000000
235.64500427 96.48439789 300.00000000 -0.810194 0.186269 0.555778 0.000000
53.43750000 175.15600586 342.00000000 0.767250 -0.110449 -0.631766 0.000000
114.29699707 139.53100586 378.00000000 -0.000978 -0.000978 -0.999999 0.000000
106.13300323 178.86700439 238.00000000 -0.479150 -0.426820 0.766968 0.000000
162.53900146 81.64060211 326.00000000 0.001139 0.983039 -0.183394 0.000000
88.32029724 254.57000732 338.00000000 0.000978 0.000978 -0.999999 0.000000
69.76560211 214.49200439 258.00000000 -0.535899 -0.579853 0.613664 0.000000
143.98399353 213.00799561 350.00000000 -0.691818 -0.461767 -0.555121 0.000000
210.03900146 154.00399780 356.00000000 -0.804794 -0.438540 0.399987 0.000000
144.72700500 90.91799927 264.00000000 0.120865 0.885870 0.447912 0.000000
117.26599884 127.65599823 270.00000000 0.316298 -0.888934 0.331289 0.000000
200.39100647 84.60939789 362.00000000 0.191035 0.949754 -0.247939 0.000000
73.47660065 174.41400146 358.00000000 0.617078 -0.168294 -0.768695 0.000000
65.31250000 160.31199646 210.00000000 0.543559 -0.814577 0.202502 0.000000
51.21089935 207.81199646 274.00000000 0.939508 -0.311357 0.142762 0.000000
109.84400177 95.74220276 282.00000000 0.436254 0.810186 0.391510 0.000000
103.16400146 209.29699707 286.00000000 -0.001329 -0.873026 0.487672 0.000000
212.26600647 149.17999268 354.00000000 -0.827388 -0.403411 0.390755 0.000000
87.20700073 257.53900146 320.00000000 -0.925382 -0.320705 0.202030 0.000000
71.99220276 234.53100586 342.00000000 0.284225 -0.763755 -0.579564 0.000000
55.66410065 198.90600586 238.00000000 0.937612 0.001255 0.347682 0.000000
157.34399414 145.46899414 382.00000000 -0.503553 0.374022 -0.778808 0.000000
130.62500000 85.72270203 328.00000000 0.203186 0.963493 -0.174346 0.000000
85.35160065 191.48399353 366.00000000 0.128244 -0.273675 -0.953234 0.000000
113.55500031 166.25000000 378.00000000 0.306346 -0.306346 -0.901279 0.000000
87.57810211 161.79699707 366.00000000 0.369677 -0.923510 -0.102309 0.000000
190.00000000 109.10199738 266.00000000 -0.643608 -0.495730 0.583113 0.000000
77.18750000 259.02301025 310.00000000 -0.269588 -0.903047 0.334407 0.000000
85.35160065 194.82400513 248.00000000 -0.640782 -0.644110 0.417756 0.000000
126.17199707 92.03119659 270.00000000 0.231704 0.925393 0.299935 0.000000
76.07420349 235.27299500 344.00000000 0.486439 -0.607628 -0.627826 0.000000
103.90599823 231.93400574 312.00000000 -0.420985 -0.536550 0.731359 0.000000
178.12500000 82.38279724 294.00000000 0.270989 0.946418 0.175666 0.000000
159.57000732 145.46899414 290.00000000 -0.517732 -0.688634 0.507679 0.000000
128.39799500 198.16400146 282.00000000 -0.425972 -0.701113 0.571830 0.000000
183.32000732 145.83999634 304.00000000 -0.336659 -0.694461 0.635912 0.000000
109.84400177 225.62500000 358.00000000 0.327735 -0.586049 -0.741037 0.000000
178.12500000 190.74200439 350.00000000 -0.046084 -0.836498 -0.546028 0.000000
220.42999268 119.86299896 336.00000000 -0.640066 -0.766074 -0.058708 0.000000
84.23829651 201.87500000 256.00000000 -0.444904 -0.726070 0.524292 0.000000
163.28100586 123.20300293 326.00000000 -0.584339 -0.788782 -0.190711 0.000000
107.61699677 198.53500366 268.00000000 -0.522217 -0.782522 0.339040 0.000000
178.86700439 126.17199707 282.00000000 0.471671 -0.484911 0.736469 0.000000
120.97699738 195.19500732 270.00000000 -0.141374 -0.989614 0.026013 0.000000
166.25000000 137.30499268 302.00000000 0.739451 -0.559893 -0.373806 0.000000
163.28100586 82.38279724 334.00000000 0.063217 0.997999 -0.001036 0.000000
100.56600189 175.15600586 372.00000000 0.633910 -0.296894 -0.714151 0.000000
57.14839935 240.46899414 326.00000000 0.697487 -0.612148 -0.372540 0.000000
144.72700500 111.32800293 382.00000000 -0.000978 -0.000978 -0.999999 0.000000
213.00799561 140.27299500 374.00000000 -0.289119 -0.208110 -0.934399 0.000000
176.64100647 192.22700500 338.00000000 -0.212896 -0.725713 0.654229 0.000000
145.46899414 169.21899414 310.00000000 -0.386943 0.778742 0.493797 0.000000
161.05499268 151.40600586 326.00000000 0.000978 0.000978 0.999999 0.000000
216.71899414 148.06599426 360.00000000 -0.480374 -0.160125 0.862323 0.000000
135.07800293 83.49610138 316.00000000 0.215897 0.974585 -0.059768 0.000000
71.25000000 188.51600647 358.00000000 -0.000978 -0.000978 -0.999999 0.000000
131.73800659 204.84399414 296.00000000 -0.225409 -0.891324 0.393361 0.000000
101.68000031 142.50000000 238.00000000 -0.547386 0.199743 0.812694 0.000000
140.27299500 85.35160065 338.00000000 0.125435 0.977403 -0.170145 0.000000
184.06199646 85.72270203 272.00000000 0.001139 0.983039 0.183394 0.000000
66.05470276 163.28100586 358.00000000 0.675065 -0.290230 -0.678272 0.000000
150.66400146 87.57810211 270.00000000 -0.371548 0.826891 0.422141 0.000000
192.22700500 158.82800293 370.00000000 -0.560672 -0.674480 -0.480337 0.000000
103.53500366 152.89100647 232.00000000 -0.507599 -0.585172 0.632390 0.000000
134.33599854 143.24200439 386.00000000 0.025826 -0.504294 -0.863145 0.000000
224.88299561 122.46099854 354.00000000 -0.686977 -0.486400 0.539887 0.000000
70.50779724 155.85899353 358.00000000 0.261145 -0.028199 -0.964888 0.000000
179.23800659 125.43000031 280.00000000 -0.216977 -0.804814 0.552444 0.000000
53.43750000 202.61700439 250.00000000 0.849163 -0.423805 0.315137 0.000000
66.79689789 130.99600220 340.00000000 0.521346 -0.521346 -0.675571 0.000000
126.91400146 187.03100586 370.00000000 -0.000978 -0.000978 -0.999999 0.000000
161.79699707 131.36700439 330.00000000 -0.309436 0.411042 0.857493 0.000000
63.08589935 137.30499268 226.00000000 0.781930 0.504627 0.365975 0.000000
127.65599823 180.72300720 372.00000000 -0.104669 -0.709095 -0.697301 0.000000
208.55499268 106.87500000 278.00000000 -0.665209 -0.648784 0.369561 0.000000
177.38299561 105.39099884 386.00000000 -0.126764 0.289556 -0.948730 0.000000
75.70310211 192.96899414 362.00000000 0.000978 0.000978 -0.999999 0.000000
147.32400513 156.60200500 300.00000000 0.051158 -0.981518 0.184406 0.000000
135.07800293 166.99200439 298.00000000 -0.001329 -0.873026 0.487672 0.000000
106.13300323 175.89799500 238.00000000 -0.749701 -0.320840 0.578801 0.000000
226.36700439 120.60500336 376.00000000 -0.117248 -0.719814 -0.684194 0.000000
75.70310211 201.87500000 358.00000000 0.776039 -0.339015 -0.531820 0.000000
135.07800293 143.24200439 274.00000000 0.243008 -0.842123 0.481431 0.000000
185.54699707 134.33599854 290.00000000 -0.863917 -0.305363 0.400501 0.000000
70.50779724 259.02301025 322.00000000 0.640081 -0.739270 -0.209227 0.000000
75.70310211 192.59800720 232.00000000 -0.480984 -0.661982 0.574835 0.000000
90.54689789 260.50799561 330.00000000 -0.101642 -0.972499 0.209558 0.000000
56.03519821 158.82800293 284.00000000 0.955982 0.293299 0.008590 0.000000
175.15600586 173.67199707 374.00000000 -0.732842 0.001380 -0.680398 0.000000
121.34799957 228.59399414 320.00000000 -0.275692 -0.734648 0.619909 0.000000
200.39100647 88.32029724 270.00000000 -0.405447 0.806087 0.431088 0.000000
67.16799927 204.10200500 240.00000000 -0.376423 -0.802502 0.462921 0.000000
133.59399414 153.26199341 296.00000000 -0.001329 -0.873026 0.487672 0.000000
77.92970276 127.65599823 366.00000000 0.937612 -0.001255 -0.347682 0.000000
224.14100647 109.84400177 310.00000000 -0.535992 -0.806318 0.250129 0.000000
127.65599823 152.89100647 286.00000000 0.630513 -0.637203 0.443199 0.000000
115.03900146 158.82800293 246.00000000 -0.787124 -0.032271 0.615949 0.000000
152.14799500 89.43360138 364.00000000 -0.001329 0.873026 -0.487672 0.000000
198.90600586 139.53100586 310.00000000 -0.760614 -0.489083 0.426925 0.000000
128.39799500 183.32000732 370.00000000 0.322054 -0.221859 -0.920358 0.000000
107.61699677 103.53500366 260.00000000 0.345416 0.874953 0.339330 0.000000
89.80470276 116.52300262 254.00000000 -0.512143 0.785072 0.348386 0.000000
55.66410065 201.87500000 342.00000000 0.000000 0.000000 0.000000 0.000000
129.14100647 86.46479797 332.00000000 0.001139 0.983039 -0.183394 0.000000
147.69500732 88.32029724 362.00000000 0.061947 0.885152 -0.461160 0.000000
69.76560211 163.28100586 210.00000000 0.000978 0.000978 0.999999 0.000000
109.10199738 187.77299500 370.00000000 -0.000978 -0.000978 -0.999999 0.000000
128.39799500 91.28910065 358.00000000 0.441498 0.674742 -0.591441 0.000000
97.96880341 128.39799500 254.00000000 -0.676057 0.633290 0.376684 0.000000
64.57029724 223.39799500 262.00000000 -0.461767 -0.691818 0.555121 0.000000
69.02339935 126.17199707 334.00000000 0.818038 0.573049 -0.049279 0.000000
82.01170349 209.29699707 264.00000000 -0.790667 -0.399376 0.464052 0.000000
203.35899353 95.00000000 382.00000000 -0.000978 -0.000978 -0.999999 0.000000
143.24200439 139.53100586 274.00000000 -0.000978 -0.000978 0.999999 0.000000
209.29699707 133.96499634 376.00000000 -0.721192 -0.689396 0.067928 0.000000
133.59399414 195.19500732 278.00000000 -0.225670 -0.892355 0.390866 0.000000
73.84770203 235.27299500 288.00000000 -0.673398 -0.417340 0.610215 0.000000
208.55499268 116.52300262 382.00000000 0.617217 -0.623944 -0.479310 0.000000
144.72700500 145.09800720 280.00000000 0.009526 -0.839678 0.543001 0.000000
236.75799561 90.91799927 312.00000000 -0.758922 0.605573 0.239413 0.000000
197.42199707 138.04699707 306.00000000 -0.550439 -0.687630 0.473478 0.000000
112.06999969 172.92999268 374.00000000 0.000978 0.000978 -0.999999 0.000000
238.98399353 87.57810211 350.00000000 -0.701101 0.701101 -0.130055 0.000000
113.55500031 160.31199646 246.00000000 -0.861479 -0.004019 0.507777 0.000000
115.03900146 151.40600586 250.00000000 -0.873026 0.001329 0.487672 0.000000
228.22300720 94.25779724 288.00000000 -0.745076 0.373353 0.552693 0.000000
87.57810211 235.27299500 302.00000000 -0.488782 -0.639951 0.592921 0.000000
115.41000366 195.93800354 268.00000000 -0.209021 -0.879072 0.428418 0.000000
112.06999969 120.23400116 258.00000000 0.301575 -0.937775 0.172132 0.000000
165.13699341 139.53100586 312.00000000 -0.946821 0.316468 -0.058127 0.000000
87.20700073 229.33599854 296.00000000 -0.773767 -0.553602 0.307911 0.000000
169.21899414 148.80900574 336.00000000 0.212422 0.854207 0.474560 0.000000
198.90600586 84.60939789 278.00000000 -0.001139 0.983039 0.183394 0.000000
168.47700500 125.80100250 384.00000000 0.160623 -0.577943 -0.800114 0.000000
52.69530106 159.57000732 262.00000000 0.950877 0.134696 -0.278728 0.000000
175.15600586 171.44500732 318.00000000 0.064607 0.206010 0.976415 0.000000
158.82800293 141.75799561 286.00000000 -0.539354 -0.660331 0.522552 0.000000
89.80470276 126.17199707 370.00000000 0.110292 0.414642 -0.903276 0.000000
99.45310211 199.64799500 266.00000000 -0.489612 -0.758162 0.430662 0.000000
68.65229797 127.65599823 344.00000000 0.841233 0.535844 -0.072106 0.000000
55.66410065 152.89100647 270.00000000 0.905867 0.259028 -0.335127 0.000000
195.93800354 84.98049927 360.00000000 0.191035 0.949754 -0.247939 0.000000
138.78900146 84.23829651 332.00000000 0.147534 0.974734 -0.167710 0.000000
133.59399414 220.42999268 322.00000000 -0.891705 -0.445159 0.081821 0.000000
81.64060211 192.22700500 238.00000000 -0.590189 -0.738949 0.325008 0.000000
108.35900116 226.36700439 358.00000000 -0.000978 -0.000978 -0.999999 0.000000
92.03119659 203.35899353 366.00000000 0.000978 0.000978 -0.999999 0.000000
95.74220276 200.39100647 262.00000000 -0.311458 -0.934373 0.173032 0.000000
61.60160065 213.00799561 250.00000000 -0.286478 -0.702592 0.651378 0.000000
117.26599884 127.65599823 378.00000000 -0.000978 -0.000978 -0.999999 0.000000
117.26599884 141.75799561 382.00000000 -0.000978 -0.000978 -0.999999 0.000000
92.77339935 178.86700439 370.00000000 0.336115 0.109339 -0.935453 0.000000
97.22660065 213.75000000 362.00000000 -0.000978 -0.000978 -0.999999 0.000000
131.36700439 163.28100586 378.00000000 -0.000978 -0.000978 -0.999999 0.000000
84.23829651 111.32800293 284.00000000 0.701101 0.701101 -0.130055 0.000000
54.92190170 164.02299500 230.00000000 0.983039 0.001139 0.183394 0.000000
66.05470276 211.52299500 250.00000000 -0.286478 -0.702592 0.651378 0.000000
166.99200439 114.29699707 386.00000000 -0.000978 -0.000978 -0.999999 0.000000
112.06999969 127.65599823 270.00000000 0.162081 -0.983294 0.082842 0.000000
227.10899353 84.98049927 356.00000000 -0.279047 0.947681 -0.155026 0.000000
142.87100220 197.42199707 304.00000000 -0.685344 -0.682178 0.254828 0.000000
108.73000336 210.78100586 292.00000000 -0.431909 -0.716539 0.547747 0.000000
178.86700439 158.82800293 314.00000000 0.000978 0.000978 0.999999 0.000000
160.31199646 105.01999664 384.00000000 0.569736 0.382560 -0.727357 0.000000
76.44529724 213.00799561 262.00000000 -0.826211 -0.413898 0.382182 0.000000
66.42579651 198.16400146 232.00000000 0.732842 -0.001380 0.680398 0.000000
191.48399353 129.14100647 286.00000000 -0.979613 0.116767 -0.163474 0.000000
89.80470276 185.54699707 366.00000000 0.554098 -0.057807 -0.830442 0.000000
69.76560211 182.57800293 358.00000000 0.657856 0.255217 -0.708583 0.000000
129.14100647 164.02299500 266.00000000 -0.830442 0.057807 0.554098 0.000000
121.71900177 233.78900146 354.00000000 -0.000978 -0.000978 -0.999999 0.000000
50.83980179 197.42199707 268.00000000 0.995717 0.001063 0.092452 0.000000
214.49200439 122.46099854 378.00000000 -0.225621 -0.608398 -0.760886 0.000000
178.12500000 164.76600647 374.00000000 -0.625719 -0.155299 -0.764433 0.000000
171.44500732 166.99200439 314.00000000 0.000978 0.000978 0.999999 0.000000
105.01999664 236.01600647 316.00000000 -0.541671 -0.572045 0.615919 0.000000
50.83980179 186.28900146 252.00000000 0.968533 -0.194221 0.155634 0.000000
214.49200439 131.36700439 342.00000000 -0.910403 -0.353485 0.214976 0.000000
150.66400146 137.30499268 274.00000000 -0.439044 -0.117172 0.890793 0.000000
81.64060211 196.67999268 362.00000000 0.045365 -0.346070 -0.937111 0.000000
101.68000031 135.44900513 248.00000000 -0.658057 0.658057 0.365952 0.000000
68.28119659 207.81199646 350.00000000 -0.000978 -0.000978 -0.999999 0.000000
75.33200073 120.97699738 272.00000000 0.000978 0.000978 0.999999 0.000000
73.47660065 141.01600647 362.00000000 0.674394 0.107726 -0.730471 0.000000
162.53900146 106.13300323 386.00000000 0.076687 0.652561 -0.753846 0.000000
115.03900146 198.16400146 274.00000000 -0.369849 -0.858854 0.354374 0.000000
150.66400146 180.35200500 342.00000000 -0.144411 -0.862089 -0.485745 0.000000
61.97269821 250.11700439 308.00000000 0.778511 -0.556533 0.290158 0.000000
157.34399414 120.97699738 386.00000000 -0.000978 -0.000978 -0.999999 0.000000
86.83589935 137.30499268 374.00000000 0.646751 0.188956 -0.738924 0.000000
61.23049927 195.19500732 348.00000000 0.480829 -0.250400 -0.840299 0.000000
177.38299561 185.54699707 318.00000000 -0.320241 -0.748302 0.580939 0.000000
47.87110138 209.29699707 324.00000000 0.949754 -0.191035 -0.247939 0.000000
215.23399353 142.50000000 370.00000000 -0.086066 -0.175768 -0.980662 0.000000
132.10899353 142.50000000 278.00000000 0.606512 -0.698557 0.379686 0.000000
181.09399414 147.69500732 306.00000000 -0.212942 -0.657477 0.722758 0.000000
164.39500427 137.30499268 312.00000000 0.306812 0.389239 0.868538 0.000000
108.35900116 112.06999969 250.00000000 0.000978 0.000978 0.999999 0.000000
191.11300659 152.89100647 316.00000000 -0.276143 -0.876717 0.393844 0.000000
106.50399780 103.90599823 260.00000000 0.345416 0.874953 0.339330 0.000000
166.99200439 168.47700500 374.00000000 -0.232476 -0.280380 -0.931312 0.000000
97.96880341 173.67199707 230.00000000 -0.850591 -0.334327 0.405858 0.000000
139.53100586 221.91400146 350.00000000 -0.836761 -0.502664 -0.217163 0.000000
78.30079651 223.39799500 352.00000000 0.432146 -0.551358 -0.713620 0.000000
124.31600189 150.66400146 292.00000000 -0.510519 0.564435 0.648679 0.000000
130.62500000 178.49600220 264.00000000 -0.520916 -0.042834 0.852533 0.000000
197.42199707 157.34399414 334.00000000 -0.443174 -0.869933 0.216364 0.000000
132.85200500 158.82800293 286.00000000 0.555230 -0.714341 0.425953 0.000000
203.35899353 109.84400177 386.00000000 -0.000978 -0.000978 -0.999999 0.000000
139.53100586 152.52000427 292.00000000 0.238464 -0.787087 0.568884 0.000000
100.93800354 170.70300293 374.00000000 0.256178 -0.239380 -0.936520 0.000000
97.96880341 130.62500000 250.00000000 -0.654127 0.663964 0.362311 0.000000
90.54689789 245.66400146 314.00000000 -0.000978 -0.000978 0.999999 0.000000
146.21099854 174.41400146 282.00000000 -0.871894 0.065357 0.485313 0.000000
201.13299561 109.84400177 386.00000000 -0.000978 -0.000978 -0.999999 0.000000
69.02339935 167.73399353 210.00000000 0.956342 -0.100188 0.274542 0.000000
175.15600586 185.91799927 356.00000000 0.593662 -0.597045 -0.539539 0.000000
225.62500000 104.64800262 378.00000000 -0.139558 0.841756 -0.521507 0.000000
167.73399353 125.43000031 386.00000000 0.701101 -0.701101 0.130055 0.000000
94.25779724 257.53900146 326.00000000 -0.403656 -0.837154 0.369102 0.000000
192.22700500 139.53100586 378.00000000 -0.000978 -0.000978 -0.999999 0.000000
237.50000000 103.16400146 370.00000000 -0.139558 0.841756 -0.521507 0.000000
50.83980179 178.12500000 244.00000000 0.989082 -0.101835 0.106517 0.000000
121.71900177 208.18400574 296.00000000 -0.272416 -0.692989 0.667500 0.000000
153.63299561 149.92199707 318.00000000 -0.497755 -0.857647 0.129155 0.000000
193.33999634 163.28100586 364.00000000 -0.052380 -0.797029 -0.601665 0.000000
126.17199707 112.81199646 382.00000000 0.787854 0.451358 -0.419002 0.000000
168.47700500 146.95300293 342.00000000 -0.074823 0.941192 0.329483 0.000000
60.11719894 139.53100586 334.00000000 0.788922 0.545447 -0.283000 0.000000
60.85940170 135.44900513 248.00000000 0.848828 0.528668 -0.001345 0.000000
55.29299927 212.26600647 340.00000000 0.934373 -0.311458 -0.173032 0.000000
145.46899414 106.13300323 254.00000000 0.530022 -0.402029 -0.746625 0.000000
66.05470276 229.33599854 270.00000000 -0.587850 -0.638381 0.496893 0.000000
79.78520203 143.24200439 368.00000000 0.592485 0.144763 -0.792468 0.000000
58.63280106 198.90600586 346.00000000 0.503533 -0.183782 -0.844203 0.000000
135.82000732 166.99200439 298.00000000 -0.001329 -0.873026 0.487672 0.000000
205.58599854 80.52729797 316.00000000 -0.124292 0.990918 -0.051313 0.000000
60.11719894 200.39100647 346.00000000 0.861235 -0.037087 -0.506851 0.000000
142.12899780 175.15600586 372.00000000 -0.658440 -0.438405 -0.611766 0.000000
203.35899353 112.81199646 386.00000000 -0.000978 -0.000978 -0.999999 0.000000
84.60939789 112.81199646 270.00000000 0.598153 0.782899 0.171117 0.000000
106.87500000 99.45310211 274.00000000 0.346216 0.923710 0.163997 0.000000
124.68800354 161.79699707 294.00000000 0.693381 -0.699504 0.172963 0.000000
231.56199646 103.16400146 302.00000000 -0.658057 -0.658057 0.365952 0.000000
110.21499634 132.85200500 272.00000000 -0.879492 0.091175 0.467099 0.000000
215.23399353 157.34399414 362.00000000 -0.675388 -0.448591 0.585336 0.000000
224.14100647 98.71089935 286.00000000 -0.744469 -0.470451 0.473753 0.000000
135.82000732 187.03100586 370.00000000 -0.000978 -0.000978 -0.999999 0.000000
137.30499268 212.26600647 314.00000000 -0.657101 -0.698669 0.282985 0.000000
211.52299500 95.74220276 382.00000000 -0.765758 0.578678 -0.280619 0.000000
201.50399780 148.43800354 324.00000000 -0.566724 -0.509547 0.647445 0.000000
196.67999268 101.68000031 262.00000000 -0.701101 -0.701101 0.130055 0.000000
100.19499969 104.64800262 354.00000000 0.617035 0.613672 -0.492619 0.000000
179.60899353 183.32000732 366.00000000 -0.279542 -0.672497 -0.685276 0.000000
131.36700439 132.10899353 382.00000000 -0.000978 -0.000978 -0.999999 0.000000
176.64100647 138.04699707 290.00000000 -0.078672 -0.437527 0.895757 0.000000
105.39099884 97.59770203 348.00000000 0.432644 0.878577 -0.202294 0.000000
86.09380341 244.17999268 342.00000000 0.402635 0.009063 -0.915316 0.000000
204.84399414 112.06999969 282.00000000 -0.573606 -0.739351 0.352613 0.000000
120.23400116 210.78100586 298.00000000 -0.314596 -0.831098 0.458591 0.000000
112.06999969 139.53100586 270.00000000 0.605910 0.154860 0.780315 0.000000
84.23829651 115.78099823 360.00000000 0.578676 0.701375 -0.416182 0.000000
123.94499969 137.30499268 382.00000000 0.080782 0.275686 -0.957847 0.000000
84.23829651 139.53100586 372.00000000 0.601122 -0.055423 -0.797233 0.000000
237.50000000 92.03119659 366.00000000 -0.448242 0.698191 -0.558219 0.000000
51.58200073 173.67199707 272.00000000 0.992079 0.110231 0.060229 0.000000
125.43000031 223.39799500 358.00000000 0.035628 -0.155155 -0.987247 0.000000
208.55499268 141.01600647 374.00000000 -0.000978 -0.000978 -0.999999 0.000000
123.20300293 146.58200073 284.00000000 -0.608282 -0.303339 0.733470 0.000000
158.08599854 100.19499969 382.00000000 -0.000978 -0.000978 -0.999999 0.000000
102.42199707 243.43800354 322.00000000 -0.440272 -0.841652 0.312702 0.000000
151.40600586 86.46479797 352.00000000 -0.001139 0.983039 -0.183394 0.000000
146.95300293 132.10899353 386.00000000 -0.000978 -0.000978 -0.999999 0.000000
89.80470276 259.76599121 326.00000000 -0.375783 -0.874799 0.305799 0.000000
70.50779724 195.93800354 358.00000000 -0.000978 -0.000978 -0.999999 0.000000
86.83589935 256.79699707 318.00000000 -0.728867 -0.574904 0.371804 0.000000
160.31199646 151.77699280 308.00000000 -0.572784 0.342372 -0.744782 0.000000
170.70300293 166.99200439 374.00000000 -0.000978 -0.000978 -0.999999 0.000000
76.44529724 192.96899414 234.00000000 -0.577291 -0.587448 0.567133 0.000000
48.98440170 184.06199646 326.00000000 0.930106 0.144683 -0.337594 0.000000
178.86700439 189.25799561 334.00000000 -0.810984 -0.509806 0.287060 0.000000
142.12899780 204.84399414 316.00000000 -0.888334 -0.320161 0.329180 0.000000
141.75799561 158.82800293 382.00000000 -0.000978 -0.000978 -0.999999 0.000000
80.15619659 204.47300720 256.00000000 -0.541807 -0.609322 0.578940 0.000000
175.15600586 184.06199646 314.00000000 -0.347413 -0.547782 0.761078 0.000000
120.97699738 204.84399414 366.00000000 -0.000978 -0.000978 -0.999999 0.000000
57.14839935 234.53100586 286.00000000 0.626041 0.626041 0.464915 0.000000
69.39450073 140.27299500 356.00000000 0.821915 -0.332868 -0.462229 0.000000
192.22700500 106.13300323 266.00000000 -0.565486 -0.422870 0.708101 0.000000
75.33200073 118.00800323 336.00000000 0.764489 0.644295 -0.020964 0.000000
71.25000000 123.57399750 244.00000000 0.815569 0.578659 -0.001362 0.000000
103.53500366 182.57800293 240.00000000 -0.339199 -0.598872 0.725463 0.000000
169.96099854 149.17999268 314.00000000 -0.842893 0.537872 0.014979 0.000000
149.92199707 142.50000000 386.00000000 -0.000978 -0.000978 -0.999999 0.000000
233.04699707 98.71089935 298.00000000 -0.778256 -0.577820 0.245848 0.000000
181.83599854 114.29699707 386.00000000 -0.000978 -0.000978 -0.999999 0.000000
181.09399414 129.88299561 282.00000000 0.660342 -0.686174 -0.305146 0.000000
213.00799561 110.95700073 292.00000000 -0.508131 -0.733232 0.451856 0.000000
64.57029724 147.69500732 350.00000000 0.443254 0.271474 -0.854300 0.000000
145.46899414 190.37100220 284.00000000 -0.772933 -0.584795 0.246147 0.000000
193.33999634 143.98399353 308.00000000 -0.423191 -0.455620 0.783147 0.000000
75.70310211 250.11700439 334.00000000 0.340865 -0.627910 -0.699671 0.000000
106.13300323 111.32800293 250.00000000 0.000978 0.000978 0.999999 0.000000
188.14500427 151.40600586 312.00000000 -0.147945 -0.590284 0.793522 0.000000
241.21099854 89.80470276 330.00000000 -0.680626 0.674220 0.286664 0.000000
148.43800354 153.63299561 386.00000000 0.000978 0.000978 -0.999999 0.000000
102.42199707 118.75000000 254.00000000 0.499729 -0.617510 0.607414 0.000000
89.06250000 106.87500000 286.00000000 0.641801 0.757414 0.120060 0.000000
116.52300262 226.36700439 314.00000000 -0.398655 -0.656706 0.640165 0.000000
129.14100647 217.46099854 314.00000000 -0.577103 -0.730780 0.364572 0.000000
90.91799927 182.57800293 368.00000000 0.668346 -0.015348 -0.743692 0.000000
164.76600647 149.55099487 332.00000000 0.243047 0.754231 0.609970 0.000000
183.32000732 130.62500000 286.00000000 -0.257399 -0.891224 0.373451 0.000000
162.91000366 143.24200439 336.00000000 -0.067423 -0.612544 0.787556 0.000000
117.26599884 100.19499969 366.00000000 0.360581 0.927786 -0.095885 0.000000
83.12500000 126.54299927 232.00000000 -0.445601 0.748150 0.491641 0.000000
106.87500000 107.61699677 250.00000000 0.001379 0.668888 0.743362 0.000000
87.57810211 184.80499268 366.00000000 0.166415 -0.005660 -0.986039 0.000000
79.41410065 252.34399414 334.00000000 0.528666 -0.626629 -0.572580 0.000000
130.62500000 218.57400513 316.00000000 -0.344726 -0.687818 0.638804 0.000000
97.96880341 163.28100586 226.00000000 -0.724658 -0.146137 0.673435 0.000000
104.64800262 103.90599823 262.00000000 0.457116 0.827836 0.325165 0.000000
219.31599426 83.12500000 348.00000000 -0.191948 0.964963 -0.178890 0.000000
69.02339935 136.19099426 216.00000000 -0.551570 0.484510 -0.678985 0.000000
86.83589935 118.00800323 366.00000000 0.397617 0.575802 -0.714390 0.000000
52.32419968 233.78900146 316.00000000 0.867597 -0.496736 -0.023010 0.000000
