161.09199524 100.48699951 388.79998779 -0.146627 -0.898271 0.414258 0.000000
222.08799744 158.35499573 434.39999390 0.333522 -0.166063 0.928001 0.000000
197.45500183 173.60400391 441.60000610 0.292886 0.051984 0.954733 0.000000
135.67700195 161.09199524 356.79998779 0.668451 -0.645458 0.369537 0.000000
223.65199280 168.91200256 390.00000000 0.442760 0.436273 -0.783345 0.000000
153.27200317 139.58700562 390.39999390 -0.871170 0.461208 0.168377 0.000000
80.15499878 252.58599854 366.39999390 -0.891180 0.452939 0.025386 0.000000
123.55599976 255.71400452 436.39999390 -0.121961 0.565725 0.815525 0.000000
225.99800110 147.79800415 428.39999390 0.460201 -0.272427 0.844984 0.000000
179.86000061 163.43800354 390.00000000 -0.654635 0.179373 0.734356 0.000000
152.49000549 238.90100098 441.60000610 0.277747 0.519402 0.808133 0.000000
98.92299652 204.88400269 292.00000000 -0.114741 0.243663 -0.963049 0.000000
150.14399719 272.52700806 410.39999390 0.420814 0.820984 0.385878 0.000000
205.66600037 182.20599365 438.79998779 0.342907 -0.032107 0.938820 0.000000
89.93000031 164.22000122 432.39999390 -0.535660 -0.569456 0.623529 0.000000
71.55300140 172.03999329 406.39999390 -0.870178 -0.492426 -0.017538 0.000000
136.06799316 276.43701172 414.39999390 0.253942 0.892510 0.372745 0.000000
259.62399292 188.46200562 424.39999390 0.775553 0.513258 0.367538 0.000000
91.10299683 195.50000000 311.20001221 -0.994066 -0.001077 -0.108776 0.000000
175.94999695 150.92599487 399.60000610 -0.272483 0.454139 -0.848240 0.000000
131.37600708 148.18899536 440.79998779 -0.052499 -0.795993 0.603025 0.000000
129.02999878 216.61399841 334.00000000 0.615875 0.195053 -0.763317 0.000000
66.86100006 199.41000366 384.00000000 -0.967445 -0.187791 -0.169659 0.000000
183.37899780 222.86999512 431.20001221 0.978710 -0.145132 -0.145132 0.000000
93.83999634 222.47900391 312.00000000 -0.863929 0.262671 -0.429687 0.000000
120.03700256 176.73199463 312.00000000 0.853354 -0.251884 -0.456445 0.000000
106.74299622 155.61799622 444.00000000 -0.544003 -0.687954 0.480396 0.000000
135.67700195 259.62399292 356.79998779 0.672240 0.336934 -0.659218 0.000000
96.57700348 253.36799622 334.39999390 -0.279559 0.723658 -0.631004 0.000000
264.31600952 143.88800049 406.79998779 0.441111 -0.392990 0.806833 0.000000
150.92599487 168.52099609 370.39999390 0.497666 -0.464599 0.732446 0.000000
175.16799927 132.54899597 430.39999390 0.056185 -0.459070 0.886622 0.000000
72.33499908 214.26800537 424.00000000 -0.653486 0.216789 0.725230 0.000000
125.12000275 118.47299957 382.39999390 -0.446689 -0.894688 0.001310 0.000000
125.12000275 135.28599548 354.79998779 0.226326 0.534252 -0.814464 0.000000
100.09600067 131.76699829 400.79998779 -0.567190 -0.742711 0.355916 0.000000
205.27499390 173.60400391 376.79998779 0.625190 0.581376 -0.520711 0.000000
155.22700500 222.86999512 348.00000000 0.328403 0.421787 -0.845131 0.000000
159.52799988 264.70700073 414.39999390 0.570043 0.742193 0.352420 0.000000
90.71199799 139.58700562 389.60000610 -0.799631 -0.576758 -0.167154 0.000000
180.64199829 124.33799744 426.00000000 0.096156 -0.433397 0.896059 0.000000
134.11300659 155.61799622 348.79998779 0.686496 -0.726129 -0.038217 0.000000
72.33499908 168.91200256 395.20001221 -0.973235 -0.202182 0.109253 0.000000
127.85700226 153.27200317 376.79998779 0.792890 -0.395638 0.463461 0.000000
136.85000610 198.62800598 461.20001221 0.219769 0.110520 0.969271 0.000000
120.42800140 263.92498779 430.39999390 -0.099932 0.557592 0.824078 0.000000
188.07099915 200.97399902 444.79998779 0.643792 0.175858 0.744719 0.000000
166.17500305 182.98800659 390.39999390 -0.406196 0.316616 0.857181 0.000000
77.80899811 215.83200073 432.00000000 -0.776970 0.269497 0.568937 0.000000
179.86000061 184.16099548 385.60000610 0.236524 0.909821 -0.341001 0.000000
102.44200134 131.37600708 403.60000610 -0.562949 -0.765033 0.312750 0.000000
74.29000092 166.56599426 418.79998779 -0.768686 -0.409639 0.491241 0.000000
202.14700317 212.70399475 383.20001221 0.850126 0.251833 -0.462456 0.000000
161.87399292 253.36799622 426.00000000 0.485559 0.660293 0.572926 0.000000
132.94000244 283.47500610 399.20001221 0.357446 0.915688 0.183707 0.000000
98.53199768 252.19500732 332.79998779 -0.219921 0.666002 -0.712794 0.000000
157.57299805 136.06799316 376.79998779 -0.551205 0.681886 0.480838 0.000000
125.51100159 153.27200317 356.79998779 0.589441 -0.789456 0.171226 0.000000
188.46200562 204.10200500 374.79998779 -0.258722 -0.195753 0.945909 0.000000
189.63499451 176.73199463 372.79998779 -0.446446 0.126945 -0.885760 0.000000
191.58999634 187.28900146 396.79998779 0.342404 -0.804251 0.485736 0.000000
103.61499786 141.54200745 358.39999390 -0.935787 -0.261573 -0.236395 0.000000
84.06500244 206.44799805 336.00000000 -0.893466 -0.196766 -0.403736 0.000000
218.17799377 161.87399292 383.60000610 0.573325 0.184012 -0.798397 0.000000
240.07400513 141.15100098 420.00000000 0.444045 -0.275031 0.852750 0.000000
139.97799683 265.09799194 426.00000000 0.250510 0.625487 0.738925 0.000000
86.41100311 219.74200439 440.79998779 -0.651845 0.326735 0.684356 0.000000
110.26200104 153.66299438 444.00000000 -0.460339 -0.810770 0.361581 0.000000
127.46600342 163.82899475 456.00000000 0.143053 -0.529444 0.836197 0.000000
85.62899780 265.09799194 399.20001221 -0.708817 0.693895 -0.126841 0.000000
204.10200500 220.13299561 390.39999390 0.896178 0.412846 -0.162549 0.000000
105.56999969 267.05300903 421.60000610 -0.713977 0.001381 0.700167 0.000000
111.82599640 270.18099976 348.79998779 0.230889 0.695809 -0.680103 0.000000
263.92498779 128.24800110 400.00000000 0.391578 -0.429937 0.813524 0.000000
133.33099365 175.16799927 329.60000610 0.781465 -0.221286 -0.583391 0.000000
240.07400513 171.25799561 398.00000000 0.032019 0.583308 -0.811620 0.000000
129.02999878 285.82101440 396.00000000 0.456205 0.879310 0.136718 0.000000
158.74600220 143.10600281 372.39999390 -0.458979 0.282805 -0.842235 0.000000
136.06799316 254.14999390 436.39999390 0.136076 0.513578 0.847184 0.000000
160.30999756 210.35800171 454.00000000 0.187685 0.298906 0.935644 0.000000
107.91600037 229.51699829 312.79998779 0.431219 0.617693 -0.657651 0.000000
208.01199341 202.14700317 410.39999390 0.919251 -0.384266 0.085543 0.000000
196.28199768 145.84300232 435.20001221 0.049788 -0.421182 0.905609 0.000000
129.81199646 116.12699890 390.39999390 -0.415916 -0.909243 0.017057 0.000000
134.89500427 153.27200317 360.79998779 -0.501457 0.001337 -0.865181 0.000000
175.94999695 179.07800293 450.79998779 0.368556 -0.147142 0.917887 0.000000
140.75999451 149.75300598 443.20001221 -0.088783 -0.764113 0.638944 0.000000
167.34800720 164.22000122 448.39999390 0.267895 -0.448533 0.852672 0.000000
85.62899780 254.14999390 350.39999390 -0.782530 0.406657 -0.471462 0.000000
86.41100311 265.88000488 366.39999390 -0.598516 0.771730 0.214971 0.000000
144.27900696 125.90200043 368.79998779 0.839210 -0.475809 0.263312 0.000000
108.69799805 227.56199646 450.79998779 -0.299891 0.308755 0.902627 0.000000
145.84300232 252.58599854 359.20001221 0.672240 0.336934 -0.659218 0.000000
93.44899750 170.47599792 324.79998779 -0.999999 -0.000978 -0.000978 0.000000
186.11599731 106.35199738 412.39999390 0.139899 -0.905813 0.399914 0.000000
204.88400269 124.33799744 380.39999390 0.521968 0.288581 -0.802664 0.000000
127.46600342 164.61099243 456.79998779 0.143053 -0.529444 0.836197 0.000000
130.59399414 122.77400208 414.79998779 -0.016829 -0.922984 0.384469 0.000000
124.33799744 206.44799805 323.60000610 0.837707 0.152176 -0.524490 0.000000
170.47599792 260.40600586 402.00000000 0.779077 0.599172 0.184478 0.000000
261.97000122 130.98500061 402.39999390 0.394759 -0.433116 0.810294 0.000000
100.48699951 264.31600952 343.20001221 -0.479387 0.699872 -0.529497 0.000000
180.64199829 227.56199646 438.79998779 0.242479 0.397190 0.885124 0.000000
117.30000305 165.78399658 456.39999390 -0.380243 -0.352307 0.855158 0.000000
87.19300079 215.05000305 324.79998779 -0.937912 0.016499 -0.346482 0.000000
236.94599915 109.87100220 398.39999390 0.304685 -0.849098 0.431509 0.000000
89.14800262 204.88400269 318.00000000 -0.974656 0.139596 -0.174809 0.000000
80.15499878 198.62800598 349.60000610 -0.876561 -0.187098 -0.443437 0.000000
136.85000610 166.56599426 338.00000000 0.709094 -0.380048 -0.593928 0.000000
83.28299713 211.92199707 335.20001221 -0.907534 -0.184948 -0.377064 0.000000
114.56300354 221.30599976 314.39999390 0.779239 0.418088 -0.466893 0.000000
201.75599670 215.44099426 430.39999390 0.841506 -0.534988 0.075210 0.000000
202.92900085 198.62800598 418.39999390 0.713095 -0.679502 0.172548 0.000000
166.17500305 123.55599976 364.00000000 -0.043627 -0.272978 -0.961031 0.000000
180.64199829 170.47599792 446.79998779 0.371803 -0.217249 0.902533 0.000000
129.81199646 137.63200378 429.20001221 -0.012491 -0.634246 0.773031 0.000000
150.92599487 145.45199585 438.79998779 0.100787 -0.612027 0.784388 0.000000
181.42399597 191.58999634 370.79998779 0.068916 -0.516165 0.853712 0.000000
197.84599304 100.48699951 381.60000610 -0.001026 -0.998734 -0.050296 0.000000
114.95400238 161.48300171 453.60000610 -0.557406 -0.319665 0.766233 0.000000
174.38600159 152.09899902 386.39999390 -0.693267 0.286593 0.661245 0.000000
182.59700012 171.25799561 383.20001221 -0.644587 0.764316 0.018099 0.000000
224.04299927 114.17199707 412.79998779 0.331779 -0.831807 0.444993 0.000000
221.30599976 146.23399353 385.20001221 0.417602 -0.080782 -0.905032 0.000000
182.59700012 220.52400208 428.79998779 0.985664 0.158599 -0.057566 0.000000
98.92299652 153.27200317 336.00000000 -0.918936 -0.215800 0.330131 0.000000
139.97799683 150.92599487 444.39999390 -0.107614 -0.744450 0.658949 0.000000
147.79800415 182.20599365 358.79998779 0.854703 -0.452490 0.254430 0.000000
145.45199585 186.11599731 387.60000610 -0.490141 -0.209630 0.846060 0.000000
106.74299622 282.30200195 397.60000610 -0.323209 0.838470 0.438753 0.000000
196.28199768 138.41400146 431.60000610 0.495186 0.135051 0.858226 0.000000
192.37199402 178.29600525 371.60000610 -0.038170 0.158462 -0.986627 0.000000
89.93000031 269.39898682 384.79998779 -0.686774 0.719267 0.104862 0.000000
64.51499939 198.62800598 393.60000610 -0.956974 0.116513 -0.265753 0.000000
206.44799805 208.79400635 393.20001221 0.868517 0.165502 -0.467212 0.000000
222.86999512 118.08200073 386.00000000 -0.032432 0.726200 -0.686718 0.000000
74.68099976 223.65199280 422.39999390 -0.827118 0.318605 0.462998 0.000000
207.22999573 138.02299500 380.00000000 0.455419 -0.448889 -0.768825 0.000000
208.40299988 147.79800415 433.60000610 0.222285 -0.275410 0.935275 0.000000
174.77699280 216.61399841 377.60000610 0.967688 0.179584 -0.177000 0.000000
183.37899780 95.40399933 388.00000000 0.203296 -0.802483 0.560974 0.000000
102.44200134 140.36900330 419.20001221 -0.551407 -0.628975 0.548034 0.000000
148.97099304 186.89799500 346.39999390 -0.001240 0.323658 -0.946173 0.000000
185.33399963 97.35900116 376.79998779 0.536709 -0.664577 -0.519885 0.000000
161.87399292 100.09600067 388.39999390 -0.146627 -0.898271 0.414258 0.000000
121.99199677 123.55599976 413.20001221 -0.396478 -0.903167 0.164603 0.000000
243.59300232 149.36199951 392.79998779 0.226501 0.150564 -0.962303 0.000000
186.11599731 190.80799866 370.00000000 0.023415 -0.560573 0.827774 0.000000
161.09199524 170.08500671 388.00000000 0.625556 0.772745 0.107448 0.000000
107.91600037 255.32299805 334.39999390 -0.171581 0.514742 -0.840000 0.000000
108.69799805 144.66999817 427.60000610 -0.820807 0.037626 0.569966 0.000000
180.64199829 150.53500366 395.20001221 -0.699499 0.654680 -0.286523 0.000000
94.23100281 161.09199524 312.00000000 -0.970772 -0.229365 0.070669 0.000000
105.96099854 194.71800232 292.79998779 0.619647 0.236878 -0.748282 0.000000
64.51499939 197.06399536 392.79998779 -0.964579 0.006021 -0.263724 0.000000
108.30699921 283.08401489 379.20001221 -0.544425 0.811270 -0.213169 0.000000
130.59399414 166.95700073 378.39999390 -0.660351 -0.735906 0.149599 0.000000
156.39999390 148.97099304 380.79998779 -0.771143 0.198558 -0.604908 0.000000
186.89799500 151.31700134 438.39999390 0.119238 -0.360456 0.925124 0.000000
92.66699982 174.38600159 340.79998779 -0.915119 -0.399446 -0.054774 0.000000
90.71199799 145.84300232 378.39999390 -0.807248 -0.425290 -0.409241 0.000000
114.95400238 247.11199951 334.00000000 0.582761 0.420053 -0.695661 0.000000
198.62800598 169.69400024 368.39999390 0.171581 0.514742 -0.840000 0.000000
200.97399902 202.14700317 435.20001221 0.556961 0.377296 0.739893 0.000000
163.43800354 114.17199707 367.60000610 -0.344315 -0.267472 -0.899948 0.000000
202.53799438 100.87799835 383.60000610 0.118518 -0.981136 0.152730 0.000000
137.63200378 110.65299988 376.00000000 -0.574126 -0.794590 0.197499 0.000000
254.93200684 121.20999908 386.79998779 -0.045434 0.349196 -0.935948 0.000000
141.93299866 180.64199829 375.20001221 0.875855 -0.388765 0.285901 0.000000
149.36199951 160.30999756 451.60000610 -0.088562 -0.619936 0.779638 0.000000
210.35800171 105.17900085 396.79998779 0.187892 -0.892851 0.409284 0.000000
138.41400146 172.43099976 369.60000610 0.772964 -0.516930 0.367846 0.000000
190.80799866 204.49299622 441.60000610 0.452420 0.426475 0.783221 0.000000
189.63499451 170.47599792 367.20001221 0.146809 0.825989 -0.544233 0.000000
243.20199585 126.68399811 391.60000610 0.001189 0.248404 -0.968656 0.000000
136.85000610 221.30599976 454.79998779 0.157092 0.299157 0.941184 0.000000
219.35099792 193.15400696 420.79998779 0.125810 0.785941 -0.605367 0.000000
175.16799927 116.51799774 421.20001221 -0.275651 -0.384105 0.881181 0.000000
183.37899780 179.86000061 376.79998779 0.234485 0.879694 -0.413710 0.000000
160.30999756 198.62800598 456.39999390 0.241992 0.209180 0.947462 0.000000
182.20599365 236.55499268 425.60000610 0.817357 0.570283 0.081879 0.000000
225.99800110 189.63499451 417.60000610 0.119386 0.861590 -0.493365 0.000000
125.12000275 136.45899963 356.00000000 0.193741 0.575121 -0.794796 0.000000
255.71400452 130.59399414 389.20001221 -0.171645 0.134058 -0.975995 0.000000
82.89199829 190.02600098 349.20001221 -0.870912 -0.341324 -0.353569 0.000000
209.96699524 171.25799561 380.79998779 0.710355 0.480779 -0.514051 0.000000
108.69799805 124.72899628 396.79998779 -0.589196 -0.791119 0.164251 0.000000
218.17799377 195.10899353 423.20001221 0.208222 0.831369 -0.515236 0.000000
155.61799622 240.07400513 358.79998779 0.587010 0.463253 -0.663940 0.000000
139.97799683 194.71800232 336.39999390 0.736065 -0.079849 -0.672185 0.000000
137.63200378 233.81799316 345.20001221 0.638384 0.269045 -0.721167 0.000000
136.85000610 157.96400452 350.79998779 0.751579 -0.647400 0.126503 0.000000
121.99199677 158.35499573 380.00000000 -0.823101 0.515400 0.238469 0.000000
200.58299255 222.86999512 385.60000610 -0.683876 -0.029611 0.728997 0.000000
130.59399414 118.86399841 355.60000610 0.593678 -0.167680 -0.787039 0.000000
173.60400391 149.36199951 387.60000610 -0.693810 0.476472 0.540002 0.000000
161.87399292 98.92299652 385.60000610 -0.285163 -0.830558 0.478389 0.000000
116.12699890 206.44799805 305.60000610 0.825046 0.279174 -0.491285 0.000000
82.89199829 259.23300171 404.79998779 -0.627730 0.627730 0.460336 0.000000
86.80200195 252.58599854 347.60000610 -0.782530 0.406657 -0.471462 0.000000
147.01600647 225.99800110 450.00000000 0.240023 0.401032 0.884060 0.000000
115.73600006 230.69000244 323.60000610 0.713039 0.365535 -0.598297 0.000000
167.34800720 150.14399719 398.79998779 0.222317 0.247173 -0.943123 0.000000
106.74299622 138.41400146 421.60000610 -0.580716 -0.580716 0.570558 0.000000
67.64299774 202.53799438 376.00000000 -0.882014 -0.300035 -0.363360 0.000000
105.96099854 204.10200500 292.79998779 0.544728 0.020582 -0.838360 0.000000
70.77100372 233.03599548 364.00000000 -0.901326 0.432900 -0.014474 0.000000
90.32099915 212.70399475 315.20001221 -0.914516 0.106211 -0.390359 0.000000
230.69000244 169.69400024 431.60000610 0.308689 -0.088009 0.947083 0.000000
197.84599304 162.65600586 439.60000610 0.210949 -0.286388 0.934603 0.000000
132.15800476 279.56500244 408.00000000 0.060559 0.911077 0.407764 0.000000
177.90499878 153.27200317 399.20001221 -0.624564 0.365559 -0.690135 0.000000
114.95400238 169.69400024 309.20001221 0.650271 -0.424090 -0.630314 0.000000
181.42399597 239.68299866 412.79998779 0.881541 0.472016 -0.009307 0.000000
146.23399353 125.90200043 366.00000000 0.559842 -0.813637 -0.156756 0.000000
212.70399475 114.17199707 376.39999390 0.106403 0.569913 -0.814787 0.000000
69.20700073 225.21600342 407.20001221 -0.980283 -0.024654 0.196057 0.000000
100.87799835 262.75201416 424.39999390 -0.583501 0.401674 0.705822 0.000000
91.49400330 148.58000183 374.00000000 -0.797770 -0.452875 -0.398079 0.000000
274.48199463 152.49000549 408.39999390 0.393754 -0.374929 0.839277 0.000000
87.58399963 160.70100403 428.00000000 -0.731100 -0.479111 0.485742 0.000000
176.34100342 114.95400238 365.60000610 -0.011283 -0.329715 -0.944013 0.000000
118.86399841 148.97099304 352.00000000 0.425664 -0.901969 0.072541 0.000000
146.23399353 226.38900757 450.39999390 0.226066 0.400417 0.888009 0.000000
245.93899536 138.41400146 416.00000000 0.513258 -0.367538 0.775553 0.000000
107.13400269 165.00199890 452.39999390 -0.422414 -0.290314 0.858653 0.000000
248.67599487 191.98100281 424.00000000 -0.594747 0.793490 0.129035 0.000000
266.66198730 131.37600708 400.39999390 0.763566 -0.475798 0.436557 0.000000
154.83599854 264.31600952 377.20001221 0.611438 0.604700 -0.510374 0.000000
202.92900085 204.88400269 382.39999390 0.914966 0.105943 -0.389376 0.000000
176.73199463 186.11599731 371.60000610 0.768309 -0.425751 0.477950 0.000000
186.89799500 196.67300415 448.79998779 0.596698 -0.004115 0.802456 0.000000
163.43800354 216.61399841 450.79998779 0.170600 0.351070 0.920677 0.000000
157.57299805 133.72200012 379.20001221 -0.818932 0.421392 0.389589 0.000000
158.74600220 132.54899597 362.39999390 0.686111 -0.713253 0.143254 0.000000
181.03300476 228.34399414 413.60000610 0.589165 0.785044 -0.191287 0.000000
193.15400696 200.97399902 441.20001221 0.536523 0.261222 0.802438 0.000000
134.50399780 113.38999939 378.00000000 -0.468369 -0.853372 0.228880 0.000000
281.51998901 151.31700134 400.00000000 0.102712 -0.940416 0.324143 0.000000
68.81600189 205.66600037 420.39999390 -0.789475 0.292691 0.539501 0.000000
125.90200043 182.20599365 318.79998779 0.778516 -0.038011 -0.626473 0.000000
130.98500061 155.61799622 354.39999390 0.442838 -0.800328 0.404190 0.000000
100.09600067 269.39898682 415.20001221 -0.421834 0.776891 0.467437 0.000000
141.93299866 161.87399292 365.60000610 0.314040 -0.812716 0.490786 0.000000
93.44899750 147.79800415 370.39999390 -0.774406 -0.471165 -0.422255 0.000000
253.75900269 122.77400208 400.79998779 0.540038 -0.664532 0.516485 0.000000
124.33799744 280.34698486 407.20001221 -0.001307 0.897798 0.440405 0.000000
155.61799622 232.25399780 445.20001221 0.229069 0.391634 0.891151 0.000000
77.80899811 243.20199585 414.39999390 -0.797770 0.398079 0.452875 0.000000
197.45500183 109.48000336 410.39999390 0.098425 -0.706605 0.700729 0.000000
239.29200745 108.30699921 388.79998779 0.255405 -0.851858 0.457281 0.000000
211.92199707 188.85299683 411.20001221 0.175877 0.825271 -0.536652 0.000000
208.40299988 204.10200500 408.00000000 0.970523 -0.239918 0.022907 0.000000
114.17199707 125.51100159 408.00000000 -0.292620 -0.928749 0.227593 0.000000
91.88500214 185.33399963 323.20001221 -0.949754 -0.191035 -0.247939 0.000000
84.84700012 146.23399353 408.79998779 -0.631377 -0.714918 0.300426 0.000000
198.62800598 230.29899597 398.39999390 0.562072 0.823898 -0.072571 0.000000
249.45799255 114.56300354 380.00000000 -0.138241 0.990168 -0.021354 0.000000
220.52400208 152.49000549 432.39999390 0.266016 -0.395266 0.879204 0.000000
256.49600220 127.85700226 403.20001221 0.296254 -0.594110 0.747842 0.000000
144.27900696 125.90200043 372.00000000 0.977124 -0.202708 0.064332 0.000000
163.43800354 188.46200562 456.39999390 0.212928 -0.029739 0.976615 0.000000
86.41100311 226.77999878 328.79998779 -0.906100 0.341068 -0.250312 0.000000
96.96800232 223.26100159 448.00000000 -0.468717 0.067750 0.880746 0.000000
271.35400391 156.39999390 411.60000610 0.322894 -0.510586 0.796895 0.000000
140.75999451 184.55200195 384.39999390 -0.440632 -0.108398 0.891119 0.000000
94.23100281 180.64199829 293.60000610 -0.868249 0.437886 -0.233238 0.000000
212.70399475 187.28900146 409.60000610 0.175130 0.830746 -0.528385 0.000000
113.38999939 226.77999878 452.39999390 -0.188422 0.248066 0.950242 0.000000
116.90899658 121.99199677 368.00000000 -0.346178 -0.936639 0.053560 0.000000
100.09600067 276.04598999 359.60000610 -0.205922 0.819113 -0.535398 0.000000
129.42100525 253.36799622 348.79998779 0.571006 0.389995 -0.722396 0.000000
107.52500153 157.96400452 447.20001221 -0.336321 -0.599529 0.726259 0.000000
73.11699677 169.69400024 404.79998779 -0.908371 -0.405103 0.103695 0.000000
92.27600098 172.82200623 349.20001221 -0.753523 -0.638758 -0.155537 0.000000
130.59399414 174.38600159 460.39999390 -0.164774 -0.085394 0.982628 0.000000
136.06799316 159.52799988 367.60000610 0.535522 -0.695678 0.478800 0.000000
128.63900757 150.14399719 372.00000000 0.871681 -0.346535 0.346535 0.000000
165.00199890 241.63800049 434.00000000 0.372641 0.615596 0.694392 0.000000
134.11300659 165.00199890 336.79998779 0.668762 -0.445285 -0.595381 0.000000
96.18599701 181.42399597 293.20001221 -0.197771 -0.249601 -0.947938 0.000000
112.21700287 126.68399811 368.00000000 -0.687410 -0.687410 -0.234380 0.000000
267.44400024 174.38600159 420.39999390 0.299059 -0.144793 0.943185 0.000000
141.54200745 227.56199646 344.39999390 0.354487 0.309234 -0.882447 0.000000
222.08799744 115.34500122 416.79998779 -0.201723 -0.862179 0.464710 0.000000
141.15100098 164.22000122 348.79998779 0.117281 -0.746739 -0.654696 0.000000
77.02700043 183.77000427 368.00000000 -0.218916 -0.877154 -0.427408 0.000000
242.81100464 121.20999908 405.60000610 0.427241 -0.603457 0.673279 0.000000
108.69799805 280.34698486 403.20001221 -0.247309 0.834092 0.493082 0.000000
72.72599792 241.24699402 375.20001221 -0.964175 0.222502 -0.144431 0.000000
159.52799988 249.84899902 370.39999390 0.647425 0.417747 -0.637439 0.000000
129.81199646 174.38600159 325.20001221 0.774086 -0.194671 -0.602407 0.000000
80.93699646 210.35800171 438.39999390 -0.727776 0.159533 0.667001 0.000000
123.94699860 272.91799927 356.00000000 0.416205 0.601922 -0.681515 0.000000
150.53500366 260.40600586 368.79998779 0.722743 0.350767 -0.595488 0.000000
166.17500305 110.26200104 408.00000000 -0.363147 -0.801483 0.475131 0.000000
164.61099243 159.52799988 388.00000000 0.231802 -0.856003 0.462090 0.000000
153.66299438 141.54200745 377.60000610 -0.842409 0.532720 -0.080974 0.000000
137.63200378 167.34800720 338.79998779 0.709094 -0.380048 -0.593928 0.000000
150.92599487 141.54200745 435.60000610 0.015313 -0.664027 0.747552 0.000000
170.08500671 222.86999512 368.00000000 0.874196 0.193773 -0.445234 0.000000
181.42399597 176.34100342 400.00000000 -0.135076 -0.185571 0.973303 0.000000
180.25100708 245.54800415 394.39999390 0.442887 -0.606672 0.660152 0.000000
151.31700134 136.85000610 377.60000610 -0.820368 0.571352 0.023518 0.000000
87.19300079 254.14999390 348.00000000 -0.782530 0.406657 -0.471462 0.000000
93.44899750 171.25799561 331.20001221 -0.969119 -0.237615 0.065935 0.000000
91.10299683 186.89799500 307.20001221 -0.987910 -0.141130 -0.064150 0.000000
155.61799622 155.61799622 360.39999390 -0.149662 0.730168 -0.666675 0.000000
72.72599792 219.74200439 355.60000610 -0.939315 0.157236 -0.304901 0.000000
139.19599915 258.05999756 432.39999390 0.261573 0.648384 0.714967 0.000000
260.79699707 186.89799500 420.79998779 0.887520 0.460443 0.017350 0.000000
156.39999390 107.91600037 398.79998779 -0.614967 -0.598119 0.513877 0.000000
226.38900757 162.65600586 388.79998779 0.414090 0.414090 -0.810592 0.000000
73.50800323 175.55900574 379.20001221 -0.875478 -0.432537 -0.215525 0.000000
133.72200012 163.82899475 377.60000610 0.486290 -0.597346 0.637730 0.000000
119.64600372 269.00799561 350.79998779 0.451856 0.508131 -0.733232 0.000000
155.61799622 239.68299866 440.00000000 0.270806 0.521263 0.809289 0.000000
84.06500244 265.88000488 375.20001221 -0.984584 0.162320 -0.065165 0.000000
209.96699524 118.08200073 380.00000000 0.462622 0.552808 -0.693098 0.000000
126.68399811 240.07400513 338.79998779 0.651398 0.209878 -0.729131 0.000000
166.56599426 168.13000488 380.39999390 0.138527 0.913721 0.382000 0.000000
91.88500214 173.60400391 304.00000000 -0.992515 -0.098910 -0.071625 0.000000
100.09600067 141.54200745 367.60000610 -0.720138 -0.579063 -0.382214 0.000000
108.69799805 154.44500732 444.79998779 -0.518833 -0.699006 0.492141 0.000000
197.06399536 156.39999390 366.79998779 0.363233 -0.155671 -0.918601 0.000000
181.03300476 215.05000305 440.79998779 0.836761 0.217163 0.502664 0.000000
179.46899414 218.17799377 410.39999390 0.734388 0.647807 -0.202536 0.000000
174.38600159 254.93200684 391.60000610 0.691689 0.722184 0.004158 0.000000
131.37600708 229.90800476 451.60000610 0.136381 0.449340 0.882889 0.000000
179.07800293 154.44500732 440.79998779 0.149379 -0.408302 0.900542 0.000000
180.64199829 184.94299316 388.79998779 -0.011096 0.999669 -0.023201 0.000000
217.39599609 143.49699402 429.60000610 0.270655 -0.347562 0.897745 0.000000
97.75000000 177.51400757 450.79998779 -0.596254 -0.242571 0.765271 0.000000
87.19300079 247.89399719 341.60000610 -0.717664 0.279713 -0.637746 0.000000
132.54899597 246.33000183 442.39999390 0.288478 0.376078 0.880537 0.000000
121.20999908 136.45899963 428.00000000 -0.271396 -0.598341 0.753878 0.000000
134.50399780 159.91900635 452.79998779 0.580716 0.580716 0.570558 0.000000
244.76600647 123.94699860 407.20001221 0.435900 -0.626293 0.646334 0.000000
92.66699982 162.65600586 359.20001221 -0.772482 -0.308673 -0.554971 0.000000
156.00900269 204.88400269 346.39999390 0.457677 -0.070518 -0.886318 0.000000
130.59399414 244.37500000 344.79998779 0.596123 0.342730 -0.726068 0.000000
106.74299622 284.64801025 386.39999390 -0.285265 0.957943 0.031142 0.000000
214.26800537 107.52500153 371.20001221 -0.085764 0.643953 -0.760243 0.000000
282.30200195 155.61799622 409.20001221 -0.239511 -0.843628 0.480548 0.000000
73.50800323 206.44799805 427.60000610 -0.880424 0.112002 0.460770 0.000000
105.56999969 218.96000671 452.39999390 -0.416102 0.165577 0.894116 0.000000
65.29699707 204.10200500 385.60000610 -0.975906 -0.176188 -0.128705 0.000000
168.13000488 156.39999390 398.79998779 0.480374 -0.160125 -0.862323 0.000000
181.42399597 168.13000488 446.00000000 0.140284 -0.279231 0.949921 0.000000
116.51799774 136.06799316 426.00000000 -0.359197 -0.560737 0.746024 0.000000
127.85700226 154.05400085 340.00000000 0.518561 -0.849984 -0.092855 0.000000
166.17500305 215.83200073 356.79998779 0.798675 0.336368 -0.498973 0.000000
215.05000305 197.06399536 431.60000610 0.068577 0.499636 0.863517 0.000000
95.40399933 274.87298584 363.20001221 -0.763717 0.620425 -0.178353 0.000000
110.26200104 165.00199890 454.00000000 -0.120048 -0.964255 0.236223 0.000000
215.05000305 102.83300018 382.39999390 0.157228 -0.987484 0.012443 0.000000
157.18200684 134.89500427 377.60000610 -0.818932 0.421392 0.389589 0.000000
161.09199524 220.52400208 450.00000000 0.171145 0.357849 0.917961 0.000000
235.38200378 166.56599426 429.20001221 0.345771 -0.176414 0.921586 0.000000
186.89799500 100.48699951 374.39999390 0.409766 -0.602207 -0.685156 0.000000
147.01600647 130.98500061 380.00000000 -0.985154 0.171578 -0.005681 0.000000
147.79800415 186.89799500 370.79998779 0.534626 -0.347265 0.770443 0.000000
223.65199280 121.99199677 388.39999390 0.169789 0.380955 -0.908870 0.000000
145.45199585 268.22601318 421.20001221 0.333930 0.685778 0.646684 0.000000
234.60000610 163.04699707 392.79998779 0.333782 0.266143 -0.904299 0.000000
258.05999756 161.87399292 398.79998779 0.452688 0.303347 -0.838483 0.000000
193.15400696 211.13999939 375.60000610 -0.312809 0.303914 -0.899882 0.000000
129.81199646 156.39999390 450.00000000 -0.123541 -0.730827 0.671289 0.000000
131.76699829 155.61799622 370.39999390 0.709022 -0.700287 -0.082986 0.000000
107.52500153 193.15400696 293.60000610 0.621173 0.212221 -0.754392 0.000000
85.23799896 196.28199768 443.60000610 -0.713977 -0.001381 0.700167 0.000000
172.43099976 220.52400208 447.20001221 0.249264 0.466414 0.848720 0.000000
155.61799622 270.18099976 409.60000610 0.378548 0.840345 0.387972 0.000000
89.93000031 167.34800720 360.39999390 -0.750799 -0.400753 -0.525069 0.000000
120.81900024 218.17799377 324.00000000 0.876773 0.267106 -0.399905 0.000000
137.63200378 240.85600281 445.20001221 0.152942 0.410227 0.899068 0.000000
159.91900635 198.62800598 361.60000610 0.543654 -0.779609 -0.310887 0.000000
267.05300903 169.69400024 420.00000000 0.299101 -0.241857 0.923062 0.000000
222.47900391 165.00199890 388.00000000 0.465033 0.347584 -0.814205 0.000000
138.41400146 170.08500671 338.39999390 0.844238 -0.329269 -0.422899 0.000000
167.34800720 192.37199402 455.60000610 -0.444618 0.577837 0.684412 0.000000
125.12000275 214.26800537 458.00000000 0.043175 0.255349 0.965885 0.000000
203.71099854 190.80799866 384.79998779 0.948340 -0.200009 -0.246269 0.000000
134.11300659 259.62399292 355.20001221 0.698051 0.262366 -0.666250 0.000000
197.84599304 231.86300659 407.20001221 0.611218 0.789904 -0.049635 0.000000
86.80200195 147.40699768 386.39999390 -0.800247 -0.501148 -0.329326 0.000000
234.60000610 139.19599915 390.00000000 0.286928 -0.117680 -0.950696 0.000000
189.24400330 201.75599670 443.60000610 0.551722 0.279813 0.785689 0.000000
138.80499268 165.78399658 360.79998779 0.478826 -0.799110 0.363523 0.000000
169.69400024 251.80400085 382.79998779 0.481788 0.419727 -0.769227 0.000000
280.73800659 157.57299805 400.79998779 -0.082719 -0.773499 0.628377 0.000000
187.67999268 180.25100708 371.20001221 -0.120506 -0.383680 -0.915570 0.000000
116.51799774 127.07499695 416.79998779 -0.369958 -0.783536 0.499201 0.000000
220.13299561 193.93600464 422.39999390 0.156756 0.813637 -0.559842 0.000000
95.79499817 165.78399658 339.20001221 -0.922873 -0.287593 0.256115 0.000000
109.87100220 250.24000549 436.79998779 -0.243256 0.528346 0.813436 0.000000
240.07400513 172.03999329 429.20001221 0.365096 -0.325378 0.872258 0.000000
149.75300598 112.60800171 392.79998779 -0.999999 -0.000978 -0.000978 0.000000
146.23399353 119.64600372 384.39999390 -0.958847 0.013505 0.283603 0.000000
180.64199829 214.26800537 441.20001221 0.620468 0.556224 0.552842 0.000000
174.77699280 249.45799255 385.60000610 0.521726 0.086717 -0.848694 0.000000
279.17401123 150.92599487 399.60000610 0.230775 -0.664068 -0.711165 0.000000
150.14399719 205.27499390 383.20001221 -0.165518 -0.951394 0.259716 0.000000
152.49000549 140.36900330 434.39999390 -0.026580 -0.636512 0.770809 0.000000
145.06100464 116.51799774 372.79998779 0.685658 -0.080066 -0.723507 0.000000
154.44500732 246.33000183 361.60000610 0.630626 0.402210 -0.663730 0.000000
224.43400574 168.13000488 434.00000000 0.695809 0.230889 0.680103 0.000000
129.42100525 157.96400452 333.60000610 0.659396 -0.662669 -0.355059 0.000000
138.41400146 281.91101074 379.20001221 0.319340 0.859287 -0.399561 0.000000
132.15800476 126.68399811 420.39999390 -0.026460 -0.594653 0.803547 0.000000
218.17799377 121.20999908 387.60000610 0.140401 0.155311 -0.977837 0.000000
150.14399719 229.90800476 447.60000610 0.225163 0.427958 0.875302 0.000000
66.07900238 214.26800537 396.00000000 -0.996673 0.033402 -0.074346 0.000000
179.07800293 230.69000244 402.79998779 0.947992 -0.315147 -0.044656 0.000000
121.20999908 233.81799316 450.00000000 -0.144688 0.377873 0.914482 0.000000
152.49000549 215.44099426 344.79998779 0.340990 0.106475 -0.934017 0.000000
150.53500366 268.22601318 418.39999390 0.370624 0.778473 0.506574 0.000000
99.31400299 244.37500000 324.79998779 -0.441822 0.665234 -0.601878 0.000000
199.80099487 229.90800476 395.20001221 0.799938 0.572252 -0.180631 0.000000
183.77000427 180.25100708 377.60000610 0.234485 0.879694 -0.413710 0.000000
175.94999695 166.56599426 447.60000610 0.307492 -0.275431 0.910816 0.000000
143.10600281 121.20999908 369.20001221 0.984600 -0.106996 -0.138253 0.000000
164.22000122 114.95400238 366.79998779 -0.344315 -0.267472 -0.899948 0.000000
165.00199890 251.80400085 425.20001221 0.541252 0.558114 0.628932 0.000000
180.64199829 181.03300476 376.79998779 0.251297 0.693833 -0.674867 0.000000
206.05700684 208.79400635 426.39999390 0.656175 0.395027 0.642952 0.000000
107.91600037 251.41299438 332.00000000 0.269528 0.503223 -0.821049 0.000000
202.14700317 100.87799835 382.39999390 0.118518 -0.981136 0.152730 0.000000
111.82599640 274.87298584 354.39999390 0.185715 0.655374 -0.732116 0.000000
260.79699707 121.99199677 393.60000610 0.831357 0.555603 0.012286 0.000000
77.02700043 165.78399658 383.20001221 -0.900491 -0.335651 -0.276505 0.000000
89.53900146 240.85600281 430.39999390 -0.580716 0.580716 0.570558 0.000000
178.68699646 247.89399719 397.60000610 0.881325 0.462450 0.096988 0.000000
193.15400696 154.05400085 365.20001221 0.530568 -0.383641 -0.755855 0.000000
147.40699768 248.67599487 436.79998779 0.275998 0.547265 0.790143 0.000000
176.73199463 114.56300354 420.79998779 -0.249673 -0.396187 0.883572 0.000000
228.34399414 113.38999939 409.20001221 0.052534 -0.986475 0.155268 0.000000
85.23799896 253.36799622 416.39999390 -0.731076 0.489042 0.475780 0.000000
97.35900116 255.71400452 426.39999390 -0.527871 0.551482 0.645925 0.000000
106.35199738 256.10501099 335.20001221 -0.128958 0.591427 -0.795980 0.000000
258.05999756 168.52099609 401.60000610 0.343015 0.424461 -0.837958 0.000000
136.45899963 233.81799316 344.00000000 0.638384 0.269045 -0.721167 0.000000
78.19999695 160.30999756 388.39999390 -0.859679 -0.463597 -0.214545 0.000000
84.45600128 166.56599426 430.00000000 -0.507844 -0.534661 0.675449 0.000000
76.63600159 204.49299622 352.79998779 -0.847208 -0.252784 -0.467267 0.000000
145.45199585 201.75599670 342.00000000 0.476256 -0.079609 -0.875696 0.000000
231.47200012 135.28599548 390.00000000 0.232268 -0.186620 -0.954581 0.000000
92.66699982 174.38600159 335.20001221 -0.958847 -0.283603 0.013505 0.000000
158.74600220 249.84899902 431.20001221 0.458699 0.548770 0.698890 0.000000
183.77000427 104.39700317 408.79998779 0.091810 -0.911247 0.401497 0.000000
153.27200317 265.88000488 418.79998779 0.454509 0.707568 0.541082 0.000000
67.25199890 236.16400146 402.00000000 -0.954859 0.175437 0.239719 0.000000
179.46899414 236.94599915 396.79998779 0.928626 -0.090302 -0.359860 0.000000
136.85000610 238.50999451 446.00000000 0.145376 0.441887 0.885213 0.000000
144.27900696 203.32000732 340.79998779 0.713977 0.001381 -0.700167 0.000000
178.68699646 242.41999817 388.79998779 0.800607 -0.135167 -0.583745 0.000000
107.91600037 220.13299561 304.00000000 0.562636 0.488738 -0.666766 0.000000
183.77000427 213.09500122 439.20001221 0.560259 0.577185 0.594111 0.000000
191.19900513 117.30000305 368.00000000 0.168442 -0.131011 -0.976966 0.000000
138.41400146 129.02999878 360.39999390 0.540326 -0.017783 -0.841268 0.000000
84.84700012 147.01600647 391.20001221 -0.773329 -0.513932 -0.371263 0.000000
183.77000427 117.30000305 422.00000000 0.202323 -0.351555 0.914043 0.000000
130.59399414 200.19200134 461.20001221 -0.207439 0.044366 0.977241 0.000000
182.20599365 152.49000549 362.79998779 0.342985 0.056077 -0.937666 0.000000
212.31300354 192.37199402 435.20001221 0.257349 0.601534 0.756259 0.000000
202.53799438 114.56300354 414.39999390 0.315726 -0.860931 0.398893 0.000000
174.38600159 229.90800476 439.60000610 0.244236 0.794933 0.555364 0.000000
261.57901001 121.99199677 387.20001221 -0.060047 0.292567 -0.954358 0.000000
112.60800171 164.61099243 311.20001221 0.527104 -0.658459 -0.537208 0.000000
119.64600372 226.38900757 453.60000610 -0.079551 0.381577 0.920908 0.000000
146.23399353 208.79400635 342.00000000 0.427199 0.030609 -0.903639 0.000000
125.12000275 288.16699219 377.60000610 -0.100736 0.965282 0.241002 0.000000
156.79100037 194.71800232 386.39999390 -0.001071 -0.101730 0.994811 0.000000
259.62399292 139.97799683 390.79998779 -0.096785 0.180094 -0.978876 0.000000
147.79800415 249.84899902 436.00000000 0.340123 0.536782 0.772128 0.000000
96.57700348 275.26400757 380.00000000 -0.715694 0.679225 -0.162589 0.000000
189.24400330 190.80799866 445.20001221 0.682503 -0.082948 0.726160 0.000000
256.49600220 173.60400391 403.60000610 0.373769 0.405311 -0.834278 0.000000
140.75999451 208.79400635 458.79998779 0.183586 0.320925 0.929141 0.000000
136.06799316 192.37199402 332.39999390 0.769736 0.171558 -0.614878 0.000000
194.71800232 197.84599304 441.20001221 0.514977 0.245890 0.821180 0.000000
111.82599640 239.68299866 444.79998779 -0.119419 0.602994 0.788757 0.000000
129.81199646 205.66600037 330.79998779 0.720965 0.244528 -0.648395 0.000000
260.40600586 123.55599976 397.20001221 0.795399 -0.519153 0.312762 0.000000
132.94000244 284.25698853 393.60000610 0.344660 0.929620 0.130449 0.000000
92.27600098 172.43099976 351.20001221 -0.751579 -0.647400 -0.126503 0.000000
200.58299255 184.55200195 380.79998779 -0.504225 0.828038 -0.245173 0.000000
208.79400635 192.37199402 416.39999390 0.034147 -0.864610 0.501282 0.000000
151.31700134 184.55200195 366.39999390 0.077165 -0.994199 0.074928 0.000000
133.72200012 194.71800232 386.79998779 -0.032190 -0.213408 0.976433 0.000000
155.61799622 152.09899902 444.00000000 0.069824 -0.577120 0.813669 0.000000
124.33799744 172.82200623 460.39999390 0.042566 -0.232287 0.971715 0.000000
95.40399933 276.43701172 367.20001221 -0.893362 0.430348 -0.129246 0.000000
139.19599915 238.90100098 348.00000000 0.579627 0.495623 -0.646830 0.000000
115.73600006 179.07800293 306.00000000 0.772477 -0.113730 -0.624776 0.000000
79.76399994 162.26499939 422.39999390 -0.639951 -0.488782 0.592921 0.000000
139.97799683 166.56599426 373.20001221 -0.199222 -0.897224 -0.394081 0.000000
96.18599701 156.39999390 430.00000000 -0.075990 -0.804347 0.589281 0.000000
89.53900146 143.10600281 411.20001221 -0.548198 -0.770050 0.326347 0.000000
98.53199768 278.78298950 388.79998779 -0.576932 0.798013 -0.174140 0.000000
248.67599487 143.10600281 391.60000610 0.215028 0.267745 -0.939189 0.000000
262.75201416 139.97799683 406.00000000 0.495904 -0.357886 0.791200 0.000000
248.67599487 187.67999268 413.20001221 0.082256 0.800911 -0.593107 0.000000
156.00900269 143.88800049 376.00000000 -0.539071 0.770791 -0.339534 0.000000
161.87399292 141.93299866 378.39999390 -0.213580 0.915955 0.339720 0.000000
77.41799927 200.97399902 354.00000000 -0.838307 -0.310657 -0.448034 0.000000
123.55599976 119.25499725 380.00000000 -0.370075 -0.928434 -0.032463 0.000000
94.62200165 240.07400513 323.60000610 -0.707153 0.527453 -0.470881 0.000000
151.31700134 132.94000244 428.00000000 -0.359442 -0.651591 0.668004 0.000000
77.02700043 203.32000732 434.39999390 -0.833866 0.099373 0.542949 0.000000
67.64299774 218.17799377 364.79998779 -0.958368 -0.173646 -0.226668 0.000000
132.54899597 255.71400452 352.00000000 0.520851 0.390230 -0.759234 0.000000
158.74600220 118.86399841 417.20001221 -0.254087 -0.799672 0.544026 0.000000
195.50000000 220.13299561 382.39999390 -0.897156 0.159335 0.411974 0.000000
243.98399353 133.72200012 414.79998779 0.558558 -0.432592 0.707727 0.000000
75.85399628 231.47200012 420.39999390 -0.756480 0.327432 0.566150 0.000000
160.70100403 150.92599487 395.20001221 0.467772 -0.133855 -0.873654 0.000000
92.27600098 237.72799683 324.39999390 -0.749665 0.510166 -0.421584 0.000000
85.23799896 207.22999573 443.60000610 -0.716419 0.123623 0.686630 0.000000
177.90499878 248.67599487 400.79998779 0.888502 0.443543 0.117617 0.000000
191.19900513 221.30599976 399.20001221 -0.887302 0.386237 0.252024 0.000000
153.27200317 259.23300171 425.60000610 0.580716 0.580716 0.570558 0.000000
191.58999634 98.14099884 384.00000000 0.466784 -0.882920 -0.050648 0.000000
104.39700317 153.27200317 431.20001221 -0.626779 -0.771307 0.110608 0.000000
113.38999939 124.72899628 403.20001221 -0.351668 -0.906166 0.234932 0.000000
179.46899414 105.56999969 370.39999390 0.099910 -0.454519 -0.885116 0.000000
105.96099854 281.51998901 376.79998779 -0.483107 0.854038 -0.192944 0.000000
252.19500732 146.23399353 415.20001221 0.469080 -0.385258 0.794695 0.000000
129.81199646 117.30000305 355.60000610 0.541454 -0.162585 -0.824860 0.000000
134.50399780 194.71800232 386.79998779 -0.032190 -0.213408 0.976433 0.000000
121.20999908 222.86999512 454.79998779 -0.040995 0.398052 0.916446 0.000000
121.20999908 286.60299683 395.20001221 -0.092603 0.976651 0.193849 0.000000
242.41999817 153.27200317 422.00000000 0.365258 -0.310696 0.877528 0.000000
129.02999878 252.58599854 347.60000610 0.577394 0.393154 -0.715574 0.000000
159.52799988 202.92900085 375.20001221 -0.199155 -0.979079 -0.041739 0.000000
113.78099823 161.09199524 316.79998779 0.445754 -0.717514 -0.535236 0.000000
126.68399811 138.80499268 358.39999390 0.073670 0.654360 -0.752586 0.000000
208.40299988 107.13400269 401.60000610 0.315047 -0.832289 0.456113 0.000000
165.00199890 125.12000275 424.39999390 -0.119285 -0.596423 0.793758 0.000000
121.20999908 158.74600220 326.00000000 0.431559 -0.678165 -0.594852 0.000000
152.49000549 242.41999817 358.00000000 0.524625 0.467999 -0.711158 0.000000
173.60400391 130.59399414 362.00000000 0.092089 -0.278860 -0.955906 0.000000
150.92599487 226.77999878 347.60000610 0.243955 -0.163970 -0.955824 0.000000
260.40600586 157.96400452 416.39999390 0.414090 -0.414090 0.810592 0.000000
144.27900696 235.38200378 348.79998779 0.589667 0.382709 -0.711215 0.000000
73.89900208 222.86999512 353.60000610 -0.883227 -0.044910 -0.466790 0.000000
181.03300476 218.96000671 414.39999390 0.714097 0.630276 -0.304660 0.000000
107.91600037 126.29299927 388.79998779 -0.417122 -0.888397 0.191730 0.000000
111.82599640 278.78298950 406.39999390 -0.189364 0.857355 0.478628 0.000000
166.95700073 265.09799194 396.79998779 0.713998 0.700080 0.009743 0.000000
186.89799500 99.70500183 375.20001221 0.417424 -0.670206 -0.613662 0.000000
138.41400146 193.54499817 382.39999390 0.750421 0.046990 0.659288 0.000000
78.59100342 156.39999390 393.60000610 -0.923789 -0.264963 -0.276421 0.000000
264.31600952 163.43800354 402.79998779 0.291218 0.031247 -0.956146 0.000000
68.42500305 230.69000244 404.00000000 -0.944172 -0.235698 0.230185 0.000000
148.97099304 104.00599670 383.20001221 -0.505555 -0.795811 0.333316 0.000000
180.25100708 166.56599426 389.60000610 -0.654635 0.179373 0.734356 0.000000
160.30999756 166.95700073 452.00000000 0.316368 -0.476914 0.820039 0.000000
215.83200073 176.73199463 436.39999390 0.218167 0.121204 0.968356 0.000000
119.25499725 182.20599365 309.60000610 0.791436 -0.177731 -0.584842 0.000000
67.25199890 190.41700745 413.60000610 -0.999999 0.000978 0.000978 0.000000
150.14399719 184.55200195 353.20001221 0.939486 -0.323914 -0.111556 0.000000
92.66699982 179.86000061 294.39999390 -0.868249 0.437886 -0.233238 0.000000
136.06799316 114.56300354 388.00000000 -0.409409 -0.877304 0.250444 0.000000
260.40600586 154.83599854 414.79998779 0.414090 -0.414090 0.810592 0.000000
127.46600342 266.66198730 427.60000610 0.061782 0.685354 0.725584 0.000000
86.01999664 165.39300537 430.39999390 -0.507679 -0.517732 0.688634 0.000000
122.77400208 151.70799255 363.60000610 0.811390 -0.579564 0.075844 0.000000
134.50399780 115.73600006 398.79998779 -0.043023 -0.842423 0.537097 0.000000
89.14800262 267.83499146 402.39999390 -0.742137 0.601083 0.296534 0.000000
88.36599731 175.55900574 354.39999390 -0.784429 -0.477127 -0.396258 0.000000
261.18798828 171.64900208 404.79998779 0.468877 0.413715 -0.780381 0.000000
203.32000732 176.73199463 378.79998779 0.590189 0.738949 -0.325008 0.000000
89.93000031 240.07400513 431.60000610 -0.612056 0.500773 0.612056 0.000000
109.48000336 211.92199707 456.39999390 -0.377862 -0.057011 0.924105 0.000000
126.68399811 117.69100189 386.39999390 -0.462562 -0.886466 0.014663 0.000000
98.14099884 251.80400085 430.39999390 -0.472263 0.532339 0.702554 0.000000
80.15499878 156.39999390 388.79998779 -0.857862 -0.446454 -0.254463 0.000000
191.98100281 101.66000366 401.60000610 0.213475 -0.887761 0.407810 0.000000
264.70700073 170.47599792 407.20001221 0.491697 0.501698 -0.711711 0.000000
114.17199707 233.42700195 323.20001221 0.696339 0.376978 -0.610737 0.000000
110.26200104 260.40600586 430.00000000 -0.580716 0.580716 0.570558 0.000000
187.67999268 209.96699524 379.20001221 -0.316653 0.867355 -0.383961 0.000000
165.00199890 112.60800171 411.60000610 -0.291626 -0.828093 0.478766 0.000000
245.54800415 175.16799927 426.79998779 0.196850 -0.196850 0.960469 0.000000
102.83300018 149.36199951 341.60000610 -0.859663 -0.368868 0.353434 0.000000
204.49299622 200.19200134 432.79998779 0.780531 0.294090 0.551618 0.000000
241.63800049 179.07800293 404.39999390 -0.372645 0.592620 -0.714099 0.000000
126.68399811 178.68699646 320.00000000 0.746340 -0.123645 -0.653979 0.000000
72.72599792 208.79400635 426.00000000 -0.889601 -0.022742 0.456171 0.000000
134.89500427 163.43800354 338.39999390 0.668762 -0.445285 -0.595381 0.000000
261.18798828 126.68399811 400.39999390 0.361546 -0.590580 0.721457 0.000000
177.51400757 100.48699951 372.00000000 0.171240 -0.363708 -0.915638 0.000000
90.71199799 156.39999390 428.39999390 -0.361106 -0.483080 0.797644 0.000000
103.22399902 229.12600708 448.39999390 -0.425099 0.361888 0.829655 0.000000
134.11300659 175.94999695 330.39999390 0.798491 -0.227037 -0.557554 0.000000
198.23699951 174.38600159 371.20001221 0.246562 0.595204 -0.764813 0.000000
121.99199677 136.45899963 355.20001221 0.232453 0.591274 -0.772244 0.000000
87.58399963 159.13699341 369.60000610 -0.692025 -0.551953 -0.465241 0.000000
92.66699982 173.60400391 344.00000000 -0.915578 -0.391611 -0.091421 0.000000
220.91499329 172.03999329 391.20001221 0.416641 0.619151 -0.665629 0.000000
178.68699646 161.09199524 388.79998779 -0.740906 0.052820 0.669528 0.000000
70.37999725 204.49299622 366.39999390 -0.913257 -0.382979 -0.138882 0.000000
121.99199677 288.16699219 386.39999390 -0.141134 0.980573 -0.136225 0.000000
180.64199829 161.87399292 390.79998779 -0.741563 0.111012 0.661634 0.000000
145.84300232 172.03999329 376.00000000 0.087319 -0.896756 0.433825 0.000000
114.95400238 284.64801025 371.60000610 -0.445218 0.829081 -0.338240 0.000000
136.85000610 228.34399414 451.60000610 0.159898 0.482629 0.861105 0.000000
193.54499817 224.43400574 387.20001221 -0.974786 0.132068 -0.179864 0.000000
139.19599915 215.83200073 339.60000610 0.468291 0.242535 -0.849635 0.000000
143.49699402 125.12000275 368.79998779 0.940437 -0.259001 0.220220 0.000000
73.50800323 201.75599670 429.20001221 -0.818938 0.195998 0.539375 0.000000
82.50099945 189.24400330 350.39999390 -0.870912 -0.341324 -0.353569 0.000000
191.58999634 218.96000671 390.79998779 -0.761569 0.537483 -0.362111 0.000000
80.54599762 254.54100037 359.20001221 -0.786490 0.607141 -0.113196 0.000000
97.35900116 151.70799255 360.00000000 -0.780701 -0.397654 -0.482055 0.000000
208.79400635 114.56300354 413.60000610 0.023700 -0.790480 0.612029 0.000000
232.64500427 193.93600464 427.20001221 0.174502 0.975451 -0.134329 0.000000
174.38600159 236.94599915 432.39999390 0.431219 0.657651 0.617693 0.000000
247.89399719 135.28599548 390.79998779 -0.247499 0.169905 -0.953875 0.000000
223.65199280 168.13000488 434.79998779 0.695809 0.230889 0.680103 0.000000
72.72599792 247.89399719 388.39999390 -0.754170 0.584442 -0.299426 0.000000
143.10600281 110.65299988 387.20001221 -0.439706 -0.859633 0.260172 0.000000
145.45199585 211.92199707 456.39999390 0.207454 0.311887 0.927194 0.000000
247.11199951 118.86399841 400.39999390 0.377938 -0.731335 0.567725 0.000000
201.75599670 179.07800293 440.39999390 0.368341 -0.054129 0.928114 0.000000
254.14999390 120.03700256 396.79998779 0.540620 -0.710292 0.450794 0.000000
136.85000610 245.93899536 350.39999390 0.491638 0.335714 -0.803485 0.000000
81.71900177 255.71400452 383.20001221 -0.850027 0.524484 -0.048692 0.000000
100.09600067 180.64199829 453.20001221 -0.530293 -0.149191 0.834584 0.000000
