93.65619659 116.41999817 283.75000000 -0.858203 -0.227748 0.460021 0.000000
192.51600647 120.97299957 393.75000000 -0.000978 -0.000978 -0.999999 0.000000
61.78710175 144.38699341 408.75000000 0.536791 0.066218 -0.841113 0.000000
210.72700500 94.30660248 383.75000000 -0.646933 0.216684 -0.731113 0.000000
106.01399994 188.61300659 316.25000000 -0.454235 -0.368169 0.811247 0.000000
42.27539825 156.74400330 391.25000000 0.760132 -0.001380 -0.649768 0.000000
106.01399994 82.92479706 285.00000000 0.307909 0.920864 0.239167 0.000000
191.86500549 118.37100220 373.75000000 0.000978 0.000978 0.999999 0.000000
115.11900330 149.58999634 416.25000000 -0.470964 0.380951 -0.795656 0.000000
215.92999268 77.72170258 365.00000000 -0.547412 0.772156 -0.322668 0.000000
38.37300110 171.05299377 308.75000000 0.933889 -0.064542 0.351690 0.000000
70.24220276 141.78500366 413.75000000 0.601440 -0.457362 -0.655050 0.000000
83.90039825 221.45799255 315.00000000 -0.466794 -0.424506 0.775821 0.000000
117.72100067 131.37899780 341.25000000 0.413424 -0.341659 0.844008 0.000000
133.33000183 137.23199463 341.25000000 0.000978 0.000978 0.999999 0.000000
78.04689789 167.80099487 286.25000000 -0.776405 -0.307692 0.550020 0.000000
44.22660065 167.14999390 283.75000000 0.967932 0.001191 0.251210 0.000000
43.57619858 204.87300110 366.25000000 0.696030 -0.579748 -0.423598 0.000000
80.64839935 130.07800293 423.75000000 0.000978 0.000978 -0.999999 0.000000
78.04689789 184.71099854 403.75000000 0.284177 -0.510263 -0.811711 0.000000
164.54899597 116.41999817 398.75000000 -0.000978 -0.000978 -0.999999 0.000000
79.67289734 146.33799744 417.50000000 0.320694 -0.111371 -0.940613 0.000000
127.47699738 187.63800049 390.00000000 -0.518699 -0.449097 -0.727504 0.000000
35.77149963 192.51600647 341.25000000 0.935835 -0.330055 0.123601 0.000000
129.42799377 135.28100586 411.25000000 -0.481777 -0.226450 -0.846529 0.000000
194.46699524 124.87500000 393.75000000 -0.390072 -0.097176 -0.915642 0.000000
94.95700073 126.82599640 288.75000000 -0.785956 0.094781 0.610975 0.000000
187.31199646 71.21779633 372.50000000 0.001191 0.967932 -0.251210 0.000000
71.21779633 233.49000549 325.00000000 0.293735 -0.915931 0.273477 0.000000
135.28100586 159.34599304 368.75000000 -0.579964 -0.726997 -0.367583 0.000000
212.67799377 88.45310211 361.25000000 -0.434011 -0.567041 0.700071 0.000000
50.08010101 165.19900513 271.25000000 0.868498 -0.103765 0.484710 0.000000
60.81150055 227.63699341 327.50000000 0.641117 -0.732033 0.230426 0.000000
97.23339844 75.44529724 337.50000000 0.140907 0.983938 -0.109594 0.000000
131.37899780 167.80099487 376.25000000 -0.829958 -0.274584 0.485564 0.000000
133.97999573 135.93200684 341.25000000 0.000978 0.000978 0.999999 0.000000
105.03800201 225.68600464 335.00000000 -0.490670 -0.325525 0.808255 0.000000
128.77699280 153.49200439 318.75000000 -0.560185 0.316208 0.765640 0.000000
93.65619659 129.42799377 286.25000000 -0.581255 0.187649 0.791789 0.000000
81.29879761 199.02000427 396.25000000 0.105918 -0.549905 -0.828484 0.000000
73.49410248 221.78300476 308.75000000 -0.333629 -0.701435 0.629826 0.000000
163.89799500 142.43600464 401.25000000 0.000978 0.000978 -0.999999 0.000000
137.23199463 151.54100037 383.75000000 -0.583111 -0.786199 -0.204627 0.000000
171.05299377 83.25000000 396.25000000 0.000978 0.000978 -0.999999 0.000000
99.50980377 111.21700287 421.25000000 -0.000978 -0.000978 -0.999999 0.000000
41.29980087 130.07800293 337.50000000 0.655158 -0.326766 0.681169 0.000000
194.79200745 91.70510101 352.50000000 -0.524283 -0.649033 0.551256 0.000000
117.06999969 168.45100403 406.25000000 -0.888274 0.444843 -0.114388 0.000000
140.48399353 85.20120239 388.75000000 0.415693 0.587933 -0.693926 0.000000
39.67380142 171.05299377 386.25000000 0.831357 -0.194637 -0.520541 0.000000
94.30660248 101.46099854 416.25000000 0.266260 0.575059 -0.773572 0.000000
52.03120041 200.97099304 383.75000000 0.809765 -0.445610 -0.381723 0.000000
77.39649963 163.89799500 411.25000000 -0.000978 -0.000978 -0.999999 0.000000
146.33799744 69.59179688 328.75000000 -0.078761 0.991935 0.099308 0.000000
139.83399963 189.91400146 356.25000000 -0.850867 -0.284648 0.441589 0.000000
39.34859848 182.75999451 310.00000000 0.000978 0.000978 0.999999 0.000000
91.70510101 109.91600037 273.75000000 -0.722129 -0.581306 0.374983 0.000000
139.83399963 149.58999634 338.75000000 -0.413093 0.625446 0.661945 0.000000
205.52299500 118.69599915 382.50000000 -0.275580 -0.935853 0.219625 0.000000
54.95800018 219.83200073 322.50000000 -0.000978 -0.000978 0.999999 0.000000
76.09570313 234.79100037 361.25000000 0.268750 -0.787390 -0.554788 0.000000
98.20899963 237.71800232 352.50000000 -0.129698 -0.983035 -0.129698 0.000000
158.69500732 138.53300476 401.25000000 0.318384 -0.709495 -0.628687 0.000000
116.41999817 192.51600647 393.75000000 -0.398951 -0.460328 -0.793055 0.000000
164.54899597 85.85160065 396.25000000 0.000978 0.000978 -0.999999 0.000000
130.40299988 140.48399353 410.00000000 -0.466469 -0.159389 -0.870059 0.000000
78.04689789 87.47750092 317.50000000 0.543073 0.812315 0.212640 0.000000
86.50199890 145.03700256 283.75000000 -0.725203 -0.321415 0.608912 0.000000
61.13669968 143.41099548 407.50000000 0.566943 0.134705 -0.812668 0.000000
133.97999573 106.01399994 401.25000000 -0.361546 0.721457 -0.590580 0.000000
61.78710175 174.95500183 266.25000000 -0.346928 -0.591244 0.728060 0.000000
89.10350037 186.01199341 403.75000000 0.123121 -0.087944 -0.988487 0.000000
44.22660065 145.68800354 291.25000000 0.931394 0.311396 0.188513 0.000000
123.57399750 99.50980377 313.75000000 -0.119879 -0.628994 0.768112 0.000000
93.00589752 192.51600647 308.75000000 -0.772376 -0.058535 0.632463 0.000000
195.76800537 89.10350037 351.25000000 -0.539465 -0.583434 0.607110 0.000000
96.90820313 102.11100006 273.75000000 -0.685011 -0.273046 0.675430 0.000000
119.67199707 176.58099365 317.50000000 -0.561086 -0.140642 0.815722 0.000000
74.79489899 154.14300537 266.25000000 -0.919184 -0.333079 0.210140 0.000000
34.79589844 165.85000610 325.00000000 0.991782 -0.001093 0.127937 0.000000
116.41999817 130.72900391 418.75000000 -0.000978 -0.000978 -0.999999 0.000000
93.33110046 174.95500183 305.00000000 -0.871635 0.435070 -0.225758 0.000000
34.14550018 168.45100403 342.50000000 0.983345 0.097731 -0.153233 0.000000
186.01199341 133.97999573 381.25000000 -0.608035 -0.712362 0.350476 0.000000
73.49410248 190.88999939 292.50000000 -0.589032 -0.135017 0.796751 0.000000
136.58200073 152.84199524 381.25000000 -0.422899 -0.844238 -0.329269 0.000000
118.37100220 83.25000000 383.75000000 -0.101169 0.491597 -0.864926 0.000000
65.03910065 125.52500153 258.75000000 0.469483 -0.146804 0.870651 0.000000
109.26599884 87.15229797 383.75000000 -0.586978 -0.733316 0.343081 0.000000
75.44529724 168.45100403 408.75000000 0.224910 -0.292807 -0.929344 0.000000
51.38090134 217.55599976 337.50000000 0.831762 -0.554045 0.034715 0.000000
114.46900177 164.54899597 311.25000000 -0.231197 -0.183087 0.955525 0.000000
125.52500153 155.44299316 316.25000000 -0.403214 0.319791 0.857410 0.000000
123.57399750 80.64839935 381.25000000 0.419084 0.697369 -0.581417 0.000000
120.32199860 91.37989807 305.00000000 -0.120199 -0.764230 0.633643 0.000000
109.26599884 95.60739899 303.75000000 -0.488671 -0.727209 0.482045 0.000000
100.81099701 134.63099670 423.75000000 -0.000978 -0.000978 -0.999999 0.000000
141.78500366 68.61620331 342.50000000 0.195394 0.979369 -0.051546 0.000000
199.02000427 80.64839935 383.75000000 -0.757475 0.549859 -0.351975 0.000000
113.81800079 163.57299805 310.00000000 -0.001371 -0.788169 0.615457 0.000000
159.34599304 159.67100525 350.00000000 0.474611 -0.796381 0.374862 0.000000
78.69730377 131.37899780 423.75000000 -0.000978 -0.000978 -0.999999 0.000000
104.06199646 195.76800537 396.25000000 0.020133 -0.471120 -0.881839 0.000000
156.09399414 122.92400360 401.25000000 -0.000978 -0.000978 -0.999999 0.000000
162.59800720 94.95700073 396.25000000 -0.666524 0.244234 -0.704341 0.000000
65.36430359 211.37699890 382.50000000 0.001317 -0.886654 -0.462431 0.000000
88.45310211 225.68600464 376.25000000 0.018125 -0.768209 -0.639942 0.000000
178.20700073 136.90699768 385.00000000 -0.563323 -0.813028 0.147148 0.000000
65.68949890 166.50000000 408.75000000 -0.000978 -0.000978 -0.999999 0.000000
197.06799316 98.20899963 361.25000000 -0.519655 -0.533109 0.667648 0.000000
191.86500549 70.89260101 336.25000000 0.036825 0.998479 0.041033 0.000000
199.02000427 74.79489899 373.75000000 -0.296609 0.915870 -0.270565 0.000000
137.88299561 139.18400574 406.25000000 -0.888736 -0.047635 -0.455937 0.000000
72.84380341 88.12789917 357.50000000 0.695601 0.695601 -0.179659 0.000000
151.54100037 137.23199463 341.25000000 0.000978 0.000978 0.999999 0.000000
79.34770203 236.74200439 358.75000000 0.171581 -0.840000 -0.514742 0.000000
121.62300110 102.76200104 316.25000000 0.094244 -0.590114 0.801800 0.000000
101.78600311 120.32199860 310.00000000 -0.940442 0.245876 0.234763 0.000000
96.90820313 237.71800232 355.00000000 -0.129698 -0.983035 -0.129698 0.000000
71.54299927 159.34599304 411.25000000 -0.109978 0.590950 -0.799176 0.000000
106.01399994 134.63099670 303.75000000 -0.779609 0.543654 0.310887 0.000000
86.50199890 122.92400360 278.75000000 -0.744401 -0.149484 0.650785 0.000000
64.38870239 128.12699890 258.75000000 0.613401 -0.208587 0.761729 0.000000
60.81150055 100.81099701 370.00000000 0.000978 0.000978 0.999999 0.000000
90.40429688 92.35549927 276.25000000 0.233782 0.910442 0.341234 0.000000
150.24000549 157.06900024 352.50000000 -0.001191 -0.967932 -0.251210 0.000000
163.89799500 165.19900513 353.75000000 0.479521 -0.778613 0.404749 0.000000
83.25000000 92.35549927 403.75000000 0.544352 0.635358 -0.547723 0.000000
122.92400360 132.67999268 416.25000000 -0.555260 -0.105833 -0.824916 0.000000
152.19099426 151.86599731 380.00000000 0.722202 -0.643187 -0.254430 0.000000
203.89700317 81.94920349 350.00000000 -0.579337 -0.525288 0.623251 0.000000
40.97460175 205.19799805 342.50000000 0.924350 -0.376390 0.062510 0.000000
51.38090134 208.12500000 306.25000000 0.519473 -0.817202 0.249657 0.000000
144.38699341 90.40429688 393.75000000 -0.405006 0.811614 -0.421015 0.000000
70.24220276 184.06100464 286.25000000 -0.808235 -0.150890 0.569200 0.000000
195.11700439 128.12699890 383.75000000 -0.549323 -0.736257 0.395184 0.000000
76.74610138 150.89100647 413.75000000 0.447665 -0.102444 -0.888314 0.000000
98.20899963 146.33799744 421.25000000 -0.000978 -0.000978 -0.999999 0.000000
87.80269623 159.34599304 413.75000000 -0.057789 -0.163933 -0.984777 0.000000
37.07229996 150.56500244 325.00000000 0.955242 0.293243 0.039015 0.000000
42.92580032 174.95500183 291.25000000 0.955390 -0.158565 0.249174 0.000000
102.11100006 100.81099701 416.25000000 0.361135 0.367335 -0.857115 0.000000
198.36900330 70.56739807 345.00000000 0.000978 0.999999 0.000978 0.000000
144.38699341 69.26660156 330.00000000 -0.066512 0.993174 0.095823 0.000000
100.81099701 229.58799744 333.75000000 -0.010458 -0.979532 -0.201019 0.000000
92.35549927 200.97099304 313.75000000 -0.663860 -0.120297 0.738118 0.000000
65.68949890 129.42799377 258.75000000 0.581328 -0.160729 0.797636 0.000000
119.02100372 71.54299927 328.75000000 0.212795 0.976977 -0.015284 0.000000
36.42190170 175.60499573 378.75000000 0.938818 -0.131407 -0.318358 0.000000
186.01199341 102.11100006 356.25000000 -0.635996 -0.724814 0.264866 0.000000
197.06799316 96.25779724 358.75000000 -0.548734 -0.606140 0.575748 0.000000
115.11900330 137.23199463 418.75000000 -0.598153 0.171117 -0.782899 0.000000
174.63000488 70.24220276 365.00000000 0.040841 0.994540 -0.096032 0.000000
40.97460175 145.68800354 306.25000000 0.950228 0.237218 0.201974 0.000000
200.97099304 104.38800049 370.00000000 -0.322477 -0.678984 0.659538 0.000000
118.37100220 218.20599365 340.00000000 -0.459433 -0.417224 0.784121 0.000000
66.33979797 226.33599854 366.25000000 0.446170 -0.670090 -0.593222 0.000000
69.59179688 229.58799744 366.25000000 0.447606 -0.693872 -0.564083 0.000000
156.09399414 128.77699280 346.25000000 -0.230573 0.346584 0.909239 0.000000
48.45410156 126.17600250 302.50000000 0.901635 0.422425 0.092795 0.000000
36.74710083 144.38699341 370.00000000 0.940617 0.267363 -0.209180 0.000000
67.64060211 133.33000183 416.25000000 0.638031 -0.314977 -0.702642 0.000000
215.60400391 92.35549927 380.00000000 -0.532470 0.799490 0.278015 0.000000
38.69820023 159.34599304 305.00000000 0.965373 0.090068 0.244832 0.000000
76.74610138 181.45899963 293.75000000 -0.000978 -0.000978 0.999999 0.000000
59.83589935 101.13600159 362.50000000 -0.682514 -0.728494 0.058912 0.000000
48.12889862 189.91400146 386.25000000 0.328476 -0.241654 -0.913076 0.000000
79.99800110 85.85160065 318.75000000 0.001369 0.609379 0.792878 0.000000
65.68949890 148.93899536 408.75000000 0.453190 -0.197620 -0.869233 0.000000
194.14199829 94.30660248 355.00000000 -0.459898 -0.680649 0.570273 0.000000
107.96499634 231.86399841 345.00000000 -0.473101 -0.807617 0.352038 0.000000
78.69730377 185.03599548 402.50000000 0.138444 -0.494027 -0.858353 0.000000
136.90699768 107.31400299 400.00000000 -0.283881 0.769176 -0.572521 0.000000
201.62100220 119.67199707 381.25000000 -0.348961 -0.408426 0.843454 0.000000
96.90820313 141.78500366 293.75000000 -0.822681 -0.140314 0.550916 0.000000
36.74710083 153.49200439 332.50000000 0.935987 0.312915 -0.161282 0.000000
98.20899963 135.28100586 423.75000000 -0.231976 -0.248645 -0.940406 0.000000
117.72100067 72.51860046 322.50000000 0.262953 0.960741 0.088506 0.000000
67.64060211 131.37899780 258.75000000 0.372871 0.116952 0.920483 0.000000
128.77699280 194.46699524 333.75000000 -0.471497 -0.451783 0.757352 0.000000
61.78710175 97.88379669 382.50000000 0.000978 0.000978 -0.999999 0.000000
80.32319641 84.55079651 327.50000000 0.616476 0.780479 0.103966 0.000000
87.15229797 85.85160065 398.75000000 -0.093446 0.829514 -0.550613 0.000000
136.58200073 137.88299561 408.75000000 -0.828389 -0.012323 -0.560018 0.000000
133.97999573 170.40199280 391.25000000 -0.830069 0.542116 0.130754 0.000000
145.03700256 72.19339752 368.75000000 0.001191 0.967932 -0.251210 0.000000
95.60739899 212.02699280 388.75000000 -0.664423 -0.308771 -0.680589 0.000000
94.30660248 237.39300537 361.25000000 0.162382 -0.326151 -0.931267 0.000000
207.47500610 96.90820313 386.25000000 -0.000978 -0.000978 -0.999999 0.000000
75.77050018 207.47500610 390.00000000 0.233323 -0.637331 -0.734418 0.000000
176.25599670 74.46970367 390.00000000 -0.126972 0.911127 -0.392078 0.000000
101.46099854 81.62400055 375.00000000 0.000978 0.000978 -0.999999 0.000000
87.80269623 165.19900513 296.25000000 -0.642170 -0.216130 0.735463 0.000000
76.74610138 191.21499634 296.25000000 -0.889823 -0.294614 0.348452 0.000000
110.56600189 203.89700317 390.00000000 -0.528118 -0.741998 -0.412952 0.000000
178.85699463 129.10299683 365.00000000 -0.579595 -0.572835 0.579595 0.000000
83.90039825 106.01399994 418.75000000 -0.493636 0.618309 -0.611570 0.000000
73.49410248 214.62899780 383.75000000 0.663904 -0.663904 -0.344186 0.000000
154.79299927 96.90820313 323.75000000 0.000978 0.000978 0.999999 0.000000
210.40100098 100.81099701 385.00000000 -0.491236 -0.226607 -0.841033 0.000000
125.52500153 163.89799500 316.25000000 -0.129390 0.100900 0.986447 0.000000
204.87300110 88.45310211 386.25000000 -0.529077 0.232917 -0.815982 0.000000
152.19099426 120.97299957 401.25000000 -0.173953 0.112268 -0.978333 0.000000
66.66500092 94.30660248 370.00000000 0.695601 0.695601 0.179659 0.000000
217.88099670 86.50199890 363.75000000 -0.805344 -0.097222 0.584781 0.000000
51.70610046 137.23199463 275.00000000 0.698278 -0.692139 0.182626 0.000000
52.68159866 172.35400391 268.75000000 0.763338 -0.429888 0.482194 0.000000
106.66400146 117.06999969 421.25000000 -0.347000 -0.067289 -0.935448 0.000000
159.99600220 165.52400208 367.50000000 0.731603 -0.680660 -0.038208 0.000000
154.79299927 148.28900146 393.75000000 0.775916 -0.556046 -0.297939 0.000000
114.46900177 230.56300354 365.00000000 -0.693317 -0.347474 -0.631326 0.000000
138.53300476 185.36099243 381.25000000 -0.619586 -0.619586 -0.481900 0.000000
36.09669876 177.55700684 377.50000000 0.894185 -0.234226 -0.381538 0.000000
36.42190170 146.98800659 343.75000000 0.967932 0.001191 0.251210 0.000000
35.77149963 166.50000000 378.75000000 0.967932 0.001191 -0.251210 0.000000
123.57399750 149.26499939 317.50000000 -0.707533 0.369362 0.602470 0.000000
79.34770203 228.93800354 318.75000000 -0.325920 -0.692377 0.643732 0.000000
183.41000366 84.55079651 393.75000000 -0.502420 0.036963 -0.863833 0.000000
128.12699890 220.15699768 355.00000000 -0.721581 -0.618267 0.311555 0.000000
45.52730179 148.93899536 283.75000000 0.949754 0.191035 0.247939 0.000000
100.16000366 77.07129669 365.00000000 0.362720 0.883472 -0.296497 0.000000
100.48500061 118.37100220 307.50000000 -0.905422 0.173074 0.387629 0.000000
66.33979797 192.51600647 396.25000000 0.404476 -0.566266 -0.718151 0.000000
88.45310211 138.53300476 283.75000000 0.001381 0.691755 0.722131 0.000000
74.79489899 97.55860138 406.25000000 0.381288 0.661890 -0.645384 0.000000
102.11100006 195.76800537 396.25000000 -0.117199 -0.519436 -0.846434 0.000000
103.41200256 132.67999268 301.25000000 -0.751814 0.564265 0.341146 0.000000
99.50980377 184.71099854 403.75000000 -0.464597 0.409557 -0.785120 0.000000
126.17600250 199.02000427 336.25000000 -0.421191 -0.469977 0.775706 0.000000
97.23339844 117.72100067 292.50000000 -0.935926 0.190523 0.296214 0.000000
118.37100220 174.95500183 316.25000000 -0.572814 -0.309672 0.758938 0.000000
110.56600189 210.07600403 331.25000000 -0.706994 -0.237764 0.666054 0.000000
107.96499634 130.72900391 313.75000000 -0.754064 0.639675 0.149007 0.000000
141.13499451 113.16799927 401.25000000 -0.320267 0.353660 -0.878837 0.000000
163.24800110 124.87500000 351.25000000 -0.624101 -0.395650 0.673764 0.000000
182.10899353 69.91699982 345.00000000 0.000978 0.999999 0.000978 0.000000
52.03120041 215.60400391 320.00000000 0.798218 -0.569284 0.196884 0.000000
48.77930069 166.50000000 273.75000000 0.871540 -0.062352 0.486344 0.000000
166.50000000 134.63099670 398.75000000 -0.000978 -0.000978 -0.999999 0.000000
207.47500610 114.46900177 378.75000000 -0.468520 -0.623014 0.626373 0.000000
121.62300110 130.72900391 418.75000000 -0.421696 -0.122701 -0.898397 0.000000
95.60739899 133.33000183 426.25000000 -0.121013 -0.335845 -0.934111 0.000000
66.33979797 171.05299377 268.75000000 -0.694904 -0.564922 0.444939 0.000000
58.53519821 213.65299988 302.50000000 0.651187 -0.631201 0.421356 0.000000
107.96499634 141.78500366 303.75000000 -0.919162 0.111289 0.377832 0.000000
36.74710083 138.53300476 355.00000000 0.888829 0.429240 -0.160423 0.000000
148.93899536 135.28100586 403.75000000 0.000978 0.000978 -0.999999 0.000000
83.25000000 230.23800659 368.75000000 0.113366 -0.778842 -0.616890 0.000000
145.68800354 69.26660156 335.00000000 0.000978 0.999999 0.000978 0.000000
120.97299957 204.87300110 383.75000000 -0.504532 -0.359459 -0.785007 0.000000
47.47850037 187.96299744 288.75000000 0.858653 -0.290314 0.422414 0.000000
61.46189880 137.23199463 260.00000000 0.672104 0.169169 0.720873 0.000000
156.09399414 157.39500427 378.75000000 -0.670560 0.032469 0.741145 0.000000
151.54100037 156.74400330 346.25000000 -0.001191 -0.967932 0.251210 0.000000
52.68159866 140.80999756 270.00000000 0.860598 0.350729 0.369269 0.000000
83.90039825 80.97360229 360.00000000 0.369560 0.921840 -0.116776 0.000000
134.63099670 211.37699890 363.75000000 -0.914246 -0.391820 -0.103110 0.000000
134.63099670 201.62100220 348.75000000 -0.907492 -0.227962 0.352833 0.000000
148.61399841 81.94920349 390.00000000 0.434006 0.586989 -0.683435 0.000000
74.79489899 98.85939789 406.25000000 0.449441 0.643253 -0.619862 0.000000
96.25779724 166.50000000 411.25000000 -0.000978 -0.000978 -0.999999 0.000000
37.39749908 145.68800354 337.50000000 0.963624 -0.147347 0.222976 0.000000
49.75490189 212.02699280 317.50000000 0.784857 -0.602471 0.145012 0.000000
133.00500488 195.11700439 342.50000000 -0.799309 -0.264351 0.539651 0.000000
54.95800018 173.65400696 267.50000000 0.724238 -0.505475 0.469014 0.000000
172.35400391 113.16799927 396.25000000 0.000978 0.000978 -0.999999 0.000000
141.78500366 87.80269623 391.25000000 0.292823 0.616049 -0.731258 0.000000
86.50199890 226.33599854 321.25000000 -0.507512 -0.581700 0.635655 0.000000
175.27999878 119.67199707 357.50000000 -0.583104 -0.459466 0.669985 0.000000
150.56500244 83.90039825 392.50000000 0.474177 0.474177 -0.741831 0.000000
45.52730179 133.97999573 391.25000000 0.821639 0.272840 -0.500467 0.000000
83.90039825 154.14300537 416.25000000 0.088886 -0.327683 -0.940597 0.000000
48.12889862 193.16600037 386.25000000 0.348438 -0.145761 -0.925929 0.000000
88.45310211 83.25000000 311.25000000 0.603826 0.749632 0.271009 0.000000
84.55079651 124.22499847 276.25000000 -0.768115 -0.211734 0.604292 0.000000
96.25779724 80.32319641 370.00000000 -0.068068 0.876549 -0.476476 0.000000
92.35549927 206.82400513 316.25000000 -0.298670 -0.374475 0.877818 0.000000
103.41200256 178.20700073 406.25000000 -0.069199 -0.252892 -0.965017 0.000000
137.23199463 111.86699677 323.75000000 -0.459751 -0.486117 0.743182 0.000000
122.92400360 226.01100159 365.00000000 -0.405006 -0.811614 -0.421015 0.000000
213.97900391 91.70510101 366.25000000 0.951648 -0.290088 0.101072 0.000000
167.80099487 72.84380341 383.75000000 0.066122 0.994073 -0.086295 0.000000
97.88379669 140.48399353 295.00000000 -0.822681 -0.140314 0.550916 0.000000
70.89260101 95.60739899 401.25000000 0.590787 0.577244 -0.563702 0.000000
72.19339752 237.71800232 350.00000000 0.242340 -0.968119 0.063381 0.000000
48.77930069 211.37699890 368.75000000 0.687092 -0.489825 -0.536634 0.000000
62.43750000 170.40199280 406.25000000 0.787896 -0.174582 -0.590543 0.000000
193.16600037 127.47699738 381.25000000 -0.543224 -0.693655 0.473023 0.000000
37.39749908 176.25599670 312.50000000 0.930869 -0.288696 0.223915 0.000000
98.20899963 178.20700073 406.25000000 -0.000978 -0.000978 -0.999999 0.000000
141.78500366 83.90039825 386.25000000 0.440404 0.566709 -0.696337 0.000000
70.89260101 216.58000183 301.25000000 -0.383119 -0.580433 0.718553 0.000000
99.50980377 233.81500244 365.00000000 -0.054642 -0.842055 -0.536617 0.000000
163.89799500 102.76200104 336.25000000 -0.489716 -0.216809 0.844495 0.000000
61.46189880 140.48399353 260.00000000 0.801502 0.160902 0.575939 0.000000
103.41200256 185.36099243 313.75000000 -0.631920 -0.311919 0.709495 0.000000
124.87500000 150.24000549 318.75000000 -0.650506 0.282898 0.704848 0.000000
174.95500183 87.80269623 333.75000000 0.192006 -0.612884 0.766490 0.000000
132.67999268 195.76800537 378.75000000 -0.788169 -0.001371 -0.615457 0.000000
134.63099670 110.56600189 321.25000000 -0.255350 -0.463299 0.848617 0.000000
49.42969894 143.08599854 398.75000000 0.720179 0.089109 -0.688042 0.000000
182.75999451 114.79399872 362.50000000 -0.773139 -0.581814 0.252485 0.000000
87.80269623 82.27439880 315.00000000 0.572450 0.763798 0.298184 0.000000
133.33000183 178.85699463 328.75000000 -0.695711 -0.297244 0.653936 0.000000
41.95019913 171.05299377 292.50000000 0.955390 -0.158565 0.249174 0.000000
163.24800110 146.33799744 346.25000000 -0.419192 -0.046875 0.906687 0.000000
133.97999573 83.25000000 298.75000000 -0.405006 -0.811614 0.421015 0.000000
61.13669968 141.78500366 258.75000000 0.660629 0.070833 0.747364 0.000000
105.36299896 186.66200256 401.25000000 -0.000978 -0.000978 -0.999999 0.000000
53.33200073 153.49200439 401.25000000 0.693827 0.223967 -0.684429 0.000000
106.66400146 214.62899780 328.75000000 -0.967932 -0.001191 0.251210 0.000000
97.55860138 229.58799744 333.75000000 -0.342451 -0.519304 0.782975 0.000000
109.91600037 111.21700287 318.75000000 -0.524450 -0.645867 0.554804 0.000000
148.93899536 156.41900635 355.00000000 -0.001191 -0.967932 -0.251210 0.000000
39.67380142 191.21499634 318.75000000 0.885539 -0.401978 0.232881 0.000000
80.97360229 89.75389862 300.00000000 0.444843 0.888274 0.114388 0.000000
196.41799927 126.17600250 391.25000000 -0.655158 -0.326766 -0.681169 0.000000
126.17600250 152.84199524 318.75000000 -0.487451 0.365186 0.793114 0.000000
99.83499908 102.76200104 300.00000000 -0.765902 -0.608080 0.208882 0.000000
182.10899353 115.11900330 361.25000000 -0.721838 -0.264938 0.639342 0.000000
74.14450073 173.97900391 407.50000000 0.197417 -0.333763 -0.921753 0.000000
149.58999634 112.19200134 332.50000000 -0.564435 -0.648679 0.510519 0.000000
123.57399750 71.21779633 360.00000000 0.139166 0.963757 -0.227608 0.000000
60.48630142 142.43600464 406.25000000 0.566943 0.134705 -0.812668 0.000000
102.11100006 194.46699524 396.25000000 -0.169491 -0.541472 -0.823457 0.000000
73.49410248 89.75389862 331.25000000 0.470929 0.882162 -0.003980 0.000000
88.45310211 228.61199951 372.50000000 0.046877 -0.754296 -0.654859 0.000000
107.96499634 136.58200073 306.25000000 -0.816965 0.159809 0.554102 0.000000
200.97099304 85.20120239 351.25000000 -0.665343 -0.662073 0.344932 0.000000
88.45310211 200.97099304 308.75000000 -0.562429 -0.426384 0.708428 0.000000
133.33000183 169.10200500 391.25000000 -0.830069 0.542116 0.130754 0.000000
168.12600708 156.09399414 357.50000000 -0.979604 -0.139591 0.144532 0.000000
133.97999573 176.25599670 328.75000000 -0.731071 -0.254217 0.633174 0.000000
163.24800110 104.06199646 398.75000000 -0.000978 -0.000978 -0.999999 0.000000
73.49410248 88.12789917 372.50000000 0.578492 0.808723 -0.106373 0.000000
41.95019913 155.44299316 295.00000000 0.891061 0.178794 0.417185 0.000000
113.16799927 100.81099701 416.25000000 -0.000978 -0.000978 -0.999999 0.000000
61.46189880 101.46099854 397.50000000 0.720685 0.613797 -0.322284 0.000000
88.45310211 79.67289734 360.00000000 0.272778 0.950019 -0.151842 0.000000
53.33200073 178.20700073 271.25000000 0.731869 -0.282224 0.620255 0.000000
102.76200104 210.72700500 388.75000000 -0.366586 -0.549065 -0.751094 0.000000
60.48630142 144.38699341 258.75000000 0.634031 0.073657 0.769792 0.000000
91.05470276 91.05470276 278.75000000 0.233782 0.910442 0.341234 0.000000
55.93360138 205.84899902 295.00000000 0.560302 -0.677380 0.476675 0.000000
87.15229797 162.59800720 413.75000000 0.213579 -0.205520 -0.955063 0.000000
42.92580032 190.23899841 302.50000000 0.877383 -0.292461 0.380351 0.000000
47.47850037 141.13499451 396.25000000 0.710193 0.227324 -0.666296 0.000000
153.49200439 150.89100647 341.25000000 0.000978 0.000978 0.999999 0.000000
127.80200195 150.89100647 407.50000000 -0.837859 0.054735 -0.543135 0.000000
73.49410248 199.02000427 393.75000000 0.063302 -0.530326 -0.845427 0.000000
104.06199646 83.90039825 283.75000000 0.332808 0.911227 0.242703 0.000000
118.37100220 184.38600159 397.50000000 -0.323241 -0.432549 -0.841675 0.000000
39.02339935 166.50000000 303.75000000 0.933438 -0.196733 0.299984 0.000000
71.21779633 96.25779724 302.50000000 0.559873 0.820075 0.118407 0.000000
59.18550110 227.31199646 352.50000000 0.599568 -0.799887 0.026431 0.000000
62.43750000 215.27900696 376.25000000 0.453097 -0.637011 -0.623635 0.000000
217.88099670 84.55079651 373.75000000 -0.871637 0.426033 -0.242372 0.000000
110.24099731 90.40429688 290.00000000 -0.640493 -0.739747 0.206261 0.000000
83.90039825 228.93800354 321.25000000 -0.508513 -0.545435 0.666270 0.000000
174.30499268 86.50199890 396.25000000 -0.000978 -0.000978 -0.999999 0.000000
98.53420258 143.73599243 297.50000000 -0.590884 -0.467016 0.657839 0.000000
68.29100037 163.89799500 408.75000000 -0.000978 -0.000978 -0.999999 0.000000
133.65499878 69.59179688 320.00000000 0.000978 0.000978 0.999999 0.000000
95.60739899 210.07600403 318.75000000 -0.271814 -0.446881 0.852299 0.000000
106.66400146 178.20700073 311.25000000 -0.410367 -0.271054 0.870706 0.000000
163.24800110 109.26599884 398.75000000 -0.000978 -0.000978 -0.999999 0.000000
63.08789825 145.68800354 258.75000000 0.531371 -0.159262 0.832034 0.000000
130.72900391 71.86820221 305.00000000 0.675900 0.675900 -0.293800 0.000000
78.69730377 208.12500000 303.75000000 -0.660589 -0.258216 0.704945 0.000000
106.66400146 87.15229797 398.75000000 0.649631 0.322385 -0.688511 0.000000
76.09570313 111.86699677 418.75000000 0.309618 0.516030 -0.798655 0.000000
75.44529724 104.71299744 268.75000000 0.675900 0.675900 0.293800 0.000000
139.18400574 140.48399353 403.75000000 -0.153081 -0.870374 -0.467990 0.000000
156.74400330 118.37100220 401.25000000 -0.000978 -0.000978 -0.999999 0.000000
62.43750000 146.33799744 258.75000000 0.540389 -0.040286 0.840450 0.000000
74.79489899 216.90499878 305.00000000 -0.794749 -0.237958 0.558346 0.000000
54.63280106 111.21700287 396.25000000 0.810584 0.417283 -0.410888 0.000000
96.25779724 136.58200073 423.75000000 -0.176176 -0.279970 -0.943705 0.000000
82.92479706 143.73599243 420.00000000 0.636167 -0.366577 -0.678906 0.000000
112.51799774 147.63900757 308.75000000 -0.001349 -0.538096 0.842882 0.000000
143.08599854 117.72100067 331.25000000 -0.484330 -0.568125 0.665326 0.000000
131.37899780 159.34599304 321.25000000 -0.724889 -0.004158 0.688853 0.000000
61.13669968 146.98800659 258.75000000 0.556497 -0.040447 0.829864 0.000000
154.14300537 91.70510101 318.75000000 -0.468358 -0.435719 0.768629 0.000000
121.29799652 71.54299927 322.50000000 0.265723 0.963706 -0.025715 0.000000
43.25099945 171.70300293 390.00000000 0.782445 -0.191400 -0.592576 0.000000
218.85600281 92.35549927 370.00000000 -0.804370 -0.513596 0.298676 0.000000
111.86699677 139.18400574 308.75000000 -0.672273 0.373120 0.639399 0.000000
184.71099854 97.55860138 393.75000000 -0.138247 -0.086257 -0.986634 0.000000
52.68159866 221.45799255 352.50000000 0.554045 -0.831762 0.034715 0.000000
88.45310211 145.68800354 421.25000000 0.032206 -0.211131 -0.976927 0.000000
61.13669968 173.00399780 403.75000000 0.434933 -0.355855 -0.827164 0.000000
54.63280106 133.33000183 271.25000000 0.894983 0.255921 0.365390 0.000000
81.94920349 185.36099243 403.75000000 0.099901 -0.460108 -0.882225 0.000000
61.78710175 147.63900757 258.75000000 0.517318 -0.117375 0.847706 0.000000
151.54100037 115.76999664 401.25000000 -0.000978 -0.000978 -0.999999 0.000000
125.52500153 126.17600250 413.75000000 -0.607985 -0.067236 -0.791096 0.000000
71.54299927 137.23199463 416.25000000 0.632504 -0.104194 -0.767517 0.000000
98.85939789 83.90039825 398.75000000 0.094285 0.807947 -0.581664 0.000000
185.36099243 92.35549927 393.75000000 -0.245384 -0.175658 -0.953379 0.000000
177.55700684 77.39649963 393.75000000 -0.246290 0.770245 -0.588272 0.000000
51.05569839 219.18200684 345.00000000 0.695601 -0.695601 0.179659 0.000000
107.31400299 90.07910156 392.50000000 -0.475410 0.705609 0.525453 0.000000
79.34770203 147.63900757 273.75000000 -0.856936 -0.313438 0.409167 0.000000
109.91600037 218.53100586 333.75000000 -0.742245 -0.334738 0.580536 0.000000
113.81800079 147.63900757 308.75000000 -0.549131 0.348269 0.759713 0.000000
43.25099945 184.71099854 385.00000000 0.725181 -0.206529 -0.656855 0.000000
101.46099854 185.36099243 311.25000000 -0.298444 -0.346435 0.889333 0.000000
64.38870239 148.28900146 258.75000000 0.439957 -0.199980 0.875469 0.000000
41.62500000 177.55700684 296.25000000 0.969576 -0.121038 0.212772 0.000000
104.06199646 154.14300537 416.25000000 -0.326735 -0.651845 -0.684356 0.000000
75.77050018 148.28900146 260.00000000 -0.887382 -0.401470 0.226660 0.000000
151.54100037 89.10350037 313.75000000 -0.773663 -0.387642 0.501178 0.000000
171.70300293 69.91699982 355.00000000 0.001191 0.967932 0.251210 0.000000
43.25099945 146.33799744 295.00000000 0.946917 0.211792 0.241853 0.000000
96.90820313 114.46900177 423.75000000 -0.122385 0.582434 -0.803612 0.000000
53.33200073 117.72100067 398.75000000 0.750252 0.188714 -0.633648 0.000000
53.98239899 182.75999451 273.75000000 0.735115 -0.399626 0.547636 0.000000
215.27900696 91.70510101 381.25000000 -0.532470 0.799490 0.278015 0.000000
51.38090134 133.97999573 398.75000000 0.869278 0.168578 -0.464690 0.000000
215.92999268 85.20120239 361.25000000 -0.474435 -0.568316 0.672256 0.000000
47.80369949 171.70300293 395.00000000 0.441111 -0.392990 -0.806833 0.000000
120.64700317 133.33000183 417.50000000 -0.416591 -0.098266 -0.903768 0.000000
130.07800293 106.66400146 318.75000000 -0.200404 -0.197749 0.959549 0.000000
85.85160065 186.98699951 402.50000000 0.068271 -0.491827 -0.868012 0.000000
117.06999969 214.62899780 336.25000000 -0.589659 -0.566005 0.576143 0.000000
109.26599884 179.50799561 403.75000000 -0.000978 -0.000978 -0.999999 0.000000
87.80269623 124.87500000 278.75000000 -0.633552 0.168643 0.755097 0.000000
152.19099426 156.41900635 365.00000000 0.534260 -0.837056 -0.117916 0.000000
197.06799316 109.26599884 371.25000000 -0.348731 -0.754231 0.556347 0.000000
81.29879761 139.83399963 273.75000000 -0.877383 -0.292461 0.380351 0.000000
139.50900269 69.59179688 352.50000000 0.046448 0.997021 -0.061571 0.000000
53.65719986 124.87500000 285.00000000 0.866600 0.470691 0.165695 0.000000
140.48399353 132.02900696 408.75000000 -0.474177 0.474177 -0.741831 0.000000
86.50199890 110.56600189 421.25000000 0.137082 0.549804 -0.823969 0.000000
128.77699280 110.24099731 405.00000000 -0.434285 0.792692 -0.427827 0.000000
93.00589752 122.92400360 426.25000000 -0.000978 -0.000978 -0.999999 0.000000
133.65499878 154.14300537 385.00000000 -0.599854 -0.798387 -0.052469 0.000000
61.13669968 150.24000549 258.75000000 0.552819 -0.031867 0.832692 0.000000
140.48399353 84.87599945 387.50000000 0.416776 0.541973 -0.729769 0.000000
176.90600586 105.36299896 348.75000000 -0.680147 -0.600325 0.420726 0.000000
104.06199646 201.62100220 321.25000000 -0.546057 -0.321870 0.773448 0.000000
143.08599854 126.17600250 338.75000000 -0.441316 -0.514043 0.735527 0.000000
67.31539917 93.00589752 342.50000000 0.695601 0.695601 0.179659 0.000000
72.19339752 225.68600464 311.25000000 -0.470311 -0.664461 0.580775 0.000000
80.64839935 84.87599945 325.00000000 0.613648 0.781407 0.113311 0.000000
74.14450073 150.24000549 258.75000000 -0.887382 -0.401470 0.226660 0.000000
110.56600189 168.45100403 408.75000000 0.619586 -0.619586 -0.481900 0.000000
67.31539917 234.79100037 350.00000000 0.546283 -0.831675 -0.099455 0.000000
70.24220276 114.46900177 418.75000000 0.450800 -0.079063 -0.889117 0.000000
139.50900269 87.15229797 305.00000000 -0.329976 -0.629067 0.703840 0.000000
131.37899780 164.54899597 398.75000000 -0.543239 0.325303 -0.773996 0.000000
111.21700287 132.67999268 331.25000000 -0.933174 0.155759 -0.323923 0.000000
113.16799927 175.60499573 403.75000000 -0.126922 -0.661490 -0.739136 0.000000
80.64839935 189.26400757 401.25000000 0.207497 -0.183708 -0.960831 0.000000
99.83499908 104.06199646 280.00000000 -0.796117 -0.477670 0.371521 0.000000
210.07600403 85.85160065 381.25000000 -0.615119 0.158692 -0.772299 0.000000
65.03910065 208.77499390 293.75000000 -0.373903 -0.473397 0.797553 0.000000
145.03700256 122.27300262 403.75000000 -0.322801 0.301975 -0.897001 0.000000
106.01399994 72.51860046 342.50000000 0.282299 0.958822 -0.031090 0.000000
83.25000000 154.14300537 286.25000000 -0.786531 -0.416780 0.455701 0.000000
169.10200500 117.72100067 396.25000000 -0.457460 0.340325 -0.821529 0.000000
47.47850037 194.46699524 296.25000000 0.877374 -0.368225 0.307611 0.000000
116.41999817 160.64599609 411.25000000 -0.665607 -0.406668 -0.625770 0.000000
121.62300110 226.33599854 353.75000000 -0.811690 -0.485748 0.324359 0.000000
154.79299927 93.00589752 398.75000000 -0.000978 -0.000978 -0.999999 0.000000
139.50900269 89.75389862 307.50000000 -0.485411 -0.606344 0.629859 0.000000
66.99019623 227.63699341 366.25000000 0.446170 -0.670090 -0.593222 0.000000
112.51799774 209.42599487 386.25000000 -0.483192 -0.546726 -0.683825 0.000000
100.81099701 192.84100342 315.00000000 -0.397633 -0.449148 0.800096 0.000000
73.49410248 173.00399780 283.75000000 -0.802767 -0.432754 0.410231 0.000000
74.14450073 151.54100037 258.75000000 -0.887382 -0.401470 0.226660 0.000000
167.14999390 152.84199524 348.75000000 -0.488665 0.416754 0.766501 0.000000
133.97999573 85.85160065 388.75000000 0.012382 0.581974 -0.813113 0.000000
38.37300110 171.70300293 383.75000000 0.838207 -0.114763 -0.533140 0.000000
123.24900055 93.00589752 307.50000000 0.158926 -0.897714 0.410915 0.000000
58.53519821 165.19900513 403.75000000 0.468707 -0.112547 -0.876155 0.000000
184.71099854 69.91699982 350.00000000 0.000978 0.999999 0.000978 0.000000
83.25000000 215.27900696 386.25000000 -0.073808 -0.727953 -0.681642 0.000000
47.47850037 144.38699341 281.25000000 0.929582 0.273073 0.247606 0.000000
103.41200256 125.52500153 423.75000000 -0.000978 -0.000978 -0.999999 0.000000
97.55860138 215.60400391 385.00000000 0.098451 -0.659767 -0.744993 0.000000
97.55860138 178.85699463 308.75000000 -0.232305 -0.904380 0.357953 0.000000
106.01399994 208.12500000 388.75000000 -0.432826 -0.501947 -0.748806 0.000000
45.52730179 139.83399963 393.75000000 0.729019 0.199668 -0.654724 0.000000
51.38090134 146.33799744 271.25000000 0.708486 -0.705724 0.001381 0.000000
83.90039825 147.96400452 282.50000000 -0.781252 -0.386582 0.490102 0.000000
91.05470276 222.43400574 321.25000000 -0.661003 -0.247679 0.708330 0.000000
76.74610138 165.19900513 283.75000000 -0.829862 -0.171953 0.530812 0.000000
152.19099426 95.28220367 320.00000000 -0.547087 -0.486857 0.680931 0.000000
52.03120041 146.98800659 268.75000000 0.708486 -0.705724 0.001381 0.000000
67.31539917 172.35400391 270.00000000 -0.896244 -0.036280 0.442075 0.000000
187.96299744 107.31400299 363.75000000 -0.737911 -0.554660 0.384499 0.000000
65.68949890 152.84199524 258.75000000 0.385351 -0.022057 0.922507 0.000000
145.03700256 117.72100067 333.75000000 -0.484330 -0.568125 0.665326 0.000000
94.95700073 121.62300110 426.25000000 -0.000978 -0.000978 -0.999999 0.000000
67.64060211 120.32199860 416.25000000 0.649312 0.265122 -0.712814 0.000000
206.17399597 90.07910156 360.00000000 -0.183200 -0.552628 0.813044 0.000000
123.57399750 136.58200073 416.25000000 -0.529529 0.078081 -0.844691 0.000000
158.04499817 92.35549927 321.25000000 0.309153 -0.927460 -0.210337 0.000000
49.10449982 212.67799377 322.50000000 0.695601 -0.695601 0.179659 0.000000
62.43750000 153.49200439 258.75000000 0.385435 -0.111900 0.915925 0.000000
50.73049927 152.84199524 268.75000000 0.815029 -0.134606 0.563568 0.000000
136.58200073 116.41999817 406.25000000 -0.433393 0.556270 -0.709037 0.000000
165.19900513 90.07910156 325.00000000 -0.521346 -0.521346 0.675571 0.000000
96.90820313 83.90039825 398.75000000 0.226632 0.964803 -0.133389 0.000000
72.19339752 159.34599304 411.25000000 -0.000978 -0.000978 -0.999999 0.000000
165.19900513 161.29699707 373.75000000 -0.894356 -0.411780 -0.174826 0.000000
73.49410248 178.20700073 406.25000000 0.199201 -0.483774 -0.852221 0.000000
104.06199646 87.47750092 405.00000000 0.692835 0.535904 -0.482480 0.000000
114.14399719 75.44529724 307.50000000 0.191662 0.960952 0.199593 0.000000
111.21700287 218.53100586 378.75000000 -0.439515 -0.623342 -0.646739 0.000000
117.06999969 211.05200195 335.00000000 -0.466627 -0.269504 0.842393 0.000000
173.00399780 140.48399353 393.75000000 -0.834771 -0.360005 -0.416599 0.000000
107.96499634 133.33000183 423.75000000 -0.000978 -0.000978 -0.999999 0.000000
148.93899536 70.56739807 322.50000000 -0.144034 0.987158 0.069089 0.000000
141.13499451 86.50199890 388.75000000 0.401687 0.606663 -0.686009 0.000000
48.77930069 183.73500061 282.50000000 0.784202 -0.307000 0.539238 0.000000
107.31400299 143.73599243 421.25000000 0.405599 -0.540252 -0.737304 0.000000
97.55860138 79.02249908 367.50000000 0.271130 0.856280 -0.439629 0.000000
64.06349945 104.06199646 300.00000000 0.723133 0.661194 0.199752 0.000000
109.91600037 211.37699890 331.25000000 -0.615180 -0.289214 0.733422 0.000000
120.32199860 165.85000610 313.75000000 -0.784306 -0.023682 0.619922 0.000000
192.51600647 130.72900391 386.25000000 -0.559169 -0.758988 0.333568 0.000000
110.56600189 221.13299561 336.25000000 -0.567959 -0.510658 0.645485 0.000000
60.81150055 154.79299927 260.00000000 0.639955 -0.061562 0.765942 0.000000
83.25000000 178.85699463 298.75000000 -0.523800 -0.441181 0.728693 0.000000
62.43750000 154.79299927 258.75000000 0.315016 -0.052717 0.947621 0.000000
159.34599304 108.61499786 398.75000000 -0.000978 -0.000978 -0.999999 0.000000
39.99900055 143.08599854 330.00000000 0.952995 0.250647 0.170226 0.000000
55.93360138 121.62300110 281.25000000 0.854616 0.486016 0.182813 0.000000
86.50199890 170.40199280 408.75000000 0.222186 -0.164339 -0.961055 0.000000
112.51799774 92.35549927 391.25000000 -0.266301 0.814477 -0.515472 0.000000
201.62100220 111.21700287 376.25000000 -0.538096 -0.001349 0.842882 0.000000
118.37100220 161.94700623 311.25000000 0.000978 0.000978 0.999999 0.000000
76.42089844 222.43400574 310.00000000 -0.325182 -0.719930 0.613154 0.000000
85.85160065 82.27439880 372.50000000 0.336703 0.940976 -0.034566 0.000000
139.18400574 120.97299957 331.25000000 -0.644166 -0.362241 0.673670 0.000000
122.27300262 150.89100647 316.25000000 -0.734082 0.314607 0.601786 0.000000
149.58999634 109.26599884 328.75000000 -0.774406 -0.471165 0.422255 0.000000
109.91600037 90.40429688 406.25000000 -0.602592 0.756781 -0.253309 0.000000
162.59800720 130.72900391 401.25000000 -0.387774 -0.212178 -0.897002 0.000000
62.43750000 154.79299927 408.75000000 -0.000978 -0.000978 -0.999999 0.000000
53.33200073 205.52299500 298.75000000 0.606700 -0.636951 0.475613 0.000000
34.47069931 168.45100403 351.25000000 0.967932 -0.001191 -0.251210 0.000000
107.96499634 165.19900513 411.25000000 0.001381 -0.691755 -0.722131 0.000000
180.80900574 100.16000366 396.25000000 -0.666532 -0.052809 -0.743604 0.000000
151.54100037 96.90820313 398.75000000 -0.000978 -0.000978 -0.999999 0.000000
128.77699280 201.29600525 380.00000000 -0.435294 -0.435294 -0.788060 0.000000
125.19999695 183.41000366 395.00000000 -0.327484 -0.473033 -0.817920 0.000000
37.72269821 148.93899536 321.25000000 0.968119 0.242340 0.063381 0.000000
83.25000000 128.77699280 423.75000000 0.000978 0.000978 -0.999999 0.000000
34.14550018 167.14999390 330.00000000 0.968119 0.242340 0.063381 0.000000
63.73830032 103.41200256 403.75000000 0.610660 0.553146 -0.566679 0.000000
133.97999573 165.19900513 323.75000000 -0.769771 -0.388954 0.506129 0.000000
162.59800720 122.27300262 348.75000000 -0.542678 -0.519156 0.660286 0.000000
82.59960175 189.26400757 401.25000000 0.158046 -0.503678 -0.849311 0.000000
65.68949890 156.09399414 258.75000000 0.294369 -0.181044 0.938387 0.000000
50.40530014 134.63099670 397.50000000 0.854038 0.192944 -0.483107 0.000000
99.50980377 156.74400330 301.25000000 -0.894688 -0.446689 0.001310 0.000000
51.05569839 126.82599640 397.50000000 0.713011 0.089309 -0.695442 0.000000
54.63280106 114.79399872 305.00000000 0.846783 0.500304 0.180707 0.000000
103.41200256 79.67289734 302.50000000 0.385753 0.902980 0.189265 0.000000
104.06199646 193.81599426 396.25000000 0.023324 -0.544695 -0.838310 0.000000
136.25700378 205.52299500 355.00000000 -0.812315 0.543073 -0.212640 0.000000
138.53300476 119.02100372 328.75000000 -0.625871 -0.372894 0.685008 0.000000
128.12699890 110.56600189 321.25000000 -0.239074 -0.516708 0.822105 0.000000
60.81150055 104.06199646 400.00000000 0.697944 0.585212 -0.412798 0.000000
52.35639954 184.06100464 277.50000000 0.802700 -0.363698 0.472648 0.000000
60.48630142 200.97099304 288.75000000 -0.004139 -0.633232 0.773951 0.000000
73.49410248 95.60739899 298.75000000 0.522739 0.834286 0.175245 0.000000
94.30660248 88.45310211 406.25000000 0.255562 0.779228 -0.572270 0.000000
130.07800293 156.74400330 401.25000000 0.000978 -0.999999 0.000978 0.000000
111.21700287 98.85939789 311.25000000 -0.319585 -0.676482 0.663504 0.000000
133.97999573 80.64839935 383.75000000 0.151492 0.589469 -0.793458 0.000000
130.72900391 145.03700256 408.75000000 -0.585743 -0.174058 -0.791586 0.000000
83.90039825 83.25000000 321.25000000 0.292461 0.877383 0.380351 0.000000
79.02249908 195.76800537 300.00000000 -0.575510 -0.382033 0.723076 0.000000
66.99019623 204.87300110 293.75000000 -0.387510 -0.381234 0.839343 0.000000
54.63280106 140.48399353 403.75000000 -0.538096 0.001349 0.842882 0.000000
80.64839935 84.22560120 375.00000000 0.707106 0.707106 -0.001384 0.000000
180.15800476 126.17600250 396.25000000 -0.341487 -0.359863 -0.868266 0.000000
40.97460175 130.40299988 372.50000000 0.945180 0.315934 -0.082589 0.000000
60.48630142 160.64599609 406.25000000 0.475526 -0.229407 -0.849263 0.000000
52.35639954 221.13299561 350.00000000 0.554045 -0.831762 0.034715 0.000000
98.85939789 77.72170258 317.50000000 -0.000978 -0.000978 0.999999 0.000000
165.52400208 160.64599609 372.50000000 -0.923234 -0.371197 -0.099258 0.000000
81.29879761 121.62300110 423.75000000 0.462418 0.184672 -0.867218 0.000000
63.73830032 127.47699738 413.75000000 0.662947 -0.166118 -0.730004 0.000000
66.99019623 231.53900146 361.25000000 0.924214 -0.008998 -0.381769 0.000000
178.85699463 95.60739899 341.25000000 -0.186631 -0.852529 0.488226 0.000000
68.94139862 228.93800354 316.25000000 0.065565 -0.866289 0.495222 0.000000
93.00589752 147.63900757 293.75000000 -0.692007 -0.340305 0.636647 0.000000
60.48630142 186.66200256 276.25000000 0.093969 -0.882186 -0.461430 0.000000
40.64939880 131.37899780 360.00000000 0.942238 0.314973 -0.113926 0.000000
85.52639771 201.62100220 307.50000000 -0.641117 -0.230426 0.732033 0.000000
112.51799774 134.63099670 316.25000000 -0.655707 0.740120 0.149230 0.000000
72.19339752 176.25599670 406.25000000 0.578020 -0.177502 -0.796484 0.000000
183.41000366 131.05400085 375.00000000 -0.658384 -0.543883 0.520309 0.000000
107.31400299 106.01399994 313.75000000 -0.772525 -0.301046 0.559085 0.000000
113.16799927 113.16799927 418.75000000 -0.235855 0.032657 -0.971239 0.000000
202.92199707 93.00589752 361.25000000 -0.337606 -0.513609 0.788814 0.000000
81.62400055 167.80099487 292.50000000 -0.690849 -0.415835 0.591446 0.000000
188.61300659 91.70510101 346.25000000 -0.886654 -0.001317 -0.462431 0.000000
71.86820221 161.29699707 267.50000000 -0.901335 -0.381725 0.204651 0.000000
130.07800293 162.92300415 387.50000000 -0.474177 -0.474177 -0.741831 0.000000
100.16000366 82.92479706 292.50000000 0.000978 0.000978 0.999999 0.000000
80.64839935 157.72000122 285.00000000 -0.804823 -0.376011 0.459213 0.000000
90.40429688 114.79399872 277.50000000 -0.850856 -0.262156 0.455323 0.000000
100.81099701 191.21499634 313.75000000 -0.488051 -0.285346 0.824854 0.000000
68.29100037 181.45899963 278.75000000 -0.862474 -0.327463 0.385884 0.000000
99.50980377 102.76200104 416.25000000 0.066333 0.412892 -0.908361 0.000000
138.53300476 69.26660156 342.50000000 0.195394 0.979369 -0.051546 0.000000
84.87599945 138.53300476 277.50000000 -0.807497 -0.212983 0.550079 0.000000
112.51799774 199.02000427 391.25000000 -0.779135 -0.155224 -0.607334 0.000000
70.24220276 158.69500732 258.75000000 -0.602306 -0.639216 0.478154 0.000000
132.02900696 178.53199768 327.50000000 -0.695711 -0.297244 0.653936 0.000000
61.13669968 111.54199982 407.50000000 0.769868 0.462575 -0.439691 0.000000
130.72900391 140.15899658 410.00000000 -0.420305 -0.110312 -0.900653 0.000000
93.65619659 171.70300293 408.75000000 -0.214151 -0.508800 -0.833824 0.000000
123.57399750 213.32800293 376.25000000 -0.447614 -0.467289 -0.762419 0.000000
68.94139862 91.37989807 372.50000000 0.695601 0.695601 0.179659 0.000000
63.08789825 200.32000732 391.25000000 0.267255 -0.474261 -0.838839 0.000000
113.81800079 115.76999664 418.75000000 -0.367377 0.417832 -0.830934 0.000000
109.26599884 128.77699280 323.75000000 -0.855332 -0.189576 0.482150 0.000000
109.91600037 126.17600250 323.75000000 -0.430055 -0.369752 0.823611 0.000000
59.51070023 100.16000366 382.50000000 0.704094 0.704094 -0.092220 0.000000
129.42799377 173.00399780 398.75000000 -0.574064 0.190339 -0.796380 0.000000
69.59179688 173.65400696 276.25000000 -0.811614 -0.405006 0.421015 0.000000
109.26599884 119.02100372 318.75000000 -0.336078 -0.391833 0.856457 0.000000
124.87500000 196.41799927 333.75000000 -0.396294 -0.567309 0.721880 0.000000
