146.82400513 258.95098877 390.00000000 -0.960094 -0.001211 0.279674 0.000000
92.76950073 159.24200439 467.50000000 -0.107524 0.752667 -0.649562 0.000000
194.30499268 146.09399414 442.50000000 -0.662896 0.189179 0.724417 0.000000
44.55860138 193.57400513 442.50000000 0.844699 0.416885 -0.335694 0.000000
62.82030106 287.07400513 447.50000000 0.255337 0.030543 -0.966370 0.000000
139.52000427 262.23800659 382.50000000 0.122698 -0.492235 0.861772 0.000000
143.17199707 217.67999268 417.50000000 -0.243258 -0.616777 -0.748607 0.000000
105.91799927 159.97300720 467.50000000 -0.000978 -0.000978 -0.999999 0.000000
181.15600586 137.32800293 442.50000000 -0.552531 0.829510 0.081381 0.000000
92.03910065 269.54299927 467.50000000 0.125453 -0.198951 -0.971946 0.000000
136.59800720 218.41000366 417.50000000 -0.000978 -0.000978 -0.999999 0.000000
197.22700500 189.55700684 450.00000000 -0.432440 -0.541793 -0.720733 0.000000
131.48399353 228.27099609 410.00000000 0.381931 -0.735995 -0.558963 0.000000
137.32800293 243.97700500 472.50000000 -0.224645 -0.505833 -0.832867 0.000000
113.22299957 293.64801025 452.50000000 -0.000978 -0.000978 -0.999999 0.000000
187.72999573 207.08799744 420.00000000 -0.539808 -0.709225 0.453439 0.000000
81.81250000 154.85899353 412.50000000 -0.380159 -0.623724 0.682970 0.000000
32.87110138 227.54100037 370.00000000 0.973795 0.225092 0.032500 0.000000
74.50779724 228.63699341 337.50000000 0.000978 0.000978 0.999999 0.000000
158.51199341 258.58599854 442.50000000 -0.785715 -0.293651 -0.544445 0.000000
133.67599487 233.75000000 477.50000000 0.000978 0.000978 -0.999999 0.000000
77.42970276 292.91799927 352.50000000 -0.746104 -0.323903 0.581735 0.000000
192.84399414 137.32800293 447.50000000 -0.263092 -0.466181 -0.844664 0.000000
102.99600220 165.08599854 472.50000000 -0.572809 0.572809 -0.586327 0.000000
63.55080032 257.12500000 317.50000000 -0.793430 -0.094629 0.601260 0.000000
100.07399750 233.75000000 487.50000000 0.157507 -0.384545 -0.909570 0.000000
41.63669968 198.68800354 437.50000000 0.974219 0.189816 -0.121934 0.000000
97.15229797 218.77499390 495.00000000 0.129088 -0.781948 -0.609831 0.000000
77.42970276 201.60899353 492.50000000 -0.478207 0.635932 -0.605729 0.000000
59.16799927 219.14100647 332.50000000 -0.296282 0.861213 0.412952 0.000000
57.70700073 187.72999573 467.50000000 0.000978 0.000978 -0.999999 0.000000
71.58589935 221.33200073 482.50000000 -0.000978 -0.000978 -0.999999 0.000000
205.99200439 170.92999268 452.50000000 -0.000978 -0.000978 -0.999999 0.000000
56.24610138 174.58200073 372.50000000 0.000978 0.000978 0.999999 0.000000
128.56199646 270.27301025 462.50000000 -0.065676 -0.300050 -0.951660 0.000000
85.46479797 142.44099426 427.50000000 0.310279 0.853652 -0.418336 0.000000
96.42189789 237.76800537 485.00000000 0.162855 -0.820252 -0.548329 0.000000
94.23049927 283.42199707 367.50000000 -0.120346 0.670073 0.732475 0.000000
103.72699738 159.24200439 412.50000000 0.000978 0.000978 0.999999 0.000000
38.34960175 256.39498901 335.00000000 0.967901 -0.241039 0.071188 0.000000
55.51559830 285.97900391 330.00000000 0.542415 -0.515546 0.663324 0.000000
96.42189789 271.00399780 467.50000000 0.163838 -0.095876 -0.981817 0.000000
37.25389862 198.68800354 382.50000000 0.920121 0.367771 0.134618 0.000000
102.99600220 254.93400574 357.50000000 -0.853879 -0.255094 0.453671 0.000000
176.04299927 219.87100220 402.50000000 -0.000978 -0.000978 -0.999999 0.000000
60.62889862 213.29699707 342.50000000 -0.332378 0.611251 0.718260 0.000000
204.53100586 151.93800354 447.50000000 -0.837535 0.247419 -0.487154 0.000000
66.47270203 204.53100586 482.50000000 -0.000978 -0.000978 -0.999999 0.000000
150.47700500 138.05900574 457.50000000 0.703437 0.703437 -0.101755 0.000000
93.86519623 246.16799927 350.00000000 -0.614447 -0.064453 0.786321 0.000000
64.28119659 303.14498901 347.50000000 0.359716 -0.848680 0.387746 0.000000
157.05099487 217.67999268 402.50000000 -0.704676 -0.518095 -0.484777 0.000000
146.82400513 189.92199707 467.50000000 -0.000978 -0.000978 -0.999999 0.000000
72.68160248 232.28900146 480.00000000 0.544507 -0.551250 -0.632167 0.000000
96.42189789 168.00799561 477.50000000 -0.000978 -0.000978 -0.999999 0.000000
56.24610138 257.85501099 457.50000000 -0.000978 -0.000978 -0.999999 0.000000
156.32000732 271.73400879 412.50000000 0.000978 0.000978 0.999999 0.000000
59.89839935 195.03500366 362.50000000 0.015093 0.569430 0.821901 0.000000
176.04299927 129.29299927 452.50000000 -0.301421 0.255270 -0.918685 0.000000
84.73439789 203.07000732 492.50000000 -0.000978 -0.000978 -0.999999 0.000000
135.86700439 166.54699707 412.50000000 -0.724461 0.482421 0.492368 0.000000
122.71900177 273.92599487 382.50000000 -0.303677 -0.724647 0.618601 0.000000
97.88279724 201.60899353 497.50000000 -0.781505 -0.389944 -0.487025 0.000000
93.50000000 311.17999268 442.50000000 -0.343561 -0.533891 -0.772610 0.000000
148.28500366 252.01199341 387.50000000 -0.000978 -0.000978 -0.999999 0.000000
195.03500366 154.12899780 437.50000000 -0.915238 -0.001287 0.402911 0.000000
156.32000732 233.75000000 397.50000000 0.577946 -0.141144 -0.803776 0.000000
139.52000427 308.25799561 437.50000000 -0.089554 0.146869 -0.985094 0.000000
208.91400146 192.11300659 437.50000000 -0.624888 -0.268718 0.733011 0.000000
101.53500366 292.18798828 452.50000000 -0.095441 -0.350846 -0.931557 0.000000
45.65430069 183.34800720 435.00000000 0.800628 0.504570 -0.323116 0.000000
39.44530106 207.08799744 365.00000000 0.931916 0.359435 -0.048360 0.000000
53.32419968 205.99200439 467.50000000 0.612439 0.110151 -0.782806 0.000000
64.28119659 298.03100586 342.50000000 0.177697 -0.026713 0.983723 0.000000
176.04299927 173.12100220 412.50000000 -0.306346 0.306346 0.901279 0.000000
114.31800079 208.18400574 395.00000000 -0.567476 0.822771 0.031912 0.000000
199.78300476 173.85200500 430.00000000 -0.409145 0.611233 0.677491 0.000000
69.39450073 252.01199341 462.50000000 0.518287 0.381810 -0.765245 0.000000
96.42189789 138.05900574 422.50000000 0.432039 0.865594 -0.253160 0.000000
78.16020203 209.64500427 362.50000000 0.000978 0.000978 0.999999 0.000000
113.95300293 144.26800537 445.00000000 0.104829 0.848687 -0.518403 0.000000
176.77299500 197.95700073 407.50000000 0.000978 0.000978 0.999999 0.000000
44.92380142 261.50799561 320.00000000 0.779249 -0.487638 0.393675 0.000000
63.91600037 273.92599487 455.00000000 -0.251864 -0.685894 -0.682726 0.000000
111.03099823 230.09800720 367.50000000 0.000978 0.000978 0.999999 0.000000
76.69920349 317.75399780 427.50000000 0.650020 -0.376847 -0.659894 0.000000
84.00389862 250.55099487 467.50000000 -0.037488 -0.831679 -0.553990 0.000000
81.08200073 214.02699280 492.50000000 -0.530710 -0.816831 -0.226128 0.000000
61.35940170 261.50799561 317.50000000 -0.812586 -0.426248 0.397513 0.000000
65.01170349 276.11700439 452.50000000 0.081182 -0.542639 -0.836034 0.000000
80.35160065 188.09599304 385.00000000 -0.000978 -0.000978 0.999999 0.000000
154.49400330 251.28100586 405.00000000 -0.862895 0.051247 0.502778 0.000000
58.43750000 308.98800659 402.50000000 0.744401 -0.650785 0.149484 0.000000
69.75980377 217.67999268 345.00000000 -0.665939 0.394937 0.632890 0.000000
187.72999573 211.10499573 447.50000000 -0.000978 -0.000978 -0.999999 0.000000
100.80500031 209.64500427 372.50000000 -0.557404 -0.023397 0.829912 0.000000
154.85899353 195.76600647 467.50000000 -0.866082 0.134467 -0.481478 0.000000
117.60500336 283.42199707 382.50000000 -0.495726 -0.505740 0.706033 0.000000
124.91000366 269.54299927 462.50000000 -0.047499 -0.225317 -0.973127 0.000000
137.32800293 250.55099487 467.50000000 -0.000978 -0.000978 -0.999999 0.000000
60.62889862 262.23800659 317.50000000 -0.903217 -0.210896 0.373795 0.000000
46.38479996 273.92599487 330.00000000 0.880044 -0.472185 0.050640 0.000000
127.10199738 168.00799561 407.50000000 0.000978 0.000978 0.999999 0.000000
84.00389862 285.61300659 362.50000000 -0.321372 0.034297 0.946332 0.000000
134.40600586 138.05900574 447.50000000 -0.000978 -0.000978 -0.999999 0.000000
156.32000732 219.87100220 462.50000000 -0.875414 -0.386881 -0.289782 0.000000
145.36300659 234.11500549 395.00000000 -0.451419 -0.791197 -0.412587 0.000000
117.60500336 272.46499634 462.50000000 -0.260851 -0.405601 -0.876039 0.000000
92.03910065 207.45300293 372.50000000 -0.080041 0.492883 0.866406 0.000000
121.25800323 155.58999634 407.50000000 0.000978 0.000978 0.999999 0.000000
62.08980179 203.07000732 352.50000000 -0.033306 0.904588 -0.424983 0.000000
158.51199341 138.78900146 422.50000000 -0.000978 -0.000978 0.999999 0.000000
168.73800659 233.38499451 435.00000000 0.309512 -0.931337 -0.191869 0.000000
60.62889862 262.96899414 317.50000000 -0.903217 -0.210896 0.373795 0.000000
100.07399750 176.77299500 417.50000000 0.000978 0.000978 0.999999 0.000000
122.71900177 230.82800293 487.50000000 -0.680796 -0.341214 -0.648144 0.000000
72.31639862 284.15200806 342.50000000 -0.682275 -0.227425 0.694823 0.000000
131.48399353 170.92999268 407.50000000 0.000978 0.000978 0.999999 0.000000
73.77729797 302.41400146 352.50000000 -0.858633 -0.325263 0.396174 0.000000
123.44899750 178.23399353 407.50000000 0.600043 -0.600043 0.529052 0.000000
46.01950073 263.69900513 317.50000000 0.728375 -0.577789 0.368279 0.000000
73.04689789 170.19900513 472.50000000 0.351259 0.866643 -0.354327 0.000000
147.91999817 260.77700806 455.00000000 -0.403214 -0.319791 -0.857410 0.000000
47.48049927 291.45700073 392.50000000 0.813364 -0.581753 0.001362 0.000000
121.25800323 253.47300720 367.50000000 -0.154037 -0.203226 0.966940 0.000000
116.87500000 193.20899963 415.00000000 -0.781505 0.389944 0.487025 0.000000
131.48399353 224.98399353 482.50000000 -0.289725 0.177130 -0.940577 0.000000
138.78900146 216.94900513 477.50000000 -0.000978 -0.000978 -0.999999 0.000000
96.42189789 249.82000732 352.50000000 -0.189610 -0.395142 0.898839 0.000000
199.41799927 170.92999268 457.50000000 0.961526 -0.147826 -0.231551 0.000000
84.00389862 247.62899780 472.50000000 0.439221 -0.663006 -0.606225 0.000000
129.29299927 299.49200439 442.50000000 -0.055774 -0.328160 -0.942974 0.000000
42.36719894 278.30899048 412.50000000 0.904380 -0.241071 -0.352109 0.000000
72.31639862 312.64099121 427.50000000 0.315991 -0.672495 -0.669254 0.000000
65.74220276 260.04699707 462.50000000 0.415837 -0.125456 -0.900744 0.000000
149.74600220 248.35899353 387.50000000 -0.000978 -0.000978 -0.999999 0.000000
47.48049927 264.42999268 317.50000000 0.728375 -0.577789 0.368279 0.000000
107.37899780 178.23399353 417.50000000 0.000978 0.000978 0.999999 0.000000
143.90199280 262.96899414 387.50000000 0.000978 0.000978 0.999999 0.000000
35.79299927 255.66400146 362.50000000 0.998844 -0.001022 0.048051 0.000000
162.16400146 171.66000366 457.50000000 -0.000978 -0.000978 -0.999999 0.000000
130.75399780 166.54699707 407.50000000 0.000978 0.000978 0.999999 0.000000
186.27000427 181.15600586 417.50000000 -0.873595 0.381343 0.302340 0.000000
54.05469894 238.13299561 452.50000000 -0.000978 -0.000978 -0.999999 0.000000
180.42599487 232.28900146 437.50000000 -0.495378 -0.858559 -0.132198 0.000000
167.27699280 127.83200073 437.50000000 -0.845503 0.282865 0.452893 0.000000
169.46899414 205.26199341 402.50000000 0.115754 -0.870296 -0.478734 0.000000
184.80900574 168.00799561 457.50000000 -0.000978 -0.000978 -0.999999 0.000000
126.00599670 266.62100220 465.00000000 -0.185953 -0.680805 -0.708467 0.000000
47.48049927 265.16000366 317.50000000 0.728375 -0.577789 0.368279 0.000000
48.21089935 265.16000366 317.50000000 0.433108 -0.739413 -0.515448 0.000000
203.07000732 190.65199280 432.50000000 -0.419060 0.019705 0.907745 0.000000
129.29299927 219.14100647 482.50000000 -0.584352 0.109841 -0.804033 0.000000
92.76950073 265.89099121 467.50000000 -0.000978 -0.000978 -0.999999 0.000000
170.92999268 182.61700439 407.50000000 0.000978 0.000978 0.999999 0.000000
155.58999634 127.10199738 447.50000000 -0.883280 -0.393067 -0.255568 0.000000
117.60500336 271.73400879 462.50000000 -0.260851 -0.405601 -0.876039 0.000000
126.37100220 274.65600586 382.50000000 -0.209645 -0.669310 0.712792 0.000000
97.15229797 219.87100220 492.50000000 -0.266891 -0.431602 -0.861678 0.000000
87.65619659 183.34800720 487.50000000 0.404050 0.158479 -0.900904 0.000000
172.39100647 234.11500549 435.00000000 0.268360 -0.915325 -0.300273 0.000000
37.98440170 219.14100647 437.50000000 -0.000978 -0.000978 -0.999999 0.000000
42.73239899 181.88699341 415.00000000 0.921840 0.369560 -0.116776 0.000000
203.80099487 157.78100586 452.50000000 -0.706243 0.275801 -0.652039 0.000000
184.07800293 144.63299561 437.50000000 -0.260158 0.288904 0.921332 0.000000
152.66799927 210.37500000 422.50000000 -0.326111 -0.772706 -0.544589 0.000000
123.44899750 252.01199341 367.50000000 -0.724449 -0.052869 0.687298 0.000000
49.67190170 265.89099121 317.50000000 0.703189 -0.502755 0.502755 0.000000
101.53500366 168.37300110 415.00000000 0.562652 -0.258601 0.785206 0.000000
210.37500000 154.85899353 452.50000000 -0.000978 -0.000978 -0.999999 0.000000
160.70300293 121.25800323 432.50000000 0.000978 0.000978 0.999999 0.000000
71.58589935 176.77299500 392.50000000 -0.878854 0.468253 0.091401 0.000000
146.82400513 189.19099426 427.50000000 -0.000978 -0.000978 -0.999999 0.000000
167.27699280 208.18400574 402.50000000 -0.218697 -0.243455 -0.944935 0.000000
72.31639862 195.76600647 367.50000000 -0.461849 0.751122 0.471711 0.000000
92.76950073 280.50000000 457.50000000 -0.000978 -0.000978 -0.999999 0.000000
80.35160065 244.34199524 340.00000000 -0.727572 0.006929 0.685996 0.000000
177.50399780 234.47999573 407.50000000 0.124363 -0.832502 0.539883 0.000000
183.34800720 202.33999634 447.50000000 -0.486400 -0.539887 -0.686977 0.000000
117.60500336 323.59799194 427.50000000 -0.308204 -0.903966 -0.296406 0.000000
85.46479797 208.91400146 367.50000000 -0.371814 0.530932 0.761489 0.000000
84.00389862 177.50399780 412.50000000 -0.742634 -0.587986 0.320573 0.000000
113.22299957 217.67999268 382.50000000 -0.700167 0.001381 0.713977 0.000000
44.19340134 183.34800720 375.00000000 0.904903 0.341722 0.253725 0.000000
82.54299927 215.48800659 362.50000000 -0.479310 0.617217 0.623944 0.000000
140.97999573 307.52700806 417.50000000 -0.510102 -0.447371 0.734613 0.000000
80.35160065 165.81599426 472.50000000 0.472811 0.683321 -0.556347 0.000000
146.09399414 276.11700439 447.50000000 -0.843867 -0.507511 -0.174131 0.000000
140.25000000 211.83599854 477.50000000 -0.782173 -0.088520 -0.616741 0.000000
102.99600220 222.06199646 492.50000000 -0.000978 -0.000978 -0.999999 0.000000
96.42189789 267.35198975 362.50000000 -0.160404 -0.571157 0.805016 0.000000
177.50399780 153.39799500 457.50000000 -0.000978 -0.000978 -0.999999 0.000000
84.73439789 190.65199280 397.50000000 -0.000978 -0.000978 0.999999 0.000000
106.64800262 276.84799194 377.50000000 -0.698050 -0.646462 0.307916 0.000000
137.32800293 212.56599426 477.50000000 -0.000978 -0.000978 -0.999999 0.000000
199.41799927 175.31199646 452.50000000 -0.362917 -0.807370 -0.465237 0.000000
90.57810211 282.69100952 362.50000000 -0.770799 -0.549655 0.322101 0.000000
100.80500031 332.72900391 410.00000000 -0.061928 -0.987336 0.146056 0.000000
157.78100586 210.37500000 407.50000000 -0.072742 -0.822981 -0.563392 0.000000
108.10900116 139.52000427 407.50000000 -0.425383 -0.710075 0.561108 0.000000
154.12899780 173.85200500 462.50000000 -0.334085 0.235739 -0.912587 0.000000
152.66799927 273.92599487 442.50000000 -0.486245 -0.321523 -0.812520 0.000000
113.22299957 298.76199341 392.50000000 0.000978 0.000978 0.999999 0.000000
104.45700073 150.47700500 407.50000000 0.000978 0.000978 0.999999 0.000000
197.95700073 205.26199341 427.50000000 -0.700979 -0.464544 0.541136 0.000000
78.89060211 235.94099426 342.50000000 0.000978 0.000978 0.999999 0.000000
74.50779724 314.83200073 427.50000000 0.594655 -0.694041 -0.405823 0.000000
59.89839935 267.35198975 317.50000000 -0.266323 -0.339893 0.901967 0.000000
101.53500366 285.61300659 457.50000000 -0.722208 -0.021035 -0.691356 0.000000
150.84199524 248.35899353 460.00000000 -0.721991 -0.127058 -0.680136 0.000000
94.23049927 292.91799927 372.50000000 -0.857753 -0.408087 0.312610 0.000000
153.76400757 170.19900513 460.00000000 -0.465392 0.391315 -0.793903 0.000000
165.08599854 191.38299561 402.50000000 -0.000978 -0.000978 0.999999 0.000000
76.69920349 168.73800659 472.50000000 0.382387 0.582607 -0.717181 0.000000
43.82809830 246.16799927 447.50000000 0.917342 -0.100099 -0.385311 0.000000
32.14059830 224.98399353 407.50000000 0.951116 -0.284409 0.120378 0.000000
40.90620041 244.70700073 442.50000000 0.853274 -0.132279 -0.504406 0.000000
138.78900146 184.80900574 467.50000000 -0.000978 -0.000978 -0.999999 0.000000
156.32000732 206.72300720 467.50000000 -0.000978 -0.000978 -0.999999 0.000000
157.05099487 157.05099487 457.50000000 -0.000978 -0.000978 -0.999999 0.000000
195.03500366 173.12100220 427.50000000 -0.640587 -0.311419 0.701902 0.000000
76.69920349 232.28900146 337.50000000 -0.000978 -0.000978 0.999999 0.000000
54.78519821 268.08200073 317.50000000 0.000978 0.000978 0.999999 0.000000
177.50399780 208.91400146 452.50000000 -0.000978 -0.000978 -0.999999 0.000000
84.73439789 191.01800537 385.00000000 0.000978 0.000978 0.999999 0.000000
56.97660065 268.08200073 317.50000000 -0.167425 -0.350327 0.921542 0.000000
141.71099854 284.15200806 442.50000000 -0.481422 -0.672649 -0.561939 0.000000
170.19900513 132.94500732 452.50000000 -0.000978 -0.000978 -0.999999 0.000000
166.54699707 211.10499573 457.50000000 -0.000978 -0.000978 -0.999999 0.000000
94.23049927 181.15600586 487.50000000 -0.000978 -0.000978 -0.999999 0.000000
118.33599854 311.91000366 402.50000000 0.478234 -0.455226 0.751041 0.000000
95.69139862 321.40600586 387.50000000 -0.760062 -0.553506 0.340495 0.000000
105.91799927 205.62699890 380.00000000 -0.550193 0.450460 0.703117 0.000000
95.69139862 238.13299561 482.50000000 0.244322 -0.685677 -0.685677 0.000000
158.51199341 175.67799377 460.00000000 -0.389797 0.567426 -0.725318 0.000000
100.07399750 214.75799561 372.50000000 0.000978 0.000978 0.999999 0.000000
77.79489899 164.35499573 410.00000000 -0.592714 -0.401196 0.698378 0.000000
124.91000366 226.44500732 487.50000000 -0.291195 -0.033744 -0.956069 0.000000
135.86700439 129.29299927 442.50000000 0.565386 0.548509 -0.616017 0.000000
192.84399414 204.53100586 422.50000000 -0.373685 -0.499865 0.781342 0.000000
116.87500000 325.78900146 422.50000000 -0.242869 -0.899351 -0.363568 0.000000
174.58200073 235.21099854 412.50000000 0.369510 -0.928345 -0.040476 0.000000
105.18800354 327.98001099 402.50000000 -0.616741 -0.782173 0.088520 0.000000
143.17199707 302.77899170 415.00000000 -0.536724 -0.398850 0.743536 0.000000
54.78519821 268.81201172 317.50000000 0.000978 0.000978 0.999999 0.000000
136.59800720 162.89500427 422.50000000 -0.044637 -0.075121 0.996175 0.000000
200.14799500 207.45300293 432.50000000 0.335345 -0.521469 0.784611 0.000000
119.06600189 317.75399780 407.50000000 -0.543491 -0.486634 0.683963 0.000000
113.95300293 242.51600647 482.50000000 -0.393653 -0.588009 -0.706599 0.000000
54.05469894 171.29499817 445.00000000 0.905060 0.419085 0.072350 0.000000
95.69139862 330.90200806 417.50000000 0.094895 -0.955449 -0.279485 0.000000
47.11520004 254.93400574 450.00000000 0.676251 -0.358593 -0.643503 0.000000
167.27699280 183.34800720 407.50000000 0.000978 0.000978 0.999999 0.000000
130.75399780 158.87699890 460.00000000 -0.571948 0.381845 -0.725996 0.000000
140.97999573 268.08200073 457.50000000 -0.534423 -0.564768 -0.628832 0.000000
178.23399353 154.85899353 427.50000000 -0.446799 0.640914 0.624180 0.000000
143.17199707 206.72300720 422.50000000 -0.000978 -0.000978 -0.999999 0.000000
212.56599426 193.57400513 447.50000000 -0.849732 0.425640 -0.311104 0.000000
112.49199677 194.30499268 492.50000000 -0.526462 0.496379 -0.690251 0.000000
77.79489899 316.29299927 430.00000000 0.635358 -0.547723 -0.544352 0.000000
100.07399750 312.64099121 442.50000000 -0.000978 -0.000978 -0.999999 0.000000
79.62110138 261.50799561 462.50000000 0.537190 -0.386972 -0.749453 0.000000
56.97660065 287.80499268 332.50000000 0.457515 -0.734997 0.500459 0.000000
142.07600403 310.44900513 425.00000000 -0.635107 -0.668099 0.387663 0.000000
194.30499268 140.61500549 445.00000000 -0.590163 -0.449728 -0.670412 0.000000
184.80900574 205.26199341 412.50000000 -0.000978 -0.000978 0.999999 0.000000
178.96499634 158.51199341 422.50000000 0.000978 0.000978 0.999999 0.000000
107.37899780 313.00601196 440.00000000 -0.177305 -0.583439 -0.792567 0.000000
108.83999634 169.83399963 475.00000000 -0.640271 -0.012500 -0.768047 0.000000
104.45700073 237.40199280 362.50000000 -0.684422 0.503695 0.527122 0.000000
126.37100220 214.02699280 487.50000000 -0.187120 0.022082 -0.982089 0.000000
137.32800293 189.92199707 422.50000000 -0.777362 -0.259121 0.573206 0.000000
39.08010101 241.78500366 440.00000000 0.818789 -0.043389 -0.572453 0.000000
66.83789825 240.32400513 465.00000000 0.425383 -0.710075 -0.561108 0.000000
109.56999969 173.48599243 415.00000000 -0.004140 -0.757592 0.652716 0.000000
97.88279724 246.89799500 352.50000000 -0.189610 -0.395142 0.898839 0.000000
182.25199890 197.22700500 410.00000000 -0.679996 0.015359 0.733055 0.000000
187.00000000 210.74000549 425.00000000 -0.691990 -0.582466 0.426478 0.000000
113.95300293 173.12100220 477.50000000 -0.000978 -0.000978 -0.999999 0.000000
100.07399750 178.23399353 417.50000000 0.000978 0.000978 0.999999 0.000000
52.59379959 270.27301025 317.50000000 0.000978 0.000978 0.999999 0.000000
63.55080032 287.07400513 332.50000000 -0.693299 -0.549627 0.466097 0.000000
66.47270203 262.96899414 462.50000000 0.299175 -0.142142 -0.943552 0.000000
62.08980179 175.31199646 467.50000000 0.915037 0.162642 -0.369126 0.000000
159.60699463 267.35198975 415.00000000 -0.798651 -0.326793 0.505334 0.000000
174.58200073 179.69500732 407.50000000 -0.127900 0.228670 0.965066 0.000000
60.62889862 229.36700439 472.50000000 -0.000978 -0.000978 -0.999999 0.000000
124.91000366 229.00199890 395.00000000 0.293401 -0.732700 0.614057 0.000000
132.94500732 205.99200439 417.50000000 0.764261 -0.486051 -0.423862 0.000000
108.83999634 274.65600586 467.50000000 0.427663 0.098906 -0.898511 0.000000
59.89839935 270.27301025 317.50000000 -0.474670 -0.381345 0.793262 0.000000
87.65619659 141.34599304 425.00000000 0.029598 0.737124 -0.675109 0.000000
161.43400574 203.07000732 432.50000000 -0.482703 -0.385840 -0.786209 0.000000
61.35940170 269.90798950 320.00000000 -0.783627 -0.049597 0.619249 0.000000
40.90620041 189.19099426 382.50000000 -0.001108 0.989410 0.145143 0.000000
94.23049927 315.56201172 382.50000000 -0.887198 -0.182101 0.423932 0.000000
50.40230179 271.00399780 317.50000000 0.000978 0.000978 0.999999 0.000000
97.15229797 232.28900146 487.50000000 -0.000978 -0.000978 -0.999999 0.000000
125.64099884 158.51199341 407.50000000 0.000978 0.000978 0.999999 0.000000
47.48049927 170.19900513 407.50000000 0.924094 0.382163 0.001278 0.000000
32.87110138 230.09800720 422.50000000 0.875664 -0.292900 0.383957 0.000000
136.59800720 234.84599304 400.00000000 -0.170305 -0.944171 -0.282025 0.000000
113.22299957 184.07800293 482.50000000 -0.164779 0.985166 -0.047914 0.000000
49.30659866 207.45300293 465.00000000 0.774674 0.401142 -0.488841 0.000000
71.58589935 250.55099487 462.50000000 0.518287 0.381810 -0.765245 0.000000
136.96299744 168.00799561 420.00000000 -0.035846 0.986347 -0.160730 0.000000
158.51199341 122.71900177 447.50000000 -0.306601 0.079586 -0.948505 0.000000
71.58589935 290.72698975 342.50000000 -0.596860 -0.346407 0.723713 0.000000
151.93800354 175.31199646 462.50000000 -0.181910 0.129219 -0.974788 0.000000
205.99200439 155.58999634 452.50000000 -0.355059 0.659396 -0.662669 0.000000
65.74220276 252.01199341 457.50000000 0.340622 0.938978 -0.047920 0.000000
177.50399780 238.86300659 432.50000000 0.357853 -0.769141 -0.529493 0.000000
152.66799927 133.67599487 452.50000000 -0.000978 -0.000978 -0.999999 0.000000
70.85549927 285.97900391 340.00000000 -0.909272 -0.121516 0.398068 0.000000
152.66799927 288.53500366 432.50000000 -0.939468 -0.128416 -0.317662 0.000000
193.20899963 190.65199280 420.00000000 -0.942655 -0.187982 -0.275799 0.000000
53.32419968 271.73400879 317.50000000 0.000978 0.000978 0.999999 0.000000
159.97300720 241.78500366 437.50000000 -0.944689 -0.307790 -0.113256 0.000000
157.78100586 182.61700439 462.50000000 -0.000978 -0.000978 -0.999999 0.000000
115.04900360 261.50799561 370.00000000 -0.626216 -0.445866 0.639575 0.000000
180.42599487 134.40600586 452.50000000 -0.055053 0.951262 -0.303431 0.000000
139.52000427 233.02000427 402.50000000 -0.380411 -0.852432 -0.358674 0.000000
159.24200439 178.23399353 462.50000000 -0.054649 0.149995 -0.987175 0.000000
181.88699341 189.55700684 410.00000000 -0.519617 0.404875 0.752379 0.000000
98.61329651 255.66400146 472.50000000 -0.000978 -0.000978 -0.999999 0.000000
143.90199280 258.58599854 382.50000000 -0.759741 -0.637826 0.126376 0.000000
140.25000000 160.70300293 457.50000000 0.046993 0.710585 -0.702041 0.000000
94.96089935 159.24200439 412.50000000 0.000978 0.000978 0.999999 0.000000
54.05469894 188.46099854 462.50000000 0.783741 0.486404 -0.386214 0.000000
103.72699738 255.66400146 362.50000000 -0.734669 -0.360004 0.575029 0.000000
128.56199646 295.83999634 397.50000000 -0.542364 -0.475611 0.692557 0.000000
166.54699707 224.98399353 452.50000000 -0.459313 -0.727936 -0.509058 0.000000
145.36300659 178.23399353 407.50000000 0.000978 0.000978 0.999999 0.000000
202.70500183 184.07800293 430.00000000 -0.735305 0.156158 0.659501 0.000000
43.09769821 187.72999573 372.50000000 0.578328 -0.288368 -0.763139 0.000000
56.97660065 272.46499634 317.50000000 0.000978 0.000978 0.999999 0.000000
59.16799927 225.71499634 472.50000000 -0.000978 -0.000978 -0.999999 0.000000
81.81250000 144.26800537 425.00000000 0.557148 0.728072 -0.399371 0.000000
36.88869858 238.13299561 340.00000000 0.989410 -0.001108 0.145143 0.000000
138.78900146 280.50000000 447.50000000 -0.000978 -0.000978 -0.999999 0.000000
51.86330032 179.69500732 362.50000000 0.000978 0.000978 0.999999 0.000000
107.37899780 181.88699341 487.50000000 -0.243819 0.405368 -0.881039 0.000000
143.17199707 281.96099854 402.50000000 -0.783683 -0.251842 0.567818 0.000000
101.53500366 216.21899414 372.50000000 0.000978 0.000978 0.999999 0.000000
91.30860138 210.37500000 367.50000000 -0.475130 0.656452 0.585938 0.000000
107.37899780 193.57400513 492.50000000 -0.000978 -0.000978 -0.999999 0.000000
95.69139862 259.31600952 472.50000000 -0.000978 -0.000978 -0.999999 0.000000
111.76200104 284.88299561 457.50000000 -0.151288 -0.176715 -0.972566 0.000000
195.76600647 195.76600647 447.50000000 -0.000978 -0.000978 -0.999999 0.000000
118.33599854 169.46899414 407.50000000 0.000978 0.000978 0.999999 0.000000
204.53100586 149.74600220 452.50000000 -0.948959 -0.305906 -0.076802 0.000000
166.91200256 203.07000732 410.00000000 0.560102 0.153841 0.814014 0.000000
206.72300720 199.41799927 437.50000000 -0.903686 -0.226287 0.363518 0.000000
158.51199341 170.92999268 457.50000000 -0.233522 0.159640 -0.959157 0.000000
146.82400513 131.48399353 447.50000000 0.338631 0.001250 -0.940919 0.000000
89.84770203 224.98399353 357.50000000 -0.384076 0.435074 0.814369 0.000000
161.43400574 173.12100220 457.50000000 -0.134864 0.125144 -0.982930 0.000000
132.21499634 187.72999573 472.50000000 -0.000978 -0.000978 -0.999999 0.000000
132.21499634 301.68399048 442.50000000 0.518135 -0.711395 -0.474819 0.000000
200.87899780 177.50399780 452.50000000 -0.203186 -0.174346 -0.963493 0.000000
187.72999573 133.67599487 452.50000000 0.296000 0.825355 -0.480805 0.000000
55.51559830 273.92599487 317.50000000 0.000978 0.000978 0.999999 0.000000
67.93360138 318.11898804 420.00000000 -0.417218 -0.832862 -0.363688 0.000000
48.94139862 278.67401123 330.00000000 0.891849 -0.378405 0.247818 0.000000
63.55080032 177.50399780 472.50000000 0.657701 0.323167 -0.680436 0.000000
73.04689789 189.92199707 372.50000000 0.000978 0.000978 0.999999 0.000000
78.16020203 158.51199341 462.50000000 0.675900 0.675900 0.293800 0.000000
166.54699707 143.17199707 427.50000000 -0.779995 -0.258952 -0.569694 0.000000
131.48399353 279.76998901 392.50000000 -0.109864 -0.410250 0.905331 0.000000
133.67599487 239.59399414 472.50000000 -0.370397 -0.922576 0.107976 0.000000
145.36300659 279.76998901 442.50000000 -0.000978 -0.000978 -0.999999 0.000000
119.79699707 180.42599487 477.50000000 -0.543071 0.724644 -0.424222 0.000000
94.59570313 235.94099426 355.00000000 -0.291111 -0.574268 0.765161 0.000000
195.03500366 158.51199341 437.50000000 -0.842794 0.358070 0.401852 0.000000
102.26599884 314.10198975 392.50000000 -0.854193 -0.467160 0.228289 0.000000
80.35160065 252.74200439 467.50000000 0.132437 -0.127577 -0.982947 0.000000
58.07229996 214.02699280 475.00000000 0.989410 -0.001108 -0.145143 0.000000
146.82400513 162.89500427 457.50000000 -0.238288 0.148765 -0.959733 0.000000
75.60350037 284.88299561 345.00000000 -0.638634 -0.283304 0.715462 0.000000
150.47700500 256.39498901 397.50000000 -0.866289 -0.065565 0.495222 0.000000
141.34599304 181.15600586 425.00000000 -0.794646 -0.407800 0.449708 0.000000
194.66999817 131.48399353 450.00000000 -0.555375 0.823588 0.115157 0.000000
73.04689789 302.41400146 347.50000000 -0.522145 -0.851775 0.042935 0.000000
84.73439789 172.39100647 482.50000000 -0.000978 -0.000978 -0.999999 0.000000
112.85700226 143.17199707 410.00000000 -0.774549 0.252946 0.579734 0.000000
130.02299500 235.21099854 402.50000000 0.001108 -0.989410 0.145143 0.000000
56.61130142 230.82800293 465.00000000 0.755888 -0.267809 -0.597421 0.000000
151.93800354 294.37899780 432.50000000 -0.810518 -0.404459 -0.423643 0.000000
165.08599854 231.55900574 442.50000000 -0.779652 -0.450863 -0.434587 0.000000
140.97999573 222.06199646 412.50000000 -0.000978 -0.000978 -0.999999 0.000000
84.00389862 300.22299194 447.50000000 -0.048615 -0.263017 -0.963566 0.000000
113.95300293 189.19099426 487.50000000 -0.000978 -0.000978 -0.999999 0.000000
144.26800537 166.54699707 420.00000000 0.811578 -0.079003 -0.578878 0.000000
46.01950073 209.64500427 457.50000000 0.904646 0.262450 -0.335760 0.000000
80.35160065 257.12500000 467.50000000 0.241555 -0.252726 -0.936900 0.000000
125.64099884 288.53500366 392.50000000 0.000978 0.000978 0.999999 0.000000
39.44530106 203.07000732 377.50000000 0.961327 0.148199 0.232135 0.000000
193.57400513 159.24200439 457.50000000 -0.000978 -0.000978 -0.999999 0.000000
67.20310211 304.60501099 347.50000000 0.000978 0.000978 0.999999 0.000000
197.22700500 135.13699341 447.50000000 0.832587 -0.015039 -0.553691 0.000000
127.83200073 214.02699280 487.50000000 -0.000978 -0.000978 -0.999999 0.000000
97.15229797 177.50399780 417.50000000 0.000978 0.000978 0.999999 0.000000
64.64649963 264.42999268 460.00000000 0.731085 -0.226997 -0.643418 0.000000
48.21089935 266.25601196 445.00000000 0.800619 -0.426889 -0.420446 0.000000
123.44899750 319.94500732 432.50000000 -0.000978 -0.000978 -0.999999 0.000000
44.55860138 218.41000366 322.50000000 0.442803 0.663369 0.603214 0.000000
52.59379959 166.91200256 420.00000000 0.628642 0.744076 -0.226186 0.000000
74.50779724 278.30899048 457.50000000 -0.000978 -0.000978 -0.999999 0.000000
137.32800293 136.59800720 447.50000000 0.177367 0.361830 -0.915216 0.000000
52.59379959 273.92599487 447.50000000 -0.450408 -0.621195 -0.641287 0.000000
88.38670349 246.16799927 347.50000000 -0.426463 0.119635 0.896558 0.000000
61.35940170 284.88299561 327.50000000 0.000978 0.000978 0.999999 0.000000
58.43750000 174.58200073 462.50000000 -0.000978 -0.000978 -0.999999 0.000000
180.42599487 173.85200500 457.50000000 -0.000978 -0.000978 -0.999999 0.000000
154.12899780 143.17199707 457.50000000 -0.000978 -0.000978 -0.999999 0.000000
68.66410065 219.14100647 342.50000000 -0.585412 0.629275 0.511181 0.000000
120.52700043 148.28500366 412.50000000 0.000978 0.000978 0.999999 0.000000
140.97999573 126.37100220 427.50000000 0.000978 0.000978 0.999999 0.000000
121.25800323 317.02301025 407.50000000 0.000978 0.000978 0.999999 0.000000
106.64800262 253.47300720 362.50000000 0.000978 0.000978 0.999999 0.000000
135.13699341 279.76998901 452.50000000 -0.000978 -0.000978 -0.999999 0.000000
162.16400146 259.31600952 417.50000000 -0.895181 -0.061501 0.441440 0.000000
80.35160065 321.77099609 370.00000000 -0.152721 -0.828845 0.538230 0.000000
117.60500336 280.50000000 382.50000000 -0.440314 -0.232931 0.867103 0.000000
156.32000732 162.89500427 412.50000000 -0.192166 0.286175 0.938710 0.000000
81.08200073 279.03900146 347.50000000 0.000978 0.000978 0.999999 0.000000
100.07399750 180.42599487 417.50000000 0.000978 0.000978 0.999999 0.000000
153.76400757 231.55900574 460.00000000 -0.274588 0.274588 -0.921522 0.000000
86.19529724 191.74800110 385.00000000 0.000978 0.000978 0.999999 0.000000
117.60500336 262.96899414 467.50000000 -0.545388 -0.185825 -0.817326 0.000000
124.54499817 226.44500732 390.00000000 0.469793 -0.857034 0.211632 0.000000
53.32419968 210.37500000 342.50000000 0.252114 0.562167 0.787659 0.000000
105.91799927 156.32000732 462.50000000 -0.189394 0.915643 -0.354580 0.000000
93.50000000 208.91400146 497.50000000 -0.000978 -0.000978 -0.999999 0.000000
55.51559830 211.47099304 340.00000000 -0.287283 0.672467 0.682097 0.000000
78.16020203 313.37100220 362.50000000 0.000978 0.000978 0.999999 0.000000
117.60500336 231.55900574 372.50000000 -0.092424 0.191009 0.977227 0.000000
208.91400146 176.77299500 452.50000000 -0.000978 -0.000978 -0.999999 0.000000
138.78900146 189.92199707 472.50000000 -0.000978 -0.000978 -0.999999 0.000000
151.20700073 134.40600586 422.50000000 -0.655160 0.474195 0.588136 0.000000
79.62110138 233.02000427 342.50000000 -0.879955 0.070674 0.469771 0.000000
168.73800659 224.25399780 397.50000000 -0.000978 -0.000978 -0.999999 0.000000
155.22500610 221.33200073 400.00000000 -0.746410 -0.592312 -0.303379 0.000000
69.39450073 211.10499573 482.50000000 0.558113 0.015084 -0.829628 0.000000
96.78710175 257.12500000 355.00000000 -0.753134 -0.175680 0.633977 0.000000
44.55860138 207.45300293 452.50000000 0.864499 0.080124 -0.496208 0.000000
170.19900513 201.60899353 457.50000000 -0.000978 -0.000978 -0.999999 0.000000
104.45700073 141.71099854 407.50000000 0.000978 0.000978 0.999999 0.000000
112.49199677 222.79299927 492.50000000 -0.000978 -0.000978 -0.999999 0.000000
176.77299500 207.45300293 452.50000000 -0.000978 -0.000978 -0.999999 0.000000
181.88699341 232.28900146 432.50000000 -0.704682 -0.701727 -0.104890 0.000000
107.37899780 240.32400513 482.50000000 -0.465877 0.169009 -0.868559 0.000000
65.01170349 284.88299561 447.50000000 -0.000978 -0.000978 -0.999999 0.000000
200.14799500 207.45300293 442.50000000 -0.000978 -0.000978 -0.999999 0.000000
157.78100586 135.86700439 452.50000000 -0.000978 -0.000978 -0.999999 0.000000
201.60899353 160.70300293 437.50000000 -0.126117 0.500118 0.856724 0.000000
105.91799927 277.57800293 462.50000000 -0.110608 -0.771307 -0.626779 0.000000
200.14799500 139.52000427 452.50000000 -0.000978 -0.000978 -0.999999 0.000000
144.63299561 284.88299561 442.50000000 -0.000978 -0.000978 -0.999999 0.000000
105.91799927 179.69500732 487.50000000 -0.555627 0.572515 -0.602914 0.000000
62.08980179 207.45300293 347.50000000 -0.365563 0.534534 0.761995 0.000000
136.59800720 171.66000366 407.50000000 0.000978 0.000978 0.999999 0.000000
118.33599854 182.61700439 412.50000000 0.157905 -0.969254 0.188716 0.000000
80.71679688 214.75799561 490.00000000 0.714097 -0.304660 -0.630276 0.000000
123.44899750 192.84399414 417.50000000 -0.000978 -0.000978 -0.999999 0.000000
92.03910065 178.96499634 487.50000000 -0.000978 -0.000978 -0.999999 0.000000
81.44730377 156.32000732 460.00000000 0.094025 0.817298 -0.568492 0.000000
194.30499268 203.80099487 422.50000000 -0.432820 -0.475285 0.766010 0.000000
99.70899963 271.73400879 365.00000000 0.001358 -0.566240 0.824239 0.000000
73.77729797 324.69299316 400.00000000 0.691586 -0.703746 -0.162637 0.000000
119.79699707 270.27301025 462.50000000 -0.297510 -0.781163 -0.548882 0.000000
170.19900513 155.58999634 417.50000000 -0.609577 0.094564 0.787067 0.000000
127.10199738 321.40600586 417.50000000 -0.572809 -0.572809 0.586327 0.000000
144.63299561 123.44899750 442.50000000 0.000978 0.000978 -0.999999 0.000000
108.10900116 228.63699341 367.50000000 0.000978 0.000978 0.999999 0.000000
149.74600220 277.57800293 442.50000000 -0.456452 -0.227473 -0.860179 0.000000
136.59800720 282.69100952 452.50000000 -0.000978 -0.000978 -0.999999 0.000000
143.90199280 189.92199707 467.50000000 -0.000978 -0.000978 -0.999999 0.000000
74.50779724 253.47300720 332.50000000 0.000978 0.000978 0.999999 0.000000
96.78710175 316.29299927 385.00000000 -0.700318 -0.290063 0.652241 0.000000
80.35160065 307.89300537 440.00000000 0.457684 -0.438139 -0.773666 0.000000
99.34380341 198.68800354 492.50000000 -0.991534 0.055781 0.117254 0.000000
151.93800354 182.25199890 405.00000000 0.887066 0.011969 0.461487 0.000000
67.93360138 317.75399780 407.50000000 0.703437 -0.703437 -0.101755 0.000000
105.91799927 296.57000732 452.50000000 -0.000978 -0.000978 -0.999999 0.000000
80.35160065 305.33599854 442.50000000 0.572517 -0.449000 -0.686019 0.000000
138.78900146 219.87100220 417.50000000 0.117524 -0.694729 -0.709605 0.000000
178.96499634 162.16400146 422.50000000 -0.691558 0.504017 0.517412 0.000000
153.39799500 188.46099854 422.50000000 0.718578 -0.689308 -0.092200 0.000000
65.74220276 151.93800354 412.50000000 0.703437 0.703437 -0.101755 0.000000
99.34380341 200.14799500 377.50000000 -0.592186 0.655934 0.468045 0.000000
152.66799927 146.82400513 417.50000000 -0.049703 0.302040 0.951999 0.000000
60.62889862 218.04499817 335.00000000 -0.426889 0.800619 0.420446 0.000000
127.83200073 294.37899780 397.50000000 -0.542364 -0.475611 0.692557 0.000000
119.79699707 229.36700439 372.50000000 0.000978 0.000978 0.999999 0.000000
51.13280106 300.22299194 402.50000000 0.799835 -0.600218 0.001367 0.000000
175.31199646 206.72300720 452.50000000 -0.000978 -0.000978 -0.999999 0.000000
39.81050110 191.38299561 415.00000000 0.825682 0.550942 0.121295 0.000000
154.85899353 184.07800293 462.50000000 -0.000978 -0.000978 -0.999999 0.000000
87.65619659 314.10198975 372.50000000 -0.602200 0.598826 0.527979 0.000000
148.28500366 192.11300659 467.50000000 -0.000978 -0.000978 -0.999999 0.000000
124.91000366 230.09800720 372.50000000 -0.223879 0.709210 0.668505 0.000000
98.61329651 195.76600647 407.50000000 -0.727347 0.583512 0.361222 0.000000
177.50399780 156.32000732 422.50000000 -0.603665 0.536028 0.590138 0.000000
98.61329651 316.29299927 437.50000000 -0.000978 -0.000978 -0.999999 0.000000
33.96680069 240.32400513 420.00000000 0.999999 -0.000978 -0.000978 0.000000
127.83200073 306.79699707 442.50000000 -0.000978 -0.000978 -0.999999 0.000000
136.59800720 210.37500000 417.50000000 -0.000978 -0.000978 -0.999999 0.000000
63.55080032 204.53100586 352.50000000 -0.033306 0.904588 -0.424983 0.000000
135.50199890 187.00000000 420.00000000 -0.898979 -0.430904 0.078471 0.000000
95.69139862 198.68800354 387.50000000 0.001108 0.989410 0.145143 0.000000
161.43400574 246.89799500 427.50000000 -0.845503 0.282865 0.452893 0.000000
178.96499634 128.56199646 447.50000000 -0.084405 -0.951833 -0.294770 0.000000
91.30860138 332.72900391 400.00000000 -0.046636 -0.996719 0.066159 0.000000
147.55499268 298.76199341 432.50000000 -0.680790 -0.226930 -0.696440 0.000000
136.59800720 292.18798828 402.50000000 -0.645999 -0.534678 0.544798 0.000000
75.23829651 184.07800293 377.50000000 0.000978 0.000978 0.999999 0.000000
67.20310211 318.48400879 372.50000000 0.416953 -0.897943 0.140882 0.000000
159.24200439 155.22500610 415.00000000 -0.247419 0.487154 0.837535 0.000000
54.05469894 222.06199646 322.50000000 -0.539913 -0.815222 0.209541 0.000000
65.74220276 209.64500427 482.50000000 0.318420 0.021396 -0.947708 0.000000
117.60500336 157.78100586 407.50000000 0.000978 0.000978 0.999999 0.000000
79.62110138 226.44500732 487.50000000 0.325707 -0.607663 -0.724334 0.000000
97.88279724 281.23001099 457.50000000 0.015036 -0.188526 -0.981953 0.000000
161.43400574 191.38299561 462.50000000 -0.000978 -0.000978 -0.999999 0.000000
205.26199341 146.09399414 452.50000000 -0.885125 0.453150 -0.105876 0.000000
147.55499268 170.19900513 462.50000000 -0.077122 0.317638 -0.945071 0.000000
40.90620041 222.79299927 322.50000000 0.000978 0.000978 0.999999 0.000000
167.27699280 143.90199280 457.50000000 -0.000978 -0.000978 -0.999999 0.000000
66.83789825 219.14100647 340.00000000 -0.531753 0.636415 0.558762 0.000000
153.39799500 122.35399628 430.00000000 -0.526883 0.533616 0.661550 0.000000
129.29299927 214.75799561 417.50000000 -0.000978 -0.000978 -0.999999 0.000000
48.21089935 173.85200500 422.50000000 0.000978 0.000978 -0.999999 0.000000
96.42189789 205.26199341 497.50000000 -0.000978 -0.000978 -0.999999 0.000000
198.68800354 192.11300659 427.50000000 0.000978 0.000978 0.999999 0.000000
63.55080032 176.04299927 467.50000000 0.882109 0.233543 -0.409073 0.000000
105.18800354 186.27000427 487.50000000 -0.000978 -0.000978 -0.999999 0.000000
176.77299500 240.68899536 425.00000000 0.704306 -0.709863 0.006946 0.000000
69.39450073 315.19699097 425.00000000 0.067779 -0.725381 -0.685002 0.000000
50.03710175 289.99600220 350.00000000 0.832296 -0.538717 0.130643 0.000000
138.78900146 242.51600647 377.50000000 0.000978 0.000978 0.999999 0.000000
97.88279724 137.32800293 422.50000000 0.432039 0.865594 -0.253160 0.000000
76.33399963 321.40600586 370.00000000 0.195779 -0.916018 0.350116 0.000000
139.52000427 208.91400146 477.50000000 -0.000978 -0.000978 -0.999999 0.000000
90.57810211 280.50000000 457.50000000 -0.000978 -0.000978 -0.999999 0.000000
132.94500732 317.02301025 422.50000000 -0.707106 0.707106 0.001384 0.000000
143.90199280 305.33599854 417.50000000 -0.626629 -0.528666 0.572580 0.000000
67.20310211 283.42199707 332.50000000 -0.649522 -0.691635 0.315852 0.000000
87.65619659 308.25799561 442.50000000 -0.000978 -0.000978 -0.999999 0.000000
39.81050110 273.19500732 375.00000000 -0.000978 -0.000978 -0.999999 0.000000
56.97660065 222.42799377 325.00000000 -0.615271 0.390936 0.684551 0.000000
132.94500732 306.06600952 407.50000000 -0.486841 -0.500133 0.716138 0.000000
40.17580032 223.52299500 322.50000000 0.000978 0.000978 0.999999 0.000000
58.43750000 194.30499268 472.50000000 0.834714 -0.250568 -0.490375 0.000000
198.68800354 208.91400146 432.50000000 -0.549952 -0.593948 0.587179 0.000000
101.53500366 289.26599121 377.50000000 0.000978 0.000978 0.999999 0.000000
143.17199707 238.13299561 467.50000000 -0.505467 -0.760654 -0.407318 0.000000
56.97660065 203.80099487 472.50000000 0.000978 0.000978 -0.999999 0.000000
149.74600220 187.72999573 417.50000000 0.601605 -0.724845 -0.335666 0.000000
44.92380142 178.96499634 380.00000000 0.904456 0.404959 0.134046 0.000000
121.98799896 276.11700439 382.50000000 -0.380417 -0.428169 0.819728 0.000000
73.77729797 151.93800354 452.50000000 -0.001365 0.806665 -0.591008 0.000000
105.91799927 290.72698975 382.50000000 -0.936535 0.339711 0.086593 0.000000
33.60160065 235.94099426 362.50000000 0.989410 -0.001108 0.145143 0.000000
46.38479996 205.26199341 455.00000000 0.864458 0.252828 -0.434500 0.000000
104.45700073 267.35198975 367.50000000 0.000978 0.000978 0.999999 0.000000
91.30860138 326.51998901 427.50000000 0.046811 -0.778766 -0.625566 0.000000
164.35499573 205.26199341 407.50000000 -0.441021 -0.826718 -0.349340 0.000000
89.84770203 311.91000366 377.50000000 -0.507859 0.602344 0.615842 0.000000
157.78100586 184.07800293 462.50000000 -0.000978 -0.000978 -0.999999 0.000000
53.32419968 286.34399414 332.50000000 0.610794 -0.614159 0.499740 0.000000
89.11720276 138.42399597 420.00000000 0.308877 0.923783 -0.226320 0.000000
179.69500732 238.13299561 412.50000000 0.129088 -0.781948 0.609831 0.000000
48.94139862 202.33999634 462.50000000 0.802483 0.203296 -0.560974 0.000000
39.44530106 270.63900757 410.00000000 0.851833 0.268596 -0.449707 0.000000
129.29299927 133.67599487 422.50000000 -0.000978 -0.000978 -0.999999 0.000000
127.10199738 184.44299316 410.00000000 0.569405 -0.653389 0.498860 0.000000
40.90620041 216.21899414 437.50000000 -0.000978 -0.000978 -0.999999 0.000000
124.18000031 308.25799561 442.50000000 -0.000978 -0.000978 -0.999999 0.000000
209.64500427 176.04299927 437.50000000 0.000978 0.000978 0.999999 0.000000
139.15400696 185.53900146 415.00000000 -0.703437 -0.703437 0.101755 0.000000
100.80500031 144.63299561 407.50000000 0.000978 0.000978 0.999999 0.000000
188.46099854 168.00799561 422.50000000 -0.395638 0.792890 0.463461 0.000000
87.65619659 250.55099487 472.50000000 0.169620 -0.689178 -0.704459 0.000000
151.20700073 162.89500427 457.50000000 0.132213 0.284458 -0.949528 0.000000
116.14499664 191.74800110 415.00000000 -0.781505 0.389944 0.487025 0.000000
176.04299927 142.44099426 432.50000000 -0.267848 0.481508 0.834510 0.000000
110.30100250 283.42199707 377.50000000 -0.738702 0.391463 0.548703 0.000000
107.37899780 252.01199341 472.50000000 -0.000978 -0.000978 -0.999999 0.000000
43.82809830 211.83599854 332.50000000 0.000978 0.000978 0.999999 0.000000
51.86330032 181.88699341 457.50000000 0.772185 0.522884 -0.361001 0.000000
169.46899414 141.71099854 457.50000000 -0.000978 -0.000978 -0.999999 0.000000
155.58999634 200.87899780 432.50000000 0.347456 -0.029489 -0.937233 0.000000
51.13280106 224.98399353 322.50000000 0.000978 0.000978 0.999999 0.000000
81.81250000 292.91799927 362.50000000 -0.802443 -0.006858 0.596689 0.000000
86.19529724 220.60200500 357.50000000 -0.436985 0.291838 0.850808 0.000000
39.81050110 211.83599854 340.00000000 0.851612 0.477807 0.215541 0.000000
138.78900146 205.26199341 477.50000000 -0.000978 -0.000978 -0.999999 0.000000
135.86700439 229.36700439 477.50000000 -0.000978 -0.000978 -0.999999 0.000000
211.10499573 176.04299927 437.50000000 -0.754181 0.023787 0.656236 0.000000
43.82809830 198.32200623 360.00000000 0.897439 0.429936 0.098788 0.000000
100.80500031 288.53500366 377.50000000 -0.178850 -0.171130 0.968879 0.000000
143.90199280 159.24200439 412.50000000 0.000978 0.000978 0.999999 0.000000
111.03099823 272.46499634 467.50000000 -0.000978 -0.000978 -0.999999 0.000000
88.38670349 329.44100952 417.50000000 0.627730 -0.627730 0.460336 0.000000
45.28910065 281.59600830 345.00000000 0.821621 -0.547250 0.159552 0.000000
66.83789825 314.10198975 360.00000000 0.065474 -0.865091 0.497323 0.000000
164.35499573 188.46099854 402.50000000 -0.000978 -0.000978 0.999999 0.000000
168.00799561 210.74000549 400.00000000 -0.091915 -0.485027 -0.869655 0.000000
79.62110138 254.20300293 337.50000000 -0.377713 -0.261264 0.888298 0.000000
61.35940170 257.12500000 457.50000000 0.227891 0.034967 -0.973059 0.000000
51.86330032 293.64801025 427.50000000 0.877857 -0.438191 -0.193276 0.000000
146.82400513 286.34399414 442.50000000 -0.795962 -0.414934 -0.440766 0.000000
73.77729797 280.50000000 342.50000000 -0.593540 -0.536046 0.600304 0.000000
200.87899780 205.99200439 442.50000000 -0.860600 -0.429536 -0.273619 0.000000
99.34380341 166.54699707 477.50000000 0.000978 0.000978 -0.999999 0.000000
126.37100220 128.56199646 432.50000000 0.508965 0.812778 -0.283454 0.000000
176.77299500 225.71499634 402.50000000 -0.000978 -0.000978 -0.999999 0.000000
108.83999634 159.97300720 467.50000000 0.000000 0.000000 0.000000 0.000000
127.10199738 306.06600952 407.50000000 -0.579131 -0.375697 0.723504 0.000000
160.70300293 195.76600647 407.50000000 0.521541 -0.632938 0.572176 0.000000
92.76950073 296.57000732 452.50000000 -0.000978 -0.000978 -0.999999 0.000000
127.83200073 217.67999268 417.50000000 -0.186031 -0.253925 -0.949165 0.000000
132.94500732 187.36500549 410.00000000 0.139731 -0.704663 0.695648 0.000000
117.97100067 204.53100586 415.00000000 0.216255 0.845361 -0.488465 0.000000
148.28500366 198.68800354 467.50000000 -0.590008 0.683080 -0.430457 0.000000
113.95300293 261.50799561 367.50000000 -0.579964 -0.730264 0.361048 0.000000
134.40600586 282.69100952 392.50000000 0.000978 0.000978 0.999999 0.000000
