77.18750000 152.89100647 316.25000000 -0.855873 -0.514633 0.051325 0.000000
103.16400146 175.89900208 438.75000000 -0.222282 -0.161779 0.961467 0.000000
169.21899414 168.47700500 356.25000000 -0.549592 0.156388 -0.820665 0.000000
147.69500732 222.65600586 426.25000000 0.392355 0.503061 0.770057 0.000000
149.17999268 204.10200500 356.25000000 0.650264 0.589774 -0.478877 0.000000
179.60899353 147.69500732 348.75000000 -0.214898 -0.317365 0.923633 0.000000
128.77000427 145.46899414 427.50000000 -0.180712 -0.323601 0.928776 0.000000
72.73439789 196.67999268 421.25000000 -0.795340 -0.138255 0.590187 0.000000
86.83599854 144.72700500 408.75000000 -0.663701 -0.613798 0.427496 0.000000
161.79699707 226.36700439 381.25000000 0.659666 0.064673 -0.748771 0.000000
189.25799561 174.04299927 375.00000000 0.638063 -0.760024 0.123448 0.000000
78.67189789 255.31300354 336.25000000 0.245847 0.336039 -0.909196 0.000000
72.36329651 207.07000732 272.50000000 -0.784451 0.255221 -0.565243 0.000000
204.10200500 129.14100647 371.25000000 -0.828435 0.178918 0.530739 0.000000
103.90599823 231.56300354 428.75000000 -0.037429 0.547575 0.835919 0.000000
96.48439789 207.07000732 271.25000000 0.675430 0.685011 -0.273046 0.000000
140.27400208 144.72700500 428.75000000 -0.061927 -0.695597 0.715759 0.000000
178.86700439 78.30079651 350.00000000 0.073621 -0.882064 0.465341 0.000000
160.31300354 238.24200439 383.75000000 0.696825 0.142977 -0.702846 0.000000
120.23400116 161.05499268 311.25000000 0.954282 -0.097641 -0.282509 0.000000
127.65599823 174.41400146 438.75000000 -0.147908 -0.121015 0.981569 0.000000
176.64100647 138.78900146 418.75000000 0.275309 -0.331254 0.902483 0.000000
80.89849854 239.72700500 418.75000000 -0.519858 0.503143 0.690358 0.000000
209.29699707 161.05499268 391.25000000 -0.596576 -0.328198 0.732382 0.000000
139.90199280 181.09399414 327.50000000 0.310238 0.148969 -0.938915 0.000000
90.91799927 215.97700500 292.50000000 0.815649 0.578269 -0.017942 0.000000
112.06999969 193.33999634 305.00000000 0.691826 0.691826 -0.206770 0.000000
138.04699707 231.56300354 426.25000000 0.327851 0.383262 0.863495 0.000000
106.13300323 253.08599854 418.75000000 -0.055593 0.782573 0.620072 0.000000
173.67199707 160.31300354 426.25000000 0.306907 0.229823 0.923575 0.000000
116.15200043 241.95300293 365.00000000 0.410177 0.253919 -0.875945 0.000000
60.85940170 215.97700500 321.25000000 -0.965718 0.193664 -0.172867 0.000000
122.08999634 130.62500000 300.00000000 0.281103 -0.377310 -0.882394 0.000000
155.85899353 90.17579651 360.00000000 -0.311321 -0.807539 0.500959 0.000000
61.23049927 193.71099854 320.00000000 -0.999437 -0.033416 -0.003038 0.000000
90.54689789 138.41799927 405.00000000 -0.556634 -0.721807 0.411282 0.000000
198.16400146 181.83599854 411.25000000 -0.268436 -0.942969 -0.196853 0.000000
73.84770203 210.03900146 272.50000000 -0.819824 0.262904 -0.508695 0.000000
108.35900116 110.21499634 330.00000000 -0.839650 -0.500764 0.210291 0.000000
111.32800293 164.76600647 438.75000000 -0.150237 -0.326662 0.933124 0.000000
147.69500732 242.69500732 378.75000000 0.497051 0.173597 -0.850179 0.000000
129.14100647 226.36700439 363.75000000 0.346441 0.490126 -0.799847 0.000000
147.69500732 161.05499268 433.75000000 0.184147 -0.240601 0.952996 0.000000
185.54699707 144.72700500 418.75000000 0.023173 -0.262221 0.964730 0.000000
143.98399353 126.91400146 418.75000000 -0.058486 -0.777440 0.626232 0.000000
224.88299561 143.24200439 413.75000000 0.386216 -0.043499 0.921382 0.000000
181.83599854 97.59770203 375.00000000 0.123729 -0.913372 0.387870 0.000000
227.11000061 167.73399353 406.25000000 -0.296049 0.016103 0.955037 0.000000
92.03130341 192.96899414 436.25000000 -0.612020 0.006877 0.790812 0.000000
131.36700439 197.79299927 335.00000000 0.165865 0.719764 -0.674113 0.000000
177.38299561 166.99200439 423.75000000 0.457238 -0.009277 0.889296 0.000000
226.73800659 150.66400146 407.50000000 -0.690569 -0.095301 0.716960 0.000000
160.31300354 176.64100647 358.75000000 -0.404739 -0.229797 -0.885088 0.000000
75.70320129 154.37500000 401.25000000 -0.782062 -0.447125 0.434118 0.000000
68.65239716 187.03100586 280.00000000 -0.888966 -0.319308 -0.328303 0.000000
112.06999969 112.81300354 361.25000000 0.600180 -0.596799 0.532555 0.000000
120.97699738 231.93400574 430.00000000 -0.183000 0.387615 0.903474 0.000000
123.20300293 153.63299561 306.25000000 0.679350 0.459020 -0.572524 0.000000
70.50789642 178.12500000 413.75000000 -0.814500 -0.350886 0.462026 0.000000
229.33599854 152.14900208 408.75000000 -0.870869 -0.315709 0.376716 0.000000
97.96880341 138.78900146 293.75000000 -0.391820 -0.616662 -0.682792 0.000000
61.97269821 214.49200439 312.50000000 -0.955063 0.205520 -0.213579 0.000000
128.39900208 152.89100647 313.75000000 0.548825 0.407086 -0.730118 0.000000
158.08599854 95.74220276 368.75000000 -0.161965 -0.839545 0.518586 0.000000
203.73100281 90.54689789 362.50000000 0.354742 -0.794557 0.492786 0.000000
169.21899414 111.32800293 398.75000000 -0.089109 -0.720179 0.688042 0.000000
162.53900146 219.68800354 416.25000000 -0.598970 0.598970 0.531480 0.000000
124.68800354 128.39900208 416.25000000 -0.395456 -0.789298 0.469705 0.000000
126.17199707 144.72700500 426.25000000 0.001315 -0.450890 0.892578 0.000000
79.41410065 162.53900146 288.75000000 -0.655580 -0.612209 -0.442058 0.000000
165.50799561 192.22700500 413.75000000 0.414740 0.831058 0.370585 0.000000
143.98399353 149.92199707 326.25000000 -0.978780 -0.196238 0.058992 0.000000
214.49200439 138.04699707 388.75000000 -0.955770 0.008611 0.293988 0.000000
122.46099854 146.58200073 427.50000000 0.079633 -0.379269 0.921853 0.000000
207.81300354 142.50000000 416.25000000 0.000978 0.000978 0.999999 0.000000
183.32000732 175.15600586 418.75000000 0.233154 0.370994 0.898890 0.000000
88.69149780 141.01600647 407.50000000 -0.660476 -0.617221 0.427563 0.000000
212.63699341 102.42199707 375.00000000 -0.746697 0.540824 -0.387237 0.000000
186.28900146 183.32000732 416.25000000 -0.319883 0.753896 0.573861 0.000000
93.14459991 187.03100586 437.50000000 -0.617686 -0.032215 0.785764 0.000000
178.86700439 190.74200439 403.75000000 -0.131305 0.902194 0.410858 0.000000
180.35200500 178.12500000 358.75000000 0.866143 0.216910 -0.450274 0.000000
164.02400208 149.17999268 428.75000000 0.359048 -0.409220 0.838823 0.000000
149.92199707 173.67199707 433.75000000 0.000978 0.000978 0.999999 0.000000
189.25799561 175.15600586 363.75000000 0.713810 0.073842 -0.696435 0.000000
83.86720276 223.02699280 305.00000000 0.737502 0.670589 0.080005 0.000000
157.34399414 215.97700500 423.75000000 0.576111 0.482052 0.660092 0.000000
83.12509918 201.87500000 433.75000000 -0.815181 -0.290575 0.501046 0.000000
100.19499969 210.41000366 335.00000000 0.468502 0.772131 -0.429324 0.000000
227.85200500 166.99200439 413.75000000 0.490829 0.001330 0.871255 0.000000
180.35200500 94.25789642 368.75000000 -0.120714 -0.704910 0.698949 0.000000
112.81300354 161.42599487 300.00000000 0.831525 0.204473 -0.516485 0.000000
116.15200043 182.57800293 295.00000000 0.883974 0.227308 -0.408560 0.000000
91.28910065 155.11700439 423.75000000 -0.401780 -0.424190 0.811564 0.000000
184.06300354 145.83999634 350.00000000 -0.281584 -0.255856 0.924796 0.000000
210.78100586 158.82800293 416.25000000 0.544345 0.182454 0.818779 0.000000
82.75399780 264.21899414 360.00000000 -0.534130 0.840575 0.090215 0.000000
124.68800354 229.33599854 431.25000000 0.034715 0.554045 0.831762 0.000000
191.48399353 133.22300720 415.00000000 -0.009108 -0.409861 0.912103 0.000000
164.02400208 108.73100281 395.00000000 -0.040322 -0.832868 0.552001 0.000000
205.58599854 113.92600250 372.50000000 -0.795340 0.138255 0.590187 0.000000
101.68000031 119.49199677 338.75000000 -0.768168 -0.639907 0.020912 0.000000
208.55499268 113.55500031 373.75000000 -0.578136 0.049233 0.814454 0.000000
127.65599823 234.53100586 428.75000000 0.000978 0.000978 0.999999 0.000000
122.46099854 139.90199280 422.50000000 0.123810 -0.729436 0.672752 0.000000
131.36700439 270.52801514 395.00000000 0.205650 0.746835 0.632413 0.000000
83.12509918 143.98399353 318.75000000 -0.767955 -0.633891 -0.091805 0.000000
80.89849854 216.71899414 271.25000000 -0.138245 0.496225 -0.857117 0.000000
202.61700439 129.14100647 413.75000000 0.000978 0.000978 0.999999 0.000000
201.50399780 132.10899353 362.50000000 -0.958392 -0.001215 0.285453 0.000000
120.97699738 244.92199707 423.75000000 0.138746 0.598247 0.789209 0.000000
109.10199738 194.82400513 300.00000000 0.691826 0.691826 -0.206770 0.000000
146.95300293 79.04299927 345.00000000 -0.443026 -0.613549 0.653672 0.000000
152.89100647 192.96899414 431.25000000 0.527505 0.393588 0.752879 0.000000
152.89100647 238.24200439 378.75000000 0.427070 0.283182 -0.858731 0.000000
86.46489716 221.91400146 332.50000000 0.800315 0.511885 -0.312202 0.000000
84.60939789 258.28100586 401.25000000 -0.496765 0.737721 0.457156 0.000000
87.57820129 255.31300354 408.75000000 -0.353766 0.718944 0.598305 0.000000
155.11700439 190.74200439 341.25000000 0.504008 0.635488 -0.584919 0.000000
98.33989716 209.29699707 322.50000000 0.616054 0.778562 -0.119665 0.000000
65.31250000 172.92999268 393.75000000 -0.962460 -0.182513 0.200896 0.000000
176.64100647 108.35900116 393.75000000 0.001379 -0.745961 0.665988 0.000000
209.66799927 103.16400146 385.00000000 0.164885 -0.898983 0.405761 0.000000
87.20709991 220.42999268 292.50000000 -0.303476 0.913331 0.271531 0.000000
110.95700073 106.87500000 332.50000000 -0.839650 -0.500764 0.210291 0.000000
71.99220276 177.38299561 413.75000000 -0.835035 -0.366409 0.410441 0.000000
114.29699707 250.86000061 421.25000000 0.065406 0.494027 0.866983 0.000000
76.81649780 256.05499268 392.50000000 -0.381084 0.859368 -0.340970 0.000000
85.35160065 217.46099854 271.25000000 0.113458 0.785365 -0.608547 0.000000
208.18400574 153.63299561 387.50000000 -0.645920 -0.172551 0.743648 0.000000
141.75799561 132.85200500 423.75000000 0.052331 -0.305053 0.950897 0.000000
113.55500031 205.58599854 438.75000000 0.000978 0.000978 0.999999 0.000000
175.15600586 166.62100220 355.00000000 0.216878 -0.659995 -0.719285 0.000000
145.46899414 205.58599854 353.75000000 0.541128 0.685206 -0.487518 0.000000
142.50000000 253.08599854 378.75000000 0.463643 0.340216 -0.818100 0.000000
56.77740097 208.55499268 347.50000000 -0.691826 -0.691826 -0.206770 0.000000
107.61699677 166.99200439 291.25000000 0.455761 -0.522054 -0.720931 0.000000
93.51570129 157.34399414 286.25000000 0.000978 0.000978 -0.999999 0.000000
174.41400146 145.46899414 421.25000000 0.347562 -0.270655 0.897745 0.000000
118.00800323 221.17199707 433.75000000 -0.099073 0.305145 0.947138 0.000000
79.41410065 156.60200500 298.75000000 -0.821002 -0.481926 -0.306110 0.000000
72.36329651 157.34399414 397.50000000 -0.855298 -0.417632 0.306674 0.000000
82.38289642 218.57400513 272.50000000 -0.100968 0.610195 -0.785791 0.000000
124.68800354 151.40600586 306.25000000 0.687521 0.380857 -0.618274 0.000000
167.73399353 90.91799927 365.00000000 -0.242935 -0.757017 0.606554 0.000000
145.46899414 143.24200439 326.25000000 -0.892696 -0.090523 0.441474 0.000000
152.89100647 89.06259918 356.25000000 -0.282780 -0.791467 0.541863 0.000000
89.06259918 258.65200806 405.00000000 -0.358127 0.766490 0.533140 0.000000
106.50399780 115.78099823 350.00000000 -0.652019 -0.753671 0.082773 0.000000
200.39100647 88.32039642 361.25000000 0.165712 -0.658287 0.734301 0.000000
96.48439789 194.45300293 438.75000000 0.000978 0.000978 0.999999 0.000000
184.06300354 168.47700500 358.75000000 0.501102 -0.409696 -0.762263 0.000000
118.75000000 269.41400146 371.25000000 0.475884 0.382320 -0.792064 0.000000
174.41400146 147.69500732 423.75000000 0.363360 -0.300035 0.882014 0.000000
86.83599854 169.21899414 273.75000000 0.300420 -0.734181 -0.608872 0.000000
70.13680267 187.77400208 417.50000000 -0.909645 -0.046751 0.412747 0.000000
155.85899353 134.33599854 423.75000000 0.383671 -0.686655 0.617496 0.000000
105.39099884 235.27400208 428.75000000 -0.239894 0.341667 0.908688 0.000000
158.08599854 196.30900574 357.50000000 0.565688 0.741752 -0.360280 0.000000
143.24200439 200.39100647 433.75000000 0.268645 0.420422 0.866646 0.000000
82.38289642 180.35200500 428.75000000 -0.925026 -0.335480 0.178268 0.000000
142.50000000 221.91400146 428.75000000 0.001376 0.645448 0.763803 0.000000
146.95300293 227.85200500 423.75000000 0.383312 0.313064 0.868943 0.000000
176.64100647 112.81300354 401.25000000 0.147504 -0.812017 0.564687 0.000000
121.71900177 146.58200073 427.50000000 0.094688 -0.334741 0.937541 0.000000
190.74200439 105.39099884 391.25000000 0.001215 -0.958392 0.285453 0.000000
140.27400208 195.19500732 436.25000000 0.348842 0.124489 0.928877 0.000000
141.75799561 111.32800293 393.75000000 -0.137801 -0.863067 0.485928 0.000000
94.25789642 266.81698608 395.00000000 -0.355439 0.863209 0.358516 0.000000
111.32800293 161.79699707 436.25000000 -0.006903 -0.639218 0.768995 0.000000
162.16799927 201.13299561 410.00000000 0.800114 -0.577943 -0.160623 0.000000
99.45320129 207.44200134 312.50000000 0.620775 0.783326 -0.032230 0.000000
86.83599854 219.68800354 428.75000000 -0.625770 0.119828 0.770748 0.000000
135.82000732 222.65600586 363.75000000 0.350700 0.614948 -0.706293 0.000000
106.87500000 252.34399414 418.75000000 -0.055593 0.782573 0.620072 0.000000
116.52400208 267.92999268 368.75000000 0.638768 0.055731 -0.767379 0.000000
104.64900208 236.01600647 426.25000000 -0.902009 0.247869 0.353470 0.000000
161.79699707 145.46899414 426.25000000 0.894982 -0.383564 -0.227787 0.000000
126.91400146 164.02400208 436.25000000 -0.236675 -0.631656 0.738238 0.000000
161.05499268 215.97700500 418.75000000 0.530485 0.412234 0.740708 0.000000
181.09399414 141.75799561 418.75000000 0.000978 0.000978 0.999999 0.000000
142.50000000 248.26199341 415.00000000 0.370589 0.443753 0.815933 0.000000
100.19499969 143.24200439 421.25000000 -0.189662 -0.670757 0.717017 0.000000
80.52739716 170.70300293 275.00000000 -0.594407 -0.690440 -0.412277 0.000000
197.42199707 135.82000732 416.25000000 -0.087069 -0.235969 0.967852 0.000000
149.17999268 136.19099426 425.00000000 0.256550 -0.201673 0.945257 0.000000
142.50000000 97.96880341 363.75000000 -0.353031 -0.824794 0.441684 0.000000
63.08599854 188.88699341 400.00000000 -0.999999 0.000978 0.000978 0.000000
89.06259918 170.70300293 273.75000000 0.300420 -0.734181 -0.608872 0.000000
214.86300659 137.30499268 390.00000000 -0.749222 -0.185390 0.635843 0.000000
198.16400146 178.86700439 401.25000000 -0.206192 -0.873719 0.440568 0.000000
172.18800354 138.78900146 341.25000000 -0.363273 -0.363273 0.857943 0.000000
155.85899353 106.50399780 390.00000000 -0.001289 -0.913864 0.406019 0.000000
103.90599823 250.11700439 358.75000000 0.666137 0.199377 -0.718686 0.000000
104.64900208 121.71900177 381.25000000 -0.441631 -0.869789 0.220067 0.000000
155.11700439 159.57000732 431.25000000 0.073587 -0.093964 0.992852 0.000000
102.05100250 169.21899414 437.50000000 -0.051063 -0.354823 0.933538 0.000000
140.27400208 100.19499969 366.25000000 -0.346682 -0.836115 0.425116 0.000000
142.87100220 243.43800354 417.50000000 0.312119 0.398221 0.862556 0.000000
89.80470276 131.73800659 382.50000000 -0.705724 -0.708486 0.001381 0.000000
143.98399353 191.48399353 433.75000000 0.044174 0.125726 0.991081 0.000000
172.92999268 123.20300293 411.25000000 -0.023397 -0.549137 0.835405 0.000000
128.39900208 269.04299927 397.50000000 0.171617 0.779111 0.602938 0.000000
100.19499969 210.03900146 333.75000000 0.477740 0.793016 -0.378009 0.000000
182.57800293 115.78099823 338.75000000 0.000978 0.000978 0.999999 0.000000
164.02400208 103.16400146 333.75000000 0.000978 0.000978 0.999999 0.000000
161.05499268 194.82400513 357.50000000 0.350894 0.700155 -0.621816 0.000000
195.19500732 161.05499268 418.75000000 0.651781 -0.651781 0.387768 0.000000
180.35200500 126.91400146 341.25000000 -0.233199 -0.136793 0.962760 0.000000
62.34379959 230.07800293 336.25000000 -0.864160 0.432839 -0.256666 0.000000
97.96880341 135.07800293 411.25000000 -0.622897 -0.666084 0.410281 0.000000
179.60899353 86.83599854 361.25000000 0.216910 -0.866143 0.450274 0.000000
109.84400177 186.28900146 441.25000000 0.000978 0.000978 0.999999 0.000000
178.86700439 160.31300354 426.25000000 0.322947 0.026596 0.946043 0.000000
146.21099854 115.78099823 401.25000000 0.139349 -0.645798 0.750684 0.000000
60.48830032 191.48399353 392.50000000 -0.959424 -0.112950 0.258356 0.000000
97.59770203 268.67199707 352.50000000 0.747222 -0.243830 -0.618228 0.000000
157.34399414 74.96099854 331.25000000 -0.001205 -0.271059 0.962562 0.000000
132.85200500 123.20300293 316.25000000 -0.958392 0.001215 0.285453 0.000000
177.38299561 171.44500732 353.75000000 0.159347 0.261115 -0.952065 0.000000
155.85899353 222.65600586 421.25000000 0.388506 0.019490 0.921240 0.000000
208.92599487 141.01600647 382.50000000 -0.853950 -0.389004 0.345609 0.000000
202.61700439 160.31300354 371.25000000 -0.818031 -0.293612 0.494587 0.000000
121.71900177 267.18798828 371.25000000 0.477446 0.331516 -0.813721 0.000000
91.66020203 215.23500061 295.00000000 0.811502 0.584336 0.004105 0.000000
195.19500732 147.32400513 357.50000000 -0.728397 -0.192494 0.657559 0.000000
222.65600586 111.69899750 397.50000000 0.269645 -0.958593 0.091602 0.000000
153.63299561 155.85899353 343.75000000 -0.936317 -0.305652 0.172880 0.000000
111.69899750 160.31300354 297.50000000 0.831525 0.204473 -0.516485 0.000000
199.64900208 178.12500000 398.75000000 -0.513034 -0.844214 0.155241 0.000000
149.92199707 186.28900146 433.75000000 0.229918 0.070840 0.970628 0.000000
215.23500061 152.89100647 393.75000000 -0.879622 -0.218051 0.422752 0.000000
134.33599854 247.14900208 418.75000000 0.212129 0.769550 0.602324 0.000000
77.92970276 173.67199707 273.75000000 -0.742505 -0.505430 -0.439576 0.000000
207.07000732 123.94499969 373.75000000 -0.753279 -0.198718 0.626962 0.000000
188.51600647 79.41410065 351.25000000 0.189358 -0.694314 0.694314 0.000000
129.14100647 228.59399414 431.25000000 0.000978 0.000978 0.999999 0.000000
69.76570129 233.04699707 318.75000000 0.001379 0.745961 -0.665988 0.000000
124.31600189 121.71900177 305.00000000 -0.554660 0.737911 0.384499 0.000000
113.55500031 124.31600189 402.50000000 -0.001215 -0.958392 0.285453 0.000000
155.11700439 166.25000000 431.25000000 0.168054 -0.362941 0.916532 0.000000
63.08599854 238.98500061 356.25000000 -0.845664 0.514433 -0.142165 0.000000
106.13300323 207.81300354 438.75000000 0.000978 0.000978 0.999999 0.000000
211.52400208 113.55500031 403.75000000 -0.126374 -0.852662 0.506949 0.000000
80.89849854 244.17999268 413.75000000 -0.494540 0.432106 0.754132 0.000000
106.50399780 235.27400208 357.50000000 0.729720 0.285820 -0.621140 0.000000
137.30499268 246.40600586 418.75000000 0.346803 0.457653 0.818708 0.000000
122.46099854 222.28500366 357.50000000 0.860313 -0.001338 0.509765 0.000000
66.42579651 195.93800354 412.50000000 -0.239591 -0.474605 0.846963 0.000000
190.00000000 93.51570129 343.75000000 -0.802911 -0.106762 0.586461 0.000000
190.74200439 93.51570129 343.75000000 -0.802911 -0.106762 0.586461 0.000000
75.70320129 207.07000732 423.75000000 -0.741563 0.111012 0.661634 0.000000
132.85200500 163.28100586 433.75000000 -0.000978 -0.000978 0.999999 0.000000
123.94499969 234.53100586 366.25000000 0.388216 0.555297 -0.735482 0.000000
222.65600586 157.34399414 413.75000000 0.000978 0.000978 0.999999 0.000000
143.98399353 219.68800354 366.25000000 0.491836 0.552266 -0.673127 0.000000
60.11719894 182.94900513 367.50000000 -0.958147 -0.284586 0.031068 0.000000
97.22660065 127.28500366 312.50000000 -0.790733 -0.604336 -0.097567 0.000000
60.48830032 225.62500000 340.00000000 -0.937313 0.299554 -0.178076 0.000000
127.65599823 217.46099854 436.25000000 0.344530 0.220557 0.912499 0.000000
122.08999634 170.70300293 305.00000000 0.958392 -0.001215 -0.285453 0.000000
128.77000427 119.49199677 310.00000000 -0.918904 0.128896 0.372828 0.000000
170.70300293 115.03900146 336.25000000 0.000978 0.000978 0.999999 0.000000
166.99200439 224.14100647 386.25000000 0.654724 0.199668 -0.729019 0.000000
67.53910065 175.52699280 292.50000000 -0.893665 -0.341651 -0.290926 0.000000
109.10199738 222.65600586 433.75000000 -0.017712 0.532730 0.846100 0.000000
69.02349854 158.45700073 357.50000000 -0.885505 -0.461229 -0.056114 0.000000
158.08599854 227.11000061 416.25000000 0.314891 0.397837 0.861725 0.000000
75.70320129 257.91000366 377.50000000 -0.784306 0.619922 -0.023682 0.000000
141.01600647 259.02398682 406.25000000 0.269219 0.788763 0.552607 0.000000
76.44539642 176.64100647 273.75000000 -0.792625 -0.421335 -0.440706 0.000000
204.10200500 173.67199707 416.25000000 0.317982 0.595612 0.737654 0.000000
108.35900116 272.38299561 391.25000000 -0.423356 0.786696 0.449309 0.000000
121.71900177 224.88299561 358.75000000 0.303802 0.602782 -0.737806 0.000000
209.29699707 114.29699707 403.75000000 0.063524 -0.831454 0.551950 0.000000
67.91020203 199.64900208 415.00000000 -0.880124 0.067915 0.469861 0.000000
123.57399750 261.99200439 372.50000000 0.368516 -0.008926 -0.929579 0.000000
167.73399353 132.10899353 416.25000000 0.189141 -0.659689 0.727349 0.000000
79.41410065 190.74200439 428.75000000 -0.446663 0.070092 0.891952 0.000000
69.02349854 156.97300720 372.50000000 -0.860780 -0.498196 0.104207 0.000000
146.21099854 191.48399353 433.75000000 0.087765 0.120531 0.988822 0.000000
158.45700073 210.03900146 375.00000000 0.825285 -0.034793 -0.563643 0.000000
123.20300293 237.50000000 426.25000000 0.315432 0.558811 0.766964 0.000000
113.55500031 124.68800354 403.75000000 -0.001215 -0.958392 0.285453 0.000000
115.78099823 194.45300293 441.25000000 0.000978 0.000978 0.999999 0.000000
186.66000366 84.60939789 357.50000000 -0.139817 -0.837429 0.528360 0.000000
123.94499969 236.01600647 428.75000000 -0.038469 0.409895 0.911321 0.000000
160.31300354 195.93800354 426.25000000 0.576293 -0.006844 0.817214 0.000000
75.33209991 178.12500000 275.00000000 -0.823761 -0.372994 -0.426959 0.000000
211.52400208 129.14100647 413.75000000 0.000978 0.000978 0.999999 0.000000
186.28900146 164.02400208 421.25000000 0.548624 0.015050 0.835934 0.000000
69.76570129 215.23500061 416.25000000 -0.778694 -0.040984 0.626064 0.000000
132.10899353 254.57000732 376.25000000 0.512769 0.107724 -0.851742 0.000000
56.40629959 207.44200134 352.50000000 -0.691826 -0.691826 -0.206770 0.000000
67.53910065 169.58999634 305.00000000 -0.813757 -0.529637 -0.239340 0.000000
120.23400116 246.40600586 368.75000000 0.186358 0.490495 -0.851285 0.000000
89.06259918 264.96099854 346.25000000 -0.144838 0.583833 -0.798850 0.000000
95.74220276 272.01199341 377.50000000 -0.327683 0.940597 -0.088886 0.000000
141.75799561 99.45320129 366.25000000 -0.346682 -0.836115 0.425116 0.000000
144.72700500 120.23400116 408.75000000 0.029208 -0.808090 0.588334 0.000000
79.41410065 244.55099487 412.50000000 -0.514942 0.612865 0.599359 0.000000
169.21899414 75.70320129 346.25000000 -0.029439 -0.769609 0.637836 0.000000
87.20709991 212.26600647 432.50000000 -0.337243 0.310263 0.888822 0.000000
120.97699738 134.33599854 298.75000000 0.548860 -0.318435 -0.772885 0.000000
164.76600647 90.54689789 363.75000000 -0.243155 -0.751427 0.613378 0.000000
133.59399414 253.08599854 376.25000000 0.384606 0.320250 -0.865747 0.000000
213.75000000 143.98399353 391.25000000 -0.775445 -0.152078 0.612827 0.000000
139.53100586 220.42999268 363.75000000 0.435900 0.646334 -0.626293 0.000000
203.36000061 115.78099823 406.25000000 0.066964 -0.585580 0.807844 0.000000
123.94499969 270.15600586 373.75000000 0.532397 0.336166 -0.776882 0.000000
138.41799927 241.21099854 375.00000000 0.198211 0.227876 -0.953302 0.000000
114.29699707 269.41400146 366.25000000 0.437759 -0.313130 -0.842803 0.000000
97.96880341 259.76599121 353.75000000 0.772933 -0.148583 -0.616845 0.000000
146.21099854 163.28100586 433.75000000 -0.070629 -0.046724 0.996408 0.000000
221.17199707 123.20300293 408.75000000 -0.001330 -0.490829 0.871255 0.000000
124.68800354 199.64900208 438.75000000 0.105877 0.127290 0.986198 0.000000
158.08599854 251.60200500 391.25000000 0.784215 0.517999 -0.341591 0.000000
99.45320129 180.35200500 273.75000000 0.598531 -0.064281 -0.798517 0.000000
92.77349854 175.89900208 436.25000000 -0.509442 -0.114011 0.852919 0.000000
146.21099854 172.92999268 433.75000000 0.000978 0.000978 0.999999 0.000000
143.98399353 119.86299896 407.50000000 -0.124373 -0.826714 0.548704 0.000000
123.94499969 166.25000000 323.75000000 0.788518 0.491816 -0.369265 0.000000
79.41410065 142.12899780 355.00000000 -0.781042 -0.618143 -0.088722 0.000000
212.63699341 100.93800354 375.00000000 -0.597644 0.489900 -0.634681 0.000000
230.07800293 165.13699341 412.50000000 0.490829 0.001330 0.871255 0.000000
147.69500732 204.84399414 353.75000000 0.600220 0.744272 -0.292907 0.000000
149.17999268 196.67999268 433.75000000 0.287599 0.347205 0.892600 0.000000
189.25799561 161.79699707 358.75000000 -0.342301 -0.315159 0.885158 0.000000
93.88680267 219.68800354 337.50000000 0.483343 0.533517 -0.694074 0.000000
120.97699738 166.99200439 438.75000000 0.349273 -0.523104 0.777413 0.000000
209.29699707 102.05100250 382.50000000 0.067354 -0.889351 0.452236 0.000000
73.84770203 172.92999268 415.00000000 -0.887531 -0.282872 0.363693 0.000000
201.13299561 146.21099854 363.75000000 -0.992827 -0.007662 -0.119314 0.000000
100.19499969 136.56300354 293.75000000 -0.169516 -0.670428 -0.722351 0.000000
88.32039642 142.50000000 303.75000000 -0.722442 -0.639877 -0.261984 0.000000
76.07430267 259.02398682 352.50000000 -0.758215 0.650101 0.049789 0.000000
97.22660065 214.49200439 436.25000000 -0.294354 0.237474 0.925722 0.000000
199.64900208 93.51570129 368.75000000 0.061364 -0.794882 0.603653 0.000000
93.88680267 212.26600647 287.50000000 0.855873 0.514633 0.051325 0.000000
169.96099854 95.74220276 371.25000000 0.001379 -0.745961 0.665988 0.000000
123.20300293 177.01199341 307.50000000 0.866143 0.216910 -0.450274 0.000000
95.74220276 271.26998901 375.00000000 -0.327683 0.940597 -0.088886 0.000000
162.53900146 175.15600586 358.75000000 -0.453006 -0.078964 -0.888003 0.000000
110.58599854 227.11000061 431.25000000 -0.183596 0.400442 0.897741 0.000000
126.17199707 266.44500732 401.25000000 0.358224 0.695184 0.623212 0.000000
147.69500732 189.25799561 433.75000000 0.070864 0.013750 0.997391 0.000000
218.20300293 111.32800293 386.25000000 0.571270 -0.749286 -0.334994 0.000000
132.10899353 129.14100647 311.25000000 0.821634 -0.175742 -0.542248 0.000000
60.48830032 192.22700500 330.00000000 -0.970126 -0.237306 -0.050412 0.000000
179.60899353 187.03100586 408.75000000 0.000978 0.000978 0.999999 0.000000
63.45709991 172.92999268 347.50000000 -0.910652 -0.393077 -0.127295 0.000000
213.75000000 174.41400146 413.75000000 0.000978 0.000978 0.999999 0.000000
72.36329651 184.06300354 275.00000000 -0.311680 -0.465171 -0.828536 0.000000
134.33599854 220.42999268 361.25000000 0.266728 0.513179 -0.815784 0.000000
91.28910065 215.60600281 305.00000000 0.708486 0.705724 -0.001381 0.000000
141.01600647 193.33999634 332.50000000 0.195849 0.882055 -0.428511 0.000000
146.95300293 106.87500000 386.25000000 -0.284397 -0.894881 0.343956 0.000000
183.32000732 145.83999634 350.00000000 -0.347839 -0.267910 0.898461 0.000000
138.78900146 168.84800720 352.50000000 -0.840000 -0.514742 0.171581 0.000000
71.25000000 251.97300720 367.50000000 0.824388 -0.565649 -0.020644 0.000000
120.97699738 225.99600220 360.00000000 0.292712 0.612617 -0.734180 0.000000
61.60160065 214.49200439 393.75000000 -0.612566 -0.307087 0.728327 0.000000
86.46489716 140.27400208 402.50000000 -0.662488 -0.672254 0.330430 0.000000
59.74610138 211.52400208 322.50000000 -0.965718 0.193664 -0.172867 0.000000
211.52400208 153.63299561 416.25000000 0.414927 -0.122368 0.901588 0.000000
175.15600586 97.96880341 373.75000000 -0.129110 -0.790983 0.598060 0.000000
116.52400208 219.31700134 352.50000000 0.579857 0.807711 -0.106624 0.000000
132.10899353 198.16400146 436.25000000 0.182889 0.058572 0.981387 0.000000
79.41410065 242.69500732 333.75000000 0.691826 0.691826 -0.206770 0.000000
117.26599884 265.70300293 403.75000000 0.092266 0.742522 0.663437 0.000000
155.11700439 219.68800354 421.25000000 0.431382 0.361855 0.826420 0.000000
87.57820129 260.87899780 400.00000000 -0.429489 0.765895 0.478480 0.000000
158.08599854 113.55500031 401.25000000 -0.155540 -0.519949 0.839917 0.000000
146.21099854 234.53100586 376.25000000 0.482574 0.321188 -0.814838 0.000000
118.00800323 149.92199707 298.75000000 0.816969 -0.286958 -0.500217 0.000000
146.95300293 123.20300293 333.75000000 -0.598970 0.598970 0.531480 0.000000
58.63290024 187.40199280 362.50000000 -0.968405 -0.243647 0.053182 0.000000
136.56300354 199.64900208 338.75000000 0.247818 0.799563 -0.547070 0.000000
166.25000000 131.36700439 336.25000000 -0.043054 -0.093836 0.994656 0.000000
175.15600586 142.50000000 421.25000000 0.672779 -0.070895 0.736439 0.000000
103.53500366 187.03100586 275.00000000 0.969208 -0.071100 -0.235753 0.000000
195.93800354 141.75799561 356.25000000 -0.748484 -0.285669 0.598468 0.000000
81.26959991 263.47698975 350.00000000 -0.518077 0.843894 -0.139426 0.000000
106.87500000 189.25799561 281.25000000 0.868867 0.174949 -0.463102 0.000000
163.65199280 95.74220276 370.00000000 -0.086876 -0.844552 0.528379 0.000000
141.75799561 221.91400146 428.75000000 0.338886 0.478895 0.809825 0.000000
202.61700439 105.39099884 361.25000000 -0.745961 0.001379 0.665988 0.000000
103.53500366 187.77400208 275.00000000 0.969208 -0.071100 -0.235753 0.000000
84.60939789 229.33599854 336.25000000 0.446819 0.637595 -0.627555 0.000000
89.06259918 148.06599426 417.50000000 0.076010 -0.228029 0.970683 0.000000
100.19499969 203.73100281 285.00000000 0.830933 0.497943 -0.248201 0.000000
158.08599854 109.84400177 396.25000000 -0.102116 -0.841377 0.530714 0.000000
187.77400208 142.87100220 350.00000000 -0.391658 -0.495666 0.775190 0.000000
161.79699707 208.55499268 423.75000000 0.593724 0.229075 0.771373 0.000000
84.60939789 139.53100586 396.25000000 -0.530882 -0.822942 0.202313 0.000000
113.55500031 248.63299561 421.25000000 0.022768 0.459377 0.887950 0.000000
103.16400146 189.25799561 273.75000000 0.958392 0.001215 -0.285453 0.000000
166.25000000 227.11000061 411.25000000 0.664865 0.387701 0.638469 0.000000
130.62500000 211.52400208 436.25000000 0.000978 0.000978 0.999999 0.000000
152.14900208 184.80499268 433.75000000 0.218183 0.318005 0.922642 0.000000
148.80900574 208.55499268 360.00000000 0.363339 0.555599 -0.747860 0.000000
123.20300293 207.07000732 346.25000000 0.297822 0.648770 -0.700285 0.000000
196.67999268 89.80470276 351.25000000 -0.210183 -0.279780 0.936775 0.000000
158.82800293 125.43000031 336.25000000 0.000978 0.000978 0.999999 0.000000
135.82000732 257.53900146 408.75000000 0.175546 0.758664 0.627386 0.000000
211.52400208 119.49199677 376.25000000 -0.783368 0.091563 0.614777 0.000000
215.97700500 120.97699738 386.25000000 -0.860313 -0.001338 0.509765 0.000000
114.29699707 133.96499634 417.50000000 -0.257273 -0.938700 0.229460 0.000000
94.62899780 126.17199707 352.50000000 -0.656387 -0.745288 -0.117053 0.000000
142.50000000 210.03900146 431.25000000 0.280411 0.562406 0.777862 0.000000
119.49199677 158.08599854 433.75000000 -0.018161 -0.719451 0.694305 0.000000
106.87500000 166.62100220 437.50000000 -0.442460 -0.267925 0.855830 0.000000
73.47660065 229.33599854 416.25000000 -0.601029 0.343678 0.721561 0.000000
147.69500732 136.56300354 426.25000000 -0.245031 -0.824476 0.510097 0.000000
139.53100586 158.08599854 326.25000000 -0.504884 -0.545140 0.669264 0.000000
155.11700439 200.39100647 428.75000000 -0.000978 0.999999 -0.000978 0.000000
193.71099854 150.66400146 356.25000000 -0.382079 -0.148038 0.912195 0.000000
161.79699707 184.80499268 428.75000000 0.530485 0.412234 0.740708 0.000000
103.53500366 192.22700500 275.00000000 0.958392 -0.001215 -0.285453 0.000000
56.40629959 202.24600220 370.00000000 -0.968957 -0.068412 0.237575 0.000000
127.65599823 271.26998901 395.00000000 0.152127 0.760636 0.631102 0.000000
63.08599854 184.80499268 296.25000000 -0.932045 -0.232659 -0.277780 0.000000
201.50399780 107.61699677 360.00000000 -0.769348 0.088715 0.632640 0.000000
63.45709991 235.27400208 382.50000000 -0.945940 0.223786 0.234769 0.000000
110.58599854 197.42199707 441.25000000 0.067656 0.164985 0.983973 0.000000
200.76199341 100.19499969 357.50000000 -0.794739 -0.064207 0.603545 0.000000
124.68800354 209.29699707 348.75000000 0.286752 0.632776 -0.719283 0.000000
134.33599854 152.89100647 318.75000000 0.554812 0.763872 -0.329671 0.000000
166.25000000 92.03130341 333.75000000 0.194880 -0.947142 -0.254842 0.000000
91.28910065 164.02400208 281.25000000 0.326325 -0.706226 -0.628297 0.000000
80.89849854 221.91400146 426.25000000 -0.490322 0.170354 0.854730 0.000000
70.50789642 194.45300293 273.75000000 -0.861032 -0.101382 -0.498342 0.000000
172.18800354 157.34399414 356.25000000 0.340865 -0.699671 0.627910 0.000000
103.16400146 272.38299561 361.25000000 0.532430 0.354414 -0.768706 0.000000
149.92199707 92.03130341 358.75000000 -0.255043 -0.787034 0.561720 0.000000
195.19500732 94.62899780 370.00000000 0.001379 -0.745961 0.665988 0.000000
75.70320129 172.18800354 418.75000000 -0.843977 -0.265953 0.465802 0.000000
160.31300354 127.28500366 412.50000000 -0.032469 -0.741145 0.670560 0.000000
92.77349854 216.34800720 332.50000000 0.534289 0.652271 -0.537660 0.000000
166.99200439 162.53900146 428.75000000 0.487607 0.122261 0.864460 0.000000
205.21499634 168.47700500 390.00000000 -0.721653 -0.479443 0.499351 0.000000
132.10899353 182.57800293 438.75000000 0.126748 -0.126748 0.983804 0.000000
190.74200439 118.00800323 408.75000000 -0.199127 -0.265045 0.943451 0.000000
160.31300354 243.43800354 386.25000000 0.777463 0.387920 -0.495044 0.000000
77.55860138 174.41400146 422.50000000 -0.740578 -0.281898 0.609982 0.000000
113.55500031 106.13300323 341.25000000 -0.751398 -0.635092 0.179050 0.000000
83.86720276 136.93400574 380.00000000 -0.705724 -0.708486 0.001381 0.000000
193.71099854 154.37500000 418.75000000 0.000978 0.000978 0.999999 0.000000
144.72700500 121.71900177 408.75000000 0.474264 -0.675366 0.564760 0.000000
113.55500031 187.77400208 441.25000000 0.000978 0.000978 0.999999 0.000000
133.59399414 126.17199707 416.25000000 -0.082048 -0.580095 0.810406 0.000000
143.98399353 228.59399414 423.75000000 0.383312 0.313064 0.868943 0.000000
61.23049927 178.12500000 350.00000000 -0.927853 -0.367690 -0.062388 0.000000
125.43000031 273.12500000 376.25000000 0.467257 0.674926 -0.571092 0.000000
74.21880341 228.96499634 297.50000000 -0.691826 0.691826 -0.206770 0.000000
118.00800323 184.80499268 441.25000000 0.000978 0.000978 0.999999 0.000000
152.14900208 118.00800323 403.75000000 -0.172817 -0.906933 0.384197 0.000000
138.04699707 201.87500000 343.75000000 0.323714 0.795730 -0.511882 0.000000
219.68800354 153.63299561 413.75000000 0.000978 0.000978 0.999999 0.000000
169.96099854 184.80499268 348.75000000 0.348485 -0.466237 -0.813131 0.000000
101.68000031 198.53500366 275.00000000 0.948731 0.278563 -0.149375 0.000000
171.44500732 153.63299561 351.25000000 0.135860 -0.613609 0.777835 0.000000
184.06300354 102.05100250 382.50000000 -0.023122 -0.858222 0.512757 0.000000
121.71900177 156.23100281 432.50000000 -0.023206 -0.850443 0.525555 0.000000
95.00009918 201.13299561 438.75000000 0.000978 0.000978 0.999999 0.000000
75.70320129 146.95300293 358.75000000 -0.789761 -0.613339 -0.009648 0.000000
106.13300323 157.34399414 293.75000000 0.532344 0.063207 -0.844165 0.000000
223.39900208 161.79699707 403.75000000 -0.748935 -0.015341 0.662466 0.000000
209.29699707 145.46899414 416.25000000 0.000978 0.000978 0.999999 0.000000
210.78100586 119.49199677 376.25000000 -0.783368 0.091563 0.614777 0.000000
155.11700439 233.04699707 381.25000000 0.509560 0.238615 -0.826687 0.000000
115.78099823 219.68800354 353.75000000 0.579857 0.807711 -0.106624 0.000000
146.21099854 188.51600647 331.25000000 0.481664 0.426150 -0.765765 0.000000
74.96099854 151.03500366 342.50000000 -0.802763 -0.596220 -0.009639 0.000000
181.83599854 163.28100586 423.75000000 0.460443 0.017350 0.887520 0.000000
210.78100586 167.73399353 396.25000000 -0.556344 -0.556344 0.617221 0.000000
150.66400146 220.05900574 372.50000000 0.550540 0.706887 -0.444091 0.000000
146.21099854 126.91400146 328.75000000 0.000978 0.000978 0.999999 0.000000
58.26179886 188.51600647 367.50000000 -0.971538 -0.236641 -0.010702 0.000000
181.09399414 97.96880341 338.75000000 -0.364623 0.073459 0.928253 0.000000
187.03100586 82.75399780 355.00000000 0.035255 -0.768552 0.638815 0.000000
182.57800293 180.72300720 417.50000000 -0.235780 0.763553 0.601161 0.000000
166.25000000 122.46099854 336.25000000 0.000978 0.000978 0.999999 0.000000
138.78900146 107.61699677 336.25000000 0.833890 -0.550839 0.034688 0.000000
105.01999664 265.70300293 360.00000000 0.683822 -0.377338 -0.624503 0.000000
129.51199341 175.15600586 335.00000000 -0.656873 0.738415 -0.152515 0.000000
229.33599854 121.34799957 402.50000000 -0.893686 -0.218652 0.391813 0.000000
79.04299927 143.24200439 350.00000000 -0.827460 -0.560448 -0.034767 0.000000
168.47700500 189.62899780 355.00000000 0.291285 0.944307 -0.153094 0.000000
153.63299561 70.50789642 341.25000000 -0.000978 -0.000978 0.999999 0.000000
218.94500732 148.43800354 398.75000000 -0.724358 -0.275415 0.632022 0.000000
154.37500000 93.51570129 363.75000000 -0.357508 -0.765165 0.535454 0.000000
213.00799561 119.49199677 378.75000000 -0.828995 -0.026208 0.558641 0.000000
156.60200500 182.57800293 338.75000000 0.489899 -0.364613 -0.791869 0.000000
138.41799927 169.96099854 345.00000000 -0.508532 -0.847553 -0.151822 0.000000
120.23400116 107.98799896 362.50000000 -0.589567 -0.738170 0.327896 0.000000
156.60200500 217.46099854 373.75000000 0.359458 0.654902 -0.664750 0.000000
59.37500000 185.54699707 376.25000000 -0.941381 -0.311993 0.128309 0.000000
168.47700500 233.78900146 401.25000000 0.822849 0.442341 0.356726 0.000000
202.24600220 159.57000732 370.00000000 -0.891496 -0.244754 0.381222 0.000000
92.03130341 256.79699707 408.75000000 -0.271664 0.732382 0.624352 0.000000
170.70300293 136.56300354 418.75000000 0.178819 -0.888281 0.423060 0.000000
198.16400146 181.46499634 405.00000000 -0.351487 -0.762904 0.542618 0.000000
66.79689789 244.92199707 376.25000000 -0.784581 0.588818 0.194233 0.000000
126.54299927 184.80499268 320.00000000 0.691818 0.461767 -0.555121 0.000000
80.15630341 253.82800293 401.25000000 -0.520628 0.628460 0.577914 0.000000
217.46099854 155.85899353 413.75000000 0.000978 0.000978 0.999999 0.000000
105.39099884 138.04699707 418.75000000 -0.293612 -0.620917 0.726810 0.000000
191.11300659 177.38299561 370.00000000 0.155142 -0.781737 -0.604001 0.000000
163.28100586 82.38289642 333.75000000 -0.152980 0.001117 0.988229 0.000000
166.25000000 189.25799561 418.75000000 0.652378 0.058786 0.755611 0.000000
199.64900208 104.27700043 387.50000000 0.069369 -0.907239 0.414855 0.000000
119.49199677 100.93800354 343.75000000 -0.691826 -0.691826 0.206770 0.000000
96.48439789 207.81300354 273.75000000 0.755377 0.646414 -0.107490 0.000000
108.73100281 211.52400208 342.50000000 0.427989 0.597853 -0.677788 0.000000
90.54689789 152.89100647 423.75000000 -0.702704 -0.300699 0.644815 0.000000
169.21899414 129.88299561 413.75000000 0.185670 -0.541916 0.819667 0.000000
106.87500000 241.95300293 423.75000000 -0.086029 0.686771 0.721765 0.000000
112.06999969 217.46099854 436.25000000 0.000978 0.000978 0.999999 0.000000
121.71900177 156.97300720 307.50000000 0.625311 0.524182 -0.578117 0.000000
73.47660065 202.61700439 423.75000000 -0.789298 0.395456 -0.469705 0.000000
110.58599854 224.88299561 353.75000000 0.635449 -0.635449 -0.438644 0.000000
201.13299561 181.09399414 406.25000000 -0.299683 -0.921992 0.245195 0.000000
119.49199677 233.04699707 428.75000000 -0.313474 0.447597 0.837491 0.000000
161.42599487 79.41410065 332.50000000 -0.313000 0.034215 0.949137 0.000000
112.06999969 269.41400146 366.25000000 0.000978 0.000978 -0.999999 0.000000
131.36700439 145.46899414 308.75000000 0.670715 0.526150 -0.522788 0.000000
74.21880341 250.11700439 333.75000000 -0.336574 0.492897 -0.802353 0.000000
106.13300323 183.32000732 278.75000000 0.737038 0.012539 -0.675735 0.000000
133.59399414 146.95300293 428.75000000 -0.143225 -0.679943 0.719141 0.000000
75.33209991 214.49200439 422.50000000 -0.774783 0.242609 0.583826 0.000000
164.02400208 103.90599823 333.75000000 0.000978 0.000978 0.999999 0.000000
126.17199707 109.84400177 381.25000000 -0.268988 -0.942146 0.200016 0.000000
95.00009918 209.66799927 275.00000000 0.755377 0.646414 -0.107490 0.000000
83.86720276 242.69500732 416.25000000 -0.322494 0.662814 0.675778 0.000000
72.36329651 210.78100586 275.00000000 -0.818964 0.326639 -0.471811 0.000000
169.96099854 157.34399414 428.75000000 0.998323 0.057136 -0.009350 0.000000
160.68400574 154.37500000 357.50000000 0.611849 -0.747816 0.257704 0.000000
189.25799561 163.28100586 418.75000000 0.485014 -0.229583 0.843833 0.000000
125.05899811 161.79699707 435.00000000 -0.150956 -0.379507 0.912791 0.000000
160.31300354 77.92970276 348.75000000 -0.297288 -0.545292 0.783758 0.000000
90.17579651 267.92999268 385.00000000 -0.510336 0.829104 0.228349 0.000000
204.10200500 123.57399750 370.00000000 -0.794526 -0.171012 0.582652 0.000000
181.09399414 162.53900146 423.75000000 0.473204 0.020108 0.880723 0.000000
125.43000031 161.79699707 433.75000000 -0.077248 -0.320777 0.944000 0.000000
166.99200439 81.26959991 352.50000000 -0.149662 -0.666675 0.730168 0.000000
164.02400208 201.13299561 418.75000000 0.974304 -0.223552 -0.027496 0.000000
148.43800354 87.57820129 353.75000000 -0.304993 -0.698741 0.647102 0.000000
115.03900146 213.75000000 436.25000000 0.000978 0.000978 0.999999 0.000000
183.32000732 171.07400513 357.50000000 0.457965 0.124121 -0.880263 0.000000
100.56600189 205.58599854 305.00000000 0.806826 0.570316 -0.154180 0.000000
134.33599854 227.11000061 366.25000000 0.229199 0.597165 -0.768675 0.000000
173.30099487 127.65599823 337.50000000 -0.390810 0.035528 0.919785 0.000000
97.22660065 124.31600189 332.50000000 -0.798466 -0.599205 0.058355 0.000000
167.73399353 116.15200043 405.00000000 -0.239244 -0.476964 0.845735 0.000000
78.67189789 146.21099854 333.75000000 -0.856294 -0.476715 -0.198756 0.000000
128.39900208 193.71099854 438.75000000 0.000978 0.000978 0.999999 0.000000
209.66799927 132.85200500 380.00000000 -0.958392 0.001215 0.285453 0.000000
218.94500732 169.96099854 413.75000000 0.000978 0.000978 0.999999 0.000000
165.50799561 227.85200500 386.25000000 0.588716 0.009606 -0.808283 0.000000
193.33999634 92.03130341 347.50000000 -0.781072 -0.079407 0.619371 0.000000
141.75799561 255.31300354 378.75000000 0.428493 0.242061 -0.870517 0.000000
69.39459991 249.37500000 355.00000000 -0.856681 0.515632 0.014887 0.000000
149.17999268 123.94499969 411.25000000 0.323139 -0.683626 0.654398 0.000000
188.14500427 183.32000732 372.50000000 0.651781 0.651781 -0.387768 0.000000
142.50000000 156.60200500 328.75000000 -0.699997 -0.332945 0.631784 0.000000
97.96880341 202.61700439 438.75000000 0.000978 0.000978 0.999999 0.000000
144.72700500 197.42199707 433.75000000 0.180243 0.322761 0.929160 0.000000
68.65239716 245.66400146 345.00000000 -0.894688 0.446689 -0.001310 0.000000
67.16799927 201.87500000 282.50000000 -0.745961 -0.001379 -0.665988 0.000000
212.26600647 161.79699707 393.75000000 -0.544749 -0.362624 0.756144 0.000000
133.22300720 110.58599854 390.00000000 -0.248373 -0.854830 0.455605 0.000000
61.60160065 214.49200439 313.75000000 -0.964462 0.212156 -0.157490 0.000000
175.15600586 94.25789642 336.25000000 -0.327478 0.011292 0.944791 0.000000
107.61699677 271.26998901 392.50000000 -0.062936 0.919934 0.386988 0.000000
106.87500000 161.79699707 436.25000000 -0.201974 -0.237218 0.950228 0.000000
155.48800659 152.14900208 347.50000000 -0.095458 -0.982375 0.160708 0.000000
174.41400146 77.18750000 348.75000000 0.051325 -0.855873 0.514633 0.000000
135.82000732 103.16400146 328.75000000 0.598970 -0.598970 -0.531480 0.000000
109.84400177 146.95300293 426.25000000 -0.940206 -0.264476 0.214627 0.000000
185.91799927 197.42199707 390.00000000 0.825615 0.495991 -0.268986 0.000000
81.64070129 165.50799561 423.75000000 -0.839679 -0.287136 0.460970 0.000000
125.43000031 150.29299927 430.00000000 -0.001379 -0.745961 0.665988 0.000000
77.55860138 143.98399353 357.50000000 -0.807852 -0.588914 -0.023557 0.000000
87.94930267 218.20300293 312.50000000 0.645374 0.757102 0.101437 0.000000
165.50799561 122.83200073 410.00000000 -0.040384 -0.558418 0.828576 0.000000
213.37899780 179.60899353 410.00000000 -0.100887 -0.994765 -0.016272 0.000000
207.81300354 102.42199707 383.75000000 0.067354 -0.889351 0.452236 0.000000
96.48439789 272.01199341 380.00000000 -0.327683 0.940597 -0.088886 0.000000
139.53100586 184.06300354 436.25000000 0.120447 0.113292 0.986234 0.000000
142.50000000 181.83599854 328.75000000 0.419441 -0.311098 -0.852811 0.000000
118.75000000 205.95700073 342.50000000 0.385553 0.572588 -0.723528 0.000000
60.11719894 181.83599854 361.25000000 -0.969816 -0.242756 0.022947 0.000000
195.93800354 105.39099884 351.25000000 -0.958392 -0.001215 0.285453 0.000000
58.26179886 198.90600586 345.00000000 -0.968446 -0.107887 -0.224659 0.000000
163.65199280 245.66400146 395.00000000 0.818100 0.463643 -0.340216 0.000000
77.92970276 148.06599426 332.50000000 -0.856294 -0.476715 -0.198756 0.000000
102.42199707 140.27400208 418.75000000 -0.358378 -0.688937 0.630025 0.000000
101.68000031 138.78900146 293.75000000 0.000978 0.000978 -0.999999 0.000000
171.44500732 144.72700500 423.75000000 0.285839 -0.282937 0.915556 0.000000
140.27400208 230.82000732 371.25000000 0.390606 0.422492 -0.817880 0.000000
109.84400177 209.29699707 341.25000000 0.350297 0.584915 -0.731551 0.000000
150.66400146 158.82800293 431.25000000 0.115127 -0.395314 0.911303 0.000000
191.11300659 81.64070129 342.50000000 -0.249475 0.098511 0.963358 0.000000
199.64900208 148.43800354 416.25000000 0.363532 -0.181053 0.913819 0.000000
178.86700439 174.41400146 423.75000000 0.232305 0.357953 0.904380 0.000000
98.33989716 128.39900208 392.50000000 -0.528597 -0.843750 0.093113 0.000000
172.92999268 144.72700500 423.75000000 0.291393 -0.279795 0.914770 0.000000
120.97699738 137.30499268 296.25000000 0.957445 -0.021002 -0.287851 0.000000
73.47660065 228.59399414 298.75000000 -0.691826 0.691826 -0.206770 0.000000
78.67189789 185.54699707 428.75000000 -0.657172 -0.149563 0.738752 0.000000
66.42579651 233.78900146 325.00000000 -0.855873 0.514633 -0.051325 0.000000
154.37500000 135.07800293 336.25000000 -0.458359 -0.245169 0.854283 0.000000
114.29699707 151.77699280 430.00000000 -0.055387 -0.609255 0.791038 0.000000
79.04299927 143.24200439 345.00000000 -0.798304 -0.596202 -0.085172 0.000000
67.53910065 180.35200500 408.75000000 -0.864160 0.432839 -0.256666 0.000000
74.96099854 147.32400513 367.50000000 0.000000 0.000000 0.000000 0.000000
226.36700439 135.07800293 411.25000000 0.116806 -0.197188 0.973382 0.000000
178.86700439 96.48439789 373.75000000 -0.134654 -0.867287 0.479252 0.000000
111.32800293 267.92999268 401.25000000 0.003975 0.881059 0.472990 0.000000
117.63700104 115.78099823 387.50000000 -0.745961 0.001379 -0.665988 0.000000
125.80100250 100.19499969 355.00000000 -0.586321 -0.732495 0.345946 0.000000
111.32800293 143.98399353 423.75000000 -0.251117 -0.655430 0.712287 0.000000
125.43000031 166.25000000 326.25000000 0.558484 0.494753 -0.665820 0.000000
64.94139862 173.67199707 392.50000000 -0.951096 -0.234053 0.201584 0.000000
70.50789642 170.70300293 408.75000000 -0.710738 -0.202847 0.673576 0.000000
162.16799927 116.52400208 335.00000000 -0.204433 -0.228803 0.951765 0.000000
129.14100647 121.71900177 311.25000000 -0.828038 0.245173 0.504225 0.000000
164.76600647 214.86300659 417.50000000 0.373184 -0.062419 0.925655 0.000000
102.42199707 173.30099487 280.00000000 0.578703 -0.632693 -0.514590 0.000000
152.14900208 112.81300354 398.75000000 -0.101754 -0.700481 0.706380 0.000000
