245.00399780 175.46499634 154.50000000 -0.249134 -0.235216 0.939471 0.000000
118.86299896 267.64498901 181.50000000 -0.257902 -0.495728 -0.829301 0.000000
269.26199341 148.78100586 160.50000000 -0.303931 0.931403 -0.200287 0.000000
139.88699341 159.69700623 117.00000000 -0.788276 0.184490 0.587014 0.000000
102.69100189 268.04901123 112.00000000 0.409841 -0.814899 0.409841 0.000000
194.87100220 206.19099426 184.50000000 0.316583 -0.580135 -0.750479 0.000000
162.93200684 245.81199646 142.00000000 -0.805435 -0.200212 0.557844 0.000000
224.78900146 139.88699341 157.50000000 -0.001197 0.965696 -0.259673 0.000000
121.28900146 232.06599426 202.50000000 -0.083534 -0.513946 -0.853745 0.000000
240.15199280 162.52699280 103.50000000 -0.584480 -0.709609 0.393495 0.000000
124.52300262 217.51199341 208.50000000 -0.023017 -0.491481 -0.870584 0.000000
149.58999634 183.95500183 191.00000000 -0.064220 0.435876 -0.897713 0.000000
261.57998657 145.54699707 147.00000000 -0.613922 0.613922 0.496184 0.000000
101.07399750 216.70300293 202.50000000 0.965696 -0.001197 0.259673 0.000000
137.46099854 273.70901489 161.00000000 -0.342451 -0.782975 -0.519304 0.000000
166.57000732 228.83200073 136.50000000 -0.536849 0.364928 0.760671 0.000000
125.33200073 236.10899353 199.50000000 -0.116389 -0.416477 -0.901665 0.000000
224.78900146 197.29699707 160.50000000 -0.328976 -0.597991 0.730878 0.000000
80.85939789 249.04699707 121.50000000 0.835820 -0.454624 0.307769 0.000000
122.90599823 223.97999573 205.50000000 -0.111778 -0.237689 -0.964888 0.000000
171.42199707 216.70300293 190.50000000 -0.759966 -0.461232 -0.457949 0.000000
186.78500366 208.21299744 177.00000000 0.327496 -0.882881 -0.336551 0.000000
115.22499847 153.63299561 120.00000000 0.328963 0.901330 0.281758 0.000000
138.27000427 202.14799500 103.50000000 -0.388901 0.051765 0.919824 0.000000
78.43360138 246.21699524 126.00000000 0.926978 0.001272 0.375114 0.000000
95.00980377 184.35899353 198.00000000 0.172963 0.693381 -0.699504 0.000000
177.08200073 171.42199707 127.50000000 -0.271994 -0.637834 0.720546 0.000000
261.98400879 179.50799561 163.50000000 -0.567068 -0.570454 0.594152 0.000000
118.45899963 283.81600952 135.00000000 -0.059972 -0.920902 0.385153 0.000000
136.65199280 145.95100403 131.00000000 0.159430 0.960533 0.227945 0.000000
74.39060211 193.65800476 150.00000000 0.954251 0.286146 0.086750 0.000000
77.62500000 220.74600220 187.50000000 0.785474 -0.266022 -0.558804 0.000000
87.32810211 174.65600586 166.50000000 0.650924 0.739340 -0.172259 0.000000
129.37500000 260.36700439 115.50000000 -0.709862 -0.336250 0.618896 0.000000
265.21899414 185.97700500 175.50000000 -0.124629 -0.129469 -0.983720 0.000000
79.64649963 202.14799500 93.00000000 0.934461 0.140922 0.326993 0.000000
89.75389862 223.97999573 73.50000000 0.715702 -0.591232 0.371772 0.000000
147.97300720 244.19500732 121.50000000 -0.696337 -0.440404 0.566709 0.000000
148.78100586 216.70300293 199.50000000 -0.549094 -0.069524 -0.832864 0.000000
185.97700500 145.95100403 168.00000000 0.173434 0.881745 -0.438686 0.000000
201.33999634 141.50399780 109.50000000 0.176715 0.972566 0.151288 0.000000
147.16400146 276.94299316 150.00000000 -0.576864 -0.787195 -0.218064 0.000000
247.83399963 144.73800659 96.00000000 -0.421229 0.840893 0.339802 0.000000
140.69500732 188.40199280 199.50000000 -0.489038 0.525758 -0.696003 0.000000
190.82800293 173.44299316 123.00000000 -0.034125 -0.492760 0.869496 0.000000
118.86299896 210.23399353 91.50000000 -0.592485 -0.144763 0.792468 0.000000
88.13670349 261.98400879 124.50000000 0.727293 -0.604187 0.325581 0.000000
219.93800354 164.95300293 187.50000000 -0.000978 -0.000978 -0.999999 0.000000
217.51199341 152.82400513 85.50000000 0.118161 -0.396187 0.910535 0.000000
144.73800659 152.01600647 118.50000000 0.029615 -0.726264 0.686778 0.000000
196.08399963 141.50399780 117.00000000 0.167069 0.984892 0.045564 0.000000
98.24410248 223.97999573 202.00000000 0.565420 -0.214151 -0.796517 0.000000
223.17199707 173.03900146 112.50000000 0.079931 -0.704844 0.704844 0.000000
263.60198975 159.29299927 172.50000000 -0.289013 0.186683 -0.938947 0.000000
205.38299561 194.87100220 145.50000000 -0.318898 -0.675027 0.665314 0.000000
152.41999817 180.31599426 120.00000000 -0.970384 0.068162 0.231752 0.000000
105.92600250 176.27299500 76.50000000 -0.680398 0.001380 0.732842 0.000000
173.84800720 219.12899780 184.50000000 -0.823725 0.009562 -0.566909 0.000000
154.44099426 228.83200073 190.50000000 -0.543589 -0.176177 -0.820654 0.000000
235.30099487 143.12100220 163.50000000 -0.249060 0.910306 -0.330623 0.000000
209.42599487 182.74200439 136.50000000 -0.443885 -0.865200 0.233228 0.000000
155.25000000 269.66598511 144.00000000 -0.614584 -0.718366 0.325940 0.000000
71.15619659 204.97900391 161.00000000 0.918838 0.393036 0.035492 0.000000
164.14500427 253.49400330 168.00000000 -0.576131 -0.495506 -0.650037 0.000000
217.51199341 162.52699280 94.50000000 0.020998 -0.709745 0.704146 0.000000
69.13480377 209.42599487 147.00000000 0.872221 0.483012 -0.077002 0.000000
156.86700439 210.23399353 196.50000000 -0.378612 -0.326496 -0.866056 0.000000
116.43800354 226.40600586 205.50000000 0.079786 -0.315220 -0.945659 0.000000
91.37110138 196.48800659 196.50000000 0.757511 0.199020 -0.621746 0.000000
163.33599854 152.82400513 106.50000000 -0.203943 -0.798904 0.565826 0.000000
222.36300659 172.63499451 112.00000000 0.001353 -0.840077 0.542465 0.000000
156.86700439 202.14799500 196.50000000 -0.271769 0.300836 -0.914133 0.000000
202.14799500 143.92999268 166.50000000 0.093399 0.924511 -0.369534 0.000000
90.15820313 172.22999573 168.00000000 0.694716 0.694716 -0.186387 0.000000
73.17769623 202.14799500 120.00000000 0.820144 0.412461 0.396536 0.000000
158.48399353 175.46499634 130.50000000 -0.158604 -0.458351 0.874505 0.000000
111.58599854 278.15600586 124.50000000 0.106869 -0.870626 0.480198 0.000000
135.84399414 160.10200500 109.50000000 -0.727137 0.442245 0.525063 0.000000
85.71089935 181.93400574 100.50000000 0.847896 0.494980 0.189917 0.000000
229.23599243 196.48800659 161.00000000 -0.331101 -0.523043 0.785365 0.000000
105.92600250 177.89100647 76.50000000 -0.149666 0.115596 0.981956 0.000000
259.55899048 192.44500732 175.50000000 -0.369505 -0.671678 -0.642118 0.000000
115.62899780 240.15199280 97.50000000 -0.574268 -0.291111 0.765161 0.000000
125.33200073 237.72700500 103.50000000 -0.483731 -0.470523 0.737979 0.000000
141.50399780 145.95100403 156.00000000 -0.008973 0.926750 -0.375571 0.000000
194.46699524 164.95300293 189.00000000 0.421496 -0.041481 -0.905881 0.000000
101.07399750 178.29499817 78.00000000 0.396140 0.550651 0.734749 0.000000
80.45510101 243.38699341 112.00000000 0.877087 -0.360259 0.317697 0.000000
226.40600586 205.78700256 180.00000000 0.138049 -0.947579 -0.288161 0.000000
215.08599854 155.25000000 88.50000000 0.067761 -0.730955 0.679053 0.000000
161.71899414 193.25399780 193.50000000 -0.200371 0.408054 -0.890698 0.000000
101.47899628 280.58200073 165.00000000 0.352063 -0.912489 -0.208364 0.000000
73.17769623 197.29699707 153.00000000 0.960745 0.254733 0.109910 0.000000
153.63299561 257.94100952 172.50000000 -0.376407 -0.619675 -0.688710 0.000000
225.59800720 173.44299316 129.00000000 -0.610415 -0.764951 -0.205532 0.000000
109.96900177 251.47300720 97.50000000 -0.473397 -0.373903 0.797553 0.000000
122.90599823 273.70901489 174.00000000 -0.325489 -0.623448 -0.710893 0.000000
240.15199280 186.38099670 159.00000000 -0.127110 -0.389712 0.912122 0.000000
71.15619659 231.25799561 148.50000000 0.986833 -0.035696 0.157755 0.000000
133.01400757 272.49600220 168.00000000 -0.449556 -0.769967 -0.452825 0.000000
90.15820313 251.47300720 99.00000000 0.653979 -0.516122 0.553108 0.000000
96.22270203 258.75000000 100.50000000 0.653205 -0.067772 0.754142 0.000000
274.11300659 160.10200500 157.50000000 -0.965696 -0.001197 0.259673 0.000000
140.69500732 160.10200500 175.50000000 -0.100480 0.476924 -0.873182 0.000000
194.06199646 143.52499390 108.00000000 0.306287 0.918860 0.248768 0.000000
231.25799561 196.48800659 163.50000000 -0.351975 -0.549859 0.757475 0.000000
132.60899353 252.28100586 187.50000000 -0.343917 -0.425578 -0.837021 0.000000
137.86500549 261.98400879 177.00000000 -0.395105 -0.603403 -0.692674 0.000000
156.86700439 170.61300659 127.50000000 0.431281 -0.132374 0.892454 0.000000
158.48399353 204.57400513 196.50000000 -0.378186 0.001273 -0.925729 0.000000
129.37500000 235.30099487 199.50000000 -0.286351 -0.418042 -0.862116 0.000000
92.17970276 165.35699463 142.00000000 0.671622 0.740862 -0.006924 0.000000
119.67199707 155.25000000 103.50000000 0.563535 0.748674 0.349164 0.000000
150.39799500 187.59399414 193.50000000 0.036409 0.457136 -0.888651 0.000000
189.21099854 156.05900574 181.50000000 0.262989 0.568497 -0.779518 0.000000
70.34770203 234.49200439 169.50000000 0.980461 -0.143932 -0.134091 0.000000
87.73239899 173.84800720 165.00000000 0.650924 0.739340 -0.172259 0.000000
147.16400146 266.83599854 166.50000000 -0.532258 -0.379254 -0.756880 0.000000
75.19920349 240.96099854 130.50000000 0.965531 -0.248640 0.076990 0.000000
105.92600250 159.69700623 114.00000000 0.402205 0.806012 0.434253 0.000000
108.35199738 225.59800720 202.50000000 0.440483 -0.870515 -0.219495 0.000000
222.76800537 190.82800293 156.00000000 -0.338682 -0.572031 0.747044 0.000000
85.71089935 256.72900391 183.00000000 0.605741 -0.332914 -0.722666 0.000000
106.73400116 215.89500427 205.50000000 0.418545 -0.325189 -0.847981 0.000000
215.08599854 170.61300659 106.50000000 0.155726 -0.832023 0.532435 0.000000
211.04299927 164.95300293 100.50000000 0.250219 -0.747511 0.615319 0.000000
147.16400146 155.25000000 121.50000000 0.126229 -0.628173 0.767767 0.000000
176.27299500 200.53100586 130.50000000 -0.410816 0.549404 0.727589 0.000000
154.84599304 249.85499573 177.00000000 -0.435362 -0.531373 -0.726707 0.000000
169.80499268 242.17399597 147.00000000 -0.749687 -0.356142 0.557793 0.000000
107.54299927 166.57000732 190.50000000 0.331403 0.738787 -0.586827 0.000000
118.05500031 281.79501343 131.00000000 -0.155743 -0.871868 0.464317 0.000000
98.64839935 257.53698730 99.00000000 0.454796 -0.561415 0.691357 0.000000
236.10899353 140.69500732 106.50000000 -0.274214 0.961575 0.013406 0.000000
105.11699677 284.22100830 153.00000000 0.411946 -0.907376 0.083484 0.000000
199.72300720 175.46499634 190.50000000 -0.000978 -0.000978 -0.999999 0.000000
181.93400574 161.71899414 184.50000000 0.332776 0.111823 -0.936352 0.000000
227.21499634 204.57400513 181.50000000 0.006862 -0.808301 -0.588729 0.000000
83.28520203 253.89799500 181.50000000 0.741372 -0.339052 -0.579146 0.000000
101.07399750 181.93400574 76.50000000 0.191948 0.533526 0.823715 0.000000
71.56050110 219.93800354 120.00000000 0.968373 -0.194706 0.156023 0.000000
207.00000000 204.57400513 160.50000000 -0.198114 -0.928749 0.313330 0.000000
228.02299500 161.31399536 183.00000000 -0.772356 0.502438 -0.388617 0.000000
160.10200500 177.89100647 187.50000000 -0.244821 0.674443 -0.696556 0.000000
129.37500000 192.44500732 97.50000000 -0.573206 -0.259121 0.777362 0.000000
126.14099884 179.50799561 94.50000000 -0.673512 -0.032475 0.738463 0.000000
121.28900146 239.34399414 199.50000000 -0.194736 -0.459340 -0.866651 0.000000
97.03119659 221.95899963 202.00000000 0.419769 -0.188677 -0.887804 0.000000
118.05500031 234.08799744 202.00000000 -0.237880 -0.567491 -0.788268 0.000000
154.44099426 268.04901123 161.00000000 -0.411198 -0.775263 -0.479461 0.000000
112.79900360 251.47300720 99.00000000 -0.541890 -0.347780 0.765117 0.000000
97.03119659 182.33799744 78.00000000 0.202374 0.924130 0.324082 0.000000
157.67599487 176.27299500 187.50000000 -0.155891 0.640214 -0.752213 0.000000
150.39799500 274.51800537 150.00000000 -0.584677 -0.789237 -0.187768 0.000000
194.06199646 142.71699524 112.00000000 0.213191 0.960021 0.181411 0.000000
155.25000000 161.71899414 175.50000000 0.122059 0.413877 -0.902113 0.000000
129.37500000 156.86700439 169.50000000 0.227112 0.650011 -0.725193 0.000000
126.94899750 260.77099609 114.00000000 -0.594441 -0.288455 0.750622 0.000000
105.11699677 182.74200439 76.50000000 -0.600359 -0.064171 0.797152 0.000000
194.06199646 182.33799744 129.00000000 0.039599 -0.482012 0.875269 0.000000
156.86700439 207.00000000 196.50000000 -0.000978 -0.000978 -0.999999 0.000000
129.37500000 204.57400513 208.50000000 -0.000978 -0.000978 -0.999999 0.000000
97.83979797 249.04699707 91.50000000 0.142849 -0.669135 0.729282 0.000000
140.69500732 183.55099487 106.50000000 -0.819728 -0.445539 0.359919 0.000000
71.96479797 232.06599426 175.50000000 0.629010 -0.773610 -0.076638 0.000000
71.15619659 226.40600586 136.50000000 0.990187 -0.123341 0.065705 0.000000
129.37500000 199.72300720 208.50000000 -0.464154 -0.112135 -0.878628 0.000000
127.75800323 181.93400574 205.50000000 -0.179808 0.392701 -0.901917 0.000000
162.52699280 215.08599854 190.50000000 -0.303077 -0.416924 -0.856924 0.000000
131.80099487 204.57400513 97.50000000 -0.747723 0.239836 0.619184 0.000000
88.13670349 191.63699341 193.50000000 0.798651 0.326793 -0.505334 0.000000
199.31799316 202.95700073 150.00000000 -0.632783 -0.366521 0.682091 0.000000
97.83979797 239.34399414 196.50000000 0.523806 -0.470594 -0.710048 0.000000
155.25000000 261.17599487 136.50000000 -0.806815 -0.277294 0.521688 0.000000
161.71899414 239.34399414 181.50000000 -0.289002 -0.592374 -0.752044 0.000000
97.83979797 266.02700806 112.50000000 0.561247 -0.737966 0.374710 0.000000
233.68400574 190.02000427 160.50000000 -0.214695 -0.510091 0.832895 0.000000
232.06599426 139.07800293 121.50000000 -0.189059 0.981960 -0.003437 0.000000
168.99600220 234.89599609 144.00000000 -0.726627 -0.101698 0.679463 0.000000
152.01600647 151.20700073 115.50000000 -0.361981 -0.547030 0.754803 0.000000
146.35499573 211.85200500 202.50000000 -0.608069 -0.049609 -0.792333 0.000000
172.22999573 190.02000427 136.50000000 -0.014295 0.117659 0.992951 0.000000
142.71699524 208.61700439 105.00000000 -0.380473 0.337342 0.861070 0.000000
80.85939789 213.46899414 85.50000000 0.968373 -0.194706 0.156023 0.000000
170.61300659 236.10899353 178.50000000 -0.693322 -0.512891 -0.506209 0.000000
156.05900574 190.02000427 124.50000000 -0.547652 0.823704 0.146931 0.000000
230.44900513 176.27299500 184.50000000 -0.193340 0.026950 -0.980762 0.000000
201.33999634 175.46499634 121.50000000 0.271527 -0.601806 0.751067 0.000000
200.53100586 155.65400696 93.00000000 0.340565 -0.663205 0.666464 0.000000
181.12500000 200.93600464 135.00000000 -0.828985 0.371069 0.418440 0.000000
229.64100647 174.65600586 184.50000000 -0.255177 0.079981 -0.963581 0.000000
199.31799316 203.76600647 150.00000000 -0.632783 -0.366521 0.682091 0.000000
114.01200104 219.93800354 208.50000000 -0.000978 -0.000978 -0.999999 0.000000
163.33599854 160.50599670 114.00000000 0.133698 -0.464348 0.875503 0.000000
148.78100586 195.67999268 196.50000000 -0.562168 -0.046263 -0.825728 0.000000
126.94899750 280.58200073 127.50000000 -0.292252 -0.823619 0.486045 0.000000
224.78900146 185.16799927 184.50000000 -0.514253 -0.221266 -0.828604 0.000000
106.73400116 215.08599854 85.50000000 -0.567036 -0.473367 0.674087 0.000000
231.25799561 160.91000366 94.50000000 -0.166805 -0.806977 0.566537 0.000000
198.91400146 190.82800293 190.50000000 -0.190913 -0.270575 -0.943579 0.000000
93.79689789 250.66400146 94.50000000 0.001296 -0.908224 0.418483 0.000000
253.89799500 150.80299377 101.00000000 -0.930132 -0.362817 0.056731 0.000000
246.62100220 157.67599487 106.50000000 -0.679183 -0.731095 0.064890 0.000000
161.71899414 141.10000610 135.00000000 0.169374 0.984704 -0.040883 0.000000
142.31199646 143.52499390 135.00000000 0.660827 0.660827 0.355830 0.000000
116.43800354 239.34399414 199.50000000 -0.031436 -0.509813 -0.859711 0.000000
253.89799500 193.65800476 172.00000000 -0.257001 -0.862245 0.436445 0.000000
152.82400513 233.68400574 121.50000000 -0.808296 -0.452966 0.376138 0.000000
171.42199707 148.78100586 109.50000000 -0.431403 -0.497016 0.752905 0.000000
166.57000732 197.70100403 126.00000000 -0.694716 0.694716 0.186387 0.000000
134.22700500 168.99600220 187.50000000 -0.380940 0.684372 -0.621707 0.000000
105.11699677 273.30499268 118.50000000 0.371347 -0.861339 0.346693 0.000000
102.69100189 269.26199341 181.50000000 -0.082937 -0.728972 -0.679501 0.000000
92.98829651 188.40199280 76.50000000 0.727936 0.459313 0.509058 0.000000
215.08599854 200.93600464 183.00000000 -0.152417 -0.629284 -0.762083 0.000000
157.67599487 183.55099487 190.50000000 0.039473 0.125187 -0.991348 0.000000
152.82400513 212.66000366 196.50000000 -0.429301 -0.245530 -0.869146 0.000000
116.43800354 274.11300659 115.50000000 0.797075 -0.465363 0.384850 0.000000
99.45700073 280.58200073 145.50000000 0.581044 -0.806436 0.109769 0.000000
108.35199738 278.96499634 172.50000000 0.117948 -0.914443 -0.387147 0.000000
135.43899536 266.83599854 123.00000000 -0.494027 -0.138444 0.858353 0.000000
146.75999451 166.57000732 123.00000000 -0.613922 0.613922 0.496184 0.000000
175.06100464 241.77000427 165.00000000 -0.773931 -0.579271 -0.255884 0.000000
171.42199707 228.02299500 181.50000000 -0.438139 -0.457684 -0.773666 0.000000
130.99200439 158.48399353 172.50000000 0.006881 0.796832 -0.604161 0.000000
104.30899811 189.21099854 76.50000000 -0.738752 0.149563 0.657172 0.000000
83.68949890 239.34399414 96.00000000 0.831216 -0.441534 0.337829 0.000000
162.52699280 230.44900513 133.50000000 -0.706481 -0.289962 0.645605 0.000000
72.36910248 203.76600647 172.00000000 0.965696 0.001197 0.259673 0.000000
151.20700073 207.00000000 112.50000000 -0.680398 0.001380 0.732842 0.000000
207.80900574 197.29699707 151.50000000 -0.573915 -0.785440 0.231744 0.000000
139.88699341 144.33399963 138.00000000 -0.001197 0.965696 -0.259673 0.000000
276.13500977 156.05900574 161.00000000 -0.989259 0.136727 0.051703 0.000000
135.03500366 194.87100220 103.50000000 0.000978 0.000978 0.999999 0.000000
97.03119659 166.57000732 181.50000000 0.653338 0.679406 -0.334001 0.000000
106.73400116 283.41198730 150.00000000 0.879960 -0.001323 0.475046 0.000000
121.28900146 254.30299377 108.00000000 -0.587592 -0.208202 0.781913 0.000000
106.33000183 229.64100647 87.00000000 -0.532397 -0.336166 0.776882 0.000000
143.12100220 212.66000366 103.50000000 -0.390810 0.035528 0.919785 0.000000
246.62100220 159.69700623 144.00000000 -0.566383 -0.345672 0.748145 0.000000
138.27000427 214.27699280 103.50000000 0.000978 0.000978 0.999999 0.000000
209.42599487 180.31599426 190.50000000 -0.000978 -0.000978 -0.999999 0.000000
149.58999634 142.71699524 120.00000000 0.129118 0.986743 0.098319 0.000000
106.33000183 190.82800293 78.00000000 -0.840000 0.171581 0.514742 0.000000
146.35499573 249.85499573 181.50000000 -0.384138 -0.605058 -0.697383 0.000000
259.55899048 146.35499573 124.50000000 -0.420053 0.695661 -0.582761 0.000000
159.69700623 264.41000366 150.00000000 -0.892859 -0.428629 0.138130 0.000000
74.39060211 226.00199890 112.00000000 0.930937 -0.281117 0.233087 0.000000
105.11699677 191.63699341 76.50000000 -0.801780 -0.052321 0.595325 0.000000
204.57400513 169.80499268 109.50000000 0.194115 -0.787161 0.585403 0.000000
105.11699677 159.29299927 115.50000000 0.396129 0.852843 0.340205 0.000000
93.79689789 177.89100647 190.50000000 0.788822 0.488779 -0.372633 0.000000
253.89799500 149.99400330 172.00000000 -0.095272 0.725533 -0.681561 0.000000
269.66598511 178.69900513 174.00000000 -0.573915 0.231744 -0.785440 0.000000
245.81199646 151.61099243 90.00000000 -0.584826 -0.621904 0.520782 0.000000
134.22700500 247.42999268 112.50000000 -0.100683 -0.605554 0.789409 0.000000
253.89799500 152.41999817 129.00000000 -0.538744 -0.841873 -0.031691 0.000000
74.79489899 235.30099487 123.00000000 0.694716 -0.694716 -0.186387 0.000000
268.45300293 168.99600220 160.50000000 -0.422077 -0.567735 0.706773 0.000000
198.91400146 181.93400574 190.50000000 -0.000978 -0.000978 -0.999999 0.000000
187.59399414 160.10200500 184.50000000 0.329851 0.498760 -0.801522 0.000000
222.36300659 185.16799927 187.50000000 -0.768450 -0.198657 -0.608292 0.000000
91.77539825 171.42199707 112.00000000 0.722112 0.691144 0.029560 0.000000
199.72300720 198.91400146 187.50000000 -0.374900 -0.172482 -0.910879 0.000000
112.39499664 232.06599426 202.50000000 0.030135 -0.394373 -0.918456 0.000000
133.41799927 219.12899780 100.50000000 -0.595035 0.148384 0.789883 0.000000
174.65600586 167.37899780 181.50000000 0.430741 0.519859 -0.737705 0.000000
142.31199646 251.47300720 181.50000000 -0.330699 -0.559768 -0.759801 0.000000
141.50399780 268.45300293 166.50000000 0.303931 -0.606254 -0.734902 0.000000
157.27099609 214.27699280 117.00000000 -0.649930 -0.029478 0.759422 0.000000
146.75999451 192.44500732 114.00000000 -0.313091 0.227313 0.922118 0.000000
144.73800659 185.16799927 112.50000000 -0.574599 -0.177383 0.798981 0.000000
144.73800659 245.00399780 118.50000000 -0.621362 -0.463928 0.631411 0.000000
236.91799927 203.76600647 175.50000000 -0.297650 -0.889958 0.345513 0.000000
172.22999573 168.18800354 121.50000000 -0.304578 -0.779783 0.546965 0.000000
275.32598877 160.91000366 165.00000000 -0.931007 0.124408 -0.343146 0.000000
131.80099487 198.10499573 208.50000000 -0.546144 0.012258 -0.837602 0.000000
124.52300262 166.57000732 190.50000000 -0.000978 -0.000978 -0.999999 0.000000
238.53500366 190.02000427 160.50000000 -0.243830 -0.747222 0.618228 0.000000
142.31199646 143.52499390 123.00000000 0.377143 0.918681 0.117425 0.000000
78.43360138 189.21099854 175.50000000 0.791554 0.482026 -0.375625 0.000000
144.33399963 161.71899414 123.00000000 -0.502845 0.071435 0.861420 0.000000
150.39799500 259.55899048 172.50000000 -0.306136 -0.748510 -0.588229 0.000000
110.77700043 280.58200073 127.50000000 -0.063819 -0.823973 0.563024 0.000000
113.20300293 243.38699341 196.50000000 -0.113272 -0.598724 -0.792905 0.000000
242.98199463 160.91000366 105.00000000 -0.650624 -0.509403 0.563202 0.000000
105.92600250 242.57800293 196.50000000 -0.079586 -0.620770 -0.779942 0.000000
181.93400574 231.25799561 166.50000000 -0.940382 -0.333515 -0.066703 0.000000
191.63699341 178.69900513 127.50000000 0.169216 -0.543587 0.822119 0.000000
226.40600586 204.16999817 174.00000000 -0.012485 -0.986286 0.164570 0.000000
154.44099426 247.42999268 178.50000000 -0.429433 -0.505118 -0.748628 0.000000
118.86299896 212.66000366 211.50000000 0.191582 -0.339170 -0.921010 0.000000
180.31599426 234.08799744 165.00000000 -0.862261 -0.466127 0.198067 0.000000
107.54299927 156.46299744 120.00000000 0.325065 0.891307 0.316077 0.000000
241.77000427 193.25399780 184.50000000 -0.000978 -0.000978 -0.999999 0.000000
249.85499573 178.69900513 157.50000000 -0.300035 -0.363360 0.882014 0.000000
140.69500732 169.39999390 186.00000000 -0.060663 0.833759 -0.548786 0.000000
159.29299927 242.57800293 133.50000000 -0.905172 -0.225929 0.360028 0.000000
126.94899750 181.12500000 205.50000000 -0.083578 0.409669 -0.908397 0.000000
88.94529724 198.10499573 76.50000000 0.704371 0.527862 0.474576 0.000000
125.33200073 172.63499451 96.00000000 -0.769771 0.332657 0.544786 0.000000
172.22999573 204.57400513 127.50000000 -0.638799 -0.233860 0.732970 0.000000
174.25199890 235.30099487 150.00000000 -0.804239 -0.230003 0.547994 0.000000
70.34770203 229.64100647 154.50000000 0.966536 -0.222651 0.127413 0.000000
103.50000000 162.52699280 109.50000000 0.507192 0.837246 0.204391 0.000000
111.58599854 160.91000366 103.50000000 0.167386 0.902739 0.396289 0.000000
71.56050110 230.44900513 144.00000000 0.986647 -0.115168 0.115168 0.000000
251.47300720 195.67999268 175.50000000 -0.340947 -0.924626 -0.169772 0.000000
150.80299377 272.49600220 159.00000000 -0.558219 -0.698191 -0.448242 0.000000
131.80099487 145.95100403 153.00000000 0.153349 0.967775 -0.199740 0.000000
147.16400146 157.67599487 172.50000000 0.117172 0.439044 -0.890793 0.000000
95.41410065 251.47300720 190.50000000 0.470437 -0.661291 -0.584280 0.000000
228.83200073 181.93400574 184.50000000 -0.000978 -0.000978 -0.999999 0.000000
177.89100647 198.50999451 191.00000000 -0.419806 -0.058044 -0.905756 0.000000
270.47500610 152.01600647 153.00000000 -0.455343 -0.329296 0.827180 0.000000
71.15619659 223.97999573 127.50000000 0.992283 -0.109751 0.057704 0.000000
76.00779724 215.08599854 184.50000000 0.805568 0.094346 -0.584944 0.000000
148.78100586 265.21899414 166.50000000 0.000000 0.000000 0.000000 0.000000
228.83200073 170.61300659 106.50000000 -0.290394 -0.840124 0.458108 0.000000
126.14099884 214.27699280 208.50000000 -0.219160 -0.298341 -0.928957 0.000000
81.66799927 245.00399780 109.50000000 0.854040 -0.404545 0.327046 0.000000
191.63699341 187.18899536 131.00000000 0.129859 -0.738853 0.661236 0.000000
168.99600220 177.48599243 131.00000000 -0.053622 -0.963949 0.260628 0.000000
124.92800140 275.73001099 172.00000000 -0.420751 -0.724352 -0.546152 0.000000
269.66598511 152.82400513 168.00000000 -0.669836 0.268889 -0.692111 0.000000
88.94529724 217.51199341 196.50000000 0.448456 0.223478 -0.865416 0.000000
120.48000336 277.34799194 172.50000000 -0.383604 -0.709585 -0.591047 0.000000
262.38900757 148.78100586 144.00000000 -0.549555 0.563083 0.617193 0.000000
213.46899414 168.59199524 105.00000000 0.148112 -0.854943 0.497128 0.000000
94.60549927 240.15199280 85.50000000 0.073185 -0.448774 0.890644 0.000000
144.73800659 217.10699463 202.00000000 -0.453908 -0.036367 -0.890306 0.000000
110.77700043 266.02700806 106.50000000 -0.263859 -0.753658 0.601978 0.000000
135.43899536 188.40199280 105.00000000 -0.473185 -0.062080 0.878773 0.000000
71.15619659 221.55499268 124.50000000 0.986584 -0.115439 0.115439 0.000000
138.67399597 225.59800720 202.00000000 -0.314281 0.945474 -0.085474 0.000000
153.63299561 201.33999634 196.50000000 -0.355830 0.355830 -0.864159 0.000000
118.86299896 228.83200073 94.50000000 -0.572262 -0.112696 0.812290 0.000000
204.57400513 185.97700500 136.50000000 -0.441910 -0.605334 0.662032 0.000000
269.26199341 170.61300659 160.50000000 -0.436084 -0.555468 0.708015 0.000000
99.45700073 190.02000427 202.50000000 0.651249 0.220206 -0.726212 0.000000
94.60549927 192.44500732 199.50000000 0.723840 0.293709 -0.624332 0.000000
103.09600067 202.14799500 78.00000000 -0.713223 -0.227291 0.663062 0.000000
133.41799927 149.18600464 161.00000000 0.188710 0.863312 -0.468061 0.000000
152.82400513 201.33999634 196.50000000 -0.368816 0.203934 -0.906855 0.000000
160.10200500 255.91999817 142.00000000 -0.784446 -0.490076 0.380092 0.000000
247.83399963 158.48399353 144.00000000 -0.659557 -0.565574 0.495087 0.000000
198.10499573 214.27699280 154.50000000 0.037572 -0.825202 0.563587 0.000000
195.67999268 188.40199280 133.50000000 -0.237792 -0.703928 0.669283 0.000000
95.81839752 164.14500427 159.00000000 -0.001356 0.828486 0.560008 0.000000
103.09600067 202.95700073 78.00000000 -0.749943 -0.107556 0.652701 0.000000
132.60899353 272.89999390 123.00000000 -0.559391 -0.505635 0.656822 0.000000
73.98629761 219.93800354 112.00000000 0.982042 -0.165486 0.090594 0.000000
86.51950073 270.47500610 159.00000000 0.431663 -0.719439 0.544127 0.000000
86.51950073 203.76600647 76.50000000 0.798352 0.278715 0.533809 0.000000
165.76199341 154.44099426 109.50000000 -0.859456 -0.289550 0.421302 0.000000
219.93800354 182.74200439 148.50000000 -0.342560 -0.576345 0.741943 0.000000
118.05500031 223.97999573 205.50000000 -0.068970 -0.192390 -0.978892 0.000000
109.96900177 155.65400696 168.00000000 -0.001197 0.965696 -0.259673 0.000000
86.92379761 172.22999573 131.00000000 0.745524 0.616279 0.253762 0.000000
166.57000732 210.23399353 190.50000000 -0.315589 -0.370474 -0.873586 0.000000
255.11099243 194.06199646 177.00000000 -0.364191 -0.736548 -0.569967 0.000000
157.67599487 240.15199280 181.50000000 -0.476856 -0.563861 -0.674291 0.000000
130.99200439 145.54699707 148.50000000 0.390822 0.899327 -0.196137 0.000000
84.09380341 205.78700256 191.00000000 0.595939 -0.029308 -0.802494 0.000000
212.66000366 183.55099487 190.50000000 0.305041 -0.650431 -0.695622 0.000000
71.96479797 225.59800720 175.50000000 0.841268 -0.017783 -0.540326 0.000000
95.41410065 173.44299316 189.00000000 0.711394 0.558834 -0.426173 0.000000
159.29299927 238.13099670 183.00000000 -0.361217 -0.536156 -0.762928 0.000000
211.04299927 143.12100220 166.50000000 0.042778 0.937218 -0.346110 0.000000
180.72099304 229.64100647 156.00000000 -0.887877 -0.203992 0.412386 0.000000
194.87100220 216.29899597 165.00000000 0.679518 -0.679518 0.276604 0.000000
88.13670349 177.89100647 103.50000000 0.717307 0.644145 0.265610 0.000000
136.65199280 177.89100647 103.50000000 -0.696556 -0.244821 0.674443 0.000000
111.98999786 243.38699341 96.00000000 -0.616768 -0.208681 0.758980 0.000000
222.36300659 175.86900330 114.00000000 0.079931 -0.704844 0.704844 0.000000
222.36300659 191.23199463 156.00000000 -0.358026 -0.542709 0.759792 0.000000
214.27699280 198.91400146 184.50000000 0.159761 -0.473420 -0.866227 0.000000
263.60198975 185.16799927 166.50000000 0.012332 -0.563166 0.826252 0.000000
114.81999969 200.53100586 88.50000000 -0.696078 -0.175932 0.696078 0.000000
109.16000366 230.85400391 90.00000000 -0.643630 -0.319383 0.695510 0.000000
142.31199646 185.16799927 196.50000000 -0.410146 0.616049 -0.672506 0.000000
233.68400574 185.16799927 184.50000000 -0.723555 0.015335 -0.690096 0.000000
103.50000000 163.33599854 106.50000000 0.525047 0.827669 0.198217 0.000000
122.90599823 160.10200500 175.50000000 0.070131 0.932877 -0.353302 0.000000
101.07399750 207.00000000 76.50000000 -0.680589 -0.308771 0.664423 0.000000
84.90229797 207.80900574 76.50000000 0.831565 0.251475 0.495237 0.000000
145.54699707 160.10200500 124.50000000 -0.351895 -0.192331 0.916067 0.000000
73.17769623 227.21499634 117.00000000 0.678043 -0.681234 0.276003 0.000000
118.86299896 249.85499573 103.50000000 -0.685778 -0.333930 0.646684 0.000000
246.62100220 186.78500366 163.50000000 -0.393154 -0.715574 0.577394 0.000000
163.33599854 241.77000427 139.50000000 -0.834714 -0.250568 0.490375 0.000000
146.35499573 206.19099426 202.50000000 -0.389502 0.117821 -0.913459 0.000000
235.30099487 188.40199280 181.50000000 -0.721553 -0.240518 -0.649240 0.000000
130.18400574 206.19099426 97.50000000 -0.724899 0.023836 0.688443 0.000000
180.31599426 199.72300720 133.50000000 -0.648148 0.365917 0.667839 0.000000
99.45700073 168.99600220 187.50000000 0.536254 0.657290 -0.529530 0.000000
198.91400146 157.67599487 187.50000000 0.046665 0.617960 -0.784823 0.000000
231.25799561 201.33999634 169.50000000 -0.360679 -0.736045 0.572842 0.000000
128.97099304 182.74200439 99.00000000 -0.780372 0.015247 0.625129 0.000000
100.66999817 208.61700439 78.00000000 -0.654768 -0.300839 0.693379 0.000000
84.90229797 209.42599487 76.50000000 0.740112 -0.110795 0.663294 0.000000
135.43899536 273.30499268 126.00000000 -0.703840 -0.354369 0.615656 0.000000
117.24600220 178.29499817 204.00000000 -0.069824 0.577120 -0.813669 0.000000
125.33200073 216.70300293 208.50000000 -0.041948 -0.450605 -0.891737 0.000000
72.36910248 238.53500366 153.00000000 0.989384 -0.140362 -0.037658 0.000000
122.09799957 163.74000549 183.00000000 -0.306287 0.918860 -0.248768 0.000000
251.87699890 143.92999268 108.00000000 -0.184955 0.978671 0.089415 0.000000
157.67599487 170.61300659 127.50000000 0.431281 -0.132374 0.892454 0.000000
236.91799927 168.99600220 145.50000000 -0.542400 -0.699279 0.465630 0.000000
169.80499268 201.33999634 193.50000000 0.016741 -0.377326 -0.925929 0.000000
125.33200073 152.82400513 166.50000000 0.006908 0.763997 -0.645183 0.000000
178.29499817 232.87500000 153.00000000 -0.714597 -0.328941 0.617373 0.000000
274.11300659 166.57000732 163.50000000 -0.889097 -0.442428 0.117321 0.000000
100.26599884 158.48399353 157.50000000 0.738510 0.668315 0.089206 0.000000
86.92379761 269.26199341 172.00000000 0.645384 -0.661890 -0.381288 0.000000
226.40600586 204.16999817 172.00000000 -0.261951 -0.944944 0.196120 0.000000
74.39060211 206.19099426 109.50000000 0.967329 0.164459 0.192948 0.000000
74.39060211 196.08399963 142.00000000 0.965056 0.260528 -0.028132 0.000000
133.41799927 265.21899414 175.50000000 -0.283231 -0.635270 -0.718479 0.000000
97.83979797 211.04299927 76.50000000 -0.585562 -0.372332 0.720060 0.000000
258.75000000 165.76199341 175.50000000 -0.000978 -0.000978 -0.999999 0.000000
266.02700806 156.86700439 151.50000000 0.067842 0.665427 0.743373 0.000000
73.58200073 210.23399353 181.50000000 0.875645 0.031225 -0.481944 0.000000
159.29299927 226.40600586 127.50000000 -0.808133 0.277747 0.519402 0.000000
139.07800293 155.25000000 169.50000000 0.409307 0.671131 -0.618103 0.000000
268.45300293 147.56799316 156.00000000 -0.424155 0.887666 -0.179282 0.000000
174.65600586 146.75999451 168.00000000 -0.080765 0.907580 -0.412039 0.000000
95.41410065 274.92199707 172.50000000 0.664267 0.323201 -0.674011 0.000000
126.14099884 216.70300293 97.50000000 -0.500145 0.031344 0.865374 0.000000
74.79489899 249.85499573 159.00000000 0.991850 -0.051009 -0.116755 0.000000
114.01200104 162.12300110 99.00000000 0.366118 0.898387 0.242608 0.000000
135.03500366 182.74200439 103.50000000 -0.426422 -0.259495 0.866502 0.000000
184.35899353 203.76600647 139.50000000 -0.632921 -0.278995 0.722200 0.000000
143.92999268 260.36700439 127.50000000 -0.146950 0.139540 0.979252 0.000000
97.03119659 212.66000366 76.50000000 -0.532343 -0.416975 0.736711 0.000000
78.43360138 185.16799927 133.50000000 0.935098 0.319938 0.152417 0.000000
98.64839935 212.66000366 76.50000000 -0.670708 -0.247768 0.699115 0.000000
114.01200104 178.69900513 205.50000000 -0.069824 0.577120 -0.813669 0.000000
155.25000000 177.08200073 130.50000000 -0.500202 -0.261716 0.825411 0.000000
95.41410065 251.47300720 94.50000000 0.082305 -0.880246 0.467325 0.000000
234.08799744 158.48399353 180.00000000 -0.133833 0.093565 -0.986577 0.000000
205.38299561 156.05900574 187.50000000 0.267809 0.597421 -0.755888 0.000000
224.78900146 155.25000000 181.50000000 -0.081802 0.575483 -0.813713 0.000000
82.88089752 263.60198975 150.00000000 0.694716 -0.694716 0.186387 0.000000
139.88699341 244.19500732 190.50000000 -0.378390 -0.481440 -0.790593 0.000000
107.54299927 225.19299316 204.00000000 0.440483 -0.870515 -0.219495 0.000000
84.49800110 214.27699280 78.00000000 0.868325 -0.034079 0.494823 0.000000
114.81999969 206.19099426 88.50000000 -0.715090 0.193059 0.671844 0.000000
100.66999817 247.42999268 90.00000000 -0.209031 -0.358957 0.909646 0.000000
165.76199341 221.55499268 133.50000000 -0.969601 -0.073625 0.233353 0.000000
156.86700439 141.90800476 114.00000000 0.159052 0.952974 0.257958 0.000000
99.86129761 164.14500427 112.00000000 0.499358 0.831239 0.244301 0.000000
114.01200104 266.83599854 181.50000000 -0.062936 -0.386988 -0.919934 0.000000
241.77000427 194.06199646 184.50000000 -0.000978 -0.000978 -0.999999 0.000000
85.71089935 215.08599854 76.50000000 0.825262 -0.156131 0.542740 0.000000
143.92999268 257.94100952 127.50000000 -0.356516 -0.183229 0.916146 0.000000
118.05500031 278.15600586 172.50000000 -0.310817 -0.739197 -0.597478 0.000000
223.97999573 167.37899780 187.50000000 -0.000978 -0.000978 -0.999999 0.000000
150.39799500 258.75000000 172.50000000 -0.306136 -0.748510 -0.588229 0.000000
194.46699524 215.89500427 165.00000000 0.679518 -0.679518 0.276604 0.000000
79.64649963 181.12500000 135.00000000 0.889997 0.437166 0.129583 0.000000
162.52699280 259.15399170 153.00000000 -0.930160 -0.342112 0.133273 0.000000
214.27699280 158.48399353 91.50000000 0.023891 -0.701261 0.712504 0.000000
151.20700073 154.44099426 172.50000000 0.126549 0.379646 -0.916436 0.000000
171.42199707 150.39799500 172.50000000 -0.185990 0.739350 -0.647124 0.000000
96.62699890 161.71899414 138.00000000 0.599762 0.798265 -0.055297 0.000000
122.90599823 240.96099854 196.50000000 -0.225621 -0.760886 -0.608398 0.000000
84.90229797 216.70300293 76.50000000 0.590756 -0.020753 0.806583 0.000000
169.80499268 223.97999573 142.50000000 -0.894028 0.017269 0.447678 0.000000
130.18400574 268.85699463 120.00000000 -0.452966 -0.376138 0.808296 0.000000
76.41210175 245.81199646 135.00000000 0.945474 -0.314281 0.085474 0.000000
142.31199646 156.46299744 120.00000000 -0.567959 -0.510658 0.645485 0.000000
153.63299561 164.14500427 178.50000000 0.523876 0.408919 -0.747221 0.000000
257.13299561 177.89100647 160.50000000 -0.412719 -0.494284 0.765079 0.000000
88.13670349 190.02000427 85.50000000 0.694716 0.694716 0.186387 0.000000
77.22070313 183.55099487 156.00000000 0.951635 0.302735 0.052372 0.000000
68.32620239 228.83200073 165.00000000 0.976857 -0.203157 -0.066908 0.000000
221.55499268 138.67399597 117.00000000 -0.124134 0.987164 0.100490 0.000000
122.90599823 243.38699341 106.50000000 -0.869363 -0.203594 0.450286 0.000000
241.77000427 176.27299500 178.50000000 -0.128214 0.003288 -0.991741 0.000000
171.01800537 216.70300293 153.00000000 -0.947358 0.281647 0.152278 0.000000
130.18400574 157.67599487 172.50000000 -0.015301 0.755325 -0.655172 0.000000
126.94899750 198.10499573 211.50000000 -0.400199 -0.387544 -0.830452 0.000000
204.16999817 157.67599487 93.00000000 0.272361 -0.699219 0.660993 0.000000
236.10899353 205.78700256 180.00000000 -0.948410 0.189138 -0.254451 0.000000
166.57000732 248.23800659 169.50000000 -0.601093 -0.506804 -0.617930 0.000000
127.75800323 273.30499268 172.50000000 -0.434781 -0.732349 -0.524051 0.000000
227.21499634 181.93400574 151.50000000 -0.502957 -0.661078 0.556786 0.000000
160.10200500 153.63299561 106.50000000 -0.058763 -0.989745 0.130199 0.000000
139.07800293 280.17800903 142.00000000 -0.356829 -0.883793 0.302627 0.000000
135.84399414 208.61700439 103.50000000 -0.749124 -0.038235 0.661325 0.000000
151.20700073 217.51199341 196.50000000 -0.645920 -0.172551 -0.743648 0.000000
127.75800323 240.15199280 106.50000000 -0.621807 -0.369147 0.690715 0.000000
111.58599854 194.87100220 85.50000000 -0.813341 -0.043547 0.580155 0.000000
97.03119659 162.12300110 161.00000000 0.841263 0.539129 0.040192 0.000000
86.51950073 219.12899780 76.50000000 0.000978 0.000978 0.999999 0.000000
249.85499573 156.86700439 145.50000000 -0.476761 -0.509984 0.715972 0.000000
211.04299927 204.16999817 161.00000000 -0.287272 -0.882872 0.371498 0.000000
254.70700073 149.58999634 100.50000000 -0.694716 -0.694716 0.186387 0.000000
95.41410065 175.46499634 190.50000000 0.706424 0.570764 -0.418561 0.000000
87.32810211 268.85699463 153.00000000 0.686426 -0.689567 0.230903 0.000000
233.68400574 188.40199280 157.50000000 -0.298530 -0.476710 0.826818 0.000000
157.67599487 248.23800659 133.50000000 -0.812590 -0.186124 0.552319 0.000000
187.59399414 211.44700623 159.00000000 0.193885 -0.971959 -0.133058 0.000000
132.20500183 147.97300720 159.00000000 0.208020 0.863506 -0.459439 0.000000
236.91799927 141.10000610 99.00000000 -0.243880 0.961173 0.129113 0.000000
181.12500000 194.06199646 136.50000000 -0.181987 -0.533930 0.825711 0.000000
230.44900513 190.82800293 184.50000000 -0.000978 -0.000978 -0.999999 0.000000
97.03119659 219.93800354 76.50000000 -0.237200 -0.711600 0.661333 0.000000
141.50399780 153.63299561 118.50000000 -0.506907 -0.651738 0.564166 0.000000
175.46499634 233.68400574 151.50000000 -0.697859 -0.348112 0.625948 0.000000
142.31199646 156.86700439 121.50000000 -0.229675 -0.629654 0.742149 0.000000
122.90599823 169.80499268 94.50000000 -0.769771 0.332657 0.544786 0.000000
94.60549927 220.74600220 76.50000000 -0.268329 -0.385255 0.882937 0.000000
74.79489899 226.40600586 112.00000000 0.930937 -0.281117 0.233087 0.000000
83.28520203 255.51600647 181.50000000 0.753992 -0.277787 -0.595257 0.000000
144.73800659 198.91400146 109.50000000 -0.566782 0.556631 0.607388 0.000000
164.14500427 206.19099426 121.50000000 -0.692426 -0.290787 0.660295 0.000000
85.71089935 221.55499268 76.50000000 0.000978 0.000978 0.999999 0.000000
88.94529724 168.18800354 139.50000000 0.682163 0.728314 0.064899 0.000000
86.51950073 221.55499268 76.50000000 0.734814 -0.342264 0.585580 0.000000
145.54699707 216.70300293 199.50000000 -0.488383 -0.092014 -0.867765 0.000000
80.05079651 190.42399597 180.00000000 0.824259 0.411336 -0.389101 0.000000
171.42199707 154.44099426 112.50000000 -0.877282 -0.323849 0.354258 0.000000
122.90599823 207.00000000 211.50000000 -0.000978 -0.000978 -0.999999 0.000000
82.88089752 249.85499573 114.00000000 0.870124 -0.434311 0.232935 0.000000
252.28100586 192.44500732 181.50000000 -0.624724 0.161853 -0.763887 0.000000
272.49600220 152.01600647 154.50000000 -0.455343 -0.329296 0.827180 0.000000
159.69700623 160.91000366 177.00000000 0.056272 0.187971 -0.980561 0.000000
210.23399353 205.78700256 174.00000000 -0.319380 -0.936208 -0.146668 0.000000
115.62899780 214.27699280 91.50000000 -0.560607 0.020661 0.827824 0.000000
185.97700500 201.33999634 187.50000000 -0.264946 -0.740898 -0.617150 0.000000
224.78900146 138.67399597 142.00000000 0.000978 0.999999 0.000978 0.000000
84.49800110 177.89100647 117.00000000 0.870752 0.472199 0.137183 0.000000
168.99600220 180.31599426 139.50000000 -0.370644 0.516312 0.772040 0.000000
83.28520203 247.02499390 108.00000000 0.788039 -0.511984 0.341858 0.000000
153.63299561 220.74600220 193.50000000 -0.591704 -0.222083 -0.774961 0.000000
160.10200500 249.85499573 172.50000000 -0.406381 -0.678408 -0.612060 0.000000
126.94899750 279.77301025 127.50000000 -0.292252 -0.823619 0.486045 0.000000
158.48399353 251.47300720 172.50000000 -0.492837 -0.573574 -0.654312 0.000000
242.57800293 202.95700073 181.50000000 -0.460994 -0.808734 -0.365286 0.000000
87.32810211 244.19500732 94.50000000 0.628932 -0.591837 0.504157 0.000000
180.31599426 227.61900330 172.00000000 -0.929945 0.197771 -0.309982 0.000000
174.65600586 237.72700500 172.50000000 -0.464710 -0.464710 -0.753717 0.000000
116.43800354 200.53100586 91.50000000 -0.863073 0.179128 0.472248 0.000000
153.63299561 254.30299377 174.00000000 -0.301046 -0.559085 -0.772525 0.000000
131.80099487 237.72700500 196.50000000 -0.297089 -0.420235 -0.857403 0.000000
97.03119659 232.06599426 199.50000000 0.596649 -0.307170 -0.741389 0.000000
239.34399414 164.95300293 178.50000000 -0.000978 -0.000978 -0.999999 0.000000
129.37500000 257.94100952 115.50000000 -0.525741 -0.274641 0.805090 0.000000
130.18400574 147.97300720 127.50000000 0.235667 0.938485 0.252401 0.000000
152.82400513 168.18800354 178.50000000 -0.827735 -0.127457 -0.546452 0.000000
197.29699707 195.67999268 142.50000000 -0.405960 -0.500521 0.764640 0.000000
152.82400513 266.83599854 136.50000000 -0.510737 -0.510737 0.691589 0.000000
88.94529724 251.47300720 187.50000000 0.449590 -0.342319 -0.825037 0.000000
234.08799744 150.39799500 177.00000000 -0.046288 0.573695 -0.817760 0.000000
134.63099670 210.23399353 101.00000000 -0.749124 -0.038235 0.661325 0.000000
164.54899597 249.04699707 144.00000000 -0.721553 -0.240518 0.649240 0.000000
140.69500732 238.53500366 112.50000000 -0.237573 -0.181200 0.954319 0.000000
153.63299561 181.93400574 190.50000000 -0.209031 0.358957 -0.909646 0.000000
226.40600586 194.87100220 184.50000000 -0.000978 -0.000978 -0.999999 0.000000
88.13670349 224.78900146 76.50000000 0.620981 -0.405708 0.670659 0.000000
109.96900177 154.44099426 163.50000000 -0.001197 0.965696 -0.259673 0.000000
89.75389862 224.78900146 76.50000000 0.678672 -0.632660 0.373023 0.000000
184.35899353 183.55099487 190.50000000 -0.000978 -0.000978 -0.999999 0.000000
145.54699707 154.84599304 120.00000000 0.020994 -0.692816 0.720809 0.000000
162.52699280 256.32400513 166.50000000 -0.533136 -0.479655 -0.696920 0.000000
111.58599854 266.83599854 181.50000000 -0.133002 -0.515930 -0.846243 0.000000
263.60198975 180.31599426 175.50000000 -0.620292 -0.158469 -0.768196 0.000000
115.62899780 242.57800293 97.50000000 -0.573878 -0.248628 0.780287 0.000000
246.62100220 166.57000732 151.50000000 -0.524450 -0.595277 0.608767 0.000000
71.15619659 208.61700439 166.50000000 0.922541 0.307514 -0.233138 0.000000
241.77000427 177.89100647 154.50000000 0.000978 0.000978 0.999999 0.000000
70.75199890 221.55499268 142.00000000 0.999999 0.000978 0.000978 0.000000
139.48199463 188.40199280 202.00000000 -0.546960 0.355443 -0.757954 0.000000
121.28900146 278.96499634 169.50000000 -0.389995 -0.722396 -0.571006 0.000000
87.73239899 260.36700439 183.00000000 0.328149 -0.190129 -0.925294 0.000000
127.75800323 209.83000183 210.00000000 -0.390796 -0.335188 -0.857279 0.000000
142.31199646 233.68400574 196.50000000 -0.398546 -0.427356 -0.811497 0.000000
114.81999969 219.93800354 91.50000000 -0.448466 -0.278943 0.849158 0.000000
147.16400146 192.85000610 198.00000000 -0.549613 -0.099536 -0.829469 0.000000
126.14099884 251.47300720 109.50000000 -0.280891 -0.522551 0.805010 0.000000
103.50000000 187.59399414 205.50000000 0.465862 0.465862 -0.752293 0.000000
91.37110138 253.89799500 100.50000000 0.654819 -0.641556 0.399522 0.000000
262.38900757 191.63699341 174.00000000 -0.499725 -0.866099 0.012123 0.000000
245.00399780 155.65400696 96.00000000 -0.592901 -0.701902 0.394717 0.000000
81.26370239 198.10499573 186.00000000 0.728025 0.430872 -0.533225 0.000000
242.98199463 196.48800659 172.00000000 -0.303931 -0.606254 0.734902 0.000000
152.82400513 272.49600220 145.50000000 -0.717444 -0.671356 0.185890 0.000000
132.60899353 173.84800720 100.50000000 -0.443446 -0.096523 0.891089 0.000000
126.14099884 267.64498901 115.50000000 -0.286786 -0.813345 0.506186 0.000000
237.72700500 141.10000610 101.00000000 -0.250130 0.967251 0.043126 0.000000
98.64839935 189.21099854 202.50000000 0.638028 0.192177 -0.745647 0.000000
213.87300110 138.27000427 142.00000000 0.037718 0.996830 -0.070048 0.000000
215.89500427 203.36099243 165.00000000 -0.167354 -0.945619 0.278923 0.000000
202.95700073 191.63699341 139.50000000 -0.445421 -0.403613 0.799185 0.000000
228.83200073 138.67399597 142.00000000 0.000000 0.000000 0.000000 0.000000
246.62100220 163.33599854 178.50000000 -0.000978 -0.000978 -0.999999 0.000000
177.89100647 229.64100647 151.50000000 -0.712582 -0.289837 0.638922 0.000000
154.44099426 216.70300293 112.50000000 -0.713228 0.052885 0.698934 0.000000
216.70300293 145.95100403 174.00000000 0.012048 0.876858 -0.480598 0.000000
97.83979797 230.44900513 199.50000000 0.447475 -0.444221 -0.776166 0.000000
106.73400116 158.08000183 174.00000000 0.409194 0.874256 -0.261220 0.000000
83.28520203 188.40199280 97.50000000 0.878393 0.414506 0.237929 0.000000
178.29499817 198.10499573 191.00000000 -0.419806 -0.058044 -0.905756 0.000000
178.69900513 202.95700073 190.50000000 -0.335376 -0.451891 -0.826630 0.000000
263.60198975 186.38099670 168.00000000 -0.804520 -0.503023 0.315778 0.000000
122.50199890 202.95700073 96.00000000 -0.857732 -0.083371 0.507291 0.000000
84.09380341 243.38699341 187.50000000 0.433203 -0.243016 -0.867916 0.000000
203.76600647 208.21299744 174.00000000 0.001272 -0.926978 -0.375114 0.000000
77.62500000 258.75000000 163.50000000 0.941195 -0.253665 -0.223170 0.000000
253.08999634 149.99400330 96.00000000 -0.792156 -0.088339 0.603892 0.000000
107.94699860 225.59800720 87.00000000 -0.628313 -0.158971 0.761545 0.000000
161.71899414 254.70700073 142.50000000 -0.876883 -0.386192 0.286237 0.000000
173.03900146 177.08200073 136.50000000 0.284397 -0.570383 0.770573 0.000000
142.31199646 235.30099487 112.50000000 -0.432182 -0.412902 0.801705 0.000000
245.81199646 145.95100403 168.00000000 -0.187335 0.874724 -0.446950 0.000000
71.15619659 232.06599426 172.50000000 0.946949 -0.141035 -0.288786 0.000000
122.90599823 209.42599487 211.50000000 -0.144941 -0.172669 -0.974257 0.000000
173.03900146 181.12500000 139.50000000 -0.286828 -0.636150 0.716270 0.000000
238.93899536 186.78500366 159.00000000 -0.160447 -0.381950 0.910149 0.000000
156.05900574 210.23399353 115.50000000 -0.628881 0.001376 0.777500 0.000000
229.64100647 170.61300659 127.50000000 -0.518228 -0.846295 -0.123388 0.000000
119.67199707 165.76199341 190.50000000 -0.001335 0.495132 -0.868817 0.000000
194.87100220 149.58999634 178.50000000 0.216878 0.719285 -0.659995 0.000000
167.37899780 152.82400513 175.50000000 -0.001287 0.402911 -0.915238 0.000000
122.09799957 235.30099487 199.50000000 -0.121296 -0.463777 -0.877609 0.000000
165.76199341 205.38299561 193.50000000 -0.313151 -0.119616 -0.942140 0.000000
