219.40600586 219.86700439 380.79998779 0.377143 0.918681 -0.117425 0.000000
154.87500000 310.21099854 400.00000000 0.076876 0.657069 0.749900 0.000000
258.12500000 191.28900146 413.60000610 0.847634 -0.026018 -0.529943 0.000000
101.86699677 260.89099121 393.60000610 -0.967662 0.053277 0.246562 0.000000
141.04699707 191.28900146 334.39999390 -0.345912 -0.808191 -0.476626 0.000000
201.42999268 279.32800293 396.79998779 0.923464 0.329506 0.196572 0.000000
162.71099854 249.82800293 324.79998779 0.646373 -0.076639 -0.759163 0.000000
219.86700439 187.14100647 378.39999390 0.841806 0.497225 -0.210074 0.000000
171.46899414 181.14799500 422.39999390 -0.525604 -0.676736 0.515528 0.000000
115.23400116 286.24200439 319.20001221 -0.654738 0.654738 -0.377670 0.000000
259.04699707 211.10899353 419.60000610 -0.000978 -0.000978 0.999999 0.000000
198.20300293 231.39100647 429.20001221 0.125784 0.366295 0.921958 0.000000
205.57800293 191.75000000 346.79998779 0.657351 0.670400 -0.344171 0.000000
233.23399353 216.17999268 382.39999390 0.590603 -0.789988 -0.164644 0.000000
217.56199646 197.28100586 378.79998779 0.776604 0.012459 -0.629866 0.000000
139.20300293 191.75000000 335.60000610 -0.399138 -0.770580 -0.496886 0.000000
100.94499969 272.87500000 361.60000610 -0.954741 0.169583 -0.244360 0.000000
137.35899353 168.70300293 384.39999390 -0.665855 -0.743514 0.061840 0.000000
123.53099823 279.32800293 414.79998779 -0.234507 0.165613 0.957903 0.000000
248.90600586 221.71099854 410.39999390 0.387616 0.631732 -0.671318 0.000000
136.43800354 179.76600647 358.79998779 -0.342178 -0.747602 -0.569215 0.000000
174.23399353 238.76600647 343.60000610 0.987726 -0.057007 -0.145425 0.000000
198.20300293 261.35198975 374.39999390 0.956627 0.190792 -0.220144 0.000000
220.32800293 235.07800293 377.20001221 0.496037 0.339729 -0.799082 0.000000
165.93800354 326.34399414 382.00000000 0.001377 0.654300 0.756234 0.000000
233.23399353 235.07800293 414.79998779 0.341858 -0.511984 0.788039 0.000000
171.92999268 262.73400879 425.60000610 0.500885 0.425341 0.753790 0.000000
100.48400116 263.65600586 388.39999390 -0.988779 0.113505 0.097123 0.000000
153.95300293 208.34399414 432.39999390 -0.077496 0.077496 0.993976 0.000000
141.96899414 293.15600586 310.00000000 0.822094 -0.001359 -0.569351 0.000000
123.99199677 241.53100586 290.39999390 0.282898 0.704848 -0.650506 0.000000
135.97700500 174.23399353 408.00000000 -0.638842 -0.638842 0.428675 0.000000
111.54699707 241.99200439 290.39999390 -0.792104 -0.037987 -0.609203 0.000000
172.85200500 170.54699707 368.79998779 0.356700 -0.916620 -0.180482 0.000000
172.85200500 200.04699707 351.20001221 -0.782031 0.622547 -0.029379 0.000000
141.04699707 180.22700500 417.60000610 -0.439138 -0.429415 0.789152 0.000000
244.29699707 225.39799500 412.00000000 -0.068695 0.947474 -0.312368 0.000000
128.14100647 205.11700439 311.20001221 -0.158460 -0.954752 -0.251671 0.000000
109.70300293 232.77299500 300.00000000 -0.490010 -0.770016 -0.408613 0.000000
235.07800293 163.63299561 408.00000000 0.094728 -0.956363 0.276398 0.000000
149.34399414 325.42199707 378.79998779 -0.427619 0.657236 0.620631 0.000000
241.53100586 218.94500732 421.60000610 0.282806 0.423445 0.860648 0.000000
151.18800354 329.57000732 372.79998779 -0.347089 0.862323 0.368685 0.000000
177.92199707 219.40600586 342.79998779 -0.291947 -0.112287 -0.949820 0.000000
113.39099884 212.95300293 332.39999390 -0.938820 -0.342907 -0.032107 0.000000
153.03100586 179.76600647 349.20001221 -0.120634 -0.916541 -0.381314 0.000000
169.62500000 271.49200439 423.20001221 0.154194 0.343115 0.926551 0.000000
227.70300293 208.34399414 381.20001221 0.437283 -0.249660 -0.863975 0.000000
193.59399414 193.59399414 427.60000610 0.030751 -0.058321 0.997824 0.000000
237.84399414 226.32000732 404.79998779 0.642472 -0.126706 -0.755762 0.000000
185.29699707 237.38299561 343.20001221 0.139733 -0.698665 -0.701670 0.000000
163.17199707 273.79699707 330.00000000 0.977778 -0.196043 -0.074277 0.000000
128.60200500 224.93800354 416.00000000 -0.548438 0.051898 0.834579 0.000000
185.29699707 240.60899353 429.20001221 0.394626 0.462276 0.794085 0.000000
147.03900146 219.40600586 322.39999390 0.808723 -0.578492 0.106373 0.000000
102.78900146 283.93798828 371.20001221 -0.939691 0.331734 -0.083264 0.000000
188.98399353 161.32800293 419.60000610 0.095068 -0.753231 0.650850 0.000000
139.20300293 173.31199646 367.60000610 -0.299982 -0.792017 -0.531715 0.000000
209.26600647 239.68800354 422.79998779 0.000978 0.000978 0.999999 0.000000
165.47700500 236.00000000 365.60000610 0.913897 0.383697 -0.132550 0.000000
191.75000000 301.45300293 370.00000000 0.547885 0.547885 -0.632175 0.000000
202.81199646 198.66400146 359.20001221 0.421787 0.845131 -0.328403 0.000000
147.96099854 256.28100586 313.60000610 0.414097 -0.636945 -0.650249 0.000000
137.82000732 202.81199646 422.39999390 -0.915040 -0.085913 0.394108 0.000000
112.46900177 232.31199646 298.00000000 -0.523617 -0.641473 -0.560658 0.000000
158.10200500 160.40600586 388.79998779 -0.087163 -0.841625 -0.532982 0.000000
236.00000000 166.39799500 422.39999390 -0.000978 -0.999999 -0.000978 0.000000
102.32800293 244.29699707 389.20001221 -0.953122 -0.192781 0.233225 0.000000
100.02300262 275.64099121 372.79998779 -0.923480 0.096564 -0.371296 0.000000
153.03100586 264.57800293 427.60000610 0.015174 0.201926 0.979283 0.000000
194.51600647 225.39799500 393.60000610 0.403095 -0.632013 -0.661872 0.000000
150.72700500 224.93800354 337.60000610 0.858822 -0.502760 -0.098273 0.000000
124.91400146 251.67199707 290.39999390 -0.542578 0.244082 0.803762 0.000000
185.29699707 195.43800354 384.39999390 0.262250 0.959859 0.099474 0.000000
254.43800354 164.09399414 408.39999390 0.811057 -0.043575 -0.583342 0.000000
190.36700439 197.28100586 343.20001221 -0.021858 0.932192 -0.361305 0.000000
228.62500000 165.01600647 416.39999390 -0.297164 -0.891491 -0.341962 0.000000
122.14800262 305.14099121 334.39999390 0.547885 0.547885 -0.632175 0.000000
163.63299561 316.20300293 392.00000000 0.070818 0.698068 0.712521 0.000000
141.96899414 190.36700439 424.00000000 -0.328679 -0.590975 0.736695 0.000000
213.87500000 169.62500000 424.39999390 0.079246 -0.882828 0.462963 0.000000
145.19500732 212.95300293 321.60000610 0.371873 -0.521272 -0.768105 0.000000
139.66400146 192.67199707 425.60000610 -0.626216 -0.445866 0.639575 0.000000
214.79699707 246.14100647 402.79998779 0.459533 0.880653 -0.115239 0.000000
211.10899353 177.92199707 427.60000610 -0.119164 -0.480963 0.868605 0.000000
150.26600647 328.18798828 342.00000000 -0.213098 0.639295 -0.738844 0.000000
111.08599854 271.03100586 307.20001221 -0.874866 0.392704 -0.283536 0.000000
157.64100647 282.55499268 420.79998779 0.137024 0.468768 0.872629 0.000000
255.82000732 184.37500000 426.39999390 0.672039 0.406542 0.618940 0.000000
149.34399414 327.72698975 374.39999390 -0.707106 0.707106 -0.001384 0.000000
242.45300293 206.03900146 395.20001221 0.717057 -0.438846 -0.541519 0.000000
158.56199646 267.34399414 426.79998779 0.065566 0.296974 0.952632 0.000000
254.89799500 208.34399414 419.20001221 0.026263 0.987698 -0.154149 0.000000
172.85200500 277.48400879 338.39999390 0.653809 0.282944 -0.701766 0.000000
184.37500000 316.66400146 383.20001221 0.518833 0.699006 0.492141 0.000000
244.75799561 182.53100586 411.20001221 0.318378 0.237703 -0.917678 0.000000
113.85199738 289.46899414 328.79998779 -0.843441 0.445797 -0.299787 0.000000
163.63299561 259.04699707 326.39999390 0.810823 0.163364 -0.562031 0.000000
140.12500000 327.26599121 348.39999390 0.264562 0.175018 -0.948354 0.000000
207.88299561 256.28100586 397.60000610 0.897376 0.434214 -0.078572 0.000000
103.71099854 270.10900879 349.60000610 -0.905657 0.256042 -0.337976 0.000000
153.03100586 207.42199707 432.39999390 0.000978 0.000978 0.999999 0.000000
217.56199646 238.76600647 412.39999390 0.347526 0.538261 0.767790 0.000000
180.68800354 254.43800354 424.39999390 0.372397 0.494917 0.785097 0.000000
155.33599854 224.93800354 340.79998779 0.159350 -0.742114 -0.651057 0.000000
200.96899414 197.74200439 352.00000000 -0.524549 0.338470 -0.781208 0.000000
184.37500000 310.67199707 361.20001221 0.742831 -0.082860 -0.664332 0.000000
199.58599854 277.48400879 403.20001221 0.650988 0.395893 0.647675 0.000000
138.28100586 314.82000732 388.00000000 -0.313002 0.858829 0.405515 0.000000
112.46900177 302.83599854 372.00000000 -0.639507 0.768784 -0.001375 0.000000
208.34399414 188.06199646 349.20001221 0.589268 0.676072 -0.442368 0.000000
253.51600647 196.35899353 425.20001221 0.478539 0.531895 0.698633 0.000000
100.02300262 253.51600647 384.00000000 -0.999999 -0.000978 -0.000978 0.000000
230.46899414 223.09399414 422.00000000 0.001377 0.654300 0.756234 0.000000
141.04699707 279.32800293 422.00000000 -0.366361 0.360178 0.857934 0.000000
163.17199707 323.11700439 342.39999390 0.548727 0.541974 -0.636524 0.000000
168.70300293 294.07800293 340.39999390 0.736388 0.229828 -0.636327 0.000000
206.50000000 169.62500000 424.39999390 -0.109414 -0.341751 0.933399 0.000000
130.90600586 189.90600586 414.00000000 -0.749132 -0.199254 0.631743 0.000000
219.40600586 195.89799500 380.79998779 0.719668 0.153024 -0.677246 0.000000
247.98399353 185.29699707 427.60000610 -0.301911 0.238953 0.922904 0.000000
204.65600586 230.46899414 379.60000610 -0.882165 -0.444704 -0.154995 0.000000
114.77300262 264.57800293 290.39999390 -0.714660 0.196030 0.671441 0.000000
172.85200500 209.26600647 432.00000000 0.077397 -0.155984 0.984723 0.000000
167.78100586 266.42199707 425.20001221 0.251602 0.324319 0.911874 0.000000
160.40600586 251.67199707 322.79998779 0.656618 0.064656 -0.751447 0.000000
187.14100647 263.19500732 344.79998779 0.712621 0.408393 -0.570427 0.000000
148.42199707 228.62500000 314.79998779 0.599745 -0.442709 -0.666569 0.000000
185.75799561 296.84399414 400.79998779 0.545930 0.559451 0.623678 0.000000
196.82000732 290.39099121 376.79998779 0.802269 0.125585 -0.583603 0.000000
169.16400146 231.39100647 362.39999390 0.464918 0.869704 -0.165728 0.000000
170.54699707 327.72698975 380.00000000 -0.000978 0.999999 -0.000978 0.000000
119.84400177 292.69500732 320.00000000 -0.734865 0.613188 -0.289783 0.000000
248.90600586 181.60899353 412.39999390 0.267207 0.211827 -0.940069 0.000000
99.10160065 261.81201172 367.20001221 -0.999999 -0.000978 -0.000978 0.000000
196.35899353 258.58599854 360.79998779 0.974033 0.223291 -0.037416 0.000000
247.98399353 164.09399414 406.00000000 0.018790 -0.948265 -0.316923 0.000000
127.68000031 225.85899353 415.20001221 -0.394620 -0.080009 0.915355 0.000000
262.73400879 216.64100647 410.79998779 0.297098 0.426405 -0.854349 0.000000
199.58599854 283.93798828 382.39999390 0.999999 0.000978 0.000978 0.000000
106.47699738 283.93798828 393.60000610 -0.795879 0.467880 0.384273 0.000000
234.61700439 212.03100586 384.79998779 0.579470 -0.231477 -0.781430 0.000000
142.89100647 244.29699707 426.79998779 -0.547885 -0.547885 0.632175 0.000000
113.85199738 210.18800354 336.79998779 -0.727942 -0.601485 -0.329114 0.000000
248.90600586 165.47700500 402.39999390 0.479006 -0.858651 -0.182408 0.000000
221.71099854 193.59399414 382.39999390 0.574412 0.109621 -0.811193 0.000000
264.57800293 172.85200500 422.39999390 -0.079246 -0.882828 -0.462963 0.000000
162.25000000 213.87500000 434.00000000 -0.148277 0.079477 0.985747 0.000000
99.10160065 262.73400879 380.79998779 -0.983667 0.055501 0.171227 0.000000
201.42999268 268.26599121 384.79998779 0.999999 0.000978 0.000978 0.000000
118.00000000 271.49200439 290.39999390 -0.795883 0.498027 0.344295 0.000000
188.98399353 238.76600647 362.00000000 -0.272896 -0.655908 0.703784 0.000000
144.73399353 214.79699707 428.39999390 0.900079 -0.419850 -0.116547 0.000000
118.92199707 285.78100586 407.60000610 -0.451104 0.694134 0.560967 0.000000
147.50000000 297.30499268 316.79998779 0.776961 -0.023713 -0.629102 0.000000
224.93800354 166.39799500 420.00000000 0.046736 -0.990568 0.128808 0.000000
178.84399414 206.03900146 430.39999390 -0.167257 -0.167257 0.971622 0.000000
126.29699707 301.91400146 321.60000610 0.000978 0.000978 -0.999999 0.000000
231.39100647 241.53100586 400.39999390 0.402911 0.915238 0.001287 0.000000
192.67199707 289.46899414 400.39999390 0.440979 0.473766 0.762288 0.000000
132.75000000 279.32800293 297.20001221 0.821356 0.054945 -0.567764 0.000000
170.54699707 183.45300293 426.00000000 -0.576224 -0.747316 0.330885 0.000000
179.76600647 324.96099854 365.60000610 0.755243 0.596911 -0.270748 0.000000
135.51600647 293.15600586 410.79998779 -0.281652 0.603085 0.746298 0.000000
226.78100586 199.12500000 428.39999390 0.167257 0.167257 0.971622 0.000000
125.37500000 273.79699707 290.00000000 0.364928 0.016646 -0.930887 0.000000
119.38300323 304.21899414 344.00000000 -0.848599 0.420421 -0.321133 0.000000
159.48399353 205.57800293 434.00000000 -0.137068 -0.275466 0.951489 0.000000
117.53900146 250.75000000 414.39999390 -0.914043 -0.202323 0.351555 0.000000
225.85899353 230.46899414 377.20001221 0.419240 0.584948 -0.694315 0.000000
150.26600647 187.14100647 426.00000000 -0.459433 -0.417224 0.784121 0.000000
176.07800293 271.03100586 338.79998779 0.528030 0.208473 -0.823240 0.000000
193.59399414 258.58599854 352.00000000 0.869918 0.337877 -0.359281 0.000000
125.83599854 274.71899414 290.39999390 0.402203 0.063223 -0.913365 0.000000
208.80499268 248.90600586 380.79998779 0.639622 0.767263 -0.046802 0.000000
139.20300293 204.65600586 426.00000000 -0.762216 -0.044001 0.645826 0.000000
119.84400177 298.22698975 328.79998779 -0.818055 0.572215 -0.057928 0.000000
185.75799561 204.65600586 429.60000610 0.170252 0.085730 0.981664 0.000000
161.32800293 183.45300293 424.39999390 -0.668634 -0.213526 0.712274 0.000000
190.82800293 211.10899353 380.39999390 -0.781122 0.607206 0.145430 0.000000
219.40600586 180.68800354 429.20001221 0.000978 0.000978 0.999999 0.000000
130.44500732 267.34399414 421.60000610 -0.490161 0.328360 0.807417 0.000000
130.90600586 247.98399353 424.39999390 -0.514026 -0.107989 0.850950 0.000000
146.57800293 164.09399414 405.20001221 -0.535611 -0.804198 0.257656 0.000000
130.90600586 177.46099854 368.00000000 -0.528924 -0.792592 -0.303377 0.000000
196.35899353 198.20300293 427.60000610 -0.021328 -0.312390 0.949715 0.000000
112.00800323 280.25000000 320.00000000 -0.839305 0.332909 -0.429812 0.000000
106.93800354 268.72698975 319.20001221 -0.878773 0.469520 -0.085495 0.000000
110.62500000 231.39100647 402.79998779 -0.873377 -0.299227 0.384286 0.000000
105.09400177 284.39801025 355.20001221 -0.854638 0.495720 -0.154453 0.000000
199.58599854 272.87500000 378.39999390 0.888825 0.213731 -0.405351 0.000000
165.93800354 223.55499268 342.39999390 -0.028796 0.527929 -0.848800 0.000000
203.27299500 231.39100647 428.00000000 0.398420 0.593497 0.699302 0.000000
253.51600647 177.00000000 428.39999390 0.000978 0.000978 0.999999 0.000000
130.90600586 305.60198975 320.00000000 -0.637350 0.692772 -0.337421 0.000000
160.40600586 331.87500000 353.20001221 0.269344 0.891366 -0.364582 0.000000
154.87500000 228.62500000 322.00000000 0.722743 -0.350767 -0.595488 0.000000
111.08599854 240.60899353 406.39999390 -0.939796 -0.290332 0.180254 0.000000
121.22699738 187.14100647 375.20001221 -0.916021 -0.399019 0.041095 0.000000
212.95300293 204.65600586 374.79998779 0.549469 0.275522 -0.788779 0.000000
100.94499969 253.51600647 344.79998779 -0.943103 0.074766 -0.323987 0.000000
135.51600647 199.58599854 320.00000000 -0.248466 -0.782901 -0.570377 0.000000
218.02299500 220.32800293 386.39999390 -0.151960 0.878472 0.452985 0.000000
134.59399414 181.14799500 358.39999390 -0.322392 -0.717687 -0.617243 0.000000
245.21899414 165.47700500 414.39999390 0.000978 -0.999999 0.000978 0.000000
219.40600586 169.16400146 376.79998779 0.545600 -0.726917 -0.417029 0.000000
129.52299500 265.50000000 421.60000610 -0.395913 0.203070 0.895553 0.000000
124.45300293 229.54699707 290.79998779 0.681472 -0.344821 -0.645519 0.000000
124.91400146 229.54699707 291.20001221 0.599543 -0.310219 -0.737775 0.000000
157.64100647 162.71099854 384.00000000 -0.079280 -0.925832 -0.369527 0.000000
230.46899414 239.22700500 388.79998779 0.180707 0.846783 -0.500304 0.000000
213.87500000 242.91400146 379.20001221 0.526462 0.690251 -0.496379 0.000000
142.89100647 312.05499268 320.00000000 -0.195031 0.775516 -0.600449 0.000000
233.23399353 231.39100647 410.00000000 0.909856 0.363655 0.199795 0.000000
230.46899414 179.30499268 384.79998779 0.515568 0.805674 -0.291682 0.000000
103.71099854 236.00000000 385.60000610 -0.970847 -0.223657 0.086214 0.000000
212.95300293 195.43800354 428.39999390 -0.188489 0.381294 0.905034 0.000000
203.73399353 163.63299561 421.60000610 0.639295 -0.213098 0.738844 0.000000
170.54699707 194.51600647 337.20001221 -0.966376 -0.103131 0.235546 0.000000
177.00000000 259.96899414 337.20001221 0.735490 -0.001380 -0.677534 0.000000
178.84399414 285.32000732 412.00000000 0.268873 0.333520 0.903588 0.000000
133.67199707 318.04699707 338.79998779 -0.616087 0.656157 -0.435769 0.000000
172.85200500 236.92199707 340.79998779 0.915778 0.027592 -0.400735 0.000000
101.86699677 257.20300293 344.79998779 -0.887602 0.264043 -0.377417 0.000000
136.43800354 291.77301025 412.79998779 -0.362241 0.673670 0.644166 0.000000
153.49200439 304.21899414 324.79998779 0.828358 0.015061 -0.559997 0.000000
143.35200500 223.09399414 312.00000000 0.767250 0.110449 -0.631766 0.000000
239.22700500 223.09399414 392.00000000 0.993841 0.095024 -0.057014 0.000000
186.67999268 163.17199707 385.60000610 -0.037367 -0.990781 -0.130217 0.000000
168.24200439 320.81201172 345.60000610 0.661078 0.502957 -0.556786 0.000000
178.38299561 324.50000000 361.60000610 0.807816 0.443099 -0.388711 0.000000
175.15600586 282.09399414 416.39999390 -0.100435 0.807845 0.580775 0.000000
126.75800323 258.12500000 421.60000610 -0.335922 0.031932 0.941348 0.000000
188.98399353 265.03900146 417.60000610 0.451445 0.346900 0.822106 0.000000
102.78900146 236.00000000 377.60000610 -0.707106 -0.707106 -0.001384 0.000000
151.18800354 320.81201172 384.39999390 -0.271840 0.726497 0.631114 0.000000
146.57800293 293.15600586 315.60000610 0.774730 -0.035151 -0.631314 0.000000
188.98399353 240.14799500 344.00000000 0.547885 0.547885 -0.632175 0.000000
153.95300293 314.82000732 394.39999390 -0.082937 0.728972 0.679501 0.000000
172.85200500 306.06201172 345.60000610 0.654300 -0.001377 -0.756234 0.000000
172.39100647 156.25799561 399.20001221 -0.116298 -0.865776 -0.486730 0.000000
141.96899414 325.88299561 342.39999390 -0.418677 0.866281 -0.272521 0.000000
203.27299500 193.59399414 348.00000000 0.558811 0.766964 -0.315432 0.000000
182.53100586 283.01599121 411.60000610 0.490619 0.720129 0.490619 0.000000
154.87500000 288.54699707 418.00000000 0.113776 0.645713 0.755056 0.000000
109.24199677 243.37500000 299.20001221 -0.978895 0.036872 -0.201012 0.000000
151.64799500 302.37500000 322.39999390 0.778596 0.035199 -0.626538 0.000000
236.92199707 212.03100586 425.20001221 0.091401 0.136507 0.986414 0.000000
136.43800354 224.93800354 303.60000610 0.509617 -0.077643 -0.856891 0.000000
129.06199646 280.25000000 416.39999390 -0.485019 0.243274 0.839985 0.000000
244.29699707 174.23399353 398.79998779 0.491415 0.679260 -0.545085 0.000000
120.76599884 190.82800293 398.79998779 -0.961370 -0.243270 0.128790 0.000000
99.56250000 273.79699707 374.00000000 -0.987389 0.126225 -0.095554 0.000000
110.16400146 207.42199707 364.00000000 -0.837828 -0.488605 0.243537 0.000000
151.64799500 214.79699707 333.60000610 0.209299 0.877273 -0.431957 0.000000
105.55500031 239.68800354 309.60000610 -0.954870 0.224280 -0.194734 0.000000
217.56199646 243.83599854 397.60000610 0.498185 0.844356 -0.197167 0.000000
200.96899414 277.94500732 401.60000610 0.822423 0.465671 0.326759 0.000000
250.75000000 199.58599854 424.79998779 0.352153 0.405367 0.843603 0.000000
113.39099884 277.02301025 407.20001221 -0.657490 0.492697 0.570049 0.000000
154.87500000 251.67199707 428.39999390 0.000978 0.000978 0.999999 0.000000
238.30499268 182.53100586 402.39999390 0.790371 0.109977 -0.602676 0.000000
120.30500031 192.67199707 396.00000000 -0.971538 -0.236641 0.010702 0.000000
101.86699677 264.57800293 392.79998779 -0.954806 0.076024 0.287344 0.000000
131.82800293 320.35198975 346.39999390 -0.693114 0.674081 -0.255358 0.000000
112.46900177 209.26600647 386.79998779 -0.836807 -0.359529 0.412908 0.000000
121.22699738 214.79699707 408.00000000 -0.654300 0.001377 0.756234 0.000000
176.07800293 309.28900146 395.20001221 0.442303 0.717294 0.538384 0.000000
247.06199646 186.21899414 426.79998779 -0.301911 0.238953 0.922904 0.000000
250.75000000 176.07800293 428.39999390 0.000978 0.000978 0.999999 0.000000
165.93800354 201.89100647 335.60000610 -0.854193 -0.228289 0.467160 0.000000
220.78900146 163.17199707 410.39999390 0.102019 -0.988525 0.111400 0.000000
155.79699707 169.16400146 371.20001221 -0.001377 -0.654300 -0.756234 0.000000
247.06199646 172.39100647 428.39999390 0.000978 0.000978 0.999999 0.000000
266.42199707 203.73399353 414.00000000 0.297528 -0.465764 -0.833391 0.000000
184.83599854 294.07800293 358.39999390 0.759524 0.046849 -0.648790 0.000000
127.21900177 183.45300293 406.00000000 -0.819334 -0.504085 0.273111 0.000000
253.51600647 166.39799500 424.00000000 -0.021273 -0.990856 0.133234 0.000000
133.67199707 282.09399414 298.79998779 0.789683 0.088387 -0.607114 0.000000
140.58599854 285.78100586 308.00000000 0.751689 0.101500 -0.651660 0.000000
115.23400116 215.71899414 317.20001221 -0.212824 -0.846769 0.487533 0.000000
143.35200500 190.82800293 333.60000610 -0.290210 -0.873667 -0.390491 0.000000
117.53900146 290.39099121 321.60000610 -0.749852 0.568462 -0.338486 0.000000
102.78900146 283.01599121 367.20001221 -0.983861 0.141241 -0.109854 0.000000
124.45300293 314.82000732 356.79998779 -0.828419 0.553710 -0.084416 0.000000
133.21099854 236.92199707 421.60000610 -0.494368 -0.406263 0.768473 0.000000
243.37500000 215.25799561 396.79998779 0.840538 0.352181 -0.411660 0.000000
195.89799500 217.56199646 398.39999390 0.415679 -0.217455 -0.883133 0.000000
184.37500000 311.13299561 390.39999390 0.720927 0.300253 0.624590 0.000000
139.20300293 225.85899353 424.39999390 -0.160852 -0.019394 0.986788 0.000000
271.49200439 212.03100586 416.79998779 0.194313 0.920506 0.338985 0.000000
167.78100586 247.06199646 354.79998779 0.094683 -0.188136 0.977569 0.000000
157.17999268 316.20300293 332.00000000 0.643337 0.333884 -0.688941 0.000000
118.92199707 213.41400146 313.60000610 -0.644538 -0.760410 -0.079662 0.000000
189.90600586 159.02299500 415.20001221 0.079441 -0.882212 0.464102 0.000000
214.79699707 162.71099854 398.39999390 -0.056165 -0.981090 -0.185224 0.000000
191.28900146 224.93800354 392.00000000 0.402039 -0.673373 -0.620430 0.000000
110.62500000 251.67199707 290.79998779 -0.842385 0.066318 -0.534780 0.000000
193.13299561 271.95300293 367.20001221 0.848720 0.249264 -0.466414 0.000000
230.00799561 168.70300293 428.79998779 0.380451 -0.781948 0.493776 0.000000
104.63300323 229.54699707 336.00000000 -0.929952 -0.354974 -0.095830 0.000000
210.18800354 185.75799561 346.39999390 0.338924 0.866480 -0.366529 0.000000
237.84399414 205.57800293 391.60000610 0.704658 -0.083158 -0.704658 0.000000
182.53100586 158.10200500 400.00000000 0.099584 -0.958338 -0.267714 0.000000
167.78100586 288.54699707 414.00000000 0.300697 0.502212 0.810780 0.000000
192.67199707 212.49200439 383.20001221 -0.814500 0.462026 0.350886 0.000000
252.59399414 181.60899353 413.20001221 0.000978 0.999999 0.000978 0.000000
187.60200500 167.78100586 372.79998779 0.067361 -0.959579 -0.273258 0.000000
135.97700500 214.79699707 423.20001221 -0.933451 -0.336588 -0.124006 0.000000
174.23399353 199.12500000 429.20001221 -0.026364 -0.310086 0.950343 0.000000
99.10160065 260.89099121 362.39999390 -0.708486 -0.705724 -0.001381 0.000000
109.24199677 207.42199707 356.00000000 -0.848694 -0.521726 -0.086717 0.000000
104.17199707 235.07800293 388.39999390 -0.974656 -0.210703 0.075163 0.000000
192.21099854 206.50000000 396.79998779 0.850932 -0.212356 -0.480437 0.000000
158.56199646 307.44500732 401.60000610 0.186244 0.666477 0.721888 0.000000
176.07800293 237.84399414 374.00000000 0.547885 -0.547885 -0.632175 0.000000
178.84399414 229.08599854 363.20001221 0.492152 0.839554 0.230077 0.000000
124.91400146 194.51600647 345.60000610 -0.443644 -0.737207 -0.509613 0.000000
253.97700500 196.35899353 424.79998779 0.428656 0.645485 0.632142 0.000000
208.34399414 165.47700500 389.60000610 -0.707106 -0.707106 -0.001384 0.000000
119.84400177 212.49200439 310.39999390 -0.763771 -0.616242 -0.192095 0.000000
154.87500000 330.03100586 345.20001221 0.272719 0.780323 -0.562779 0.000000
207.42199707 241.99200439 418.39999390 0.424190 0.811564 0.401780 0.000000
215.25799561 229.54699707 423.20001221 0.246022 0.366823 0.897170 0.000000
215.71899414 221.71099854 396.79998779 -0.131790 0.798145 -0.587873 0.000000
107.85900116 248.44500732 404.00000000 -0.804548 -0.196939 0.560283 0.000000
110.16400146 285.78100586 338.39999390 -0.927987 0.330726 -0.171643 0.000000
134.13299561 273.79699707 298.39999390 0.808642 0.115940 -0.576763 0.000000
211.57000732 203.73399353 372.79998779 0.572944 0.266742 -0.774973 0.000000
182.53100586 166.39799500 376.79998779 0.255562 -0.572270 0.779228 0.000000
136.43800354 211.57000732 424.00000000 -0.911308 0.066154 0.406376 0.000000
129.98399353 266.42199707 421.20001221 -0.490161 0.328360 0.807417 0.000000
106.47699738 216.64100647 352.00000000 -0.942127 -0.334385 -0.024157 0.000000
171.92999268 292.23400879 344.00000000 0.751149 0.132907 -0.646615 0.000000
199.12500000 205.57800293 428.39999390 0.137068 -0.275466 0.951489 0.000000
154.87500000 219.40600586 432.39999390 -0.278803 0.201126 0.939051 0.000000
226.78100586 231.85200500 416.00000000 0.614207 0.723829 0.314358 0.000000
125.37500000 188.98399353 354.79998779 -0.572097 -0.682179 -0.455342 0.000000
176.07800293 181.60899353 422.79998779 0.306536 -0.286003 0.907875 0.000000
168.70300293 315.28100586 392.39999390 0.162619 0.685430 0.709747 0.000000
106.47699738 245.21899414 304.79998779 -0.933658 -0.161834 -0.319519 0.000000
218.48399353 236.00000000 376.39999390 0.490133 0.434399 -0.755690 0.000000
217.56199646 210.18800354 376.39999390 0.383958 0.076792 -0.920152 0.000000
207.88299561 190.82800293 351.20001221 0.641284 0.567225 -0.516730 0.000000
146.57800293 305.14099121 403.60000610 0.001377 0.654300 0.756234 0.000000
169.62500000 203.73399353 342.00000000 -0.763955 -0.123123 0.633415 0.000000
147.03900146 189.90600586 333.60000610 -0.178819 -0.888281 -0.423060 0.000000
148.42199707 217.56199646 429.20001221 -0.140950 -0.571217 0.808606 0.000000
123.53099823 185.75799561 366.39999390 -0.881573 -0.458532 0.112149 0.000000
132.75000000 173.77299500 402.39999390 -0.728060 -0.591244 0.346928 0.000000
146.57800293 320.35198975 384.00000000 -0.190943 0.783628 0.591158 0.000000
118.92199707 218.48399353 303.60000610 -0.397930 -0.794250 -0.459150 0.000000
245.21899414 212.95300293 398.79998779 0.847940 0.340732 -0.406078 0.000000
236.00000000 218.94500732 393.60000610 0.861852 0.473203 -0.182457 0.000000
166.39799500 244.29699707 328.79998779 0.596648 -0.256606 -0.760372 0.000000
189.90600586 292.69500732 400.00000000 0.547885 0.547885 0.632175 0.000000
103.25000000 241.99200439 361.60000610 -0.892577 -0.449644 0.033556 0.000000
169.62500000 231.85200500 368.00000000 0.754845 0.588875 -0.288852 0.000000
116.15599823 268.26599121 290.79998779 -0.702401 0.329301 -0.631026 0.000000
244.75799561 212.95300293 397.60000610 0.847940 0.340732 -0.406078 0.000000
113.85199738 295.92199707 341.60000610 -0.901274 0.414783 -0.125138 0.000000
208.34399414 182.53100586 426.00000000 -0.537821 0.747064 0.390697 0.000000
115.23400116 290.39099121 399.60000610 -0.644578 0.520038 0.560429 0.000000
108.31999969 219.40600586 339.20001221 -0.913872 -0.253451 -0.317176 0.000000
173.31199646 246.14100647 368.39999390 -0.362413 -0.908198 0.209362 0.000000
105.55500031 281.17199707 394.39999390 -0.861831 0.383892 0.331473 0.000000
169.62500000 324.03900146 384.00000000 0.070621 0.756648 0.649997 0.000000
127.21900177 270.10900879 290.79998779 0.563060 0.096979 -0.820706 0.000000
151.18800354 279.32800293 319.60000610 0.711742 0.226819 -0.664814 0.000000
188.52299500 209.26600647 429.60000610 0.894688 -0.446689 -0.001310 0.000000
228.62500000 206.50000000 382.00000000 0.448088 -0.261512 -0.854885 0.000000
161.32800293 321.27301025 387.20001221 -0.162416 0.754401 0.636004 0.000000
142.89100647 197.28100586 427.60000610 -0.293299 0.008590 0.955982 0.000000
200.50799561 255.35899353 383.20001221 0.821002 0.306110 0.481926 0.000000
257.20300293 215.71899414 419.60000610 -0.000978 -0.000978 0.999999 0.000000
164.09399414 331.41400146 355.20001221 0.297164 0.891491 -0.341962 0.000000
156.25799561 298.68798828 329.60000610 0.826210 0.201626 -0.526046 0.000000
118.92199707 272.41400146 291.20001221 -0.570818 0.783506 -0.245530 0.000000
112.93000031 212.95300293 333.60000610 -0.754845 -0.588875 -0.288852 0.000000
120.76599884 235.53900146 413.60000610 -0.451885 -0.237277 0.859942 0.000000
217.10200500 240.60899353 384.00000000 0.640576 0.742451 -0.196032 0.000000
146.57800293 322.19500732 380.79998779 -0.298974 0.828049 0.474289 0.000000
154.87500000 250.75000000 428.39999390 0.000978 0.000978 0.999999 0.000000
108.31999969 215.71899414 343.20001221 -0.871607 -0.337347 -0.355665 0.000000
160.40600586 280.25000000 328.39999390 0.639295 0.213098 -0.738844 0.000000
189.44500732 205.57800293 384.00000000 -0.864134 0.461170 0.201482 0.000000
165.47700500 236.00000000 353.60000610 0.978090 -0.117470 -0.171877 0.000000
155.79699707 256.28100586 428.39999390 0.000978 0.000978 0.999999 0.000000
190.82800293 297.76599121 396.39999390 0.486852 0.457146 0.744307 0.000000
177.00000000 210.64799500 376.79998779 -0.521995 0.852818 -0.014914 0.000000
180.68800354 197.28100586 429.20001221 0.095734 -0.095734 0.990793 0.000000
112.00800323 300.53100586 363.20001221 -0.558202 0.764109 -0.323339 0.000000
213.41400146 190.82800293 366.39999390 0.297164 0.891491 -0.341962 0.000000
231.39100647 169.62500000 429.20001221 -0.389803 0.195626 0.899880 0.000000
220.78900146 207.42199707 377.60000610 0.167318 -0.222652 -0.960433 0.000000
126.29699707 275.64099121 290.79998779 0.654300 -0.001377 -0.756234 0.000000
156.71899414 232.77299500 324.00000000 0.930231 -0.200638 -0.307271 0.000000
170.54699707 300.07000732 405.60000610 0.369059 0.693832 0.618379 0.000000
107.85900116 285.32000732 349.60000610 -0.929620 0.324740 -0.174217 0.000000
188.98399353 284.85900879 406.79998779 0.487757 0.464609 0.739075 0.000000
178.84399414 239.68800354 430.00000000 0.021663 0.342788 0.939163 0.000000
170.08599854 205.57800293 373.60000610 -0.531175 0.846861 0.026078 0.000000
157.64100647 159.48399353 390.79998779 -0.087163 -0.841625 -0.532982 0.000000
102.78900146 273.79699707 392.00000000 -0.938947 0.186683 0.289013 0.000000
139.20300293 185.29699707 418.79998779 -0.341858 -0.511984 0.788039 0.000000
106.47699738 233.23399353 312.79998779 -0.999999 -0.000978 -0.000978 0.000000
179.76600647 165.93800354 377.20001221 -0.132198 -0.858559 -0.495378 0.000000
129.52299500 195.43800354 339.20001221 -0.297164 -0.891491 -0.341962 0.000000
259.04699707 218.48399353 410.79998779 0.087597 0.561483 -0.822839 0.000000
168.24200439 230.46899414 338.39999390 0.515749 -0.660226 -0.545989 0.000000
106.93800354 272.87500000 402.00000000 -0.805702 -0.004104 0.592307 0.000000
137.35899353 206.50000000 423.60000610 -0.864850 -0.113305 0.489078 0.000000
198.20300293 211.10899353 399.60000610 -0.577386 -0.299089 -0.759718 0.000000
171.46899414 175.15600586 421.20001221 -0.529016 -0.188396 0.827435 0.000000
115.69499969 200.04699707 348.79998779 -0.732237 -0.568426 -0.375128 0.000000
185.29699707 220.32800293 352.39999390 0.763044 0.423187 -0.488544 0.000000
183.45300293 241.99200439 365.60000610 -0.706895 -0.354264 0.612207 0.000000
153.03100586 182.07000732 420.79998779 -0.084069 -0.537186 0.839264 0.000000
152.57000732 170.54699707 414.39999390 -0.654300 0.001377 0.756234 0.000000
194.97700500 258.12500000 416.79998779 0.570894 0.316806 0.757439 0.000000
180.68800354 304.21899414 398.00000000 0.346780 0.493802 0.797435 0.000000
133.67199707 247.98399353 298.00000000 0.654300 0.001377 -0.756234 0.000000
154.87500000 199.12500000 432.39999390 0.057990 -0.171602 0.983458 0.000000
125.83599854 289.46899414 409.60000610 -0.445806 0.619454 0.646169 0.000000
127.68000031 298.68798828 312.79998779 -0.726871 0.566074 -0.388868 0.000000
117.07800293 201.89100647 394.79998779 -0.841437 -0.504260 0.194178 0.000000
172.85200500 204.65600586 361.60000610 -0.748281 0.546131 -0.376586 0.000000
200.50799561 269.18798828 378.39999390 0.856234 0.212177 -0.471004 0.000000
145.19500732 212.95300293 320.79998779 0.371873 -0.521272 -0.768105 0.000000
175.15600586 198.66400146 428.79998779 -0.026364 -0.310086 0.950343 0.000000
125.83599854 259.96899414 420.79998779 0.152146 0.456438 0.876651 0.000000
132.75000000 297.76599121 306.79998779 -0.251280 0.671659 -0.696945 0.000000
123.99199677 307.90600586 338.39999390 -0.639315 0.730422 -0.240332 0.000000
187.60200500 259.04699707 343.20001221 0.654300 0.001377 -0.756234 0.000000
254.89799500 217.56199646 410.39999390 0.162108 -0.322831 -0.932470 0.000000
212.95300293 218.02299500 380.00000000 -0.918203 0.222030 -0.328032 0.000000
256.74200439 206.50000000 408.79998779 0.360795 -0.155830 -0.919535 0.000000
165.93800354 206.03900146 337.60000610 -0.747743 -0.159256 0.644606 0.000000
197.74200439 294.07800293 385.60000610 0.829699 0.552657 0.078543 0.000000
114.31199646 212.95300293 398.00000000 -0.757026 -0.484431 0.438451 0.000000
246.14100647 208.34399414 423.60000610 0.225929 0.360028 0.905172 0.000000
132.28900146 209.26600647 417.60000610 -0.750995 0.136408 0.646065 0.000000
141.96899414 324.03900146 374.39999390 -0.644870 0.580888 0.496701 0.000000
112.46900177 208.80499268 386.39999390 -0.836807 -0.359529 0.412908 0.000000
110.16400146 280.25000000 324.00000000 -0.888534 0.346124 -0.301173 0.000000
201.89100647 230.92999268 383.20001221 -0.199420 -0.850157 -0.487303 0.000000
216.64100647 244.75799561 397.60000610 0.498185 0.844356 -0.197167 0.000000
148.42199707 321.27301025 329.60000610 -0.154938 0.922649 -0.353147 0.000000
211.57000732 227.70300293 374.39999390 -0.490324 0.022963 -0.871237 0.000000
141.50799561 283.01599121 308.79998779 0.782336 -0.004125 -0.622844 0.000000
258.12500000 167.32000732 416.00000000 0.752018 0.185324 -0.632553 0.000000
145.65600586 217.56199646 428.39999390 -0.251289 0.170661 0.952748 0.000000
126.29699707 231.39100647 291.60000610 0.615578 -0.272000 -0.739648 0.000000
114.77300262 302.37500000 383.20001221 -0.708486 0.705724 -0.001381 0.000000
126.29699707 317.12500000 354.00000000 -0.827314 0.554888 -0.087463 0.000000
201.89100647 165.01600647 423.60000610 0.639295 -0.213098 0.738844 0.000000
223.09399414 205.11700439 428.00000000 0.171356 0.327387 0.929223 0.000000
124.91400146 292.23400879 406.39999390 -0.547885 0.547885 0.632175 0.000000
262.27301025 170.54699707 425.60000610 0.553762 -0.832674 -0.001354 0.000000
137.35899353 177.00000000 413.20001221 -0.457362 -0.655050 0.601440 0.000000
112.93000031 278.40600586 312.79998779 -0.862175 0.374792 -0.340860 0.000000
209.26600647 244.29699707 375.60000610 0.591528 0.703572 -0.393803 0.000000
179.76600647 156.25799561 410.39999390 -0.091275 -0.960320 0.263542 0.000000
115.23400116 221.71099854 306.39999390 -0.789600 -0.558192 -0.254861 0.000000
217.56199646 226.78100586 424.39999390 0.273774 0.468664 0.839882 0.000000
192.67199707 259.04699707 418.79998779 0.551015 0.322898 0.769493 0.000000
192.67199707 281.63299561 406.39999390 0.311426 0.541402 0.780960 0.000000
115.23400116 197.28100586 366.79998779 -0.794250 -0.397930 0.459150 0.000000
156.71899414 314.35900879 330.79998779 0.641143 0.329499 -0.693084 0.000000
198.20300293 198.66400146 354.39999390 0.290544 0.917888 -0.270307 0.000000
206.96099854 204.65600586 428.79998779 -0.067246 -0.067246 0.995468 0.000000
129.52299500 311.59399414 332.00000000 -0.622046 0.665175 -0.413039 0.000000
138.28100586 178.38299561 360.00000000 -0.217465 -0.797373 -0.562943 0.000000
200.96899414 253.05499268 384.00000000 0.998050 0.059820 0.017841 0.000000
164.55499268 294.07800293 336.79998779 0.669743 0.206673 -0.713253 0.000000
154.87500000 234.15600586 319.60000610 0.671483 -0.149386 -0.725806 0.000000
139.66400146 217.56199646 309.60000610 0.855728 -0.042856 -0.515649 0.000000
210.64799500 188.06199646 350.39999390 0.496280 0.772895 -0.395397 0.000000
144.73399353 215.71899414 318.79998779 0.792895 -0.330240 -0.512112 0.000000
134.59399414 238.30499268 424.00000000 -0.289673 -0.337209 0.895757 0.000000
222.17199707 241.07000732 396.79998779 -0.204753 0.970349 -0.128447 0.000000
145.65600586 180.22700500 352.79998779 -0.179299 -0.884833 -0.430026 0.000000
145.65600586 316.66400146 389.60000610 -0.206272 0.814392 0.542419 0.000000
251.67199707 221.25000000 410.79998779 0.311672 0.660486 -0.683095 0.000000
217.56199646 165.01600647 389.20001221 0.157181 -0.965170 -0.209142 0.000000
148.88299561 313.43798828 322.39999390 0.212675 0.641129 -0.737376 0.000000
249.82800293 224.47700500 412.79998779 0.309051 0.803533 -0.508746 0.000000
186.21899414 314.82000732 384.00000000 0.511596 0.711569 0.481600 0.000000
153.03100586 275.17999268 424.79998779 -0.203031 0.491786 0.846714 0.000000
108.31999969 262.73400879 312.00000000 -0.701150 0.467988 -0.537937 0.000000
185.29699707 159.02299500 404.79998779 0.539535 -0.754698 0.373274 0.000000
196.82000732 192.67199707 340.79998779 0.509220 0.255384 -0.821872 0.000000
185.75799561 292.23400879 359.20001221 0.742401 -0.047023 -0.668303 0.000000
253.51600647 165.47700500 422.39999390 0.999999 -0.000978 -0.000978 0.000000
186.21899414 197.74200439 345.60000610 -0.188326 0.941628 -0.279052 0.000000
213.87500000 219.86700439 388.00000000 -0.053465 0.996201 -0.068741 0.000000
232.77299500 164.09399414 410.39999390 0.049782 -0.987531 0.149345 0.000000
109.24199677 247.06199646 300.00000000 -0.757002 -0.038204 -0.652295 0.000000
154.41400146 230.46899414 320.00000000 0.742018 -0.282445 -0.607976 0.000000
116.61699677 231.39100647 409.60000610 -0.538340 -0.416514 0.732603 0.000000
115.69499969 222.17199707 304.00000000 -0.753482 -0.566321 -0.333984 0.000000
103.71099854 236.00000000 362.39999390 -0.983163 0.060630 0.172380 0.000000
196.35899353 275.17999268 408.00000000 0.999999 0.000978 0.000978 0.000000
205.11700439 209.26600647 368.79998779 0.552580 0.330259 -0.765235 0.000000
200.04699707 206.03900146 391.20001221 -0.569435 0.228084 0.789761 0.000000
128.14100647 189.90600586 410.79998779 -0.752693 -0.284846 0.593562 0.000000
239.68800354 184.83599854 402.39999390 0.710938 -0.319031 -0.626727 0.000000
134.59399414 201.89100647 317.20001221 -0.244106 -0.738617 -0.628376 0.000000
201.89100647 236.46099854 424.00000000 0.644589 0.294164 0.705672 0.000000
123.99199677 285.78100586 300.00000000 -0.079246 0.882828 -0.462963 0.000000
224.01600647 236.00000000 380.39999390 0.401510 0.492541 -0.772135 0.000000
256.74200439 192.67199707 411.20001221 0.847634 -0.026018 -0.529943 0.000000
141.04699707 316.66400146 324.79998779 -0.275493 0.721379 -0.635387 0.000000
204.65600586 229.08599854 378.39999390 -0.882410 -0.413769 -0.223939 0.000000
105.55500031 292.23400879 371.20001221 -0.894688 0.446689 -0.001310 0.000000
151.18800354 224.93800354 338.00000000 0.731508 -0.595263 -0.332504 0.000000
133.67199707 220.32800293 302.00000000 0.743494 0.004154 -0.668729 0.000000
184.37500000 223.55499268 380.79998779 0.722780 0.251471 -0.643701 0.000000
175.61700439 254.43800354 335.20001221 0.570621 0.004086 -0.821204 0.000000
232.77299500 216.64100647 381.60000610 0.628032 -0.587623 -0.510171 0.000000
166.85899353 199.12500000 429.20001221 0.233751 -0.261745 0.936403 0.000000
188.98399353 177.46099854 351.20001221 -0.368456 -0.368456 0.853511 0.000000
139.20300293 168.24200439 400.79998779 -0.614057 -0.732700 0.293401 0.000000
110.16400146 247.98399353 292.00000000 -0.844500 -0.080902 -0.529409 0.000000
173.77299500 330.03100586 367.20001221 -0.001334 0.865851 -0.500299 0.000000
103.71099854 240.60899353 324.79998779 -0.979582 -0.170415 -0.106663 0.000000
254.43800354 177.00000000 428.39999390 0.000978 0.000978 0.999999 0.000000
161.32800293 158.10200500 399.20001221 -0.236411 -0.971102 0.032734 0.000000
110.16400146 249.82800293 292.00000000 -0.932595 0.056561 -0.356465 0.000000
153.03100586 195.43800354 429.20001221 0.041160 -0.745129 0.665649 0.000000
230.46899414 165.47700500 392.00000000 0.190560 -0.944574 -0.267332 0.000000
230.00799561 242.45300293 400.00000000 -0.047888 0.335213 0.940925 0.000000
122.60900116 308.36700439 342.39999390 -0.735111 0.564840 -0.374923 0.000000
239.68800354 170.54699707 382.00000000 0.250422 -0.247624 -0.935934 0.000000
218.94500732 186.21899414 358.39999390 0.701424 0.712579 -0.015339 0.000000
247.52299500 195.43800354 404.79998779 0.417618 -0.623931 -0.660535 0.000000
167.78100586 226.32000732 344.00000000 -0.009549 0.552469 -0.833478 0.000000
218.48399353 245.21899414 408.39999390 0.270490 0.923100 -0.273352 0.000000
189.90600586 173.31199646 360.39999390 0.118964 -0.905524 -0.407276 0.000000
109.24199677 209.26600647 347.20001221 -0.765849 0.256331 -0.589720 0.000000
134.13299561 281.17199707 418.39999390 -0.397565 0.100423 0.912062 0.000000
101.40599823 241.07000732 356.00000000 -0.946331 -0.164284 0.278333 0.000000
136.43800354 295.00000000 409.20001221 0.209195 0.542074 0.813875 0.000000
158.56199646 166.39799500 376.79998779 0.014630 -0.889764 -0.456187 0.000000
157.64100647 220.32800293 432.39999390 0.000978 0.000978 0.999999 0.000000
198.20300293 270.10900879 374.79998779 0.830642 0.331315 -0.447510 0.000000
246.14100647 165.47700500 413.60000610 0.342460 -0.853827 0.392047 0.000000
149.34399414 186.67999268 340.79998779 -0.321918 -0.871161 -0.370739 0.000000
145.65600586 178.84399414 355.60000610 -0.184381 -0.910473 -0.370192 0.000000
109.70300293 218.02299500 333.60000610 -0.654738 0.654738 0.377670 0.000000
188.98399353 179.76600647 423.60000610 -0.050072 -0.157202 0.986296 0.000000
139.66400146 191.75000000 424.79998779 -0.626216 -0.445866 0.639575 0.000000
202.35200500 208.34399414 396.79998779 -0.818841 -0.386366 -0.424525 0.000000
200.96899414 208.80499268 398.39999390 -0.681515 -0.601922 -0.416205 0.000000
158.56199646 170.08599854 370.39999390 -0.001377 -0.654300 -0.756234 0.000000
196.82000732 294.07800293 391.20001221 0.898001 0.406615 0.168106 0.000000
117.53900146 211.10899353 323.20001221 -0.686203 -0.686203 -0.241354 0.000000
161.32800293 183.45300293 423.60000610 -0.753482 -0.333984 0.566321 0.000000
198.20300293 192.67199707 427.60000610 0.136421 -0.263570 0.954945 0.000000
135.51600647 225.85899353 419.60000610 -0.843747 -0.488005 0.223479 0.000000
190.82800293 268.72698975 356.79998779 0.691581 0.514081 -0.507383 0.000000
143.81199646 178.38299561 358.39999390 -0.202374 -0.924130 -0.324082 0.000000
118.92199707 245.67999268 414.39999390 -0.586934 -0.147854 0.796020 0.000000
114.31199646 287.16400146 400.79998779 -0.871283 0.367739 0.325014 0.000000
174.23399353 163.63299561 381.60000610 -0.311030 -0.623672 -0.717142 0.000000
103.71099854 284.85900879 382.39999390 -0.943968 0.314656 0.099575 0.000000
205.57800293 247.06199646 414.00000000 0.630757 0.737718 -0.240663 0.000000
133.21099854 171.46899414 391.20001221 -0.707106 -0.707106 -0.001384 0.000000
105.55500031 292.23400879 375.20001221 -0.839965 0.539877 0.054689 0.000000
187.14100647 263.65600586 419.60000610 0.389239 0.306812 0.868538 0.000000
229.54699707 166.39799500 385.60000610 0.109936 -0.929702 -0.351522 0.000000
146.57800293 200.96899414 430.00000000 -0.699229 -0.098628 0.708062 0.000000
111.08599854 295.92199707 356.79998779 -0.629547 0.725174 -0.278913 0.000000
123.53099823 199.12500000 339.60000610 -0.556634 -0.721807 -0.411282 0.000000
115.23400116 300.07000732 350.39999390 -0.901797 0.428590 0.055433 0.000000
148.42199707 300.07000732 408.00000000 -0.162259 0.647521 0.744573 0.000000
212.95300293 216.17999268 377.60000610 0.080005 0.737502 -0.670589 0.000000
139.66400146 194.51600647 328.00000000 -0.470918 -0.867017 -0.162841 0.000000
179.30499268 284.85900879 412.00000000 0.268873 0.333520 0.903588 0.000000
166.85899353 273.79699707 422.79998779 0.351795 0.463224 0.813427 0.000000
192.67199707 252.59399414 346.00000000 0.685789 0.358443 -0.633413 0.000000
171.46899414 244.29699707 354.79998779 0.003494 -0.213105 0.977023 0.000000
236.92199707 226.78100586 405.20001221 0.722404 0.307303 -0.619433 0.000000
106.01599884 218.94500732 349.60000610 -0.948669 -0.299510 -0.101596 0.000000
127.21900177 257.20300293 422.00000000 -0.426112 0.086877 0.900489 0.000000
179.76600647 312.97698975 391.20001221 0.163364 0.810823 0.562031 0.000000
106.01599884 240.60899353 308.39999390 -0.954870 0.224280 -0.194734 0.000000
142.89100647 234.15600586 308.39999390 0.810823 -0.163364 -0.562031 0.000000
130.44500732 318.04699707 368.79998779 -0.407432 0.714242 0.569085 0.000000
216.64100647 231.85200500 373.60000610 -0.011996 0.467854 -0.883724 0.000000
151.64799500 242.45300293 428.00000000 -0.167514 -0.028882 0.985447 0.000000
194.05499268 296.84399414 394.39999390 0.617930 0.506804 0.601093 0.000000
197.28100586 225.85899353 429.20001221 0.942140 0.313151 -0.119616 0.000000
121.22699738 296.84399414 324.00000000 -0.756699 0.620524 -0.205810 0.000000
184.83599854 223.09399414 362.39999390 0.705724 0.708486 0.001381 0.000000
212.03100586 178.84399414 427.60000610 -0.132020 -0.585930 0.799535 0.000000
197.28100586 206.03900146 396.79998779 -0.043891 0.641376 -0.765970 0.000000
172.39100647 225.39799500 345.60000610 0.365182 0.610820 -0.702525 0.000000
215.71899414 236.00000000 422.79998779 0.675253 0.728680 0.114274 0.000000
214.79699707 200.04699707 375.60000610 0.757934 0.076808 -0.647794 0.000000
233.23399353 236.00000000 382.00000000 0.231932 0.354463 -0.905850 0.000000
119.84400177 294.53900146 324.00000000 -0.746472 0.574832 -0.335184 0.000000
167.32000732 244.29699707 368.79998779 0.792592 -0.528924 -0.303377 0.000000
225.85899353 174.23399353 429.20001221 0.266833 -0.266833 0.926067 0.000000
233.69500732 165.93800354 392.79998779 0.142343 -0.962450 -0.231145 0.000000
192.67199707 227.24200439 390.39999390 0.406668 -0.665607 -0.625770 0.000000
110.62500000 289.00799561 341.60000610 -0.924054 0.348093 -0.157970 0.000000
106.47699738 249.82800293 304.00000000 -0.918266 0.043727 -0.393543 0.000000
194.51600647 280.71099854 406.39999390 0.481431 0.400382 0.779691 0.000000
130.90600586 217.56199646 415.60000610 -0.593533 -0.091424 0.799600 0.000000
188.52299500 290.39099121 403.20001221 0.547885 0.547885 0.632175 0.000000
101.86699677 237.84399414 340.00000000 -0.999999 0.000978 0.000978 0.000000
173.77299500 255.35899353 426.39999390 0.243274 0.485019 0.839985 0.000000
156.71899414 320.81201172 335.60000610 0.454073 0.628329 -0.631680 0.000000
224.93800354 245.21899414 406.79998779 0.907969 0.294833 0.297767 0.000000
240.60899353 168.24200439 386.39999390 0.717859 -0.308115 -0.624295 0.000000
163.63299561 158.56199646 409.60000610 -0.191398 -0.948843 0.251124 0.000000
190.36700439 306.98400879 370.39999390 0.922065 0.220897 -0.317806 0.000000
250.75000000 172.39100647 428.39999390 0.000978 0.000978 0.999999 0.000000
147.03900146 252.59399414 311.20001221 0.817857 0.121871 -0.562368 0.000000
241.99200439 171.46899414 386.39999390 0.968556 0.092183 0.231090 0.000000
193.59399414 201.89100647 429.20001221 0.089028 -0.181716 0.979313 0.000000
105.55500031 255.35899353 308.79998779 -0.205624 -0.324744 -0.923180 0.000000
137.82000732 262.73400879 304.00000000 0.686718 -0.032432 -0.726200 0.000000
201.89100647 186.21899414 426.00000000 0.024025 -0.327494 0.944548 0.000000
128.60200500 271.95300293 292.00000000 0.567555 0.100157 -0.817221 0.000000
155.79699707 210.64799500 331.20001221 0.547885 0.547885 -0.632175 0.000000
