103.59400177 110.89800262 362.50000000 -0.000978 -0.000978 -0.999999 0.000000
82.34380341 237.73399353 347.50000000 0.927598 0.331585 0.172088 0.000000
76.36720276 138.78900146 332.50000000 -0.490033 0.624750 0.607910 0.000000
57.77339935 93.63279724 377.50000000 0.811390 0.579564 -0.075844 0.000000
109.56999969 151.40600586 442.50000000 -0.000978 -0.000978 -0.999999 0.000000
202.53900146 78.35939789 412.50000000 -0.120152 0.630426 -0.766894 0.000000
110.89800262 124.84400177 367.50000000 -0.000978 -0.000978 -0.999999 0.000000
156.71899414 118.20300293 427.50000000 -0.000978 -0.000978 -0.999999 0.000000
131.48399353 173.98399353 392.50000000 -0.945180 0.315934 0.082589 0.000000
135.46899414 93.63279724 372.50000000 -0.841730 0.537423 0.051648 0.000000
60.09769821 216.48399353 325.00000000 0.442690 -0.830240 0.338713 0.000000
103.59400177 76.36720276 387.50000000 0.000978 0.000978 -0.999999 0.000000
142.44099426 199.21899414 395.00000000 -0.961976 -0.096326 0.255585 0.000000
124.18000031 146.75799561 437.50000000 -0.918041 -0.393065 0.051965 0.000000
156.05499268 122.85199738 427.50000000 -0.000978 -0.000978 -0.999999 0.000000
59.76559830 122.18800354 427.50000000 0.498860 0.653389 -0.569405 0.000000
126.17199707 231.09399414 417.50000000 -0.236243 -0.396709 -0.887024 0.000000
116.87500000 164.02299500 352.50000000 -0.763525 0.319877 0.560990 0.000000
171.32800293 106.25000000 422.50000000 -0.003506 0.218537 -0.975822 0.000000
136.13299561 133.80900574 430.00000000 -0.290170 0.690958 -0.662101 0.000000
53.12500000 106.91400146 402.50000000 0.417070 0.835713 -0.357263 0.000000
124.84400177 228.43800354 417.50000000 -0.589996 -0.532518 -0.606901 0.000000
150.74200439 98.94529724 382.50000000 0.195375 -0.233103 0.952623 0.000000
139.45300293 120.85900116 427.50000000 -0.000978 -0.000978 -0.999999 0.000000
35.85940170 143.43800354 362.50000000 0.966452 0.001195 0.256844 0.000000
96.95310211 183.28100586 337.50000000 -0.280350 -0.023465 0.959611 0.000000
74.37500000 216.48399353 322.50000000 0.000978 0.000978 0.999999 0.000000
101.26999664 199.88299561 340.00000000 -0.670757 -0.189662 0.717017 0.000000
142.77299500 85.66410065 407.50000000 0.166253 0.889090 -0.426474 0.000000
130.48800659 178.63299561 435.00000000 -0.589059 0.034980 -0.807333 0.000000
73.04689789 205.19500732 317.50000000 0.419825 -0.491702 0.762873 0.000000
128.82800293 80.68360138 390.00000000 -0.185125 0.967050 -0.174768 0.000000
118.20300293 163.35899353 352.50000000 -0.787584 0.348077 0.508481 0.000000
107.57800293 144.76600647 372.50000000 -0.000978 -0.000978 -0.999999 0.000000
101.60199738 90.31250000 357.50000000 0.968119 0.242340 -0.063381 0.000000
52.79299927 138.78900146 300.00000000 -0.636917 0.107379 0.763418 0.000000
146.09399414 106.25000000 382.50000000 0.000978 0.000978 0.999999 0.000000
136.79699707 230.76199341 390.00000000 -0.858999 0.201678 0.470582 0.000000
115.87899780 196.56199646 440.00000000 -0.665785 -0.169112 -0.726726 0.000000
242.38299561 126.83599854 427.50000000 -0.658324 -0.098236 -0.746297 0.000000
98.94529724 177.30499268 447.50000000 -0.000978 -0.000978 -0.999999 0.000000
90.31250000 189.25799561 332.50000000 -0.937830 0.134754 0.319869 0.000000
98.94529724 136.13299561 442.50000000 -0.189138 0.254451 -0.948410 0.000000
65.74220276 157.38299561 452.50000000 -0.000978 -0.000978 -0.999999 0.000000
187.92999268 132.14799500 377.50000000 0.000978 0.000978 0.999999 0.000000
90.31250000 100.27300262 362.50000000 -0.000978 -0.000978 -0.999999 0.000000
162.69500732 149.74600220 375.00000000 -0.390312 -0.490724 0.779004 0.000000
214.49200439 116.21099854 387.50000000 -0.590518 -0.006851 0.806995 0.000000
141.44500732 115.54699707 392.50000000 -0.050291 -0.452618 0.890285 0.000000
199.21899414 155.39100647 397.50000000 -0.789298 -0.395456 0.469705 0.000000
96.28910065 121.52300262 367.50000000 -0.256793 -0.288354 -0.922447 0.000000
36.85549927 148.08599854 430.00000000 0.840670 0.336581 -0.424249 0.000000
135.46899414 175.31199646 432.50000000 -0.728364 0.095259 -0.678536 0.000000
109.56999969 151.40600586 382.50000000 0.000978 0.000978 0.999999 0.000000
116.21099854 190.58599854 442.50000000 -0.807049 -0.399513 -0.434812 0.000000
96.95310211 164.68800354 337.50000000 0.000978 0.000978 0.999999 0.000000
59.10160065 228.10499573 355.00000000 0.694716 -0.694716 0.186387 0.000000
116.21099854 206.52299500 357.50000000 -0.744283 -0.133282 0.654430 0.000000
147.42199707 130.82000732 427.50000000 -0.000978 -0.000978 -0.999999 0.000000
118.86699677 241.71899414 372.50000000 -0.694716 -0.694716 0.186387 0.000000
117.53900146 191.25000000 357.50000000 -0.000978 -0.000978 0.999999 0.000000
136.13299561 181.28900146 427.50000000 -0.725420 -0.261913 -0.636528 0.000000
158.71099854 172.98800659 395.00000000 -0.530485 -0.740708 0.412234 0.000000
45.82030106 199.88299561 437.50000000 -0.000978 -0.000978 -0.999999 0.000000
199.21899414 89.64839935 412.50000000 -0.486489 0.617790 -0.617790 0.000000
94.29689789 85.00000000 392.50000000 -0.000978 -0.000978 -0.999999 0.000000
123.18399811 200.54699707 435.00000000 -0.765902 -0.208882 -0.608080 0.000000
206.52299500 108.24199677 417.50000000 -0.000978 -0.000978 -0.999999 0.000000
78.69139862 167.34399414 325.00000000 -0.725230 0.216789 0.653486 0.000000
53.12500000 197.22700500 307.50000000 0.000978 0.000978 0.999999 0.000000
49.80469894 149.41400146 442.50000000 0.000978 0.000978 -0.999999 0.000000
156.71899414 138.12500000 427.50000000 -0.000978 -0.000978 -0.999999 0.000000
37.85160065 201.87500000 382.50000000 0.941008 -0.217582 0.259158 0.000000
105.58599854 128.82800293 432.50000000 -0.502241 0.442960 -0.742658 0.000000
120.85900116 190.58599854 357.50000000 -0.705821 -0.244748 0.664767 0.000000
88.98439789 130.15600586 347.50000000 -0.691179 0.611999 0.384355 0.000000
69.39450073 239.72700500 370.00000000 0.363655 -0.909856 0.199795 0.000000
35.85940170 196.22999573 385.00000000 0.943247 -0.289916 0.161972 0.000000
50.46879959 142.77299500 297.50000000 -0.653099 0.254598 0.713191 0.000000
156.71899414 155.39100647 422.50000000 -0.000978 -0.000978 -0.999999 0.000000
69.06250000 116.87500000 337.50000000 0.000978 0.000978 0.999999 0.000000
144.10200500 101.60199738 382.50000000 0.000978 0.000978 0.999999 0.000000
53.45700073 142.77299500 300.00000000 -0.791774 0.026532 0.610238 0.000000
96.95310211 134.47300720 360.00000000 -0.668350 0.728697 0.149360 0.000000
100.93800354 147.42199707 342.50000000 0.000978 0.000978 0.999999 0.000000
144.10200500 114.21900177 387.50000000 0.371528 -0.926838 -0.054209 0.000000
207.18800354 158.71099854 412.50000000 -0.535062 -0.808022 0.246594 0.000000
196.56199646 77.03119659 407.50000000 0.001373 0.781002 -0.624527 0.000000
116.21099854 86.32810211 367.50000000 -0.000978 -0.000978 -0.999999 0.000000
166.67999268 124.18000031 372.50000000 0.000978 0.000978 0.999999 0.000000
61.09379959 170.66400146 452.50000000 0.000978 0.000978 -0.999999 0.000000
132.14799500 227.77299500 412.50000000 -0.748767 -0.370305 -0.549748 0.000000
99.60939789 230.42999268 432.50000000 -0.266547 -0.519065 -0.812111 0.000000
157.38299561 172.65600586 407.50000000 0.780531 -0.551618 -0.294090 0.000000
134.47300720 233.08599854 385.00000000 -0.929088 0.001271 0.369856 0.000000
126.17199707 156.05499268 437.50000000 -0.399325 0.624670 -0.671064 0.000000
122.18800354 151.40600586 437.50000000 -0.538569 -0.209020 -0.816244 0.000000
79.68750000 111.56199646 367.50000000 -0.000978 -0.000978 -0.999999 0.000000
50.46879959 144.76600647 297.50000000 -0.679350 0.459020 0.572524 0.000000
148.75000000 83.00779724 402.50000000 0.680355 -0.680355 -0.272461 0.000000
145.42999268 115.54699707 427.50000000 -0.000978 -0.000978 -0.999999 0.000000
52.46089935 144.76600647 297.50000000 -0.832404 0.152830 0.532679 0.000000
246.36700439 112.89099884 417.50000000 0.000978 0.000978 -0.999999 0.000000
67.73439789 94.96089935 362.50000000 -0.000978 -0.000978 -0.999999 0.000000
72.38279724 202.53900146 447.50000000 -0.000978 -0.000978 -0.999999 0.000000
87.65619659 74.04299927 370.00000000 0.300492 0.929691 -0.213025 0.000000
94.62889862 149.41400146 340.00000000 -0.427050 0.357714 0.830463 0.000000
160.03900146 138.12500000 427.50000000 -0.000978 -0.000978 -0.999999 0.000000
223.78900146 126.17199707 402.50000000 0.361595 0.789080 -0.496590 0.000000
159.04299927 166.67999268 385.00000000 -0.614128 -0.405556 0.677031 0.000000
118.20300293 234.41400146 422.50000000 -0.049981 -0.430916 -0.901007 0.000000
109.56999969 152.73399353 347.50000000 -0.787800 0.138498 0.600158 0.000000
215.82000732 83.00779724 407.50000000 -0.000978 -0.000978 -0.999999 0.000000
98.28119659 106.91400146 362.50000000 -0.000978 -0.000978 -0.999999 0.000000
199.21899414 145.42999268 387.50000000 -0.000978 -0.000978 0.999999 0.000000
178.63299561 79.02339935 412.50000000 0.413202 0.652163 -0.635568 0.000000
114.21900177 116.87500000 422.50000000 0.128749 0.895581 -0.425861 0.000000
61.09379959 219.80499268 437.50000000 0.363523 -0.799110 -0.478826 0.000000
96.28910065 116.21099854 362.50000000 -0.819179 -0.225928 -0.527164 0.000000
207.18800354 156.05499268 432.50000000 -0.000978 -0.000978 -0.999999 0.000000
205.85899353 94.96089935 412.50000000 -0.000978 -0.000978 -0.999999 0.000000
43.16410065 191.58200073 320.00000000 0.928937 -0.308706 0.204394 0.000000
179.29699707 142.10899353 427.50000000 -0.000978 -0.000978 -0.999999 0.000000
216.48399353 128.49600220 395.00000000 -0.862405 -0.362549 0.353293 0.000000
143.10499573 205.19500732 405.00000000 -0.949175 -0.001234 -0.314746 0.000000
39.51169968 118.20300293 375.00000000 0.884722 0.220810 0.410499 0.000000
170.00000000 122.85199738 427.50000000 -0.000978 -0.000978 -0.999999 0.000000
53.78910065 138.12500000 437.50000000 0.821040 0.149955 -0.550824 0.000000
56.11330032 211.17199707 320.00000000 0.680355 -0.680355 0.272461 0.000000
40.83980179 209.17999268 395.00000000 0.888502 -0.443543 -0.117617 0.000000
63.08589935 113.88700104 420.00000000 -0.364752 0.727868 -0.580659 0.000000
99.60939789 254.33599854 397.50000000 -0.001098 -0.991141 0.132811 0.000000
116.21099854 114.21900177 362.50000000 0.000978 0.000978 -0.999999 0.000000
88.32029724 246.36700439 372.50000000 -0.001268 -0.929435 0.368984 0.000000
82.34380341 222.46099854 437.50000000 -0.217304 -0.049774 -0.974834 0.000000
222.46099854 79.02339935 402.50000000 -0.000978 -0.000978 -0.999999 0.000000
59.10160065 149.41400146 447.50000000 -0.896843 0.242987 -0.369635 0.000000
106.25000000 116.21099854 362.50000000 -0.000978 -0.000978 -0.999999 0.000000
112.22699738 81.67970276 367.50000000 -0.000978 -0.000978 -0.999999 0.000000
118.20300293 199.88299561 437.50000000 -0.096844 -0.050092 -0.994038 0.000000
70.39060211 199.88299561 312.50000000 -0.565546 -0.153697 0.810268 0.000000
57.77339935 94.29689789 382.50000000 -0.443543 0.888502 -0.117617 0.000000
183.94500732 136.79699707 427.50000000 -0.000978 -0.000978 -0.999999 0.000000
38.18360138 118.86699677 385.00000000 0.934795 0.313439 -0.167076 0.000000
241.71899414 122.18800354 427.50000000 -0.390491 0.118120 -0.912998 0.000000
134.80499268 170.66400146 422.50000000 -0.900904 0.404050 0.158479 0.000000
107.57800293 235.74200439 357.50000000 -0.351043 -0.716782 0.602489 0.000000
110.23400116 186.60200500 442.50000000 -0.759395 -0.507897 -0.406644 0.000000
147.75399780 142.10899353 375.00000000 0.634636 0.766547 0.098200 0.000000
172.65600586 116.87500000 372.50000000 0.267741 -0.196344 0.943273 0.000000
185.93800354 115.54699707 422.50000000 -0.000978 -0.000978 -0.999999 0.000000
100.93800354 193.24200439 337.50000000 0.000978 0.000978 0.999999 0.000000
86.32810211 148.75000000 377.50000000 -0.446987 0.892607 0.058778 0.000000
139.45300293 176.64100647 417.50000000 -0.727472 0.663148 0.176125 0.000000
57.44139862 116.21099854 420.00000000 -0.494169 0.675085 -0.547774 0.000000
211.17199707 85.66410065 412.50000000 -0.475693 0.455941 -0.752220 0.000000
55.11719894 231.42599487 405.00000000 0.705724 -0.708486 0.001381 0.000000
58.43750000 203.86700439 442.50000000 -0.000978 -0.000978 -0.999999 0.000000
99.60939789 161.36700439 447.50000000 -0.000978 -0.000978 -0.999999 0.000000
177.30499268 143.43800354 427.50000000 -0.000978 -0.000978 -0.999999 0.000000
96.28910065 156.05499268 447.50000000 -0.121015 0.147908 -0.981569 0.000000
115.87899780 204.53100586 355.00000000 -0.796064 0.058388 0.602389 0.000000
136.13299561 196.56199646 382.50000000 -0.267893 -0.740272 0.616629 0.000000
68.39839935 237.73399353 362.50000000 0.857503 -0.513957 -0.023176 0.000000
87.65619659 225.11700439 437.50000000 -0.000978 -0.000978 -0.999999 0.000000
100.27300262 183.28100586 337.50000000 -0.307933 -0.299093 0.903172 0.000000
140.78100586 114.88300323 427.50000000 -0.000978 -0.000978 -0.999999 0.000000
37.51950073 185.27299500 350.00000000 0.991141 0.001098 0.132811 0.000000
175.97700500 99.60939789 352.50000000 -0.000978 -0.000978 0.999999 0.000000
241.05499268 100.27300262 412.50000000 -0.854681 0.423491 -0.300293 0.000000
77.03119659 99.60939789 402.50000000 -0.073182 0.887848 -0.454280 0.000000
41.50389862 150.74200439 300.00000000 0.991141 -0.001098 0.132811 0.000000
44.49219894 175.31199646 447.50000000 0.470929 0.003980 -0.882162 0.000000
100.93800354 217.81199646 342.50000000 0.000978 0.000978 0.999999 0.000000
67.73439789 164.35499573 315.00000000 -0.753421 0.120369 0.646427 0.000000
45.15620041 190.58599854 442.50000000 0.817184 -0.026361 -0.575774 0.000000
235.07800293 98.28119659 412.50000000 0.500040 0.687346 -0.526798 0.000000
152.07000732 133.47700500 427.50000000 -0.000978 -0.000978 -0.999999 0.000000
50.13669968 216.48399353 350.00000000 0.827312 -0.551057 0.109048 0.000000
71.71880341 167.34399414 457.50000000 -0.000978 -0.000978 -0.999999 0.000000
94.96089935 152.07000732 447.50000000 -0.000978 -0.000978 -0.999999 0.000000
198.55499268 156.71899414 397.50000000 -0.954127 -0.224738 0.197823 0.000000
231.09399414 89.31639862 400.00000000 0.694509 -0.510423 -0.507076 0.000000
54.78519821 151.40600586 300.00000000 -0.664267 0.323201 0.674011 0.000000
114.88300323 97.61720276 362.50000000 0.248628 -0.573878 -0.780287 0.000000
213.16400146 151.40600586 432.50000000 -0.000978 -0.000978 -0.999999 0.000000
58.43750000 201.87500000 307.50000000 0.041506 -0.190927 0.980726 0.000000
65.74220276 240.72300720 405.00000000 0.560171 -0.826919 0.049138 0.000000
114.88300323 201.87500000 437.50000000 -0.000978 -0.000978 -0.999999 0.000000
133.47700500 132.47999573 430.00000000 -0.057928 0.572215 -0.818055 0.000000
76.36720276 247.03100586 382.50000000 0.428195 -0.857924 0.283928 0.000000
164.02299500 82.34380341 352.50000000 0.886398 0.442483 0.136039 0.000000
171.32800293 100.27300262 422.50000000 -0.000978 -0.000978 -0.999999 0.000000
92.30470276 130.48800659 350.00000000 -0.586934 -0.147854 0.796020 0.000000
51.79690170 132.14799500 432.50000000 0.566724 0.647445 -0.509547 0.000000
76.36720276 87.65619659 387.50000000 0.156636 0.815997 -0.556430 0.000000
40.50780106 162.36300659 330.00000000 0.963146 0.257600 0.077407 0.000000
136.79699707 102.93000031 417.50000000 -0.000978 -0.000978 -0.999999 0.000000
151.40600586 148.08599854 372.50000000 0.000978 0.000978 0.999999 0.000000
69.72660065 154.72700500 322.50000000 -0.429929 0.833085 0.348038 0.000000
128.82800293 116.21099854 422.50000000 0.000978 0.000978 -0.999999 0.000000
134.14100647 191.91400146 377.50000000 -0.000978 -0.000978 0.999999 0.000000
115.54699707 90.31250000 402.50000000 -0.927444 -0.346928 -0.139600 0.000000
90.31250000 122.85199738 432.50000000 -0.287272 0.882872 -0.371498 0.000000
87.65619659 247.36300659 375.00000000 0.001268 -0.929435 0.368984 0.000000
113.55500031 180.62500000 442.50000000 -0.000978 -0.000978 -0.999999 0.000000
50.46879959 128.82800293 427.50000000 -0.000978 -0.000978 -0.999999 0.000000
34.86330032 191.91400146 375.00000000 -0.000978 -0.000978 0.999999 0.000000
80.35160065 241.71899414 422.50000000 -0.246562 -0.595204 -0.764813 0.000000
117.53900146 215.82000732 357.50000000 -0.437102 -0.014526 0.899295 0.000000
55.44919968 153.39799500 300.00000000 -0.796510 0.116311 0.593333 0.000000
207.18800354 91.64060211 372.50000000 -0.696189 -0.499186 0.515881 0.000000
225.11700439 95.62500000 392.50000000 0.309303 0.303384 -0.901271 0.000000
225.11700439 117.53900146 402.50000000 0.901274 -0.414783 -0.125138 0.000000
166.67999268 163.35899353 397.50000000 -0.779885 -0.554338 0.290670 0.000000
85.00000000 140.78100586 337.50000000 -0.304101 0.197596 0.931922 0.000000
143.43800354 137.12899780 430.00000000 -0.435138 0.497536 -0.750408 0.000000
69.06250000 102.26599884 362.50000000 -0.000978 -0.000978 -0.999999 0.000000
77.03119659 173.98399353 452.50000000 -0.000978 -0.000978 -0.999999 0.000000
53.78910065 111.23000336 410.00000000 0.423215 0.592501 -0.685442 0.000000
124.18000031 215.15600586 427.50000000 -0.611489 -0.368861 -0.700016 0.000000
164.68800354 100.60500336 360.00000000 0.302902 -0.754851 0.581764 0.000000
36.85549927 189.92199707 360.00000000 0.966452 0.001195 0.256844 0.000000
205.85899353 148.75000000 392.50000000 -0.000978 -0.000978 0.999999 0.000000
71.05470276 132.81199646 332.50000000 -0.804686 -0.441694 0.396721 0.000000
165.35200500 87.65619659 417.50000000 -0.000978 -0.000978 -0.999999 0.000000
201.21099854 159.37500000 432.50000000 -0.000978 -0.000978 -0.999999 0.000000
103.59400177 102.93000031 407.50000000 0.204303 0.256407 -0.944730 0.000000
98.28119659 168.67199707 447.50000000 -0.642901 0.149057 -0.751306 0.000000
204.53100586 72.38279724 402.50000000 0.356293 0.825017 -0.438637 0.000000
221.13299561 98.94529724 412.50000000 -0.092804 0.523985 -0.846657 0.000000
138.12500000 209.51199341 415.00000000 -0.905432 -0.340817 -0.253053 0.000000
137.46099854 211.83599854 412.50000000 -0.842217 -0.329699 -0.426578 0.000000
189.92199707 104.25800323 362.50000000 0.000978 0.000978 0.999999 0.000000
209.84399414 146.75799561 432.50000000 -0.000978 -0.000978 -0.999999 0.000000
164.02299500 119.53099823 427.50000000 -0.000978 -0.000978 -0.999999 0.000000
32.53910065 152.73399353 422.50000000 0.919957 0.305695 -0.245417 0.000000
240.39100647 95.62500000 407.50000000 -0.787854 0.451358 -0.419002 0.000000
119.53099823 221.13299561 427.50000000 -0.868046 -0.332215 -0.368958 0.000000
79.02339935 198.55499268 447.50000000 -0.000978 -0.000978 -0.999999 0.000000
30.87890053 158.71099854 385.00000000 0.984844 -0.130753 0.113959 0.000000
124.18000031 164.02299500 367.50000000 -0.870124 0.434311 0.232935 0.000000
53.12500000 229.43400574 405.00000000 0.740798 -0.669154 0.058748 0.000000
169.33599854 122.18800354 372.50000000 0.629166 0.662368 0.406717 0.000000
92.30470276 97.61720276 402.50000000 -0.000978 -0.000978 -0.999999 0.000000
195.23399353 98.28119659 362.50000000 -0.523224 -0.757941 0.389566 0.000000
231.75799561 100.93800354 412.50000000 -0.175917 0.705197 -0.686841 0.000000
80.01950073 122.85199738 345.00000000 -0.622032 0.625386 0.471135 0.000000
126.17199707 225.11700439 422.50000000 -0.725584 -0.061782 -0.685354 0.000000
102.26599884 222.46099854 437.50000000 -0.000978 -0.000978 -0.999999 0.000000
71.71880341 154.06199646 322.50000000 0.000978 0.000978 0.999999 0.000000
86.32810211 179.96099854 452.50000000 -0.000978 -0.000978 -0.999999 0.000000
170.00000000 146.75799561 377.50000000 -0.549978 -0.006790 0.835152 0.000000
62.42190170 193.24200439 452.50000000 -0.001336 -0.498295 -0.867007 0.000000
92.30470276 80.35160065 387.50000000 0.066099 0.989171 -0.131039 0.000000
140.11700439 193.24200439 422.50000000 -0.001380 0.686096 -0.727510 0.000000
114.21900177 193.24200439 442.50000000 -0.206759 -0.406187 -0.890092 0.000000
36.19139862 173.98399353 435.00000000 0.793175 -0.247770 -0.556313 0.000000
121.85500336 149.41400146 385.00000000 0.135388 0.496423 0.857458 0.000000
203.86700439 160.03900146 417.50000000 -0.139093 -0.976155 0.166661 0.000000
122.18800354 239.72700500 412.50000000 -0.442809 -0.711480 -0.545634 0.000000
103.59400177 244.37500000 417.50000000 -0.161856 -0.776003 -0.609608 0.000000
41.17190170 158.04699707 297.50000000 0.771134 -0.184767 0.609272 0.000000
37.85160065 143.43800354 352.50000000 0.970703 0.149634 0.188002 0.000000
204.53100586 74.37500000 407.50000000 -0.642399 0.568211 -0.514256 0.000000
130.15600586 81.34770203 390.00000000 -0.185125 0.967050 -0.174768 0.000000
226.44500732 97.61720276 412.50000000 0.080829 0.526096 -0.846575 0.000000
101.60199738 241.05499268 357.50000000 -0.394253 -0.710974 0.582306 0.000000
39.84379959 193.90600586 432.50000000 0.911334 -0.151183 -0.382902 0.000000
175.31199646 83.67189789 417.50000000 0.107086 0.176015 -0.978545 0.000000
98.94529724 73.04689789 377.50000000 0.662002 0.662002 -0.351433 0.000000
115.21499634 209.84399414 355.00000000 -0.798205 -0.100688 0.593911 0.000000
99.60939789 225.11700439 342.50000000 -0.456086 -0.033635 0.889300 0.000000
210.50799561 128.16400146 422.50000000 -0.216423 0.633699 -0.742689 0.000000
223.78900146 128.82800293 407.50000000 0.000978 0.000978 -0.999999 0.000000
104.25800323 123.51599884 362.50000000 -0.435095 0.084256 -0.896434 0.000000
57.77339935 164.68800354 452.50000000 -0.000978 -0.000978 -0.999999 0.000000
122.85199738 195.23399353 362.50000000 -0.911805 0.169274 0.374110 0.000000
191.25000000 92.30470276 417.50000000 -0.000978 -0.000978 -0.999999 0.000000
70.39060211 111.56199646 347.50000000 0.781408 -0.587212 -0.211150 0.000000
104.25800323 100.93800354 362.50000000 -0.000978 -0.000978 -0.999999 0.000000
53.45700073 217.81199646 340.00000000 0.576876 -0.721506 0.382940 0.000000
109.56999969 98.94529724 407.50000000 -0.000978 -0.000978 -0.999999 0.000000
52.46089935 140.11700439 437.50000000 0.812088 0.541904 -0.216455 0.000000
191.91400146 96.28910065 357.50000000 -0.606198 -0.656297 0.449221 0.000000
109.56999969 166.67999268 342.50000000 0.000978 0.000978 0.999999 0.000000
128.16400146 225.11700439 417.50000000 -0.635945 -0.639283 -0.432309 0.000000
56.11330032 159.37500000 300.00000000 -0.980101 0.160692 0.116533 0.000000
166.67999268 153.39799500 422.50000000 -0.000978 -0.000978 -0.999999 0.000000
104.25800323 233.08599854 427.50000000 -0.237341 -0.680586 -0.693161 0.000000
215.15600586 138.78900146 427.50000000 -0.000978 -0.000978 -0.999999 0.000000
34.19919968 177.30499268 365.00000000 0.970524 -0.107275 0.215812 0.000000
205.52699280 126.83599854 385.00000000 -0.705546 -0.021040 0.708352 0.000000
202.53900146 144.10200500 432.50000000 -0.000978 -0.000978 -0.999999 0.000000
84.33589935 85.00000000 357.50000000 -0.000978 -0.000978 -0.999999 0.000000
101.60199738 195.23399353 447.50000000 -0.000978 -0.000978 -0.999999 0.000000
217.14799500 94.29689789 412.50000000 -0.000978 -0.000978 -0.999999 0.000000
103.59400177 147.42199707 382.50000000 0.000978 0.000978 0.999999 0.000000
108.90599823 191.25000000 442.50000000 -0.933237 -0.164526 -0.319374 0.000000
118.20300293 122.85199738 367.50000000 0.139254 0.144183 -0.979704 0.000000
89.64839935 86.32810211 357.50000000 -0.000978 -0.000978 -0.999999 0.000000
142.10899353 93.63279724 382.50000000 -0.215514 -0.426568 0.878404 0.000000
126.83599854 243.04699707 402.50000000 -0.572636 -0.702101 -0.423252 0.000000
66.40619659 223.12500000 332.50000000 0.397654 -0.780701 0.482055 0.000000
207.85200500 98.94529724 377.50000000 -0.581306 -0.374983 0.722129 0.000000
193.24200439 159.04299927 415.00000000 0.443543 -0.888502 0.117617 0.000000
126.17199707 136.79699707 432.50000000 -0.000978 -0.000978 -0.999999 0.000000
241.71899414 102.93000031 412.50000000 -0.956375 0.038857 -0.289545 0.000000
207.85200500 81.01560211 362.50000000 -0.946588 -0.309385 0.090841 0.000000
83.00779724 207.85200500 447.50000000 0.042754 -0.856465 -0.514431 0.000000
238.39799500 114.21900177 407.50000000 0.268352 0.725661 -0.633564 0.000000
51.13280106 106.25000000 397.50000000 0.684610 0.655478 -0.318837 0.000000
73.71089935 245.37100220 420.00000000 0.448572 -0.799069 -0.400339 0.000000
67.73439789 166.01600647 457.50000000 0.331511 -0.129603 -0.934507 0.000000
231.09399414 126.17199707 427.50000000 -0.000978 -0.000978 -0.999999 0.000000
207.18800354 134.80499268 387.50000000 -0.442446 -0.064381 0.894481 0.000000
154.06199646 108.24199677 377.50000000 0.904015 -0.191761 0.382080 0.000000
140.11700439 118.86699677 427.50000000 -0.000978 -0.000978 -0.999999 0.000000
166.01600647 108.24199677 427.50000000 0.723300 0.603021 -0.336456 0.000000
147.42199707 159.70700073 400.00000000 -0.001289 -0.406019 0.913864 0.000000
78.35939789 162.03100586 327.50000000 -0.843950 0.396140 0.361693 0.000000
70.39060211 162.03100586 317.50000000 -0.585266 0.103626 0.804193 0.000000
83.67189789 92.30470276 357.50000000 0.296926 0.311698 -0.902596 0.000000
116.87500000 78.02729797 390.00000000 0.162822 0.728894 -0.664983 0.000000
127.50000000 179.96099854 437.50000000 -0.434578 -0.036103 -0.899910 0.000000
239.72700500 117.53900146 427.50000000 -0.000978 -0.000978 -0.999999 0.000000
76.36720276 129.49200439 442.50000000 0.528932 -0.263686 -0.806660 0.000000
97.61720276 189.25799561 447.50000000 -0.000978 -0.000978 -0.999999 0.000000
161.36700439 126.17199707 427.50000000 -0.000978 -0.000978 -0.999999 0.000000
96.95310211 171.32800293 337.50000000 -0.000978 -0.000978 0.999999 0.000000
54.45309830 189.92199707 447.50000000 0.515637 -0.774263 -0.366926 0.000000
120.19499969 201.87500000 437.50000000 -0.213630 -0.184439 -0.959346 0.000000
206.52299500 77.03119659 407.50000000 -0.239799 0.308724 -0.920427 0.000000
96.28910065 183.94500732 337.50000000 -0.381171 0.135434 0.914531 0.000000
53.78910065 202.53900146 312.50000000 0.227927 -0.948559 0.219738 0.000000
94.96089935 165.35200500 452.50000000 -0.948410 0.254451 -0.189138 0.000000
177.96899414 131.48399353 372.50000000 -0.151379 -0.306850 0.939642 0.000000
56.44530106 163.35899353 297.50000000 -0.853168 -0.141951 -0.501950 0.000000
162.03100586 103.59400177 367.50000000 0.588291 -0.277496 0.759546 0.000000
69.72660065 239.72700500 367.50000000 0.248155 -0.941326 0.228746 0.000000
223.12500000 109.56999969 417.50000000 -0.000978 -0.000978 -0.999999 0.000000
41.83589935 164.02299500 297.50000000 0.955740 -0.127871 0.264971 0.000000
79.68750000 166.01600647 327.50000000 -0.906403 0.267967 0.326539 0.000000
225.44900513 110.89800262 395.00000000 0.346605 0.584183 -0.733890 0.000000
177.30499268 118.20300293 427.50000000 -0.000978 -0.000978 -0.999999 0.000000
35.19530106 173.98399353 417.50000000 0.965363 -0.053562 -0.255354 0.000000
213.16400146 120.19499969 422.50000000 -0.000978 -0.000978 -0.999999 0.000000
133.47700500 187.26600647 432.50000000 -0.082256 -0.593107 -0.800911 0.000000
57.10940170 164.02299500 297.50000000 -0.853168 -0.141951 -0.501950 0.000000
94.96089935 90.31250000 397.50000000 -0.000978 -0.000978 -0.999999 0.000000
63.08589935 219.14100647 327.50000000 0.442690 -0.830240 0.338713 0.000000
68.39839935 228.77000427 340.00000000 0.000978 0.000978 0.999999 0.000000
199.21899414 158.71099854 402.50000000 -0.892607 0.446987 -0.058778 0.000000
110.23400116 84.33589935 397.50000000 0.000978 0.000978 -0.999999 0.000000
124.18000031 146.42599487 435.00000000 -0.802438 0.261222 -0.536523 0.000000
55.78120041 164.68800354 297.50000000 -0.540540 0.006774 0.841291 0.000000
128.16400146 135.46899414 432.50000000 0.050696 0.475450 -0.878281 0.000000
188.59399414 130.82000732 427.50000000 -0.000978 -0.000978 -0.999999 0.000000
134.80499268 104.25800323 417.50000000 0.199752 0.661194 -0.723133 0.000000
146.75799561 154.72700500 372.50000000 0.000978 0.000978 0.999999 0.000000
104.92199707 126.83599854 367.50000000 -0.000978 -0.000978 -0.999999 0.000000
87.65619659 191.91400146 327.50000000 -0.239278 -0.211932 0.947540 0.000000
57.77339935 225.11700439 432.50000000 0.073138 0.589407 -0.804519 0.000000
85.66410065 113.55500031 367.50000000 -0.000978 -0.000978 -0.999999 0.000000
113.55500031 142.77299500 382.50000000 -0.447460 -0.371025 0.813708 0.000000
102.93000031 175.31199646 447.50000000 -0.000978 -0.000978 -0.999999 0.000000
162.69500732 134.80499268 427.50000000 -0.000978 -0.000978 -0.999999 0.000000
46.81639862 116.21099854 340.00000000 0.929090 0.342731 0.139019 0.000000
166.01600647 158.71099854 387.50000000 -0.754146 -0.588330 0.291773 0.000000
94.96089935 226.44500732 337.50000000 -0.676251 -0.358593 0.643503 0.000000
78.35939789 86.99220276 387.50000000 0.052124 0.912845 -0.404966 0.000000
67.73439789 225.78100586 437.50000000 0.124363 -0.832502 -0.539883 0.000000
167.34399414 120.19499969 427.50000000 -0.000978 -0.000978 -0.999999 0.000000
42.50000000 124.84400177 417.50000000 0.647519 0.223121 -0.728654 0.000000
219.80499268 141.44500732 427.50000000 0.478320 -0.834350 -0.273989 0.000000
114.88300323 171.32800293 347.50000000 -0.000978 -0.000978 0.999999 0.000000
177.96899414 108.90599823 422.50000000 -0.312930 0.579321 -0.752636 0.000000
57.77339935 229.76600647 427.50000000 -0.000978 -0.000978 -0.999999 0.000000
164.02299500 133.47700500 372.50000000 -0.000978 -0.000978 0.999999 0.000000
204.86300659 92.30470276 370.00000000 -0.740930 -0.246977 0.624520 0.000000
158.71099854 169.33599854 422.50000000 -0.304155 -0.318991 -0.897627 0.000000
144.76600647 151.40600586 372.50000000 0.000978 0.000978 0.999999 0.000000
127.50000000 175.97700500 367.50000000 -0.840670 0.336581 -0.424249 0.000000
158.71099854 173.98399353 407.50000000 0.405024 -0.692674 -0.596790 0.000000
69.06250000 143.43800354 327.50000000 -0.763276 0.023809 0.645634 0.000000
126.17199707 144.10200500 432.50000000 -0.431902 -0.009189 -0.901874 0.000000
73.04689789 156.71899414 322.50000000 -0.712995 0.567418 0.411916 0.000000
195.23399353 124.18000031 422.50000000 -0.000978 -0.000978 -0.999999 0.000000
63.08589935 197.22700500 447.50000000 -0.000978 -0.000978 -0.999999 0.000000
197.22700500 69.39450073 390.00000000 0.261413 0.945739 -0.192980 0.000000
53.78910065 197.22700500 442.50000000 0.770392 -0.415328 -0.483735 0.000000
41.50389862 167.34399414 300.00000000 0.943366 -0.133610 0.303659 0.000000
88.32029724 167.34399414 452.50000000 -0.000978 -0.000978 -0.999999 0.000000
176.64100647 112.22699738 367.50000000 0.000978 0.000978 0.999999 0.000000
84.33589935 156.05499268 332.50000000 0.000978 0.000978 0.999999 0.000000
39.17969894 128.82800293 357.50000000 0.916883 0.331455 0.222405 0.000000
227.44099426 137.46099854 420.00000000 0.564394 0.713354 -0.415434 0.000000
56.44530106 167.34399414 297.50000000 -0.540540 0.006774 0.841291 0.000000
238.39799500 106.91400146 417.50000000 -0.000978 -0.000978 -0.999999 0.000000
116.21099854 181.95300293 352.50000000 -0.642952 -0.395027 0.656175 0.000000
188.59399414 85.66410065 347.50000000 0.000978 0.000978 0.999999 0.000000
130.15600586 196.56199646 372.50000000 -0.872715 0.460478 0.162264 0.000000
70.39060211 106.91400146 362.50000000 0.703654 -0.557267 -0.440823 0.000000
202.53900146 132.14799500 427.50000000 -0.000978 -0.000978 -0.999999 0.000000
161.36700439 96.28910065 422.50000000 -0.000978 -0.000978 -0.999999 0.000000
196.56199646 140.78100586 382.50000000 -0.000978 -0.000978 0.999999 0.000000
36.85549927 198.55499268 395.00000000 0.966936 -0.224124 -0.121667 0.000000
85.00000000 104.25800323 407.50000000 0.091401 0.878854 -0.468253 0.000000
61.75780106 96.95310211 392.50000000 0.567457 0.638178 -0.520309 0.000000
189.92199707 152.40199280 390.00000000 0.285931 -0.742782 0.605407 0.000000
197.89100647 116.21099854 377.50000000 -0.300264 -0.248544 0.920906 0.000000
47.14839935 185.27299500 447.50000000 0.622677 -0.629390 -0.464910 0.000000
103.59400177 178.63299561 447.50000000 -0.000978 -0.000978 -0.999999 0.000000
88.32029724 239.39500427 350.00000000 0.242925 -0.967962 -0.063534 0.000000
38.18360138 123.51599884 405.00000000 0.847558 0.282519 -0.449252 0.000000
217.14799500 134.14100647 427.50000000 -0.000978 -0.000978 -0.999999 0.000000
119.19899750 183.28100586 355.00000000 -0.697386 -0.454383 0.554247 0.000000
65.74220276 145.42999268 447.50000000 -0.000978 -0.000978 -0.999999 0.000000
79.68750000 135.46899414 442.50000000 -0.000978 -0.000978 -0.999999 0.000000
52.79299927 102.93000031 345.00000000 0.831679 0.553990 -0.037488 0.000000
71.05470276 235.74200439 357.50000000 0.419692 -0.735696 0.531610 0.000000
218.80900574 86.99220276 390.00000000 0.530714 -0.102116 -0.841377 0.000000
118.20300293 99.60939789 362.50000000 0.556351 -0.304479 -0.773153 0.000000
188.59399414 102.93000031 422.50000000 -0.249622 0.238465 -0.938522 0.000000
137.46099854 175.31199646 427.50000000 -0.941442 0.058596 -0.332044 0.000000
98.94529724 219.80499268 437.50000000 -0.000978 -0.000978 -0.999999 0.000000
110.23400116 237.73399353 357.50000000 0.235258 -0.783673 0.574901 0.000000
131.15199280 175.97700500 435.00000000 -0.627609 -0.142298 -0.765414 0.000000
187.92999268 152.73399353 427.50000000 0.321188 0.482574 -0.814838 0.000000
178.63299561 134.14100647 377.50000000 -0.409577 -0.638409 0.651675 0.000000
87.65619659 77.69529724 377.50000000 0.415975 0.836658 -0.356325 0.000000
143.43800354 184.60899353 422.50000000 -0.803159 0.591274 -0.073014 0.000000
63.75000000 112.22699738 417.50000000 0.199168 0.733371 -0.649999 0.000000
75.03910065 111.89499664 420.00000000 0.089064 0.731491 -0.676009 0.000000
124.84400177 201.87500000 367.50000000 -0.964052 0.133644 0.229660 0.000000
46.48440170 106.91400146 367.50000000 0.888502 0.443543 0.117617 0.000000
32.87110138 159.37500000 375.00000000 0.975120 0.025003 0.220265 0.000000
86.32810211 126.17199707 347.50000000 -0.714622 0.658081 0.237160 0.000000
92.30470276 182.61700439 452.50000000 -0.000978 -0.000978 -0.999999 0.000000
35.85940170 134.14100647 412.50000000 0.680355 0.680355 -0.272461 0.000000
189.25799561 140.78100586 382.50000000 0.000978 0.000978 0.999999 0.000000
205.19500732 110.23400116 382.50000000 0.000978 0.000978 0.999999 0.000000
63.08589935 146.75799561 317.50000000 -0.001195 0.966452 0.256844 0.000000
104.25800323 166.01600647 337.50000000 0.098865 -0.980106 0.172098 0.000000
103.59400177 77.69529724 387.50000000 0.006421 0.923324 -0.383969 0.000000
38.18360138 178.63299561 435.00000000 0.906477 -0.197436 -0.373255 0.000000
191.25000000 162.03100586 432.50000000 -0.000978 -0.000978 -0.999999 0.000000
140.11700439 176.64100647 422.50000000 -0.704094 0.704094 0.092220 0.000000
45.48830032 108.24199677 370.00000000 0.856776 0.508401 0.086386 0.000000
177.96899414 152.40199280 410.00000000 0.300656 -0.899005 -0.318428 0.000000
172.65600586 116.54299927 370.00000000 0.999999 0.000978 0.000978 0.000000
125.50800323 207.18800354 367.50000000 -0.825952 0.143323 0.545217 0.000000
98.28119659 214.49200439 442.50000000 -0.000978 -0.000978 -0.999999 0.000000
205.19500732 104.25800323 377.50000000 -0.960062 0.099228 0.261601 0.000000
75.03910065 207.85200500 447.50000000 -0.089601 -0.343695 -0.934797 0.000000
100.93800354 155.39100647 342.50000000 0.000978 0.000978 0.999999 0.000000
86.99220276 247.36300659 420.00000000 -0.009497 -0.842504 -0.538606 0.000000
108.90599823 227.10899353 352.50000000 -0.796064 -0.058388 0.602389 0.000000
51.46480179 109.56999969 335.00000000 0.842745 0.481787 0.240129 0.000000
41.17190170 127.50000000 352.50000000 0.914485 0.335551 0.226101 0.000000
135.13699341 205.85899353 380.00000000 -0.837345 0.136380 0.529390 0.000000
77.03119659 183.94500732 452.50000000 -0.000978 -0.000978 -0.999999 0.000000
83.00779724 87.65619659 357.50000000 -0.000978 -0.000978 -0.999999 0.000000
51.46480179 223.78900146 375.00000000 0.838865 -0.540976 0.060421 0.000000
179.96099854 87.65619659 342.50000000 -0.438514 -0.729753 0.524562 0.000000
164.68800354 81.01560211 352.50000000 0.886398 0.442483 0.136039 0.000000
219.14100647 134.80499268 402.50000000 -0.652702 -0.445707 0.612638 0.000000
194.57000732 92.96880341 357.50000000 0.000978 0.000978 0.999999 0.000000
208.18400574 85.00000000 370.00000000 -0.800615 -0.473309 0.367416 0.000000
116.21099854 205.85899353 437.50000000 -0.436949 -0.025234 -0.899132 0.000000
60.42969894 107.57800293 407.50000000 0.219921 0.712794 -0.666002 0.000000
129.49200439 97.61720276 367.50000000 -0.000978 -0.000978 -0.999999 0.000000
206.19099426 95.62500000 375.00000000 -0.764126 -0.340868 0.547650 0.000000
219.14100647 126.83599854 427.50000000 0.456441 0.603572 -0.653730 0.000000
77.03119659 104.92199707 367.50000000 -0.000978 -0.000978 -0.999999 0.000000
130.15600586 173.32000732 437.50000000 -0.572136 -0.356974 -0.738397 0.000000
97.61720276 197.22700500 447.50000000 -0.000978 -0.000978 -0.999999 0.000000
164.02299500 151.40600586 422.50000000 -0.000978 -0.000978 -0.999999 0.000000
75.37110138 184.60899353 320.00000000 -0.428195 -0.857924 0.283928 0.000000
175.97700500 113.55500031 427.50000000 -0.028827 0.164892 -0.985890 0.000000
170.00000000 148.75000000 422.50000000 -0.420363 -0.797240 -0.433248 0.000000
177.30499268 75.37110138 355.00000000 0.279702 0.959858 0.020947 0.000000
103.59400177 109.56999969 362.50000000 -0.000978 -0.000978 -0.999999 0.000000
145.42999268 115.54699707 392.50000000 -0.326818 -0.665018 0.671522 0.000000
201.87500000 147.42199707 432.50000000 -0.000978 -0.000978 -0.999999 0.000000
171.32800293 158.71099854 407.50000000 -0.886486 -0.456422 -0.076302 0.000000
30.87890053 162.03100586 390.00000000 0.990491 -0.079748 0.112109 0.000000
110.56600189 141.44500732 440.00000000 -0.712708 0.199435 -0.672512 0.000000
144.10200500 153.39799500 422.50000000 -0.000978 -0.000978 -0.999999 0.000000
48.47660065 220.46899414 412.50000000 0.928937 -0.308706 -0.204394 0.000000
176.64100647 120.85900116 372.50000000 0.000978 0.000978 0.999999 0.000000
171.32800293 148.75000000 422.50000000 0.013928 -0.938252 -0.345672 0.000000
63.75000000 216.48399353 442.50000000 -0.000978 -0.000978 -0.999999 0.000000
95.95700073 156.05499268 375.00000000 -0.713333 -0.050033 -0.699037 0.000000
51.79690170 172.65600586 297.50000000 -0.006557 -0.439318 0.898308 0.000000
53.12500000 172.65600586 297.50000000 -0.006557 -0.439318 0.898308 0.000000
113.55500031 153.39799500 357.50000000 -0.540454 0.540454 0.644841 0.000000
189.92199707 159.37500000 422.50000000 0.763128 -0.571146 0.302371 0.000000
212.50000000 77.69529724 407.50000000 -0.036663 0.471188 -0.881271 0.000000
115.54699707 121.52300262 367.50000000 -0.000978 -0.000978 -0.999999 0.000000
137.46099854 100.93800354 382.50000000 0.000978 0.000978 0.999999 0.000000
186.60200500 154.06199646 392.50000000 -0.265628 -0.927569 0.262788 0.000000
130.15600586 170.00000000 392.50000000 -0.601147 0.201407 -0.773342 0.000000
98.28119659 164.02299500 447.50000000 -0.636392 -0.110741 -0.763375 0.000000
43.82809830 173.32000732 297.50000000 0.821596 -0.163122 0.546234 0.000000
168.67199707 100.27300262 357.50000000 0.281615 -0.797648 0.533339 0.000000
133.47700500 134.80499268 432.50000000 -0.220605 0.372545 -0.901412 0.000000
148.08599854 82.34380341 402.50000000 0.680355 -0.680355 -0.272461 0.000000
133.47700500 197.22700500 427.50000000 -0.337848 -0.103643 -0.935477 0.000000
145.09800720 122.85199738 385.00000000 -0.154835 0.938604 -0.308300 0.000000
55.78120041 197.89100647 447.50000000 0.770392 -0.415328 -0.483735 0.000000
126.17199707 128.16400146 377.50000000 0.096853 0.920782 -0.377862 0.000000
101.60199738 145.42999268 442.50000000 -0.184846 0.127003 -0.974527 0.000000
53.78910065 133.47700500 437.50000000 0.576984 0.405046 -0.709244 0.000000
227.10899353 106.91400146 417.50000000 -0.000978 -0.000978 -0.999999 0.000000
106.58200073 249.02299500 410.00000000 0.133247 -0.714146 -0.687197 0.000000
227.10899353 130.15600586 412.50000000 0.483107 0.854038 -0.192944 0.000000
219.14100647 80.35160065 387.50000000 -0.911718 -0.242062 0.331929 0.000000
69.06250000 155.39100647 317.50000000 -0.982290 0.095685 0.161091 0.000000
87.65619659 186.60200500 452.50000000 -0.000978 -0.000978 -0.999999 0.000000
95.62500000 199.21899414 337.50000000 0.000978 0.000978 0.999999 0.000000
90.97660065 185.93800354 452.50000000 -0.000978 -0.000978 -0.999999 0.000000
82.34380341 247.03100586 377.50000000 0.242479 -0.885124 0.397190 0.000000
177.96899414 149.41400146 387.50000000 -0.184972 -0.834630 0.518824 0.000000
95.62500000 251.67999268 412.50000000 -0.001098 -0.991141 -0.132811 0.000000
98.94529724 140.78100586 347.50000000 -0.512862 0.855706 -0.068850 0.000000
126.83599854 144.76600647 382.50000000 0.675382 0.384753 0.629146 0.000000
89.64839935 77.69529724 382.50000000 0.492126 0.745595 -0.449332 0.000000
97.61720276 79.68750000 387.50000000 0.261648 0.797477 -0.543663 0.000000
35.85940170 127.50000000 382.50000000 0.933747 0.327703 0.143970 0.000000
204.53100586 151.40600586 432.50000000 -0.000978 -0.000978 -0.999999 0.000000
126.17199707 79.35549927 380.00000000 -0.246640 0.968155 -0.042947 0.000000
33.86719894 136.13299561 412.50000000 0.680355 0.680355 -0.272461 0.000000
49.14059830 122.85199738 422.50000000 0.708787 0.546115 -0.446519 0.000000
96.95310211 112.89099884 362.50000000 -0.000978 -0.000978 -0.999999 0.000000
119.53099823 195.89799500 437.50000000 -0.186104 0.031603 -0.982022 0.000000
40.83980179 140.11700439 430.00000000 0.648966 0.520859 -0.554571 0.000000
52.46089935 111.89499664 410.00000000 0.423215 0.592501 -0.685442 0.000000
57.77339935 105.91799927 405.00000000 0.265198 0.914425 -0.305774 0.000000
209.17999268 94.29689789 377.50000000 -0.672601 -0.254797 0.694757 0.000000
55.11719894 213.82800293 437.50000000 -0.000978 -0.000978 -0.999999 0.000000
55.11719894 173.98399353 297.50000000 0.108001 -0.684993 0.720500 0.000000
96.28910065 98.28119659 402.50000000 -0.000978 -0.000978 -0.999999 0.000000
89.64839935 201.87500000 447.50000000 -0.000978 -0.000978 -0.999999 0.000000
57.10940170 173.98399353 297.50000000 0.081215 -0.980639 0.178188 0.000000
114.55100250 183.94500732 350.00000000 -0.738825 0.079834 0.669152 0.000000
124.84400177 168.67199707 362.50000000 -0.868312 -0.291472 0.401346 0.000000
102.93000031 104.92199707 362.50000000 -0.000978 -0.000978 -0.999999 0.000000
218.47700500 101.60199738 417.50000000 -0.000978 -0.000978 -0.999999 0.000000
216.48399353 90.97660065 412.50000000 -0.000978 -0.000978 -0.999999 0.000000
84.33589935 227.10899353 332.50000000 0.000978 0.000978 0.999999 0.000000
104.25800323 150.07800293 442.50000000 -0.136918 0.030552 -0.990111 0.000000
105.58599854 221.79699707 347.50000000 -0.507777 0.139017 0.850198 0.000000
81.67970276 92.96880341 392.50000000 0.104079 0.991613 -0.076630 0.000000
173.98399353 141.44500732 427.50000000 -0.000978 -0.000978 -0.999999 0.000000
127.50000000 150.07800293 432.50000000 -0.200160 -0.156254 -0.967223 0.000000
142.77299500 96.95310211 417.50000000 -0.000978 -0.000978 -0.999999 0.000000
144.10200500 133.47700500 392.50000000 0.193687 -0.502985 -0.842313 0.000000
130.82000732 161.36700439 432.50000000 0.000978 0.000978 -0.999999 0.000000
102.26599884 135.46899414 372.50000000 0.126624 0.513775 -0.848529 0.000000
177.96899414 95.62500000 347.50000000 -0.139256 -0.756175 0.639380 0.000000
130.15600586 223.12500000 372.50000000 -0.768457 -0.333481 0.546136 0.000000
53.12500000 174.64799500 297.50000000 0.108001 -0.684993 0.720500 0.000000
200.54699707 114.21900177 422.50000000 -0.243082 0.199626 -0.949242 0.000000
68.39839935 164.68800354 317.50000000 -0.735681 0.192789 0.649312 0.000000
100.93800354 229.76600647 432.50000000 -0.363112 -0.565021 -0.740878 0.000000
104.25800323 146.09399414 442.50000000 -0.000978 -0.000978 -0.999999 0.000000
106.91400146 148.08599854 372.50000000 -0.000978 -0.000978 -0.999999 0.000000
88.32029724 118.20300293 367.50000000 0.146333 -0.156339 -0.976803 0.000000
121.52300262 135.46899414 387.50000000 -0.169073 -0.208392 0.963321 0.000000
96.28910065 214.49200439 442.50000000 -0.000978 -0.000978 -0.999999 0.000000
166.67999268 102.93000031 422.50000000 -0.000978 -0.000978 -0.999999 0.000000
94.96089935 245.70300293 422.50000000 0.000978 0.000978 -0.999999 0.000000
134.14100647 172.98800659 415.00000000 -0.809150 0.557144 0.186727 0.000000
207.85200500 124.84400177 422.50000000 -0.000978 -0.000978 -0.999999 0.000000
188.59399414 141.44500732 427.50000000 -0.000978 -0.000978 -0.999999 0.000000
38.84769821 120.85900116 375.00000000 0.958745 0.283294 0.023505 0.000000
94.29689789 155.39100647 377.50000000 -0.760471 0.649251 -0.012512 0.000000
146.09399414 160.37100220 390.00000000 0.313379 -0.937401 0.151900 0.000000
143.43800354 150.74200439 372.50000000 0.000978 0.000978 0.999999 0.000000
149.41400146 136.13299561 427.50000000 -0.000978 -0.000978 -0.999999 0.000000
96.28910065 118.20300293 362.50000000 -0.000978 -0.000978 -0.999999 0.000000
236.40600586 126.17199707 417.50000000 -0.000978 -0.000978 -0.999999 0.000000
114.88300323 235.74200439 362.50000000 -0.026606 -0.628734 0.777165 0.000000
164.68800354 173.65199280 410.00000000 0.171145 -0.917961 0.357849 0.000000
136.79699707 105.58599854 422.50000000 0.499730 0.473167 -0.725522 0.000000
67.07029724 195.23399353 307.50000000 0.000978 0.000978 0.999999 0.000000
124.84400177 155.05900574 375.00000000 -0.213778 0.795130 0.567510 0.000000
69.72660065 215.82000732 317.50000000 0.000978 0.000978 0.999999 0.000000
118.20300293 95.62500000 407.50000000 -0.000978 -0.000978 -0.999999 0.000000
150.07800293 161.03500366 410.00000000 0.523251 -0.820936 -0.228634 0.000000
209.51199341 144.76600647 395.00000000 -0.651701 -0.269285 0.709064 0.000000
217.81199646 122.18800354 392.50000000 -0.859475 -0.071506 0.506151 0.000000
171.99200439 144.10200500 427.50000000 -0.008251 -0.222785 -0.974833 0.000000
136.46499634 160.70300293 395.00000000 -0.315182 -0.948097 0.042109 0.000000
109.56999969 140.44900513 440.00000000 -0.658682 0.369585 -0.655397 0.000000
235.07800293 92.96880341 407.50000000 0.000978 0.000978 -0.999999 0.000000
187.26600647 122.85199738 372.50000000 0.000978 0.000978 0.999999 0.000000
83.00779724 183.94500732 452.50000000 -0.000978 -0.000978 -0.999999 0.000000
163.35899353 173.65199280 410.00000000 -0.152831 -0.977868 0.142890 0.000000
167.34399414 116.21099854 372.50000000 -0.000978 -0.000978 0.999999 0.000000
130.82000732 161.36700439 382.50000000 -0.948959 -0.305906 -0.076802 0.000000
213.82800293 101.60199738 387.50000000 -0.000978 -0.000978 0.999999 0.000000
105.58599854 148.75000000 372.50000000 -0.000978 -0.000978 -0.999999 0.000000
154.06199646 98.94529724 422.50000000 -0.000978 -0.000978 -0.999999 0.000000
82.34380341 240.05900574 355.00000000 0.256626 -0.914863 0.311720 0.000000
42.50000000 156.71899414 442.50000000 0.720129 0.490619 -0.490619 0.000000
196.56199646 81.01560211 412.50000000 -0.000978 -0.000978 -0.999999 0.000000
71.71880341 234.41400146 432.50000000 0.768453 -0.612624 -0.184857 0.000000
108.90599823 166.67999268 342.50000000 0.000978 0.000978 0.999999 0.000000
138.78900146 84.33589935 402.50000000 0.014725 0.876827 -0.480581 0.000000
211.17199707 95.62500000 412.50000000 -0.000978 -0.000978 -0.999999 0.000000
83.00779724 245.70300293 422.50000000 -0.165539 -0.152902 -0.974278 0.000000
58.43750000 220.46899414 337.50000000 0.612734 -0.763988 0.202187 0.000000
44.49219894 176.64100647 297.50000000 0.644911 -0.467351 0.604709 0.000000
193.90600586 101.60199738 417.50000000 -0.480619 -0.334688 -0.810549 0.000000
63.75000000 199.21899414 447.50000000 -0.000978 -0.000978 -0.999999 0.000000
64.41410065 205.85899353 447.50000000 -0.475296 -0.073873 -0.876719 0.000000
113.88700104 145.42999268 385.00000000 -0.622767 0.278732 0.731074 0.000000
100.60500336 94.96089935 360.00000000 -0.102800 0.548751 -0.829641 0.000000
162.69500732 121.52300262 427.50000000 -0.000978 -0.000978 -0.999999 0.000000
53.12500000 184.60899353 452.50000000 -0.000978 -0.000978 -0.999999 0.000000
127.50000000 152.73399353 432.50000000 -0.000978 -0.000978 -0.999999 0.000000
242.38299561 107.57800293 417.50000000 -0.000978 -0.000978 -0.999999 0.000000
84.33589935 115.54699707 427.50000000 -0.000978 -0.000978 -0.999999 0.000000
103.59400177 118.20300293 362.50000000 -0.000978 -0.000978 -0.999999 0.000000
110.23400116 164.68800354 342.50000000 -0.540551 0.267925 0.797509 0.000000
48.14450073 112.22699738 345.00000000 0.902354 0.406555 0.143073 0.000000
78.35939789 176.64100647 452.50000000 -0.000978 -0.000978 -0.999999 0.000000
