71.99220276 207.07000732 3.75000000 0.000000 0.000000 0.000000 0.000000
149.92199707 72.73439789 101.25000000 -0.067912 -0.971766 -0.225963 0.000000
77.55860138 111.32800293 117.50000000 -0.849764 -0.500991 0.164041 0.000000
146.95300293 86.46489716 150.00000000 -0.345588 -0.446582 0.825308 0.000000
97.96880341 112.81300354 33.75000000 -0.731655 -0.633680 -0.251259 0.000000
103.16400146 111.32800293 31.25000000 -0.251884 -0.853354 -0.456445 0.000000
202.61700439 142.50000000 156.25000000 0.902835 0.075350 -0.423333 0.000000
163.28100586 71.25000000 101.25000000 0.152476 -0.632550 -0.759362 0.000000
169.96099854 155.85899353 118.75000000 0.344012 0.458154 -0.819604 0.000000
139.53100586 138.04699707 116.25000000 -0.724556 0.687399 0.050019 0.000000
178.86700439 80.15630341 126.25000000 0.955437 0.089451 -0.281316 0.000000
108.35900116 221.17199707 93.75000000 0.705483 0.471990 -0.528695 0.000000
104.64900208 192.59800720 150.00000000 -0.032156 0.346003 0.937682 0.000000
136.19099426 167.73399353 152.50000000 0.639689 0.548546 0.538419 0.000000
76.44539642 136.56300354 23.75000000 -0.724864 -0.591294 -0.353473 0.000000
177.38299561 95.00009918 156.25000000 -0.000978 -0.000978 0.999999 0.000000
108.35900116 214.49200439 81.25000000 0.586321 0.732495 -0.345946 0.000000
169.96099854 126.91400146 161.25000000 0.293286 -0.735619 0.610612 0.000000
60.11719894 249.37500000 73.75000000 -0.691826 0.691826 -0.206770 0.000000
104.64900208 151.03500366 12.50000000 0.662404 0.416700 -0.622560 0.000000
114.29699707 127.65599823 53.75000000 0.992457 -0.121996 -0.012090 0.000000
139.53100586 76.81649780 97.50000000 -0.129915 -0.886561 -0.443995 0.000000
198.16400146 136.56300354 148.75000000 0.724705 0.041128 -0.687831 0.000000
127.28500366 90.54689789 140.00000000 -0.614594 -0.463876 0.638039 0.000000
133.22300720 192.96899414 147.50000000 0.732495 0.586321 0.345946 0.000000
136.19099426 190.00000000 132.50000000 0.907832 -0.395505 -0.139342 0.000000
184.06300354 159.94200134 150.00000000 0.121759 0.814169 -0.567718 0.000000
132.85200500 178.86700439 96.25000000 0.151684 -0.905849 -0.395512 0.000000
107.61699677 110.58599854 151.25000000 -0.260906 -0.489392 0.832120 0.000000
117.26599884 137.67599487 67.50000000 0.922675 -0.271206 -0.274076 0.000000
152.89100647 117.26599884 161.25000000 0.881974 -0.375404 0.284945 0.000000
93.88680267 172.18800354 150.00000000 -0.443130 0.327259 0.834588 0.000000
109.10199738 174.41400146 33.75000000 0.866056 0.256328 -0.429236 0.000000
105.39099884 85.35160065 113.75000000 -0.505481 -0.846422 0.167506 0.000000
43.78910065 190.00000000 103.75000000 -0.864160 -0.432839 0.256666 0.000000
165.50799561 70.87899780 102.50000000 0.307087 -0.612566 -0.728327 0.000000
197.42199707 132.10899353 146.25000000 0.815194 0.032050 -0.578300 0.000000
141.75799561 162.53900146 153.75000000 0.150728 0.376116 0.914231 0.000000
152.14900208 179.60899353 156.25000000 0.000978 0.000978 0.999999 0.000000
149.92199707 100.56600189 90.00000000 0.453112 0.633688 -0.627000 0.000000
126.17199707 126.17199707 161.25000000 -0.616516 -0.521927 0.589491 0.000000
201.13299561 115.78099823 148.75000000 0.569295 0.204087 -0.796399 0.000000
128.02699280 199.64900208 87.50000000 0.723713 0.596860 -0.346407 0.000000
120.60600281 149.92199707 57.50000000 0.954378 -0.293557 -0.054645 0.000000
149.55099487 190.00000000 147.50000000 -0.876063 0.399581 0.269906 0.000000
130.99600220 192.22700500 80.00000000 0.740087 0.502732 -0.446690 0.000000
92.03130341 189.25799561 148.75000000 -0.225752 0.429078 0.874602 0.000000
200.39100647 127.65599823 161.25000000 0.000978 0.000978 0.999999 0.000000
107.61699677 241.21099854 131.25000000 -0.000978 -0.000978 0.999999 0.000000
59.37500000 146.21099854 71.25000000 -0.886229 -0.443828 -0.132720 0.000000
139.53100586 166.99200439 151.25000000 0.368443 0.767725 0.524260 0.000000
112.06999969 170.70300293 36.25000000 0.869933 0.216364 -0.443174 0.000000
137.30499268 92.03130341 146.25000000 -0.559085 -0.301046 0.772525 0.000000
162.53900146 66.05470276 111.25000000 -0.446689 -0.894688 -0.001310 0.000000
103.16400146 123.20300293 6.25000000 -0.513672 -0.822183 -0.245267 0.000000
172.92999268 174.78500366 130.00000000 0.790221 0.418542 -0.447630 0.000000
48.61330032 233.78900146 95.00000000 -0.901220 0.425156 -0.083930 0.000000
120.97699738 91.66020203 62.50000000 -0.157883 -0.851389 -0.500210 0.000000
165.50799561 189.25799561 146.25000000 0.784159 0.493131 0.376719 0.000000
123.94499969 190.74200439 151.25000000 -0.745961 0.001379 0.665988 0.000000
113.92600250 169.96099854 40.00000000 0.898280 0.190105 -0.396172 0.000000
144.72700500 141.75799561 116.25000000 0.859562 0.173096 0.480822 0.000000
46.01570129 185.91799927 107.50000000 -0.953983 -0.234806 0.186503 0.000000
201.87500000 152.14900208 163.75000000 0.586239 0.292321 0.755561 0.000000
170.70300293 145.46899414 118.75000000 0.351430 0.658726 -0.665264 0.000000
69.76570129 130.99600220 45.00000000 -0.818396 -0.533870 -0.212630 0.000000
173.67199707 61.97269821 115.00000000 -0.279229 -0.891443 -0.356876 0.000000
55.66410065 155.11700439 46.25000000 -0.879992 -0.418405 -0.224837 0.000000
139.53100586 184.80499268 93.75000000 0.908830 0.203083 -0.364396 0.000000
113.55500031 209.29699707 78.75000000 0.557999 0.769047 -0.311776 0.000000
145.46899414 181.46499634 107.50000000 0.724845 0.601605 -0.335666 0.000000
70.13680267 135.07800293 35.00000000 -0.598970 -0.598970 -0.531480 0.000000
151.77699280 69.76570129 137.50000000 -0.616579 -0.669761 0.413823 0.000000
183.32000732 97.22660065 156.25000000 0.019082 -0.347293 0.937563 0.000000
197.79299927 81.64070129 147.50000000 0.853402 -0.503288 -0.135669 0.000000
48.24219894 198.90600586 43.75000000 -0.990606 0.060696 -0.122537 0.000000
82.38289642 239.72700500 131.25000000 -0.332589 0.366308 0.869024 0.000000
120.23400116 101.68000031 43.75000000 -0.171095 -0.898609 -0.404015 0.000000
204.84399414 129.14100647 153.75000000 0.686566 0.220514 -0.692821 0.000000
50.83990097 230.07800293 62.50000000 -0.921478 0.372162 -0.111237 0.000000
147.69500732 173.67199707 108.75000000 0.576361 -0.309854 -0.756173 0.000000
154.37500000 78.67189789 88.75000000 -0.258107 -0.625474 -0.736317 0.000000
117.26599884 102.05100250 42.50000000 -0.179278 -0.904994 -0.385806 0.000000
93.51570129 118.75000000 28.75000000 -0.240949 -0.725997 -0.644106 0.000000
67.53910065 257.91000366 105.00000000 -0.618194 0.749658 0.236322 0.000000
63.82820129 139.53100586 123.75000000 -0.687867 -0.240832 0.684719 0.000000
77.18750000 229.33599854 136.25000000 -0.860313 0.001338 0.509765 0.000000
116.15200043 188.51600647 52.50000000 0.733360 0.455246 -0.504909 0.000000
146.95300293 127.65599823 98.75000000 0.197271 0.507482 -0.838776 0.000000
106.87500000 214.49200439 78.75000000 0.577821 0.737332 -0.349948 0.000000
185.54699707 138.04699707 163.75000000 0.000978 0.000978 0.999999 0.000000
114.29699707 233.78900146 136.25000000 0.999999 0.000978 0.000978 0.000000
130.62500000 116.15200043 157.50000000 -0.722599 0.674122 0.153003 0.000000
124.31600189 155.85899353 97.50000000 0.610576 0.546305 -0.573366 0.000000
161.42599487 174.41400146 117.50000000 0.594710 0.198237 -0.779116 0.000000
189.62899780 137.30499268 135.00000000 0.867201 0.042604 -0.496132 0.000000
169.96099854 165.50799561 156.25000000 0.180327 0.850967 0.493293 0.000000
116.89499664 172.92999268 47.50000000 0.887327 0.200932 -0.415064 0.000000
174.41400146 148.43800354 163.75000000 0.000978 0.000978 0.999999 0.000000
96.48439789 164.76600647 11.25000000 0.759446 0.271118 -0.591385 0.000000
181.09399414 85.35160065 156.25000000 0.141301 -0.493826 0.858004 0.000000
49.72660065 230.82000732 78.75000000 -0.866282 0.494019 0.074173 0.000000
74.21880341 156.60200500 138.75000000 -0.585884 0.242165 0.773367 0.000000
201.87500000 108.35900116 156.25000000 0.235052 -0.251742 0.938817 0.000000
96.48439789 192.22700500 31.25000000 0.715529 0.463185 -0.522951 0.000000
145.46899414 160.31300354 113.75000000 -0.004086 -0.570621 -0.821204 0.000000
192.96899414 113.55500031 158.75000000 0.000978 0.000978 0.999999 0.000000
96.48439789 126.54299927 7.50000000 -0.523339 -0.831009 -0.188523 0.000000
137.67599487 132.10899353 87.50000000 0.633675 0.424113 -0.646981 0.000000
97.22660065 126.91400146 6.25000000 -0.523339 -0.831009 -0.188523 0.000000
122.83200073 169.96099854 92.50000000 0.756927 -0.584826 -0.291616 0.000000
205.21499634 97.22660065 152.50000000 0.472079 -0.766108 0.436142 0.000000
69.02349854 235.27400208 128.75000000 -0.256323 0.930409 0.261987 0.000000
80.89849854 240.46899414 131.25000000 -0.320612 0.518403 0.792758 0.000000
177.38299561 164.02400208 126.25000000 0.394460 0.403965 -0.825356 0.000000
135.07800293 119.49199677 76.25000000 0.691818 0.461767 -0.555121 0.000000
100.93800354 169.21899414 153.75000000 -0.230552 -0.195498 0.953219 0.000000
96.48439789 240.46899414 96.25000000 0.760982 0.149183 -0.631389 0.000000
132.10899353 177.38299561 76.25000000 0.853843 -0.074799 -0.515128 0.000000
88.69149780 102.42199707 62.50000000 -0.633968 -0.695899 -0.337356 0.000000
127.65599823 140.64500427 85.00000000 0.495042 0.498376 -0.711727 0.000000
97.96880341 118.00800323 23.75000000 -0.479515 -0.761005 -0.436964 0.000000
165.50799561 141.01600647 111.25000000 0.332259 0.607791 -0.721245 0.000000
60.11719894 246.40600586 63.75000000 -0.691826 0.691826 -0.206770 0.000000
153.63299561 152.89100647 118.75000000 -0.445098 -0.313911 -0.838658 0.000000
56.40629959 207.81300354 131.25000000 -0.597312 0.549933 0.583775 0.000000
79.41410065 219.31700134 32.50000000 0.865386 0.436469 -0.246174 0.000000
177.38299561 95.00009918 123.75000000 -0.000978 -0.000978 -0.999999 0.000000
56.77740097 152.89100647 97.50000000 -0.991746 -0.128215 -0.001096 0.000000
67.16799927 155.11700439 130.00000000 -0.924159 0.365556 0.110899 0.000000
106.87500000 184.06300354 36.25000000 0.724851 0.452825 -0.519173 0.000000
129.88299561 167.73399353 156.25000000 0.000978 0.000978 0.999999 0.000000
108.35900116 155.11700439 158.75000000 -0.650798 0.223175 0.725710 0.000000
194.82400513 129.88299561 142.50000000 0.820889 -0.034843 -0.570023 0.000000
54.55080032 158.82800293 80.00000000 -0.857638 -0.508387 0.077455 0.000000
168.47700500 77.55860138 90.00000000 0.058537 -0.783829 -0.618211 0.000000
92.03130341 129.88299561 6.25000000 -0.499469 -0.844448 -0.193488 0.000000
121.71900177 132.85200500 78.75000000 0.235267 0.587388 -0.774355 0.000000
141.01600647 170.33200073 107.50000000 0.473784 -0.355737 -0.805593 0.000000
84.60939789 106.87500000 126.25000000 -0.578386 -0.743639 0.335367 0.000000
69.76570129 226.73800659 22.50000000 0.046966 0.681717 -0.730107 0.000000
53.43750000 164.02400208 41.25000000 -0.898005 -0.353580 -0.261856 0.000000
71.99220276 236.01600647 131.25000000 -0.332572 0.910581 0.245436 0.000000
70.87899780 122.46099854 85.00000000 -0.860205 -0.468251 0.201961 0.000000
179.23800659 158.08599854 127.50000000 0.865207 0.131442 -0.483880 0.000000
106.13300323 112.44100189 27.50000000 -0.301927 -0.830691 -0.467753 0.000000
56.77740097 192.22700500 17.50000000 -0.902348 -0.173584 -0.394508 0.000000
139.53100586 108.35900116 71.25000000 0.560008 0.001356 -0.828486 0.000000
110.58599854 130.62500000 6.25000000 0.620326 0.569619 -0.539194 0.000000
74.58989716 138.04699707 135.00000000 -0.706734 -0.219977 0.672411 0.000000
112.06999969 130.62500000 6.25000000 0.693161 0.237341 -0.680586 0.000000
119.49199677 141.75799561 78.75000000 0.968064 -0.161129 -0.192066 0.000000
89.06259918 134.33599854 148.75000000 -0.769776 -0.032367 0.637493 0.000000
110.58599854 147.69500732 161.25000000 -0.535117 -0.043087 0.843678 0.000000
167.73399353 120.23400116 111.25000000 -0.000978 -0.000978 -0.999999 0.000000
71.99220276 146.95300293 133.75000000 -0.612566 -0.307087 0.728327 0.000000
135.07800293 106.50399780 152.50000000 -0.442322 -0.461909 0.768760 0.000000
170.70300293 135.82000732 113.75000000 0.748548 -0.001379 -0.663079 0.000000
77.92970276 210.03900146 16.25000000 0.849732 0.311104 -0.425640 0.000000
104.64900208 152.89100647 13.75000000 0.650499 0.482412 -0.586626 0.000000
111.69899750 131.36700439 7.50000000 0.693161 0.237341 -0.680586 0.000000
173.67199707 75.70320129 153.75000000 -0.117431 -0.084876 0.989447 0.000000
153.63299561 67.91020203 115.00000000 -0.158465 -0.946724 -0.280360 0.000000
104.64900208 242.69500732 131.25000000 -0.000978 -0.000978 0.999999 0.000000
63.08599854 210.03900146 13.75000000 -0.826751 0.275584 -0.490445 0.000000
112.06999969 126.91400146 158.75000000 -0.329113 -0.371974 0.867940 0.000000
149.92199707 70.13680267 107.50000000 0.001110 -0.989041 -0.147635 0.000000
86.46489716 210.78100586 37.50000000 0.804448 0.528458 -0.271286 0.000000
126.91400146 105.39099884 148.75000000 0.568377 -0.728898 0.381648 0.000000
125.05899811 74.96099854 115.00000000 -0.367925 -0.923232 0.110788 0.000000
109.10199738 204.84399414 146.25000000 0.081102 0.427503 0.900369 0.000000
79.78520203 233.04699707 62.50000000 0.802412 0.475681 -0.360365 0.000000
169.58999634 135.07800293 112.50000000 0.504061 0.071608 -0.860694 0.000000
144.72700500 183.32000732 151.25000000 -0.539786 0.760240 -0.361479 0.000000
143.98399353 182.20700073 107.50000000 0.506408 0.818044 -0.272681 0.000000
164.76600647 113.55500031 161.25000000 0.000978 0.000978 0.999999 0.000000
123.94499969 202.98800659 85.00000000 0.691826 0.691826 -0.206770 0.000000
80.89849854 146.95300293 143.75000000 -0.714964 0.123887 0.688097 0.000000
124.68800354 134.70700073 80.00000000 0.275096 0.542333 -0.793850 0.000000
74.96099854 177.38299561 136.25000000 0.000978 0.000978 0.999999 0.000000
97.22660065 202.61700439 146.25000000 0.000978 0.000978 0.999999 0.000000
164.76600647 153.63299561 163.75000000 0.000978 0.000978 0.999999 0.000000
97.96880341 166.25000000 151.25000000 -0.444542 -0.011872 0.895679 0.000000
124.31600189 155.11700439 67.50000000 0.910288 -0.166152 -0.379168 0.000000
48.61330032 204.84399414 45.00000000 -0.985424 0.055203 -0.160910 0.000000
110.58599854 152.14900208 161.25000000 -0.440483 0.219495 0.870515 0.000000
178.12500000 77.92970276 123.75000000 0.958392 -0.001215 -0.285453 0.000000
176.27000427 167.73399353 127.50000000 0.634513 0.384004 -0.670771 0.000000
83.12509918 127.65599823 26.25000000 -0.613431 -0.692371 -0.379900 0.000000
89.06259918 147.69500732 148.75000000 -0.432909 -0.186371 0.881961 0.000000
178.86700439 161.79699707 151.25000000 0.151390 0.883830 -0.442636 0.000000
170.70300293 118.00800323 161.25000000 0.000978 0.000978 0.999999 0.000000
126.91400146 206.32800293 138.75000000 0.819334 0.504085 0.273111 0.000000
52.69530106 238.98500061 88.75000000 -0.918546 0.395143 -0.011660 0.000000
43.04690170 190.00000000 81.25000000 -0.978355 -0.147559 -0.145079 0.000000
106.13300323 189.25799561 151.25000000 0.037008 0.206531 0.977740 0.000000
105.39099884 249.00399780 112.50000000 0.559938 0.559938 -0.610687 0.000000
117.26599884 93.88680267 135.00000000 -0.340362 -0.640012 0.688868 0.000000
147.69500732 178.12500000 106.25000000 0.705088 0.041142 -0.707925 0.000000
49.72660065 224.88299561 121.25000000 -0.481211 0.281874 0.830050 0.000000
112.06999969 190.74200439 151.25000000 0.000978 0.000978 0.999999 0.000000
60.85940170 141.38699341 115.00000000 -0.942640 -0.281283 0.179747 0.000000
76.07430267 186.28900146 140.00000000 -0.717837 -0.545424 0.432692 0.000000
146.95300293 164.76600647 153.75000000 -0.450510 0.272151 0.850279 0.000000
83.86720276 214.12100220 37.50000000 0.785474 0.558804 -0.266022 0.000000
171.44500732 109.10199738 116.25000000 0.537325 -0.189199 -0.821880 0.000000
82.38289642 201.13299561 143.75000000 -0.317612 -0.029104 0.947774 0.000000
112.81300354 115.41000366 17.50000000 -0.256321 -0.893418 -0.368924 0.000000
45.64459991 226.36700439 90.00000000 -0.918338 0.393950 -0.038209 0.000000
127.65599823 132.10899353 163.75000000 -0.212718 -0.199340 0.956564 0.000000
131.36700439 128.39900208 163.75000000 -0.054571 -0.209797 0.976221 0.000000
151.77699280 180.35200500 127.50000000 -0.423961 0.905071 -0.033226 0.000000
169.21899414 90.17579651 87.50000000 0.559546 0.808234 0.183483 0.000000
145.46899414 126.17199707 98.75000000 0.493240 0.687192 -0.533368 0.000000
58.63290024 169.96099854 118.75000000 -0.722202 -0.254430 0.643187 0.000000
165.87899780 98.71099854 107.50000000 0.449710 -0.855212 -0.257631 0.000000
146.95300293 171.44500732 108.75000000 0.577820 -0.245848 -0.778256 0.000000
144.72700500 182.57800293 108.75000000 0.564397 0.825310 -0.017852 0.000000
69.02349854 126.91400146 93.75000000 -0.855873 -0.514633 -0.051325 0.000000
99.82430267 251.60200500 107.50000000 0.723076 0.575510 -0.382033 0.000000
135.44900513 191.48399353 127.50000000 0.894688 0.446689 -0.001310 0.000000
61.60160065 222.65600586 131.25000000 -0.491147 0.365542 0.790666 0.000000
167.73399353 164.76600647 158.75000000 -0.249836 0.768364 0.589236 0.000000
166.99200439 143.98399353 163.75000000 -0.000978 -0.000978 0.999999 0.000000
106.50399780 223.39900208 92.50000000 0.685156 0.602207 -0.409766 0.000000
147.69500732 115.78099823 158.75000000 0.000978 0.000978 0.999999 0.000000
80.15630341 118.75000000 133.75000000 -0.865993 0.220625 0.448755 0.000000
152.14900208 158.82800293 158.75000000 -0.393344 0.514122 0.762206 0.000000
121.71900177 119.12100220 157.50000000 0.074917 -0.265385 0.961227 0.000000
93.51570129 103.16400146 56.25000000 -0.375247 -0.824909 -0.422746 0.000000
155.11700439 107.61699677 98.75000000 0.613768 0.178191 -0.769114 0.000000
81.26959991 138.78900146 7.50000000 -0.689048 -0.669863 -0.276578 0.000000
128.39900208 132.10899353 78.75000000 0.320410 0.584467 -0.745477 0.000000
187.03100586 107.61699677 133.75000000 0.773515 -0.158322 -0.613685 0.000000
83.86720276 105.39099884 121.25000000 -0.734865 -0.613188 0.289783 0.000000
86.83599854 233.41799927 77.50000000 0.760062 0.553506 -0.340495 0.000000
51.58209991 188.51600647 32.50000000 -0.173780 -0.932849 0.315584 0.000000
118.00800323 210.03900146 88.75000000 0.654560 0.690116 -0.308694 0.000000
89.80470276 167.73399353 148.75000000 -0.411704 0.260897 0.873174 0.000000
109.47299957 149.92199707 17.50000000 0.862474 0.385884 -0.327463 0.000000
59.37500000 156.60200500 121.25000000 -0.611233 0.141973 0.778613 0.000000
77.18750000 116.15200043 57.50000000 -0.737911 -0.554660 -0.384499 0.000000
166.25000000 61.97269821 127.50000000 -0.408837 -0.905582 -0.113023 0.000000
44.16019821 206.32800293 65.00000000 -0.690339 -0.693442 0.206326 0.000000
128.39900208 132.48100281 165.00000000 -0.256550 -0.201673 0.945257 0.000000
150.66400146 141.75799561 166.25000000 0.000978 0.000978 0.999999 0.000000
109.84400177 82.38289642 113.75000000 -0.264974 -0.791786 0.550330 0.000000
171.44500732 146.95300293 163.75000000 0.000978 0.000978 0.999999 0.000000
159.57000732 141.75799561 111.25000000 0.385458 0.479000 -0.788657 0.000000
122.83200073 150.66400146 72.50000000 0.874128 -0.461062 -0.152718 0.000000
106.13300323 140.27400208 6.25000000 0.640508 0.479120 -0.600161 0.000000
206.32800293 115.78099823 151.25000000 0.799535 -0.581344 0.150940 0.000000
172.92999268 162.53900146 151.25000000 0.379489 0.492528 -0.783201 0.000000
44.90240097 204.84399414 62.50000000 -0.982721 0.019678 -0.184043 0.000000
47.50000000 210.03900146 123.75000000 -0.797029 0.043731 0.602356 0.000000
161.79699707 123.94499969 161.25000000 -0.108656 -0.069769 0.991628 0.000000
125.43000031 97.96880341 48.75000000 -0.090892 -0.921131 -0.378491 0.000000
128.39900208 205.58599854 136.25000000 0.819334 0.504085 0.273111 0.000000
190.74200439 123.20300293 136.25000000 0.812015 -0.043476 -0.582015 0.000000
60.11719894 247.89100647 68.75000000 -0.691826 0.691826 -0.206770 0.000000
116.89499664 148.43800354 30.00000000 0.918999 0.363390 -0.152933 0.000000
187.03100586 109.84400177 131.25000000 0.666137 -0.199377 -0.718686 0.000000
109.10199738 209.29699707 146.25000000 -0.082321 0.156291 0.984275 0.000000
92.03130341 180.35200500 148.75000000 0.000978 0.000978 0.999999 0.000000
171.44500732 112.06999969 116.25000000 0.569131 -0.160678 -0.806394 0.000000
119.49199677 169.21899414 156.25000000 0.000978 0.000978 0.999999 0.000000
164.02400208 181.83599854 123.75000000 0.432179 0.538154 -0.723610 0.000000
107.98799896 99.45320129 140.00000000 -0.200952 -0.783865 0.587515 0.000000
89.80470276 96.11329651 85.00000000 -0.599409 -0.792861 -0.109916 0.000000
192.22700500 149.92199707 146.25000000 0.563093 0.469522 -0.680055 0.000000
132.85200500 179.98100281 152.50000000 0.972103 -0.191379 -0.135613 0.000000
86.46489716 187.77400208 12.50000000 0.642644 0.464784 -0.609085 0.000000
196.67999268 132.85200500 161.25000000 0.164591 -0.250232 0.954093 0.000000
152.14900208 161.79699707 111.25000000 0.040939 -0.394864 -0.917827 0.000000
114.29699707 239.72700500 121.25000000 0.886229 0.443828 -0.132720 0.000000
48.98440170 203.36000061 123.75000000 -0.489063 -0.485748 0.724477 0.000000
89.06259918 118.75000000 143.75000000 -0.625387 -0.428598 0.652070 0.000000
99.45320129 180.35200500 23.75000000 -0.058822 0.710173 -0.701565 0.000000
164.76600647 101.68000031 158.75000000 0.120894 -0.288286 0.949882 0.000000
112.81300354 145.46899414 18.75000000 0.679959 0.430585 -0.593509 0.000000
97.96880341 218.57400513 75.00000000 0.638537 0.693779 -0.333079 0.000000
134.33599854 166.99200439 106.25000000 0.130118 -0.080884 -0.988194 0.000000
132.85200500 181.83599854 141.25000000 0.941008 -0.259158 -0.217582 0.000000
124.31600189 170.70300293 62.50000000 0.836749 0.060471 -0.544238 0.000000
132.10899353 174.41400146 101.25000000 0.378137 -0.571297 -0.728445 0.000000
116.15200043 169.96099854 45.00000000 0.884121 0.121015 -0.451315 0.000000
135.44900513 182.57800293 82.50000000 0.978774 -0.089202 -0.184513 0.000000
118.37899780 141.01600647 40.00000000 0.999999 0.000978 0.000978 0.000000
76.07430267 135.82000732 135.00000000 -0.709482 -0.258715 0.655517 0.000000
97.96880341 186.28900146 26.25000000 0.647885 0.550281 -0.526722 0.000000
92.77349854 225.62500000 141.25000000 -0.158026 0.397201 0.904024 0.000000
123.94499969 169.96099854 96.25000000 0.730765 -0.636065 -0.247797 0.000000
104.64900208 222.65600586 88.75000000 0.570613 0.697046 -0.434198 0.000000
57.89070129 227.85200500 33.75000000 -0.725642 0.489850 -0.483208 0.000000
77.92970276 247.52000427 122.50000000 -0.422889 0.445573 0.789069 0.000000
132.10899353 164.02400208 156.25000000 0.000978 0.000978 0.999999 0.000000
86.09380341 230.82000732 136.25000000 0.000978 0.000978 0.999999 0.000000
206.69900513 100.19499969 152.50000000 0.833292 -0.426885 -0.351274 0.000000
106.87500000 197.42199707 48.75000000 0.591494 0.618456 -0.517346 0.000000
64.19930267 134.33599854 65.00000000 -0.917112 -0.398576 0.006449 0.000000
173.67199707 101.68000031 118.75000000 0.680775 -0.120663 -0.722486 0.000000
47.12889862 175.15600586 62.50000000 -0.954342 -0.272481 -0.122419 0.000000
103.53500366 146.21099854 7.50000000 0.727589 0.410816 -0.549404 0.000000
122.46099854 95.00009918 138.75000000 -0.403597 -0.551857 0.729769 0.000000
195.93800354 134.33599854 161.25000000 0.399092 -0.149127 0.904703 0.000000
172.18800354 168.47700500 153.75000000 0.857792 -0.031466 0.513033 0.000000
101.68000031 146.95300293 6.25000000 0.758902 0.386795 -0.523887 0.000000
118.75000000 136.93400574 25.00000000 0.913331 0.303476 -0.271531 0.000000
101.68000031 120.23400116 151.25000000 -0.334616 -0.103476 0.936656 0.000000
178.12500000 163.28100586 126.25000000 0.394460 0.403965 -0.825356 0.000000
74.21880341 147.32400513 7.50000000 -0.818044 -0.506408 -0.272681 0.000000
118.00800323 140.27400208 48.75000000 0.926838 -0.371528 0.054209 0.000000
192.22700500 105.76200104 157.50000000 0.387941 -0.609151 0.691691 0.000000
118.00800323 117.63700104 47.50000000 0.707106 0.707106 0.001384 0.000000
130.99600220 196.67999268 100.00000000 0.787410 0.613065 0.064308 0.000000
139.53100586 86.09380341 76.25000000 -0.060722 -0.908131 -0.414259 0.000000
185.54699707 86.09380341 156.25000000 0.331166 -0.415124 0.847350 0.000000
93.51570129 214.49200439 143.75000000 -0.156955 0.179924 0.971078 0.000000
90.91799927 98.71099854 67.50000000 -0.521208 -0.818157 -0.242818 0.000000
190.00000000 155.85899353 146.25000000 -0.000978 -0.000978 -0.999999 0.000000
138.04699707 116.52400208 111.25000000 -0.901927 0.183271 0.391075 0.000000
161.42599487 159.57000732 160.00000000 -0.183813 0.578782 0.794496 0.000000
149.92199707 83.12509918 81.25000000 0.077488 -0.860824 -0.502969 0.000000
123.20300293 161.05499268 163.75000000 -0.055453 0.604296 0.794828 0.000000
75.70320129 119.49199677 126.25000000 -0.830752 -0.345227 0.436657 0.000000
117.63700104 225.62500000 137.50000000 0.691103 0.451299 0.564540 0.000000
136.56300354 72.36329651 110.00000000 -0.173708 -0.976016 -0.131219 0.000000
200.39100647 130.62500000 151.25000000 0.741915 0.104724 -0.662266 0.000000
66.05470276 143.98399353 28.75000000 -0.504045 -0.863499 -0.017567 0.000000
127.65599823 97.96880341 143.75000000 -0.798189 -0.508228 0.323418 0.000000
152.89100647 148.43800354 123.75000000 0.864418 -0.048253 0.500453 0.000000
140.27400208 115.03900146 156.25000000 -0.252878 -0.368226 0.894686 0.000000
60.85940170 169.96099854 121.25000000 -0.712814 -0.265122 0.649312 0.000000
60.48830032 198.16400146 130.00000000 -0.571384 -0.128451 0.810568 0.000000
53.43750000 158.82800293 51.25000000 -0.923232 -0.367925 -0.110788 0.000000
164.76600647 69.39459991 147.50000000 -0.209971 -0.657910 0.723234 0.000000
140.27400208 183.32000732 96.25000000 0.973185 -0.124961 -0.193122 0.000000
105.39099884 222.65600586 88.75000000 -0.001147 0.981019 -0.193909 0.000000
201.13299561 109.10199738 156.25000000 0.230098 -0.105515 0.967430 0.000000
51.58209991 238.98500061 105.00000000 -0.484064 0.874569 0.028474 0.000000
75.70320129 203.36000061 141.25000000 -0.496178 0.095255 0.862980 0.000000
82.01180267 220.42999268 140.00000000 -0.336999 0.506297 0.793785 0.000000
84.98049927 119.49199677 140.00000000 -0.671514 -0.234322 0.702967 0.000000
139.53100586 135.82000732 166.25000000 0.223235 -0.484436 0.845865 0.000000
42.67580032 195.93800354 85.00000000 -0.970363 0.099428 -0.220251 0.000000
71.99220276 151.03500366 7.50000000 -0.714640 -0.429447 -0.552146 0.000000
83.12509918 115.78099823 46.25000000 -0.673635 -0.573342 -0.466363 0.000000
143.24200439 182.57800293 113.75000000 0.455037 0.886418 0.084885 0.000000
121.71900177 211.52400208 141.25000000 0.591950 0.716572 0.368944 0.000000
56.40629959 246.77699280 87.50000000 -0.886229 0.443828 0.132720 0.000000
80.15630341 105.39099884 106.25000000 -0.691826 -0.691826 0.206770 0.000000
81.64070129 162.53900146 143.75000000 -0.626455 0.018057 0.779249 0.000000
93.51570129 106.87500000 138.75000000 -0.545037 -0.729461 0.413306 0.000000
67.53910065 156.60200500 131.25000000 -0.799110 0.363523 0.478826 0.000000
80.89849854 109.47299957 62.50000000 -0.691826 -0.691826 -0.206770 0.000000
86.83599854 131.36700439 146.25000000 -0.700287 -0.082986 0.709022 0.000000
68.65239716 125.43000031 110.00000000 -0.868593 -0.495380 -0.012082 0.000000
133.59399414 184.06300354 153.75000000 -0.183199 -0.228665 0.956112 0.000000
66.05470276 248.26199341 115.00000000 -0.663221 0.398594 0.633451 0.000000
95.00009918 115.03900146 146.25000000 -0.492619 -0.613672 0.617035 0.000000
150.66400146 175.89900208 156.25000000 0.000978 0.000978 0.999999 0.000000
181.83599854 151.77699280 135.00000000 0.531610 0.735696 -0.419692 0.000000
67.53910065 250.86000061 61.25000000 0.553917 0.715959 -0.424946 0.000000
131.73800659 95.74220276 80.00000000 0.668762 -0.445285 0.595381 0.000000
92.03130341 233.78900146 136.25000000 -0.079049 0.294167 0.952479 0.000000
135.82000732 176.27000427 140.00000000 0.705447 0.683930 0.185968 0.000000
143.24200439 141.75799561 116.25000000 -0.170744 0.282752 -0.943874 0.000000
140.64500427 82.38289642 142.50000000 -0.485444 -0.626542 0.609745 0.000000
71.25000000 246.03500366 57.50000000 0.700985 0.592126 -0.397500 0.000000
82.38289642 189.25799561 143.75000000 0.000978 0.000978 0.999999 0.000000
46.38669968 202.61700439 52.50000000 -0.969208 0.071100 -0.235753 0.000000
178.86700439 76.44539642 126.25000000 0.958392 -0.001215 -0.285453 0.000000
56.40629959 241.21099854 116.25000000 -0.486534 0.486534 0.725650 0.000000
175.15600586 161.79699707 151.25000000 0.157006 0.888740 -0.430686 0.000000
181.46499634 81.64070129 132.50000000 0.862323 -0.160125 -0.480374 0.000000
159.57000732 118.75000000 161.25000000 0.000978 0.000978 0.999999 0.000000
43.41799927 217.46099854 97.50000000 -0.895196 0.357781 0.265738 0.000000
126.91400146 100.19499969 146.25000000 -0.519858 -0.503143 0.690358 0.000000
88.32039642 220.42999268 61.25000000 0.725997 0.644106 -0.240949 0.000000
82.38289642 214.12100220 32.50000000 0.796364 0.541905 -0.268596 0.000000
103.90599823 85.35160065 101.25000000 -0.385370 -0.914036 -0.126602 0.000000
120.97699738 163.28100586 161.25000000 -0.126062 0.618445 0.775651 0.000000
115.78099823 96.48439789 136.25000000 -0.272450 -0.686700 0.673954 0.000000
146.95300293 84.60939789 78.75000000 0.001338 -0.860313 -0.509765 0.000000
95.74220276 115.78099823 31.25000000 -0.492601 -0.743021 -0.453061 0.000000
94.25789642 254.94200134 120.00000000 0.278529 0.736907 0.615946 0.000000
112.06999969 142.50000000 16.25000000 0.682179 0.455342 -0.572097 0.000000
195.19500732 139.53100586 143.75000000 0.735619 -0.293286 -0.610612 0.000000
70.50789642 155.11700439 6.25000000 -0.882130 -0.380203 -0.278014 0.000000
100.19499969 106.13300323 143.75000000 -0.412130 -0.447686 0.793553 0.000000
113.55500031 223.39900208 106.25000000 0.834883 0.440154 -0.330507 0.000000
168.47700500 185.54699707 131.25000000 0.862318 0.474792 -0.176013 0.000000
97.96880341 172.18800354 16.25000000 0.746103 0.004153 -0.665817 0.000000
90.54689789 179.98100281 12.50000000 0.686750 0.280143 -0.670742 0.000000
60.11719894 249.37500000 101.25000000 -0.818987 0.454641 0.350089 0.000000
119.49199677 164.76600647 51.25000000 0.691803 0.262408 -0.672719 0.000000
94.25789642 155.85899353 6.25000000 0.679599 0.352081 -0.643572 0.000000
154.37500000 181.46499634 127.50000000 -0.314656 0.943968 -0.099575 0.000000
139.53100586 113.92600250 77.50000000 0.867668 0.497143 0.001333 0.000000
112.81300354 145.46899414 161.25000000 -0.383360 -0.179476 0.905993 0.000000
203.36000061 126.91400146 161.25000000 0.000978 0.000978 0.999999 0.000000
64.94139862 254.57000732 107.50000000 -0.698426 0.669919 0.251813 0.000000
118.00800323 81.26959991 95.00000000 -0.001215 -0.958392 -0.285453 0.000000
191.11300659 126.17199707 137.50000000 0.697613 0.049931 -0.714733 0.000000
106.13300323 215.97700500 143.75000000 0.000978 0.000978 0.999999 0.000000
102.42199707 116.52400208 151.25000000 -0.320110 -0.311176 0.894818 0.000000
86.09380341 129.14100647 146.25000000 -0.628124 -0.149123 0.763690 0.000000
64.57039642 132.85200500 93.75000000 -0.747586 -0.661821 0.055747 0.000000
158.08599854 135.07800293 163.75000000 0.000978 0.000978 0.999999 0.000000
134.33599854 157.34399414 161.25000000 0.233869 0.682772 0.692190 0.000000
135.07800293 135.44900513 87.50000000 0.603935 0.546417 -0.580251 0.000000
205.58599854 112.06999969 156.25000000 0.087675 -0.157335 0.983646 0.000000
104.64900208 100.93800354 51.25000000 -0.333607 -0.865532 -0.373578 0.000000
138.78900146 119.49199677 158.75000000 0.030912 -0.275733 0.960737 0.000000
123.94499969 184.06300354 153.75000000 0.089094 0.336431 0.937484 0.000000
118.00800323 86.09380341 76.25000000 -0.148671 -0.959128 -0.240769 0.000000
177.38299561 79.78520203 100.00000000 0.286367 0.859102 0.424191 0.000000
116.52400208 198.16400146 148.75000000 0.078922 0.236765 0.968356 0.000000
81.64070129 211.15199280 27.50000000 0.832946 0.294256 -0.468630 0.000000
89.06259918 125.43000031 146.25000000 -0.576994 -0.334560 0.745082 0.000000
141.01600647 184.43400574 110.00000000 0.466833 0.884174 0.017389 0.000000
115.03900146 237.50000000 118.75000000 0.823167 0.506922 -0.255786 0.000000
95.00009918 158.08599854 6.25000000 0.679599 0.352081 -0.643572 0.000000
61.60160065 225.99600220 130.00000000 -0.692124 0.369900 0.619788 0.000000
177.38299561 113.92600250 120.00000000 0.821711 -0.106168 -0.559927 0.000000
126.91400146 82.01180267 132.50000000 -0.476603 -0.747062 0.463409 0.000000
96.48439789 231.56300354 88.75000000 0.658429 0.523712 -0.540552 0.000000
131.36700439 136.19099426 85.00000000 0.441989 0.608777 -0.658814 0.000000
163.28100586 187.03100586 128.75000000 0.240461 0.724525 -0.645943 0.000000
116.52400208 198.16400146 63.75000000 0.463409 0.747062 -0.476603 0.000000
164.76600647 66.05470276 143.75000000 -0.439338 -0.711230 0.548758 0.000000
158.08599854 92.77349854 156.25000000 -0.127103 -0.884009 0.449859 0.000000
181.83599854 99.45320129 156.25000000 0.203934 -0.368816 0.906855 0.000000
141.01600647 182.57800293 118.75000000 0.532376 0.745326 0.401329 0.000000
48.24219894 232.30499268 91.25000000 -0.901425 0.425252 -0.081197 0.000000
138.78900146 137.30499268 113.75000000 0.645754 0.162578 -0.746036 0.000000
166.25000000 91.66020203 90.00000000 0.446689 0.894688 -0.001310 0.000000
129.51199341 158.08599854 162.50000000 0.315254 0.683858 0.657991 0.000000
47.12889862 230.07800293 92.50000000 -0.904330 0.418544 -0.083709 0.000000
113.55500031 81.64070129 98.75000000 -0.311577 -0.937477 -0.155102 0.000000
192.22700500 139.90199280 140.00000000 0.755678 0.330307 -0.565550 0.000000
76.44539642 141.75799561 13.75000000 -0.725040 -0.549973 -0.414544 0.000000
192.22700500 112.06999969 158.75000000 0.000978 0.000978 0.999999 0.000000
133.59399414 185.54699707 131.25000000 0.623411 -0.148717 -0.767621 0.000000
171.44500732 68.65239716 105.00000000 -0.001379 -0.745961 -0.665988 0.000000
129.14100647 178.49600220 72.50000000 0.841383 -0.083996 -0.533872 0.000000
118.00800323 82.75399780 90.00000000 0.001215 -0.958392 -0.285453 0.000000
129.14100647 181.83599854 71.25000000 0.843918 -0.031664 -0.535537 0.000000
126.17199707 132.85200500 78.75000000 0.146086 0.667179 -0.730432 0.000000
103.90599823 90.54689789 121.25000000 -0.340595 -0.815843 0.467328 0.000000
125.43000031 157.34399414 83.75000000 0.620561 -0.265048 0.738007 0.000000
124.68800354 134.33599854 163.75000000 -0.206531 -0.037008 0.977740 0.000000
63.08599854 160.31300354 18.75000000 -0.859102 -0.286367 -0.424191 0.000000
95.74220276 242.69500732 133.75000000 -0.240552 0.541631 0.805463 0.000000
85.35160065 99.82430267 95.00000000 -0.705724 -0.708486 -0.001381 0.000000
201.87500000 115.03900146 156.25000000 0.089480 -0.417115 0.904438 0.000000
195.93800354 124.68800354 143.75000000 0.817077 0.140875 -0.559053 0.000000
180.72300720 105.39099884 127.50000000 0.378790 0.057151 -0.923716 0.000000
137.67599487 189.25799561 97.50000000 0.780192 0.605139 -0.158453 0.000000
166.99200439 158.82800293 163.75000000 -0.591614 0.474296 0.651948 0.000000
74.21880341 204.84399414 138.75000000 -0.354028 -0.008882 0.935193 0.000000
193.71099854 113.55500031 141.25000000 0.677491 0.175872 -0.714195 0.000000
122.83200073 169.21899414 60.00000000 0.875929 0.097325 -0.472522 0.000000
196.67999268 123.94499969 161.25000000 0.000978 0.000978 0.999999 0.000000
126.91400146 160.31300354 73.75000000 0.971350 -0.219337 -0.091495 0.000000
49.35549927 173.67199707 45.00000000 -0.958658 -0.229388 -0.168395 0.000000
87.57820129 132.85200500 146.25000000 -0.717644 -0.047082 0.694817 0.000000
186.28900146 142.12899780 130.00000000 0.551920 0.153229 -0.819698 0.000000
95.74220276 240.09800720 135.00000000 -0.169477 0.421520 0.890841 0.000000
77.18750000 109.10199738 103.75000000 -0.814097 -0.579503 0.037703 0.000000
165.50799561 132.85200500 163.75000000 -0.000978 -0.000978 0.999999 0.000000
154.37500000 159.94200134 112.50000000 0.152727 -0.715247 -0.681980 0.000000
171.44500732 133.59399414 113.75000000 0.659288 -0.046990 -0.750421 0.000000
74.21880341 260.87899780 82.50000000 0.216065 0.738352 -0.638868 0.000000
68.28130341 145.46899414 23.75000000 -0.716296 -0.530159 -0.453709 0.000000
100.19499969 87.57820129 111.25000000 -0.485522 -0.866493 0.116010 0.000000
77.18750000 184.80499268 141.25000000 -0.534093 -0.111450 0.838048 0.000000
81.26959991 245.66400146 77.50000000 0.853258 0.287494 -0.435085 0.000000
139.53100586 106.50399780 155.00000000 -0.412234 -0.292701 0.862780 0.000000
92.03130341 188.51600647 21.25000000 0.713331 0.428660 -0.554445 0.000000
89.06259918 242.69500732 88.75000000 0.816511 0.246348 -0.522133 0.000000
183.32000732 149.92199707 163.75000000 0.000978 0.000978 0.999999 0.000000
63.45709991 155.85899353 22.50000000 -0.840687 -0.408602 -0.355374 0.000000
206.32800293 134.33599854 156.25000000 0.738067 0.061865 -0.671885 0.000000
43.78910065 185.91799927 95.00000000 -0.957480 -0.272643 0.094327 0.000000
87.20709991 129.88299561 17.50000000 -0.589187 -0.757526 -0.281094 0.000000
149.17999268 175.15600586 108.75000000 0.686089 -0.223487 -0.692340 0.000000
57.51959991 153.63299561 107.50000000 -0.973394 -0.163287 -0.160756 0.000000
56.40629959 238.98500061 56.25000000 -0.830933 0.497943 -0.248201 0.000000
119.86299896 184.80499268 57.50000000 0.840916 0.220493 -0.494209 0.000000
147.32400513 139.53100586 110.00000000 -0.406306 0.882563 -0.236640 0.000000
165.13699341 162.53900146 157.50000000 -0.347762 0.504816 0.790077 0.000000
140.27400208 154.74600220 162.50000000 0.213511 0.551442 0.806427 0.000000
76.44539642 252.34399414 73.75000000 0.692007 0.340305 -0.636647 0.000000
116.52400208 146.21099854 163.75000000 -0.502845 0.071435 0.861420 0.000000
45.27349854 181.83599854 68.75000000 -0.974941 -0.220764 -0.027446 0.000000
83.12509918 257.53900146 88.75000000 0.463319 0.834599 -0.297960 0.000000
201.50399780 126.17199707 150.00000000 0.608035 0.350476 -0.712362 0.000000
123.57399750 160.31300354 100.00000000 0.776992 0.148786 -0.611675 0.000000
82.38289642 138.04699707 143.75000000 -0.606538 -0.281778 0.743447 0.000000
141.75799561 174.41400146 136.25000000 -0.092677 0.991991 0.085812 0.000000
162.53900146 97.96880341 103.75000000 0.559938 0.559938 -0.610687 0.000000
109.10199738 221.91400146 141.25000000 -0.064935 0.364430 0.928964 0.000000
168.47700500 164.76600647 121.25000000 -0.012508 0.646265 -0.763010 0.000000
49.35549927 170.70300293 50.00000000 -0.947123 -0.293380 -0.129945 0.000000
56.40629959 226.36700439 36.25000000 -0.801968 0.583384 -0.128492 0.000000
77.55860138 138.04699707 137.50000000 -0.765053 -0.215705 0.606766 0.000000
197.05099487 117.26599884 145.00000000 0.666287 0.126699 -0.734853 0.000000
91.66020203 168.47700500 7.50000000 0.785663 0.445479 -0.429280 0.000000
77.92970276 204.10200500 141.25000000 -0.508304 0.104525 0.854811 0.000000
194.45300293 135.82000732 163.75000000 0.126596 -0.330783 0.935177 0.000000
139.53100586 70.87899780 120.00000000 -0.315627 -0.944239 -0.093764 0.000000
143.98399353 156.97300720 157.50000000 0.114354 0.705432 0.699492 0.000000
193.71099854 99.45320129 141.25000000 0.600561 -0.145273 -0.786271 0.000000
158.08599854 74.96099854 93.75000000 0.745076 -0.373353 -0.552693 0.000000
135.44900513 168.47700500 155.00000000 0.457144 0.540262 0.706496 0.000000
100.93800354 252.34399414 121.25000000 0.153990 0.890837 0.427429 0.000000
105.39099884 198.16400146 148.75000000 -0.000978 -0.000978 0.999999 0.000000
90.54689789 169.96099854 6.25000000 0.852694 0.254740 -0.456092 0.000000
151.40600586 145.46899414 126.25000000 0.701523 -0.666684 -0.251788 0.000000
85.35160065 129.14100647 143.75000000 -0.713678 -0.101534 0.693077 0.000000
197.42199707 118.00800323 146.25000000 0.715971 0.055958 -0.695884 0.000000
127.65599823 174.41400146 68.75000000 0.958392 0.001215 -0.285453 0.000000
200.39100647 124.68800354 161.25000000 0.000978 0.000978 0.999999 0.000000
185.54699707 110.58599854 131.25000000 0.666137 -0.199377 -0.718686 0.000000
82.38289642 220.80099487 140.00000000 -0.260965 -0.621572 0.738611 0.000000
195.93800354 79.04299927 150.00000000 0.403449 -0.863656 0.302203 0.000000
86.09380341 209.29699707 33.75000000 0.871161 0.370739 -0.321918 0.000000
65.31250000 247.89100647 113.75000000 -0.663730 0.402210 0.630626 0.000000
152.89100647 118.00800323 98.75000000 0.440002 0.120258 -0.889908 0.000000
100.56600189 221.17199707 82.50000000 0.617727 0.604262 -0.503271 0.000000
70.50789642 132.10899353 41.25000000 -0.832078 -0.463653 -0.304419 0.000000
90.54689789 230.07800293 78.75000000 0.732301 0.541409 -0.413051 0.000000
61.23049927 244.17999268 55.00000000 -0.611999 0.691179 -0.384355 0.000000
123.20300293 132.10899353 163.75000000 -0.210565 -0.232300 0.949578 0.000000
170.70300293 106.87500000 161.25000000 0.344858 -0.678276 0.648857 0.000000
99.45320129 108.73100281 145.00000000 -0.440957 -0.450720 0.776150 0.000000
131.73800659 190.00000000 80.00000000 0.787878 0.393130 -0.474021 0.000000
113.55500031 241.58200073 122.50000000 0.835545 0.547233 0.048985 0.000000
153.26199341 98.71099854 80.00000000 0.362607 0.899912 -0.242228 0.000000
176.64100647 141.75799561 118.75000000 0.672495 0.315991 -0.669254 0.000000
124.68800354 164.76600647 101.25000000 0.823588 -0.115157 -0.555375 0.000000
104.64900208 91.28910065 71.25000000 -0.313799 -0.903094 -0.293174 0.000000
53.06639862 186.28900146 27.50000000 -0.937289 -0.034810 -0.346810 0.000000
74.21880341 243.43800354 123.75000000 -0.387347 0.618106 0.684038 0.000000
156.60200500 152.89100647 116.25000000 -0.505882 -0.116742 -0.854666 0.000000
46.01570129 206.32800293 56.25000000 -0.929691 0.213025 -0.300492 0.000000
172.92999268 131.36700439 163.75000000 0.144060 -0.423621 0.894311 0.000000
123.20300293 164.02400208 58.75000000 0.969720 0.142191 -0.198556 0.000000
113.55500031 203.73100281 67.50000000 0.622127 0.678234 -0.391098 0.000000
95.00009918 118.75000000 148.75000000 -0.408919 -0.523876 0.747221 0.000000
136.56300354 178.86700439 131.25000000 0.761347 0.456808 0.460083 0.000000
169.58999634 131.36700439 112.50000000 0.613339 -0.009648 -0.789761 0.000000
60.48830032 227.11000061 30.00000000 -0.702355 0.398276 -0.589978 0.000000
118.00800323 230.44900513 120.00000000 0.897482 0.364003 -0.249055 0.000000
56.77740097 160.31300354 110.00000000 -0.942620 -0.260842 0.208398 0.000000
43.41799927 213.00799561 77.50000000 -0.972571 0.188935 -0.135678 0.000000
94.62899780 91.28910065 100.00000000 -0.540755 -0.834926 -0.102383 0.000000
80.52739716 175.15600586 142.50000000 -0.560008 0.001356 0.828486 0.000000
116.52400208 126.17199707 43.75000000 0.958392 -0.001215 0.285453 0.000000
120.23400116 115.41000366 52.50000000 0.707106 0.707106 0.001384 0.000000
139.53100586 184.43400574 117.50000000 0.532376 0.745326 0.401329 0.000000
183.32000732 162.53900146 158.75000000 0.001379 0.765161 0.643838 0.000000
50.83990097 178.86700439 112.50000000 -0.793348 -0.333621 0.509211 0.000000
52.69530106 159.57000732 68.75000000 -0.893537 -0.448754 0.014561 0.000000
141.01600647 131.73800659 92.50000000 0.774318 -0.269671 -0.572459 0.000000
129.88299561 178.12500000 91.25000000 0.193555 -0.910424 0.365603 0.000000
155.85899353 141.01600647 108.75000000 0.132101 0.601134 -0.788154 0.000000
87.57820129 176.64100647 6.25000000 0.794894 0.417601 -0.440174 0.000000
93.88680267 239.72700500 92.50000000 0.707533 0.369362 -0.602470 0.000000
135.07800293 182.57800293 153.75000000 -0.183199 -0.228665 0.956112 0.000000
163.28100586 62.71490097 130.00000000 -0.422087 -0.883882 -0.201484 0.000000
183.32000732 108.35900116 128.75000000 0.358175 0.286240 -0.888694 0.000000
87.94930267 177.38299561 7.50000000 0.794894 0.417601 -0.440174 0.000000
129.88299561 173.67199707 101.25000000 0.423430 -0.576197 -0.699074 0.000000
132.10899353 173.67199707 101.25000000 0.378137 -0.571297 -0.728445 0.000000
66.79689789 243.06700134 47.50000000 -0.152933 0.918999 -0.363390 0.000000
155.11700439 171.44500732 156.25000000 0.000978 0.000978 0.999999 0.000000
108.35900116 227.11000061 141.25000000 -0.067203 0.105930 0.992100 0.000000
86.83599854 178.86700439 6.25000000 0.858021 0.303465 -0.414377 0.000000
97.22660065 226.36700439 83.75000000 0.627949 0.634647 -0.450449 0.000000
125.80100250 175.89900208 90.00000000 0.679793 -0.726777 -0.098372 0.000000
126.17199707 163.28100586 156.25000000 0.000978 0.000978 0.999999 0.000000
61.60160065 179.23800659 7.50000000 -0.886480 -0.120561 -0.446786 0.000000
132.10899353 94.62899780 145.00000000 -0.284622 -0.377990 0.880973 0.000000
138.78900146 132.85200500 88.75000000 0.706239 0.405219 -0.580538 0.000000
93.14459991 230.82000732 85.00000000 0.664623 0.526650 -0.530015 0.000000
83.12509918 238.98500061 76.25000000 0.742916 0.495826 -0.449703 0.000000
124.31600189 95.00009918 55.00000000 -0.199420 -0.850157 -0.487303 0.000000
113.55500031 87.20709991 77.50000000 -0.250422 -0.935934 -0.247624 0.000000
161.79699707 179.23800659 120.00000000 0.533982 0.428178 -0.729059 0.000000
141.01600647 77.92970276 93.75000000 -0.060033 -0.921846 -0.382879 0.000000
79.41410065 242.32400513 127.50000000 -0.396861 0.713033 0.578001 0.000000
63.08599854 236.01600647 126.25000000 -0.489667 0.644475 0.587263 0.000000
45.27349854 225.62500000 106.25000000 -0.980566 0.195178 -0.019868 0.000000
177.01199341 59.37500000 145.00000000 -0.185936 -0.742207 0.643861 0.000000
190.00000000 113.55500031 158.75000000 0.205460 -0.318817 0.925279 0.000000
66.05470276 194.82400513 132.50000000 -0.211862 -0.519748 0.827633 0.000000
156.60200500 159.57000732 113.75000000 0.417104 -0.385385 -0.823106 0.000000
100.19499969 142.50000000 156.25000000 -0.495626 0.017556 0.868359 0.000000
95.74220276 231.56300354 88.75000000 0.658429 0.523712 -0.540552 0.000000
170.33200073 166.99200439 122.50000000 -0.049174 0.563396 -0.824722 0.000000
200.39100647 106.13300323 146.25000000 -0.000978 -0.000978 -0.999999 0.000000
111.32800293 89.80470276 68.75000000 -0.228803 -0.890118 -0.394132 0.000000
95.00009918 235.27400208 91.25000000 0.673635 0.466363 -0.573342 0.000000
116.52400208 199.64900208 66.25000000 0.534077 0.655381 -0.534077 0.000000
80.15630341 191.48399353 143.75000000 -0.331350 0.034542 0.942876 0.000000
142.50000000 77.55860138 95.00000000 -0.129915 -0.886561 -0.443995 0.000000
103.90599823 177.75399780 152.50000000 -0.186046 0.347949 0.918868 0.000000
70.50789642 164.76600647 133.75000000 -0.762647 0.004137 0.646802 0.000000
161.79699707 140.27400208 163.75000000 0.000978 0.000978 0.999999 0.000000
100.93800354 115.03900146 26.25000000 -0.448421 -0.822370 -0.350181 0.000000
122.08999634 126.17199707 72.50000000 0.135792 0.610318 -0.780431 0.000000
203.36000061 145.46899414 163.75000000 0.000978 0.000978 0.999999 0.000000
128.39900208 200.02000427 105.00000000 0.804402 0.594083 0.001366 0.000000
115.03900146 86.83599854 76.25000000 -0.250422 -0.935934 -0.247624 0.000000
66.05470276 187.77400208 131.25000000 -0.560008 -0.001356 0.828486 0.000000
112.06999969 217.46099854 143.75000000 0.000978 0.000978 0.999999 0.000000
144.72700500 184.06300354 156.25000000 -0.757878 0.264229 0.596493 0.000000
76.44539642 247.14900208 121.25000000 -0.331700 0.487233 0.807824 0.000000
50.46879959 166.25000000 53.75000000 -0.916445 -0.365731 -0.162390 0.000000
112.81300354 241.95300293 126.25000000 0.737010 0.675708 0.015325 0.000000
97.96880341 156.60200500 153.75000000 -0.418227 0.044094 0.907272 0.000000
83.86720276 207.07000732 143.75000000 -0.710938 0.319031 0.626727 0.000000
132.85200500 141.01600647 91.25000000 0.567068 0.570454 -0.594152 0.000000
60.11719894 144.35600281 65.00000000 0.000978 0.000978 -0.999999 0.000000
79.78520203 106.13300323 107.50000000 -0.691826 -0.691826 0.206770 0.000000
152.14900208 115.03900146 158.75000000 -0.208235 -0.346100 0.914797 0.000000
181.83599854 83.86720276 156.25000000 0.106762 -0.586461 0.802911 0.000000
53.06639862 238.24200439 72.50000000 -0.900054 0.425757 -0.092918 0.000000
151.40600586 147.69500732 166.25000000 0.095523 0.416703 0.904010 0.000000
197.79299927 152.14900208 152.50000000 0.820647 0.012330 -0.571302 0.000000
41.93360138 206.32800293 95.00000000 -0.989570 0.124131 -0.073087 0.000000
84.60939789 185.91799927 7.50000000 -0.001069 0.995047 -0.099398 0.000000
181.83599854 158.08599854 146.25000000 0.269793 0.818736 -0.506837 0.000000
