270.43399048 163.50700378 92.50000000 0.746024 0.560737 -0.359197 0.000000
264.67999268 152.95799255 110.00000000 0.233324 -0.972381 0.005922 0.000000
203.30499268 224.40199280 138.75000000 -0.934187 -0.001261 -0.356781 0.000000
144.32699585 263.72100830 82.50000000 0.559921 0.304686 -0.770490 0.000000
240.22500610 190.83799744 97.50000000 0.585212 0.697944 -0.412798 0.000000
222.96400452 227.27900696 175.00000000 0.756837 -0.058658 -0.650966 0.000000
128.02400208 248.37699890 52.50000000 0.622347 0.622347 -0.474729 0.000000
209.05900574 154.87600708 92.50000000 -0.227594 -0.908926 -0.349364 0.000000
215.77099609 172.61700439 116.25000000 -0.270560 0.811680 0.517661 0.000000
116.51699829 243.58200073 132.50000000 -0.001317 0.462431 -0.886654 0.000000
122.75000000 259.88500977 86.25000000 -0.857513 0.474400 -0.199039 0.000000
220.56599426 234.47200012 167.50000000 0.863596 -0.240476 -0.443141 0.000000
237.82800293 216.72999573 131.25000000 -0.666912 -0.446279 -0.596711 0.000000
149.12199402 264.67999268 90.00000000 0.801573 0.406409 -0.438536 0.000000
215.29200745 169.74000549 122.50000000 -0.813341 0.580155 -0.043547 0.000000
136.17599487 257.96701050 68.75000000 0.638178 0.520309 -0.567457 0.000000
226.32000732 207.14100647 138.75000000 -0.666912 -0.446279 -0.596711 0.000000
155.35499573 186.52200317 42.50000000 0.766547 0.634636 -0.098200 0.000000
184.12500000 244.54100037 186.25000000 0.682323 0.682323 0.262432 0.000000
240.70500183 151.51899719 158.75000000 0.032675 -0.971791 0.233569 0.000000
208.10000610 262.28201294 162.50000000 0.779986 0.519454 0.348983 0.000000
137.61399841 185.08399963 77.50000000 -0.735815 -0.671704 -0.085966 0.000000
243.58200073 223.44299316 163.75000000 -0.385226 0.765576 0.515261 0.000000
172.61700439 253.17199707 181.25000000 -0.283555 0.430697 0.856795 0.000000
225.36099243 154.87600708 60.00000000 0.162106 -0.978826 0.124983 0.000000
199.46899414 272.83099365 162.50000000 0.623448 0.710893 0.325489 0.000000
132.33999634 271.87200928 155.00000000 -0.388922 0.553025 0.736819 0.000000
140.49099731 265.63900757 80.00000000 0.946010 0.287447 -0.149796 0.000000
176.45300293 273.30999756 121.25000000 0.142792 0.735004 -0.662857 0.000000
219.60699463 166.86300659 46.25000000 0.066877 0.812488 -0.579129 0.000000
172.13800049 160.14999390 100.00000000 -0.304283 -0.912848 -0.272253 0.000000
210.49699402 171.65800476 120.00000000 0.682323 0.682323 0.262432 0.000000
279.06399536 160.63000488 177.50000000 0.001261 -0.934187 0.356781 0.000000
174.05599976 172.61700439 35.00000000 0.297164 0.891491 -0.341962 0.000000
142.88900757 281.94100952 153.75000000 -0.473309 0.367416 0.800615 0.000000
209.05900574 154.39599609 93.75000000 -0.227594 -0.908926 -0.349364 0.000000
149.60200500 171.65800476 101.25000000 -0.603838 -0.732657 -0.313996 0.000000
161.10899353 223.44299316 53.75000000 0.628876 -0.004128 -0.777495 0.000000
191.79699707 159.19099426 88.75000000 -0.247148 -0.936929 -0.247148 0.000000
125.14700317 196.59199524 95.00000000 -0.785481 -0.594787 -0.171020 0.000000
118.91400146 217.68899536 33.75000000 -0.867932 -0.425635 -0.255987 0.000000
195.63299561 210.49699402 112.50000000 0.001261 0.934187 0.356781 0.000000
185.08399963 150.08099365 122.50000000 -0.262250 -0.959859 -0.099474 0.000000
235.91000366 222.48399353 156.25000000 -0.136407 0.927294 0.348596 0.000000
214.81199646 241.66400146 178.75000000 0.453072 0.640319 0.620257 0.000000
133.29899597 242.62300110 51.25000000 0.549053 0.549053 -0.630144 0.000000
210.97599792 180.28900146 136.25000000 0.000978 0.000978 -0.999999 0.000000
202.34599304 245.50000000 181.25000000 0.454593 0.409296 0.791089 0.000000
171.17900085 201.38699341 125.00000000 -0.844549 0.473622 -0.249839 0.000000
281.94100952 161.58900452 180.00000000 -0.073868 -0.745926 0.661919 0.000000
174.05599976 164.94500732 72.50000000 -0.294729 -0.934471 0.199745 0.000000
268.51599121 186.04299927 138.75000000 0.708592 0.627517 -0.322677 0.000000
205.22300720 174.53500366 126.25000000 0.976906 -0.005836 -0.213589 0.000000
207.14100647 156.79400635 182.50000000 0.119697 -0.604398 0.787639 0.000000
171.65800476 159.19099426 103.75000000 -0.297141 -0.930854 -0.212646 0.000000
144.80700684 217.68899536 181.25000000 -0.087456 -0.364626 0.927038 0.000000
149.60200500 285.29800415 112.50000000 -0.267412 0.888885 -0.371987 0.000000
162.06799316 169.26100159 65.00000000 -0.313151 -0.942140 0.119616 0.000000
252.21299744 151.03999329 145.00000000 0.103370 -0.981404 0.161743 0.000000
223.44299316 177.41200256 111.25000000 0.980726 0.041506 -0.190927 0.000000
173.57600403 209.05900574 123.75000000 -0.136291 0.738366 0.660485 0.000000
216.72999573 183.16600037 118.75000000 0.766108 0.494948 -0.410006 0.000000
249.33599854 181.24800110 93.75000000 0.626995 0.616910 -0.475710 0.000000
151.03999329 166.86300659 127.50000000 0.000978 0.000978 0.999999 0.000000
166.86300659 246.45899963 183.75000000 -0.399966 0.368596 0.839145 0.000000
256.04901123 152.47799683 151.25000000 0.092106 -0.984459 0.149523 0.000000
281.94100952 175.49400330 186.25000000 0.000978 0.000978 0.999999 0.000000
185.08399963 257.48699951 180.00000000 -0.001378 0.657235 0.753685 0.000000
177.89199829 161.10899353 40.00000000 -0.317711 -0.948187 -0.001236 0.000000
227.27900696 160.14999390 38.75000000 0.206433 0.731054 -0.650343 0.000000
205.70199585 251.25399780 110.00000000 0.528924 0.792592 -0.303377 0.000000
222.48399353 193.71499634 83.75000000 0.302170 0.756225 -0.580359 0.000000
180.28900146 272.83099365 170.00000000 0.096678 0.549769 0.829703 0.000000
205.22300720 267.55700684 161.25000000 0.702907 0.522589 0.482518 0.000000
240.22500610 229.19700623 130.00000000 0.285362 0.223510 -0.931994 0.000000
241.66400146 198.50999451 121.25000000 0.538011 0.827137 -0.162447 0.000000
227.27900696 196.59199524 88.75000000 0.188333 0.617058 -0.764049 0.000000
155.35499573 259.88500977 93.75000000 0.101027 0.493754 -0.863713 0.000000
155.35499573 222.48399353 186.25000000 -0.624532 -0.088803 0.775934 0.000000
217.68899536 195.63299561 146.25000000 0.787454 0.234528 -0.570011 0.000000
289.13400269 176.45300293 177.50000000 0.821317 0.299946 -0.485253 0.000000
134.25799561 269.47500610 81.25000000 -0.474261 0.838839 -0.267255 0.000000
181.24800110 161.10899353 181.25000000 -0.001369 -0.792878 -0.609379 0.000000
266.11801147 178.37100220 117.50000000 0.680796 0.648144 -0.341214 0.000000
269.47500610 203.30499268 178.75000000 0.991782 -0.001093 -0.127937 0.000000
202.82499695 190.83799744 137.50000000 0.269542 0.313252 -0.910615 0.000000
120.35199738 209.05900574 80.00000000 -0.920812 -0.374637 -0.108411 0.000000
214.81199646 144.32699585 140.00000000 -0.265543 -0.883645 -0.385563 0.000000
187.00199890 219.60699463 133.75000000 0.262458 0.180865 -0.947841 0.000000
162.54800415 235.91000366 65.00000000 0.393675 0.779249 -0.487638 0.000000
175.49400330 162.54800415 180.00000000 0.177907 -0.509801 0.841696 0.000000
253.17199707 188.91999817 188.75000000 -0.000978 -0.000978 0.999999 0.000000
196.59199524 201.38699341 201.25000000 -0.111980 -0.283243 0.952488 0.000000
214.33299255 183.16600037 115.00000000 0.642121 0.730040 -0.233927 0.000000
229.19700623 171.65800476 56.25000000 0.685537 0.609549 -0.398107 0.000000
133.29899597 280.50299072 117.50000000 -0.623951 0.603769 -0.496133 0.000000
220.56599426 177.41200256 63.75000000 0.165728 0.831626 -0.530031 0.000000
154.87600708 172.61700439 52.50000000 -0.705724 -0.708486 0.001381 0.000000
217.68899536 186.04299927 138.75000000 0.071862 0.912508 -0.402697 0.000000
232.07400513 199.46899414 193.75000000 0.507404 -0.089542 0.857044 0.000000
169.74000549 291.53100586 136.25000000 0.376716 0.870869 -0.315709 0.000000
217.68899536 250.29499817 148.75000000 0.814228 0.380823 -0.438185 0.000000
264.67999268 161.58900452 80.00000000 0.501672 0.801082 -0.326485 0.000000
188.91999817 210.97599792 111.25000000 0.394107 0.882620 0.256245 0.000000
202.34599304 154.39599609 98.75000000 -0.173181 -0.935177 -0.308955 0.000000
169.26100159 175.49400330 25.00000000 0.657815 0.748247 -0.086056 0.000000
194.19400024 241.66400146 100.00000000 0.555784 -0.795534 -0.241307 0.000000
120.83200073 240.70500183 153.75000000 -0.738078 0.058760 0.672152 0.000000
206.66099548 228.23800659 190.00000000 0.269685 0.263977 0.926060 0.000000
194.67399597 249.81500244 100.00000000 0.384046 0.637879 -0.667547 0.000000
133.77799988 240.70500183 50.00000000 0.464966 0.757418 -0.458394 0.000000
178.85099792 223.44299316 122.50000000 0.522716 -0.843043 0.126675 0.000000
120.35199738 210.97599792 140.00000000 -0.865851 -0.001334 0.500299 0.000000
115.55799866 234.95100403 80.00000000 -0.999999 0.000978 0.000978 0.000000
137.13499451 229.19700623 171.25000000 -0.643372 0.209290 0.736390 0.000000
134.25799561 192.75599670 161.25000000 -0.850548 -0.308304 0.426048 0.000000
217.21000671 236.86900330 137.50000000 -0.767968 -0.633391 -0.095082 0.000000
234.95100403 188.91999817 86.25000000 -0.000978 -0.000978 -0.999999 0.000000
172.61700439 215.77099609 83.75000000 0.783601 -0.269609 -0.559715 0.000000
243.10200500 222.48399353 167.50000000 -0.492213 0.666924 0.559410 0.000000
261.80300903 169.74000549 186.25000000 0.226930 -0.680790 0.696440 0.000000
160.63000488 167.82200623 42.50000000 -0.537872 -0.842893 0.014979 0.000000
272.35101318 160.14999390 91.25000000 0.768336 0.556602 -0.315996 0.000000
158.23199463 228.23800659 51.25000000 0.511522 0.491528 -0.704801 0.000000
223.92300415 173.57600403 57.50000000 0.203867 0.870525 -0.447911 0.000000
199.46899414 188.91999817 196.25000000 0.461013 -0.652124 0.601832 0.000000
148.16299438 179.33000183 25.00000000 -0.921923 -0.307308 -0.235841 0.000000
177.41200256 222.48399353 121.25000000 0.521300 -0.764898 0.378389 0.000000
284.81799316 173.57600403 186.25000000 0.371126 -0.144249 0.917310 0.000000
264.67999268 177.41200256 188.75000000 0.000978 0.000978 0.999999 0.000000
173.57600403 159.19099426 173.75000000 -0.169888 -0.810349 0.560779 0.000000
132.33999634 268.99499512 85.00000000 -0.682323 0.682323 -0.262432 0.000000
144.80700684 227.27900696 178.75000000 -0.668950 0.169142 0.723807 0.000000
150.55999756 272.35101318 163.75000000 -0.613832 0.479294 0.627286 0.000000
256.04901123 151.03999329 135.00000000 0.087951 -0.995693 0.029317 0.000000
232.07400513 197.55099487 193.75000000 0.000000 0.000000 0.000000 0.000000
213.37399292 245.50000000 137.50000000 0.957457 0.099762 -0.270783 0.000000
191.79699707 182.20700073 196.25000000 0.288368 -0.578328 0.763139 0.000000
147.68400574 180.76800537 25.00000000 -0.774014 -0.614703 -0.151797 0.000000
183.16600037 173.57600403 43.75000000 -0.086246 0.863875 -0.496268 0.000000
179.33000183 246.45899963 88.75000000 0.164251 0.589196 -0.791119 0.000000
207.14100647 183.16600037 136.25000000 0.000978 0.000978 -0.999999 0.000000
142.88900757 199.46899414 173.75000000 -0.212630 -0.533870 0.818396 0.000000
219.60699463 183.16600037 133.75000000 0.896178 -0.162549 0.412846 0.000000
250.29499817 150.08099365 115.00000000 -0.001143 -0.982047 0.188635 0.000000
176.93299866 221.52499390 135.00000000 -0.584399 -0.779716 0.224769 0.000000
251.73300171 186.04299927 107.50000000 0.490832 0.797802 -0.350137 0.000000
248.37699890 158.71200562 172.50000000 -0.001261 -0.934187 0.356781 0.000000
243.58200073 197.55099487 121.25000000 0.538011 0.827137 -0.162447 0.000000
217.68899536 248.37699890 146.25000000 0.856408 0.128968 -0.499933 0.000000
200.42799377 269.47500610 166.25000000 0.596254 0.555716 0.579363 0.000000
198.50999451 210.01800537 198.75000000 0.324319 0.251602 0.911874 0.000000
145.28599548 183.16600037 25.00000000 -0.678276 -0.648857 -0.344858 0.000000
148.64300537 238.30799866 57.50000000 0.369023 0.784779 -0.497940 0.000000
248.37699890 218.16900635 172.50000000 0.344050 0.611464 0.712559 0.000000
128.98300171 278.10501099 122.50000000 -0.731280 0.574227 -0.368094 0.000000
158.71200562 282.89999390 110.00000000 0.628975 0.548034 -0.551407 0.000000
269.47500610 176.45300293 121.25000000 0.841340 0.472196 -0.263015 0.000000
151.99899292 192.75599670 35.00000000 0.959437 0.281320 -0.018427 0.000000
143.84800720 247.41799927 66.25000000 0.557076 0.506585 -0.658056 0.000000
140.01199341 272.83099365 160.00000000 -0.369958 0.499201 0.783536 0.000000
181.72700500 212.89399719 197.50000000 -0.126227 0.378681 0.916879 0.000000
256.04901123 208.10000610 151.25000000 0.936165 0.201700 0.287944 0.000000
139.05299377 269.47500610 81.25000000 0.431157 0.660886 -0.614274 0.000000
210.01800537 198.02999878 120.00000000 -0.045254 0.489564 0.870792 0.000000
138.09399414 275.70800781 92.50000000 -0.399423 0.803658 -0.441130 0.000000
257.00799561 206.18200684 186.25000000 0.103695 0.405103 0.908371 0.000000
231.11500549 230.15600586 133.75000000 0.221150 -0.880149 -0.420037 0.000000
114.59899902 233.99200439 60.00000000 -0.974705 -0.001170 0.223492 0.000000
168.78100586 254.61000061 180.00000000 -0.108260 0.437259 0.892796 0.000000
179.33000183 174.53500366 191.25000000 -0.293365 -0.636425 0.713373 0.000000
119.87300110 208.10000610 98.75000000 -0.949774 -0.302732 -0.079256 0.000000
228.23800659 163.50700378 42.50000000 0.162259 0.647521 -0.744573 0.000000
177.41200256 239.74600220 81.25000000 0.210839 0.795649 -0.567881 0.000000
198.02999878 203.30499268 125.00000000 0.869886 0.450556 0.200743 0.000000
206.18200684 149.12199402 175.00000000 -0.242818 -0.759786 0.603129 0.000000
125.62699890 265.63900757 93.75000000 -0.841437 0.504260 -0.194178 0.000000
184.12500000 167.82200623 188.75000000 -0.015127 -0.570717 0.821007 0.000000
220.56599426 183.64500427 127.50000000 0.966293 0.124807 -0.225168 0.000000
247.41799927 152.95799255 57.50000000 -0.000978 -0.999999 -0.000978 0.000000
211.93499756 256.52801514 145.00000000 0.702767 0.566534 -0.430300 0.000000
138.09399414 227.27900696 38.75000000 0.530015 0.526650 -0.664623 0.000000
227.75900269 169.74000549 52.50000000 0.447606 0.693872 -0.564083 0.000000
123.22899628 210.01800537 150.00000000 -0.942140 -0.313151 0.119616 0.000000
200.42799377 257.48699951 117.50000000 0.575891 0.806839 -0.131759 0.000000
219.12800598 182.20700073 122.50000000 0.796629 0.471540 -0.378197 0.000000
193.71499634 254.13099670 181.25000000 0.320408 0.439194 0.839314 0.000000
163.02699280 287.69500732 121.25000000 0.785210 0.480840 -0.390177 0.000000
121.79100037 255.08999634 153.75000000 -0.600837 0.424414 0.677398 0.000000
232.07400513 214.81199646 183.75000000 0.543077 0.831360 0.117934 0.000000
207.14100647 183.64500427 97.50000000 -0.251475 -0.831565 0.495237 0.000000
167.82200623 247.89700317 87.50000000 0.250878 0.350642 -0.902281 0.000000
116.51699829 248.37699890 127.50000000 -0.682323 0.682323 0.262432 0.000000
185.08399963 154.39599609 171.25000000 -0.165118 -0.897378 0.409205 0.000000
206.18200684 151.51899719 178.75000000 -0.241160 -0.657278 0.714022 0.000000
118.43499756 212.89399719 90.00000000 -0.953933 -0.300017 0.001225 0.000000
214.81199646 222.48399353 191.25000000 0.881057 -0.441257 0.170386 0.000000
252.21299744 208.10000610 133.75000000 0.525095 0.130177 -0.841029 0.000000
176.45300293 247.41799927 186.25000000 0.000978 0.000978 0.999999 0.000000
156.31399536 274.74899292 165.00000000 -0.244019 0.625003 0.741502 0.000000
188.91999817 282.42098999 157.50000000 0.151583 0.790936 0.592826 0.000000
205.70199585 200.42799377 95.00000000 -0.156963 0.940412 -0.301642 0.000000
120.35199738 255.08999634 70.00000000 -0.682323 0.682323 -0.262432 0.000000
282.89999390 169.26100159 142.50000000 0.813341 0.580155 -0.043547 0.000000
175.49400330 163.98599243 181.25000000 0.177907 -0.509801 0.841696 0.000000
211.93499756 185.56300354 70.00000000 0.296397 0.744998 -0.597601 0.000000
115.55799866 241.66400146 95.00000000 -0.999999 -0.000978 -0.000978 0.000000
157.27299500 189.87899780 178.75000000 -0.896318 -0.141074 0.420372 0.000000
140.97099304 248.37699890 171.25000000 -0.525683 0.321162 0.787726 0.000000
117.95500183 218.64799500 111.25000000 -0.977185 -0.138528 0.160992 0.000000
238.78700256 217.68899536 163.75000000 0.000978 0.999999 0.000978 0.000000
244.54100037 207.14100647 131.25000000 0.213567 0.252147 -0.943828 0.000000
282.42098999 159.19099426 110.00000000 0.855694 -0.341968 -0.388389 0.000000
146.72500610 256.04901123 171.25000000 -0.511248 0.338161 0.790110 0.000000
130.42199707 192.75599670 141.25000000 -0.721603 -0.669513 0.176188 0.000000
121.31099701 205.22300720 87.50000000 -0.834455 -0.548356 0.054695 0.000000
280.98199463 156.31399536 168.75000000 0.001261 -0.934187 0.356781 0.000000
285.77700806 154.87600708 125.00000000 0.863483 0.259500 -0.432500 0.000000
156.31399536 232.07400513 56.25000000 0.365476 0.693257 -0.621145 0.000000
257.96701050 209.53799438 180.00000000 0.376188 0.919110 -0.117128 0.000000
190.83799744 161.10899353 78.75000000 -0.188071 -0.973172 -0.132533 0.000000
233.99200439 186.04299927 191.25000000 0.072899 -0.348591 0.934436 0.000000
116.51699829 253.17199707 55.00000000 -0.758254 0.627047 -0.178502 0.000000
189.87899780 167.82200623 188.75000000 -0.156684 -0.475910 0.865424 0.000000
124.18800354 199.46899414 125.00000000 -0.707106 -0.707106 -0.001384 0.000000
205.22300720 155.83500671 92.50000000 -0.227594 -0.908926 -0.349364 0.000000
154.87600708 200.42799377 60.00000000 0.849891 0.232618 -0.472837 0.000000
207.61999512 264.67999268 160.00000000 0.809821 0.515340 0.280383 0.000000
176.45300293 172.61700439 41.25000000 0.399211 0.822278 -0.405573 0.000000
175.01499939 275.22799683 122.50000000 0.565508 0.612775 -0.552004 0.000000
136.17599487 196.11199951 25.00000000 -0.789924 -0.457154 -0.408693 0.000000
149.60200500 281.46200562 157.50000000 -0.491349 0.435477 0.754278 0.000000
128.98300171 197.55099487 47.50000000 -0.772270 -0.630277 -0.079690 0.000000
198.50999451 210.97599792 136.25000000 0.691458 0.018159 -0.722189 0.000000
214.81199646 143.36799622 160.00000000 0.492235 -0.861772 0.122698 0.000000
169.74000549 262.76199341 103.75000000 0.381500 0.767870 -0.514619 0.000000
154.39599609 172.13800049 45.00000000 -0.551924 -0.827162 0.105749 0.000000
241.66400146 171.17900085 70.00000000 0.351462 0.787982 -0.505528 0.000000
140.97099304 270.43399048 161.25000000 -0.436557 0.475798 0.763566 0.000000
228.23800659 187.00199890 141.25000000 -0.016758 -0.375114 0.926827 0.000000
173.57600403 256.52801514 180.00000000 -0.214151 0.508800 0.833824 0.000000
133.29899597 259.88500977 163.75000000 -0.616193 0.229317 0.753472 0.000000
202.82499695 187.00199890 115.00000000 0.969975 0.193482 0.147354 0.000000
146.72500610 171.17900085 140.00000000 -0.744803 -0.664128 -0.064828 0.000000
257.00799561 204.74299622 155.00000000 0.785367 0.416163 0.458265 0.000000
236.86900330 149.12199402 145.00000000 0.547885 -0.547885 -0.632175 0.000000
233.03300476 151.99899292 165.00000000 0.238299 -0.943556 0.230035 0.000000
198.50999451 255.56900024 177.50000000 0.299316 0.597031 0.744288 0.000000
258.92599487 198.98899841 142.50000000 0.682323 0.682323 -0.262432 0.000000
212.89399719 245.02000427 135.00000000 0.963612 0.197967 -0.179612 0.000000
238.78700256 180.28900146 81.25000000 0.488258 0.656045 -0.575507 0.000000
170.69900513 279.06399536 123.75000000 0.270560 0.811680 -0.517661 0.000000
145.76600647 223.44299316 181.25000000 -0.646414 0.107490 0.755377 0.000000
140.49099731 276.18701172 157.50000000 -0.475419 0.596374 0.646772 0.000000
138.57299805 180.28900146 110.00000000 -0.815840 -0.487610 -0.310871 0.000000
132.33999634 200.90699768 25.00000000 -0.763225 -0.604025 -0.229436 0.000000
117.95500183 255.08999634 123.75000000 -0.896858 0.328699 -0.295978 0.000000
229.19700623 217.68899536 133.75000000 -0.649240 0.240518 -0.721553 0.000000
142.40899658 179.33000183 92.50000000 0.001143 -0.982047 0.188635 0.000000
165.90400696 287.69500732 156.25000000 -0.207896 -0.517464 0.830067 0.000000
205.22300720 177.41200256 126.25000000 0.976455 0.153782 -0.151282 0.000000
201.86599731 195.63299561 200.00000000 0.000978 0.000978 0.999999 0.000000
190.83799744 211.93499756 133.75000000 0.027375 0.387154 -0.921609 0.000000
241.66400146 232.07400513 138.75000000 0.737492 -0.557616 0.381011 0.000000
150.55999756 206.18200684 41.25000000 0.973637 -0.148135 -0.173457 0.000000
150.08099365 203.30499268 25.00000000 0.851663 0.523574 -0.023240 0.000000
229.19700623 235.91000366 173.75000000 -0.682323 -0.682323 0.262432 0.000000
273.30999756 167.34300232 107.50000000 0.466893 0.779239 -0.418088 0.000000
130.42199707 203.78399658 25.00000000 -0.787204 -0.528528 -0.317756 0.000000
170.69900513 243.10200500 82.50000000 0.456238 0.725003 -0.515963 0.000000
239.74600220 222.48399353 158.75000000 -0.277234 0.812906 0.512178 0.000000
217.68899536 187.96099854 196.25000000 0.926009 0.351911 0.136624 0.000000
274.74899292 184.12500000 160.00000000 0.707106 0.707106 0.001384 0.000000
224.88200378 225.36099243 180.00000000 0.972086 0.198462 0.125145 0.000000
138.09399414 258.44601440 72.50000000 0.606319 0.602942 -0.518496 0.000000
225.36099243 198.02999878 90.00000000 0.194924 0.778161 -0.597051 0.000000
240.70500183 213.85299683 178.75000000 0.348269 0.759713 0.549131 0.000000
183.16600037 233.03300476 118.75000000 0.963757 -0.227608 0.139166 0.000000
155.35499573 216.72999573 48.75000000 0.824446 -0.335769 -0.455574 0.000000
205.70199585 144.80700684 137.50000000 -0.051923 -0.988844 -0.139615 0.000000
175.49400330 239.74600220 188.75000000 -0.022608 0.445503 0.894995 0.000000
139.05299377 262.76199341 166.25000000 -0.321942 0.301171 0.897580 0.000000
228.71800232 220.56599426 165.00000000 0.205238 0.760771 -0.615715 0.000000
256.04901123 193.71499634 128.75000000 0.682323 0.682323 -0.262432 0.000000
216.72999573 232.07400513 183.75000000 0.457563 0.611759 0.645280 0.000000
216.72999573 175.49400330 191.25000000 0.164603 -0.396478 0.903167 0.000000
270.91299438 187.96099854 155.00000000 0.942140 0.313151 -0.119616 0.000000
147.68400574 207.14100647 23.75000000 0.812617 0.501402 -0.297069 0.000000
145.76600647 178.37100220 46.25000000 -0.653965 -0.750524 0.095096 0.000000
250.29499817 154.39599609 161.25000000 0.219738 -0.948559 0.227927 0.000000
141.92999268 233.03300476 46.25000000 0.478401 0.575760 -0.663048 0.000000
124.18800354 204.26400757 60.00000000 -0.705724 -0.708486 0.001381 0.000000
153.91700745 167.82200623 105.00000000 -0.429536 -0.860600 -0.273619 0.000000
228.23800659 171.65800476 186.25000000 0.246227 -0.600668 0.760638 0.000000
162.06799316 293.44900513 141.25000000 0.038935 0.993398 0.107906 0.000000
209.05900574 250.77400208 132.50000000 0.770366 0.577379 -0.270498 0.000000
187.96099854 209.05900574 133.75000000 -0.000978 -0.000978 -0.999999 0.000000
194.67399597 278.58499146 157.50000000 0.554148 0.719565 0.418506 0.000000
163.98599243 180.76800537 50.00000000 0.001264 0.933865 -0.357624 0.000000
250.29499817 212.89399719 181.25000000 0.001369 0.792878 0.609379 0.000000
225.84100342 168.78100586 50.00000000 0.136623 0.832957 -0.536207 0.000000
220.56599426 185.56300354 72.50000000 0.285611 0.614302 -0.735567 0.000000
176.93299866 206.18200684 87.50000000 -0.682323 0.682323 -0.262432 0.000000
249.33599854 167.82200623 68.75000000 0.610012 0.785555 -0.103863 0.000000
128.02400208 202.34599304 155.00000000 -0.657235 -0.001378 0.753685 0.000000
193.71499634 219.60699463 138.75000000 0.657019 0.753843 -0.006916 0.000000
213.85299683 168.78100586 188.75000000 0.502416 -0.395104 0.769071 0.000000
130.42199707 278.58499146 120.00000000 -0.714936 0.600415 -0.358286 0.000000
219.60699463 145.28599548 147.50000000 0.403037 -0.884897 0.233494 0.000000
190.83799744 206.66099548 127.50000000 0.422217 0.845993 -0.325621 0.000000
122.26999664 202.34599304 102.50000000 -0.925095 -0.379559 0.011580 0.000000
164.94500732 225.36099243 56.25000000 0.623947 0.233003 -0.745922 0.000000
130.42199707 195.15299988 52.50000000 -0.784823 -0.617960 -0.046665 0.000000
207.14100647 242.62300110 181.25000000 0.313723 0.596877 0.738455 0.000000
191.79699707 193.71499634 81.25000000 0.001369 0.792878 -0.609379 0.000000
255.56900024 212.89399719 147.50000000 0.993774 0.105249 0.036560 0.000000
171.65800476 248.37699890 88.75000000 0.153058 0.683457 -0.713765 0.000000
126.10600281 194.67399597 97.50000000 -0.834976 -0.543805 -0.084211 0.000000
116.51699829 231.11500549 115.00000000 -0.999999 -0.000978 -0.000978 0.000000
169.74000549 267.55700684 171.25000000 -0.232944 0.761366 0.605028 0.000000
164.94500732 242.62300110 78.75000000 0.415712 0.767844 -0.487442 0.000000
150.55999756 179.33000183 161.25000000 -0.419420 -0.419420 0.805093 0.000000
272.35101318 175.01499939 125.00000000 -0.315572 0.941345 -0.119515 0.000000
211.45599365 248.37699890 175.00000000 0.548100 0.497816 0.672135 0.000000
244.06100464 165.90400696 57.50000000 0.313124 0.881890 -0.352453 0.000000
153.91700745 173.57600403 65.00000000 -0.540389 -0.840450 0.040286 0.000000
211.93499756 218.16900635 140.00000000 0.241653 -0.503316 -0.829625 0.000000
203.78399658 175.49400330 97.50000000 0.914383 0.403907 -0.027629 0.000000
159.19099426 242.62300110 73.75000000 0.386441 0.787433 -0.480221 0.000000
264.67999268 175.49400330 188.75000000 0.000978 0.000978 0.999999 0.000000
189.39900208 242.62300110 92.50000000 0.611820 0.497209 -0.615191 0.000000
175.01499939 207.14100647 130.00000000 -0.423563 0.760451 -0.492249 0.000000
118.91400146 221.52499390 118.75000000 -0.997066 0.001048 -0.076536 0.000000
271.39199829 160.14999390 88.75000000 0.682323 0.682323 -0.262432 0.000000
176.45300293 235.91000366 76.25000000 0.474536 0.642217 -0.601974 0.000000
215.77099609 191.79699707 196.25000000 0.000978 0.000978 0.999999 0.000000
172.61700439 210.97599792 83.75000000 0.723027 0.241009 -0.647416 0.000000
274.26901245 167.34300232 185.00000000 -0.029180 -0.573871 0.818426 0.000000
181.24800110 164.94500732 186.25000000 -0.052909 -0.745020 0.664941 0.000000
212.89399719 213.85299683 193.75000000 0.221729 0.421137 0.879477 0.000000
218.64799500 152.47799683 96.25000000 -0.171369 -0.964116 -0.202765 0.000000
181.24800110 247.41799927 186.25000000 0.000978 0.000978 0.999999 0.000000
252.21299744 152.95799255 72.50000000 0.000978 -0.999999 0.000978 0.000000
242.62300110 210.01800537 181.25000000 -0.286082 0.489309 0.823853 0.000000
151.99899292 278.10501099 100.00000000 0.535257 0.501698 -0.679558 0.000000
204.26400757 238.78700256 186.25000000 0.179386 0.550216 0.815526 0.000000
148.64300537 171.65800476 148.75000000 -0.353028 -0.892252 0.281528 0.000000
148.64300537 228.71800232 47.50000000 0.669468 0.535239 -0.515104 0.000000
228.23800659 170.69900513 53.75000000 0.543396 0.651066 -0.529937 0.000000
195.63299561 255.08999634 106.25000000 0.258195 0.628855 -0.733401 0.000000
183.16600037 158.71200562 177.50000000 -0.209367 -0.811487 0.545576 0.000000
215.77099609 173.57600403 191.25000000 0.296674 -0.338418 0.893005 0.000000
118.91400146 213.37399292 52.50000000 -0.700772 -0.700772 0.133552 0.000000
182.68600464 236.86900330 82.50000000 0.459456 0.139709 -0.877144 0.000000
144.80700684 281.46200562 105.00000000 -0.313151 0.942140 -0.119616 0.000000
163.98599243 232.55400085 187.50000000 -0.681121 0.466911 0.563975 0.000000
197.55099487 148.16299438 167.50000000 -0.421107 -0.846875 0.324765 0.000000
262.76199341 182.20700073 191.25000000 0.000978 0.000978 0.999999 0.000000
267.07699585 173.57600403 110.00000000 0.569844 0.775051 -0.273083 0.000000
268.51599121 180.76800537 127.50000000 0.682323 0.682323 -0.262432 0.000000
213.37399292 190.83799744 140.00000000 0.378742 0.302689 -0.874605 0.000000
137.61399841 220.56599426 25.00000000 0.682323 0.682323 -0.262432 0.000000
198.98899841 261.80300903 127.50000000 0.845993 0.422217 -0.325621 0.000000
221.52499390 177.41200256 191.25000000 0.467844 -0.431982 0.771047 0.000000
129.46299744 265.63900757 156.25000000 -0.000978 -0.000978 0.999999 0.000000
269.95401001 189.87899780 152.50000000 0.829425 0.555305 0.060759 0.000000
151.03999329 279.06399536 160.00000000 -0.550422 0.374026 0.746418 0.000000
187.00199890 203.30499268 93.75000000 0.563495 0.563495 -0.604108 0.000000
225.36099243 152.95799255 42.50000000 -0.090577 -0.991762 0.090577 0.000000
144.32699585 240.70500183 175.00000000 -0.329971 0.329971 0.884442 0.000000
255.08999634 162.54800415 180.00000000 -0.270176 -0.950321 -0.154578 0.000000
176.45300293 181.72700500 62.50000000 0.078577 0.894674 -0.439755 0.000000
187.96099854 254.13099670 101.25000000 0.381472 0.741660 -0.551743 0.000000
200.42799377 192.75599670 81.25000000 -0.031866 0.827125 -0.561115 0.000000
199.46899414 158.71200562 87.50000000 0.146170 -0.938494 -0.312831 0.000000
163.98599243 243.58200073 183.75000000 -0.554658 0.254674 0.792146 0.000000
192.75599670 249.33599854 98.75000000 0.371533 0.527284 -0.764156 0.000000
217.68899536 234.95100403 148.75000000 0.929331 0.315384 -0.192034 0.000000
205.22300720 210.97599792 196.25000000 0.018847 0.123058 0.992221 0.000000
127.54499817 238.30799866 40.00000000 0.421229 0.840893 -0.339802 0.000000
214.81199646 241.18400574 127.50000000 -0.877960 -0.409715 0.247630 0.000000
169.74000549 218.64799500 121.25000000 0.580774 -0.690606 0.431004 0.000000
220.56599426 175.49400330 191.25000000 0.167386 -0.396289 0.902739 0.000000
130.90100098 200.42799377 160.00000000 -0.866940 -0.287964 0.406807 0.000000
169.74000549 161.58900452 175.00000000 -0.319803 -0.793939 0.517095 0.000000
205.22300720 247.41799927 178.75000000 0.636895 0.198933 0.744843 0.000000
125.62699890 271.39199829 118.75000000 -0.753390 0.579901 -0.310030 0.000000
130.42199707 249.33599854 163.75000000 -0.638837 0.117095 0.760379 0.000000
123.70899963 201.38699341 88.75000000 -0.765161 -0.574268 -0.291111 0.000000
180.76800537 228.23800659 80.00000000 0.682323 -0.682323 -0.262432 0.000000
223.44299316 244.06100464 165.00000000 0.878404 0.426568 0.215514 0.000000
132.33999634 224.88200378 25.00000000 0.682323 0.682323 -0.262432 0.000000
173.57600403 159.67100525 100.00000000 -0.304283 -0.912848 -0.272253 0.000000
125.14700317 197.55099487 92.50000000 -0.841437 -0.504260 -0.194178 0.000000
204.74299622 255.08999634 130.00000000 0.748835 0.606351 -0.267554 0.000000
283.85900879 152.95799255 145.00000000 0.000978 -0.999999 0.000978 0.000000
129.94200134 254.13099670 60.00000000 0.478304 0.615922 -0.625991 0.000000
204.74299622 178.37100220 112.50000000 0.409068 0.903886 0.125110 0.000000
130.90100098 226.32000732 25.00000000 0.682323 0.682323 -0.262432 0.000000
274.26901245 183.16600037 188.75000000 0.000978 0.000978 0.999999 0.000000
273.30999756 199.94799805 187.50000000 0.771540 0.579049 0.263491 0.000000
134.73699951 188.91999817 155.00000000 -0.948930 -0.315485 -0.001237 0.000000
159.19099426 182.20700073 41.25000000 0.710289 0.689177 -0.143264 0.000000
266.59799194 152.95799255 97.50000000 0.235469 -0.971758 -0.015539 0.000000
160.14999390 230.15600586 56.25000000 0.452990 0.613459 -0.646890 0.000000
221.04600525 149.60200500 110.00000000 0.042182 -0.975005 -0.218141 0.000000
280.02301025 167.82200623 186.25000000 0.362171 -0.494163 0.790339 0.000000
160.14999390 191.79699707 61.25000000 0.422217 0.845993 -0.325621 0.000000
152.47799683 167.34300232 140.00000000 -0.518351 -0.805098 0.288323 0.000000
275.22799683 187.00199890 188.75000000 0.000978 0.000978 0.999999 0.000000
210.01800537 191.79699707 121.25000000 0.795423 0.398518 -0.456602 0.000000
187.96099854 268.99499512 125.00000000 -0.001264 0.933865 -0.357624 0.000000
204.26400757 244.06100464 107.50000000 -0.137342 -0.973997 -0.180183 0.000000
214.81199646 208.10000610 148.75000000 -0.037658 -0.140362 -0.989384 0.000000
252.21299744 173.09700012 85.00000000 0.566981 0.644373 -0.513143 0.000000
168.78100586 190.83799744 68.75000000 0.384892 0.665714 -0.639284 0.000000
150.55999756 266.59799194 168.75000000 -0.552073 0.219907 0.804274 0.000000
283.85900879 171.65800476 186.25000000 0.228192 -0.180151 0.956804 0.000000
156.79400635 169.74000549 155.00000000 -0.794856 -0.566432 0.217621 0.000000
135.21699524 268.51599121 78.75000000 0.070088 0.799575 -0.596463 0.000000
222.48399353 240.70500183 173.75000000 0.441371 0.587939 0.677879 0.000000
269.47500610 192.27600098 160.00000000 0.900491 0.335651 -0.276505 0.000000
187.00199890 268.03601074 172.50000000 -0.140849 0.567845 0.810995 0.000000
183.16600037 218.64799500 116.25000000 0.662696 -0.130146 0.737493 0.000000
203.30499268 258.44601440 132.50000000 0.782876 0.581344 -0.221686 0.000000
205.22300720 238.78700256 183.75000000 0.466316 0.553228 0.690281 0.000000
248.37699890 170.22000122 75.00000000 0.297164 0.891491 -0.341962 0.000000
149.60200500 237.34899902 57.50000000 0.389566 0.757941 -0.523224 0.000000
205.22300720 224.40199280 191.25000000 0.531683 0.075145 0.843603 0.000000
223.44299316 150.55999756 166.25000000 0.584183 -0.733890 0.346605 0.000000
163.02699280 208.10000610 71.25000000 0.817922 -0.162986 -0.551761 0.000000
246.45899963 216.72999573 173.75000000 0.366307 0.622558 0.691549 0.000000
186.04299927 147.20399475 145.00000000 -0.109131 -0.979730 -0.167989 0.000000
173.57600403 290.09298706 147.50000000 0.287250 0.924630 0.250093 0.000000
194.67399597 234.95100403 188.75000000 -0.000978 -0.000978 0.999999 0.000000
131.86000061 272.35101318 105.00000000 -0.441257 0.881057 0.170386 0.000000
128.02400208 244.54100037 162.50000000 -0.767270 0.256807 0.587663 0.000000
179.33000183 173.57600403 191.25000000 -0.293365 -0.636425 0.713373 0.000000
156.79400635 170.69900513 90.00000000 -0.456133 -0.842686 -0.286049 0.000000
179.80999756 152.47799683 162.50000000 -0.342460 -0.853827 0.392047 0.000000
250.29499817 229.19700623 141.25000000 0.861760 0.283172 -0.420931 0.000000
204.26400757 161.10899353 68.75000000 -0.446279 -0.666912 0.596711 0.000000
175.49400330 233.03300476 191.25000000 0.000978 0.000978 0.999999 0.000000
243.58200073 205.22300720 186.25000000 0.577914 0.628460 0.520628 0.000000
259.88500977 153.43699646 156.25000000 0.081651 -0.978597 0.188895 0.000000
150.08099365 175.49400330 80.00000000 -0.517011 -0.854252 -0.054349 0.000000
159.19099426 244.54100037 76.25000000 0.386441 0.787433 -0.480221 0.000000
159.19099426 193.71499634 183.75000000 -0.891491 -0.297164 0.341962 0.000000
210.97599792 243.58200073 178.75000000 0.309291 0.565697 0.764412 0.000000
232.07400513 150.55999756 101.25000000 -0.213056 -0.974147 -0.075124 0.000000
192.75599670 179.80999756 195.00000000 0.219921 -0.405895 0.887065 0.000000
210.01800537 190.83799744 138.75000000 0.238284 0.131512 -0.962250 0.000000
215.77099609 165.90400696 186.25000000 0.420235 -0.297089 0.857403 0.000000
136.65499878 187.00199890 47.50000000 -0.794856 -0.566432 0.217621 0.000000
270.43399048 180.76800537 132.50000000 0.682323 0.682323 -0.262432 0.000000
156.79400635 275.22799683 165.00000000 -0.246884 0.621141 0.743796 0.000000
126.58599854 199.94799805 70.00000000 -0.885632 -0.462481 0.042044 0.000000
127.54499817 198.98899841 50.00000000 -0.772270 -0.630277 -0.079690 0.000000
277.14599609 179.33000183 151.25000000 0.704281 0.704281 -0.089316 0.000000
162.54800415 159.19099426 132.50000000 -0.836701 -0.498363 0.227083 0.000000
191.79699707 203.30499268 201.25000000 0.000978 0.000978 0.999999 0.000000
159.67100525 187.96099854 182.50000000 -0.934187 -0.001261 0.356781 0.000000
203.30499268 236.86900330 121.25000000 0.098670 -0.169323 -0.980609 0.000000
187.96099854 268.51599121 123.75000000 -0.001264 0.933865 -0.357624 0.000000
201.38699341 153.43699646 101.25000000 -0.091387 -0.917958 -0.386006 0.000000
202.34599304 220.56599426 141.25000000 0.246405 -0.370345 -0.895616 0.000000
184.12500000 162.54800415 72.50000000 -0.205706 -0.966428 0.153956 0.000000
113.63999939 245.50000000 50.00000000 -0.857430 0.514458 -0.012153 0.000000
177.41200256 173.57600403 191.25000000 0.198918 -0.539051 0.818447 0.000000
251.73300171 212.89399719 167.50000000 0.704281 0.704281 0.089316 0.000000
117.95500183 215.77099609 108.75000000 -0.961033 -0.206972 0.183242 0.000000
230.15600586 222.48399353 131.25000000 -0.467830 -0.337789 -0.816721 0.000000
284.81799316 187.00199890 183.75000000 0.632812 0.747307 0.202686 0.000000
208.10000610 213.85299683 196.25000000 0.000978 0.000978 0.999999 0.000000
123.70899963 201.86599731 130.00000000 -0.819179 -0.527164 0.225928 0.000000
178.37100220 288.65399170 141.25000000 0.588100 0.798454 0.128878 0.000000
159.19099426 244.54100037 181.25000000 -0.563229 0.173650 0.807848 0.000000
181.24800110 270.43399048 171.25000000 0.215249 0.593096 0.775825 0.000000
268.03601074 168.78100586 100.00000000 0.607005 0.759926 -0.232503 0.000000
280.02301025 153.43699646 156.25000000 -0.032617 -0.972470 0.230735 0.000000
266.59799194 173.09700012 107.50000000 0.535611 0.804198 -0.257656 0.000000
221.52499390 170.22000122 187.50000000 0.288298 -0.217982 0.932399 0.000000
113.63999939 236.86900330 35.00000000 -0.572763 0.623450 -0.532214 0.000000
146.72500610 265.63900757 166.25000000 -0.431660 0.428426 0.793801 0.000000
167.82200623 158.23199463 163.75000000 -0.441257 -0.881057 0.170386 0.000000
251.25399780 226.32000732 151.25000000 0.857720 0.417311 0.300279 0.000000
160.14999390 212.89399719 188.75000000 -0.688080 -0.265379 0.675367 0.000000
145.76600647 235.91000366 176.25000000 -0.550512 0.176465 0.815964 0.000000
145.76600647 232.07400513 178.75000000 -0.703363 0.362338 0.611549 0.000000
283.85900879 184.12500000 188.75000000 0.708740 -0.559357 0.429892 0.000000
153.91700745 242.62300110 180.00000000 -0.377751 0.359096 0.853437 0.000000
122.75000000 205.70199585 65.00000000 -0.874052 -0.477140 -0.091487 0.000000
224.40199280 164.46600342 42.50000000 0.150329 0.862566 -0.483095 0.000000
246.45899963 150.08099365 115.00000000 0.001143 -0.982047 -0.188635 0.000000
148.64300537 233.99200439 53.75000000 0.235563 0.515776 -0.823702 0.000000
165.90400696 264.67999268 103.75000000 0.327630 0.753709 -0.569720 0.000000
175.49400330 275.22799683 123.75000000 0.361806 0.620472 -0.695781 0.000000
153.43699646 251.73300171 80.00000000 0.367701 0.737035 -0.567076 0.000000
240.22500610 193.71499634 107.50000000 0.467988 0.701150 -0.537937 0.000000
263.72100830 151.99899292 102.50000000 0.000000 0.000000 0.000000 0.000000
207.61999512 177.41200256 110.00000000 0.657235 0.001378 0.753685 0.000000
163.02699280 257.00799561 93.75000000 0.907516 0.398181 -0.133665 0.000000
229.19700623 206.18200684 136.25000000 -0.735111 -0.374923 -0.564840 0.000000
155.83500671 172.61700439 27.50000000 -0.518860 -0.798124 -0.306239 0.000000
164.94500732 158.71200562 137.50000000 -0.682323 -0.682323 0.262432 0.000000
160.14999390 170.22000122 60.00000000 -0.313151 -0.942140 0.119616 0.000000
246.45899963 214.81199646 133.75000000 -0.000978 -0.000978 -0.999999 0.000000
241.66400146 193.71499634 108.75000000 0.467988 0.701150 -0.537937 0.000000
152.47799683 276.66699219 162.50000000 -0.367214 0.572855 0.732797 0.000000
239.74600220 181.24800110 188.75000000 0.190539 -0.568569 0.800265 0.000000
203.78399658 184.12500000 112.50000000 0.972175 0.164365 0.166913 0.000000
154.87600708 173.57600403 27.50000000 -0.518860 -0.798124 -0.306239 0.000000
229.19700623 204.26400757 193.75000000 0.216231 0.361353 0.907010 0.000000
147.68400574 234.95100403 178.75000000 -0.595491 0.211902 0.774912 0.000000
231.11500549 237.34899902 122.50000000 0.100818 -0.910121 -0.401890 0.000000
221.52499390 186.52200317 145.00000000 0.613132 0.623211 -0.485466 0.000000
224.40199280 227.75900269 125.00000000 -0.411385 -0.821182 -0.395502 0.000000
176.45300293 161.58900452 60.00000000 -0.364086 -0.931294 -0.011497 0.000000
241.66400146 219.60699463 131.25000000 0.412519 -0.072157 -0.908087 0.000000
168.78100586 285.77700806 128.75000000 0.193286 0.495952 -0.846565 0.000000
135.69599915 258.92599487 165.00000000 -0.354197 0.302952 0.884740 0.000000
226.32000732 228.23800659 146.25000000 -0.434136 -0.887023 -0.157212 0.000000
134.25799561 210.01800537 168.75000000 -0.732895 -0.166082 0.659758 0.000000
147.68400574 253.65100098 77.50000000 0.641473 0.560658 -0.523617 0.000000
186.52200317 147.68400574 132.50000000 -0.223657 -0.970847 -0.086214 0.000000
182.20700073 280.02301025 133.75000000 0.356670 0.731256 -0.581422 0.000000
211.93499756 164.46600342 40.00000000 0.264121 0.526679 -0.807991 0.000000
220.56599426 201.86599731 130.00000000 -0.707106 0.707106 -0.001384 0.000000
176.45300293 174.53500366 43.75000000 0.243256 0.813436 -0.528346 0.000000
139.05299377 181.72700500 147.50000000 -0.891491 -0.297164 -0.341962 0.000000
240.70500183 149.12199402 120.00000000 0.001261 -0.934187 -0.356781 0.000000
265.63900757 151.99899292 142.50000000 0.080955 -0.996292 0.029144 0.000000
140.97099304 252.69200134 70.00000000 0.507830 0.598935 -0.619181 0.000000
117.47599792 229.19700623 142.50000000 -0.733714 0.491903 0.468716 0.000000
131.86000061 187.96099854 117.50000000 -0.894688 -0.446689 -0.001310 0.000000
153.43699646 191.79699707 176.25000000 -0.542074 -0.813875 0.209195 0.000000
185.08399963 243.10200500 187.50000000 -0.792878 -0.001369 0.609379 0.000000
200.90699768 197.55099487 125.00000000 0.881057 0.441257 0.170386 0.000000
216.72999573 157.75300598 72.50000000 -0.313151 -0.942140 -0.119616 0.000000
122.26999664 212.89399719 150.00000000 -0.000978 -0.000978 0.999999 0.000000
200.42799377 149.12199402 115.00000000 0.001261 -0.934187 -0.356781 0.000000
198.98899841 217.68899536 140.00000000 -0.340492 0.679356 -0.650031 0.000000
280.98199463 159.19099426 106.25000000 0.933865 -0.001264 -0.357624 0.000000
171.65800476 255.08999634 96.25000000 0.293963 0.714829 -0.634511 0.000000
212.89399719 198.98899841 112.50000000 0.001302 0.902354 0.430994 0.000000
187.96099854 252.21299744 183.75000000 0.000978 0.000978 0.999999 0.000000
175.49400330 176.45300293 193.75000000 0.272253 -0.304283 0.912848 0.000000
130.42199707 242.62300110 48.75000000 0.497900 0.501230 -0.707717 0.000000
234.47200012 213.85299683 180.00000000 0.360442 0.866594 0.345104 0.000000
197.55099487 209.05900574 198.75000000 0.000978 0.000978 0.999999 0.000000
231.11500549 152.95799255 87.50000000 -0.128850 -0.980485 -0.148484 0.000000
226.32000732 201.86599731 125.00000000 0.001261 0.934187 -0.356781 0.000000
197.55099487 194.67399597 83.75000000 0.212422 0.854207 -0.474560 0.000000
124.18800354 215.77099609 155.00000000 -0.857971 -0.166869 0.485839 0.000000
130.42199707 266.11801147 80.00000000 -0.470026 0.747095 -0.470026 0.000000
224.40199280 230.15600586 141.25000000 -0.592901 -0.701902 -0.394717 0.000000
147.20399475 180.28900146 27.50000000 -0.774014 -0.614703 -0.151797 0.000000
237.82800293 164.46600342 50.00000000 0.682323 0.682323 -0.262432 0.000000
170.69900513 285.77700806 156.25000000 -0.120294 0.850754 0.511612 0.000000
199.46899414 189.87899780 196.25000000 0.934187 0.001261 0.356781 0.000000
202.34599304 270.91299438 150.00000000 0.756781 0.632420 -0.165309 0.000000
233.03300476 201.38699341 126.25000000 0.110730 0.968570 -0.222733 0.000000
150.55999756 252.21299744 173.75000000 -0.405368 0.243819 0.881039 0.000000
215.77099609 144.32699585 150.00000000 0.001261 -0.934187 -0.356781 0.000000
190.83799744 188.91999817 198.75000000 0.000978 0.000978 0.999999 0.000000
157.75300598 255.08999634 87.50000000 0.467988 0.701150 -0.537937 0.000000
246.45899963 214.81199646 176.25000000 0.464162 0.584811 0.665244 0.000000
185.08399963 210.49699402 100.00000000 0.357880 0.812785 -0.459677 0.000000
186.04299927 235.91000366 191.25000000 0.410299 0.359994 0.837890 0.000000
206.18200684 244.54100037 103.75000000 -0.764983 -0.460300 -0.450472 0.000000
153.43699646 204.26400757 58.75000000 0.927586 0.014113 -0.373344 0.000000
172.61700439 190.83799744 71.25000000 0.479315 0.620587 -0.620587 0.000000
244.54100037 196.59199524 121.25000000 0.538011 0.827137 -0.162447 0.000000
196.59199524 172.61700439 43.75000000 0.165728 0.464918 -0.869704 0.000000
124.18800354 196.59199524 107.50000000 -0.865851 0.001334 0.500299 0.000000
233.99200439 163.02699280 181.25000000 0.081821 -0.819642 0.567003 0.000000
206.18200684 147.20399475 172.50000000 -0.265219 -0.706721 0.655900 0.000000
244.54100037 174.53500366 186.25000000 -0.168562 -0.291899 0.941478 0.000000
119.39399719 254.13099670 147.50000000 -0.977778 0.196043 0.074277 0.000000
209.05900574 258.92599487 143.75000000 0.721224 0.439367 -0.535530 0.000000
211.45599365 245.50000000 120.00000000 0.588604 0.260374 -0.765343 0.000000
215.77099609 185.56300354 72.50000000 0.301036 0.629439 -0.716369 0.000000
132.33999634 273.30999756 101.25000000 -0.087069 0.967852 0.235969 0.000000
188.91999817 191.79699707 78.75000000 -0.089452 0.859026 -0.504056 0.000000
202.34599304 249.33599854 181.25000000 0.389615 0.349256 0.852186 0.000000
169.74000549 154.87600708 135.00000000 -0.446159 -0.890929 0.084784 0.000000
173.57600403 154.87600708 157.50000000 -0.514854 -0.847394 0.129807 0.000000
186.04299927 213.85299683 111.25000000 0.803547 0.594653 0.026460 0.000000
161.10899353 165.90400696 98.75000000 -0.509032 -0.800814 -0.315568 0.000000
158.23199463 184.60400391 27.50000000 0.682323 0.682323 0.262432 0.000000
156.31399536 238.30799866 182.50000000 -0.331160 0.473764 0.816015 0.000000
117.95500183 250.29499817 68.75000000 -0.931179 0.283157 0.229625 0.000000
216.72999573 196.59199524 196.25000000 0.000978 0.000978 0.999999 0.000000
157.27299500 186.04299927 26.25000000 0.630903 0.667333 0.395763 0.000000
161.10899353 184.12500000 186.25000000 -0.933865 0.001264 0.357624 0.000000
157.27299500 185.56300354 27.50000000 0.682323 0.682323 0.262432 0.000000
217.68899536 193.71499634 81.25000000 0.262366 0.666250 -0.698051 0.000000
208.10000610 231.11500549 188.75000000 0.198288 0.310792 0.929564 0.000000
146.72500610 196.59199524 173.75000000 -0.641584 -0.018092 0.766839 0.000000
116.51699829 222.48399353 87.50000000 -0.988255 -0.149666 0.030847 0.000000
178.37100220 214.81199646 116.25000000 0.000978 0.000978 0.999999 0.000000
201.38699341 244.06100464 110.00000000 0.297164 -0.891491 0.341962 0.000000
225.36099243 222.48399353 181.25000000 0.943103 0.323987 0.074766 0.000000
259.88500977 200.90699768 150.00000000 0.682323 0.682323 -0.262432 0.000000
200.90699768 166.86300659 40.00000000 0.001384 0.718088 -0.695951 0.000000
136.17599487 232.07400513 41.25000000 0.582888 0.586267 -0.562613 0.000000
217.68899536 198.98899841 132.50000000 -0.431757 0.777163 0.457825 0.000000
192.75599670 219.60699463 138.75000000 -0.001378 -0.657235 -0.753685 0.000000
155.83500671 186.04299927 42.50000000 0.766547 0.634636 -0.098200 0.000000
167.82200623 179.33000183 191.25000000 -0.611022 -0.503294 0.611022 0.000000
174.53500366 152.95799255 150.00000000 -0.491618 -0.859237 0.141504 0.000000
155.35499573 262.76199341 96.25000000 -0.148711 0.608361 -0.779604 0.000000
233.03300476 185.08399963 191.25000000 0.200701 -0.203359 0.958313 0.000000
214.81199646 157.75300598 65.00000000 -0.187140 -0.980995 -0.051255 0.000000
218.64799500 145.28599548 147.50000000 0.403037 -0.884897 0.233494 0.000000
152.47799683 275.22799683 163.75000000 -0.354154 0.589169 0.726261 0.000000
250.77400208 211.93499756 172.50000000 0.906374 0.246662 0.342992 0.000000
118.43499756 252.21299744 92.50000000 -0.891532 0.424882 -0.156990 0.000000
168.78100586 177.41200256 191.25000000 -0.673401 -0.117436 0.729890 0.000000
148.64300537 250.29499817 173.75000000 -0.342929 0.345977 0.873326 0.000000
117.95500183 246.93800354 42.50000000 -0.229317 0.616193 -0.753472 0.000000
207.14100647 167.82200623 188.75000000 -0.316612 -0.328616 0.889814 0.000000
186.04299927 200.42799377 88.75000000 0.172586 0.688818 -0.704091 0.000000
132.33999634 276.66699219 112.50000000 -0.607425 0.741346 -0.285378 0.000000
123.22899628 221.52499390 155.00000000 -0.785547 -0.307526 0.536976 0.000000
271.87200928 187.00199890 162.50000000 0.691803 0.672719 -0.262408 0.000000
262.76199341 201.86599731 162.50000000 0.682323 0.682323 -0.262432 0.000000
235.91000366 188.91999817 86.25000000 -0.000978 -0.000978 -0.999999 0.000000
168.78100586 167.82200623 183.75000000 -0.143186 -0.724974 0.673729 0.000000
191.79699707 151.99899292 110.00000000 -0.398518 -0.795423 -0.456602 0.000000
116.51699829 220.56599426 57.50000000 -0.955195 -0.292252 0.046811 0.000000
