193.37500000 203.60200500 133.75000000 -0.368456 0.368456 0.853511 0.000000
214.75799561 149.67999268 218.75000000 0.142517 0.308109 -0.940615 0.000000
243.57800293 198.02400208 198.75000000 0.408426 0.843454 -0.348961 0.000000
165.48399353 208.25000000 151.25000000 -0.668076 -0.693588 -0.269463 0.000000
191.51600647 206.39100647 131.25000000 -0.333393 0.398521 0.854418 0.000000
226.84399414 205.46099854 178.75000000 -0.853531 -0.398108 -0.336146 0.000000
92.96880341 193.83999634 165.00000000 0.956359 0.287541 -0.051935 0.000000
175.71099854 291.92199707 158.75000000 -0.687818 -0.344726 0.638804 0.000000
146.89100647 218.47700500 226.25000000 -0.155324 -0.191267 -0.969171 0.000000
201.74200439 106.91400146 186.25000000 -0.238450 0.902600 -0.358407 0.000000
240.32400513 159.90600586 190.00000000 0.732798 -0.244266 -0.635092 0.000000
118.06999969 163.16000366 202.50000000 0.412658 0.744757 -0.524453 0.000000
240.78900146 153.39900208 191.25000000 0.631969 -0.107538 -0.767496 0.000000
132.94500732 288.20300293 108.75000000 -0.865505 -0.083032 0.493971 0.000000
226.84399414 124.57800293 206.25000000 -0.000978 -0.000978 -0.999999 0.000000
158.04699707 285.41400146 191.25000000 -0.000978 -0.000978 -0.999999 0.000000
189.65600586 148.75000000 168.75000000 -0.660886 0.614274 0.431157 0.000000
151.53900146 191.51600647 116.25000000 -0.522199 0.705719 0.478821 0.000000
112.49199677 153.86300659 155.00000000 0.658615 0.162753 -0.734668 0.000000
200.34800720 194.30499268 145.00000000 0.304140 0.837556 0.453871 0.000000
139.45300293 271.46899414 121.25000000 -0.631920 -0.311919 0.709495 0.000000
216.61700439 189.65600586 168.75000000 -0.385458 0.479000 -0.788657 0.000000
204.06700134 224.98399353 175.00000000 -0.967688 -0.214613 0.132366 0.000000
81.81250000 207.78500366 72.50000000 -0.437525 0.700373 0.563958 0.000000
247.29699707 158.04699707 221.25000000 -0.239410 0.092470 -0.966505 0.000000
183.14900208 235.21099854 206.25000000 -0.600362 -0.313862 -0.735565 0.000000
198.02400208 153.39900208 213.75000000 0.463871 0.143063 -0.874275 0.000000
178.03500366 160.83599854 157.50000000 -0.987570 0.021592 -0.155693 0.000000
167.34399414 136.19900513 145.00000000 0.289951 0.953068 0.087115 0.000000
204.06700134 230.56300354 185.00000000 -0.940531 0.256257 -0.223012 0.000000
106.91400146 177.57000732 103.75000000 -0.282043 0.416203 0.864423 0.000000
185.93800354 190.58599854 213.75000000 -0.087007 0.526321 -0.845823 0.000000
204.53100586 151.53900146 216.25000000 -0.000978 -0.000978 -0.999999 0.000000
120.85900116 306.33200073 155.00000000 0.708486 -0.705724 -0.001381 0.000000
85.99610138 239.85899353 175.00000000 0.999999 0.000978 0.000978 0.000000
201.74200439 113.88700104 195.00000000 -0.138823 0.786666 -0.601568 0.000000
142.24200439 189.65600586 113.75000000 -0.252710 0.473257 0.843899 0.000000
111.56300354 163.62500000 118.75000000 -0.726070 0.444904 0.524292 0.000000
211.96899414 159.90600586 161.25000000 0.555575 0.220075 -0.801813 0.000000
183.14900208 237.07000732 143.75000000 -0.618388 -0.350800 0.703232 0.000000
105.98400116 194.30499268 213.75000000 0.821608 -0.026325 -0.569445 0.000000
238.46499634 140.38299561 190.00000000 0.610612 0.293286 -0.735619 0.000000
211.03900146 156.18800354 158.75000000 0.375586 0.057068 -0.925029 0.000000
213.36300659 135.73399353 165.00000000 0.559893 -0.367277 -0.742716 0.000000
202.67199707 123.18399811 205.00000000 0.001372 0.610705 -0.791857 0.000000
97.61720276 261.24200439 193.75000000 0.661536 -0.473961 -0.581147 0.000000
199.41799927 232.42199707 160.00000000 -0.825329 -0.172256 0.537737 0.000000
109.23799896 279.83599854 190.00000000 0.513469 -0.658250 -0.550506 0.000000
227.30900574 200.81300354 172.50000000 -0.806700 -0.389718 0.444246 0.000000
164.55499268 194.30499268 228.75000000 -0.539084 0.357771 -0.762488 0.000000
156.18800354 236.14100647 218.75000000 -0.151583 -0.440313 -0.884956 0.000000
96.68750000 253.80499268 86.25000000 0.800626 -0.519539 0.298458 0.000000
85.53130341 211.03900146 71.25000000 -0.458542 0.751089 0.474978 0.000000
226.84399414 125.50800323 178.75000000 0.756781 0.165309 -0.632420 0.000000
233.35200500 151.53900146 221.25000000 0.001366 0.802126 -0.597153 0.000000
96.68750000 263.56698608 107.50000000 0.777627 -0.569418 0.266570 0.000000
99.01180267 170.13299561 147.50000000 0.872183 0.184472 -0.453063 0.000000
128.29699707 234.28100586 216.25000000 0.795111 -0.529547 0.295598 0.000000
165.48399353 190.58599854 226.25000000 -0.518699 0.449097 -0.727504 0.000000
243.57800293 158.51199341 222.50000000 -0.475994 -0.249476 -0.843321 0.000000
172.92199707 223.12500000 221.25000000 -0.388240 -0.320720 -0.863949 0.000000
148.75000000 130.15600586 183.75000000 0.706002 0.492365 -0.509056 0.000000
215.68800354 204.53100586 206.25000000 -0.398140 -0.826419 -0.398140 0.000000
168.27400208 205.46099854 226.25000000 -0.082065 -0.109805 -0.990560 0.000000
194.30499268 156.18800354 211.25000000 0.415896 -0.019680 -0.909199 0.000000
184.07800293 222.19500732 133.75000000 -0.647425 -0.427733 0.630782 0.000000
80.41799927 211.03900146 110.00000000 0.987738 -0.123614 -0.095360 0.000000
77.62889862 212.89900208 72.50000000 0.939471 -0.235216 0.249134 0.000000
169.20300293 252.87500000 206.25000000 -0.293781 -0.557391 -0.776536 0.000000
246.83200073 194.30499268 200.00000000 0.662101 0.290170 -0.690958 0.000000
138.52400208 121.78900146 158.75000000 0.505035 0.810258 -0.297357 0.000000
192.44500732 147.82000732 153.75000000 0.104376 -0.050504 -0.993255 0.000000
89.25000000 212.89900208 71.25000000 -0.467578 0.490709 0.735238 0.000000
109.23799896 178.50000000 210.00000000 0.679502 0.370189 -0.633434 0.000000
170.13299561 138.52400208 201.25000000 0.232944 0.232944 -0.944179 0.000000
79.48829651 202.67199707 110.00000000 0.974240 -0.093318 -0.205300 0.000000
127.83200073 134.80499268 165.00000000 0.631830 0.594763 -0.497040 0.000000
140.38299561 188.72700500 113.75000000 -0.500495 0.588123 0.635308 0.000000
125.50800323 190.58599854 226.25000000 0.223492 -0.001170 -0.974705 0.000000
208.25000000 94.36329651 167.50000000 -0.314876 0.941947 -0.116571 0.000000
194.30499268 107.84400177 151.25000000 0.443386 0.433641 -0.784452 0.000000
176.64100647 206.39100647 138.75000000 -0.490271 -0.737882 0.463859 0.000000
250.08599854 171.06300354 196.25000000 0.695329 0.169630 -0.698386 0.000000
129.22700500 209.64500427 227.50000000 0.323013 -0.137655 -0.936330 0.000000
204.53100586 171.99200439 216.25000000 0.582909 0.397963 -0.708408 0.000000
204.99600220 210.10899353 160.00000000 -0.563616 -0.712371 0.418167 0.000000
119.46499634 153.39900208 172.50000000 0.788662 0.530554 -0.310685 0.000000
167.34399414 238.92999268 213.75000000 -0.354699 -0.456496 -0.815966 0.000000
113.88700104 256.59399414 207.50000000 0.204587 -0.464428 -0.861656 0.000000
166.41400146 283.55499268 191.25000000 -0.312995 -0.513185 -0.799171 0.000000
96.68750000 252.87500000 86.25000000 0.791310 -0.509955 0.337306 0.000000
95.75789642 263.10198975 191.25000000 0.716169 -0.493509 -0.493509 0.000000
88.78520203 208.25000000 155.00000000 0.936985 0.333776 -0.103216 0.000000
142.24200439 256.59399414 208.75000000 0.064485 -0.203190 -0.977014 0.000000
99.47660065 262.17199707 93.75000000 0.727522 -0.611377 0.311334 0.000000
91.57430267 248.22700500 92.50000000 0.732798 -0.244266 0.635092 0.000000
85.06649780 226.84399414 145.00000000 0.795111 0.529547 0.295598 0.000000
105.98400116 179.89500427 207.50000000 0.753790 0.425341 -0.500885 0.000000
91.10939789 216.61700439 71.25000000 -0.566174 0.502332 0.653536 0.000000
198.95300293 114.35199738 196.25000000 -0.052278 0.812430 -0.580711 0.000000
171.99200439 238.00000000 211.25000000 -0.365286 -0.460994 -0.808734 0.000000
244.50799561 171.99200439 221.25000000 -0.174836 -0.162074 -0.971167 0.000000
117.14099884 286.34399414 191.25000000 0.270807 -0.072469 -0.959902 0.000000
192.44500732 218.47700500 211.25000000 -0.599504 -0.485313 -0.636448 0.000000
239.85899353 173.85200500 221.25000000 -0.000978 -0.000978 -0.999999 0.000000
159.44099426 171.99200439 217.50000000 -0.359187 0.687211 -0.631447 0.000000
214.75799561 185.93800354 168.75000000 -0.408873 0.331140 -0.850393 0.000000
92.03910065 255.19900513 107.50000000 0.945929 -0.291987 0.141284 0.000000
116.21099854 185.00799561 103.75000000 -0.215125 0.589660 0.778475 0.000000
164.08999634 204.53100586 142.50000000 -0.856103 0.303878 -0.418025 0.000000
106.44899750 193.37500000 215.00000000 0.653099 0.254598 -0.713191 0.000000
169.20300293 222.19500732 123.75000000 -0.055371 -0.318060 0.946452 0.000000
129.22700500 309.58599854 163.75000000 0.248618 -0.849572 -0.465206 0.000000
102.73100281 275.18798828 112.50000000 0.759690 -0.581314 0.291453 0.000000
214.75799561 100.87100220 167.50000000 0.782549 0.119823 -0.610950 0.000000
140.38299561 181.28900146 228.75000000 -0.167305 0.247611 -0.954305 0.000000
158.97700500 179.42999268 223.75000000 -0.001323 0.475046 -0.879960 0.000000
207.32000732 186.86700439 148.75000000 0.215898 0.297741 0.929913 0.000000
99.01180267 182.21899414 172.50000000 0.826201 0.557005 -0.084482 0.000000
195.23399353 219.40600586 146.25000000 -0.780907 -0.401006 0.478935 0.000000
154.79299927 132.01600647 192.50000000 0.576718 0.427137 -0.696383 0.000000
139.45300293 271.46899414 203.75000000 -0.131332 -0.416592 -0.899557 0.000000
233.35200500 112.49199677 198.75000000 0.324024 0.525142 -0.786915 0.000000
186.40199280 200.81300354 215.00000000 -0.000978 -0.000978 -0.999999 0.000000
185.47300720 281.69500732 162.50000000 -0.703083 -0.368750 0.608028 0.000000
198.02400208 233.35200500 193.75000000 -0.000978 -0.000978 -0.999999 0.000000
204.53100586 109.23799896 190.00000000 0.233667 0.657089 -0.716682 0.000000
176.64100647 251.48100281 202.50000000 -0.520760 -0.349860 -0.778721 0.000000
194.77000427 155.25799561 212.50000000 0.415896 -0.019680 -0.909199 0.000000
154.32800293 169.20300293 138.75000000 -0.292895 -0.244317 0.924404 0.000000
234.28100586 193.37500000 191.25000000 0.495044 0.387920 -0.777463 0.000000
238.00000000 163.62500000 186.25000000 0.937612 0.001255 -0.347682 0.000000
162.69500732 288.20300293 188.75000000 -0.244421 -0.493454 -0.834722 0.000000
105.98400116 238.46499634 205.00000000 0.686399 0.362039 -0.630701 0.000000
138.05900574 187.79699707 112.50000000 -0.459768 0.715380 0.526161 0.000000
177.10600281 154.32800293 165.00000000 -0.957585 -0.135669 -0.254214 0.000000
158.97700500 304.93798828 176.25000000 -0.494273 -0.738930 -0.457905 0.000000
197.09399414 188.72700500 166.25000000 0.359926 0.914753 -0.183520 0.000000
178.50000000 204.53100586 153.75000000 0.375326 0.729345 0.572003 0.000000
153.39900208 290.06298828 138.75000000 -0.708393 -0.471707 0.525045 0.000000
130.62100220 140.38299561 172.50000000 0.576400 0.692677 -0.433546 0.000000
218.47700500 147.35600281 220.00000000 0.210337 0.309153 -0.927460 0.000000
154.32800293 223.58999634 225.00000000 -0.187703 -0.241718 -0.952019 0.000000
144.10200500 238.00000000 216.25000000 0.265294 -0.662440 -0.700566 0.000000
110.16799927 271.46899414 90.00000000 0.681891 -0.652597 0.330367 0.000000
194.30499268 191.05099487 155.00000000 0.617798 0.644586 0.450373 0.000000
124.11299896 177.57000732 120.00000000 -0.512360 0.705955 0.488995 0.000000
180.82400513 112.49199677 162.50000000 0.000000 0.000000 0.000000 0.000000
235.67599487 171.06300354 180.00000000 0.802126 -0.001366 -0.597153 0.000000
146.89100647 269.60998535 203.75000000 -0.125804 -0.498879 -0.857493 0.000000
108.30899811 272.39898682 95.00000000 0.684909 -0.618894 0.384539 0.000000
85.99610138 226.84399414 162.50000000 0.993810 0.110181 -0.014182 0.000000
188.72700500 172.92199707 171.25000000 -0.390524 0.371704 0.842215 0.000000
97.15239716 163.62500000 135.00000000 0.874250 0.440836 -0.203348 0.000000
140.38299561 172.92199707 136.25000000 -0.332284 0.097417 0.938135 0.000000
87.85549927 250.08599854 122.50000000 0.950655 -0.301364 0.073724 0.000000
185.00799561 190.58599854 161.25000000 -0.221426 0.417588 0.881244 0.000000
167.34399414 304.47299194 167.50000000 -0.683659 -0.683659 -0.255381 0.000000
203.13699341 106.91400146 157.50000000 0.695215 0.182628 -0.695215 0.000000
180.35899353 254.27000427 147.50000000 -0.842950 0.136338 -0.520430 0.000000
189.65600586 218.47700500 211.25000000 -0.532280 -0.482222 -0.695802 0.000000
98.54689789 225.91400146 71.25000000 -0.725996 0.381845 0.571948 0.000000
135.73399353 155.25799561 131.25000000 0.050590 -0.463515 0.884644 0.000000
188.26199341 208.25000000 130.00000000 -0.281671 0.281671 0.917237 0.000000
247.29699707 169.20300293 221.25000000 -0.000978 -0.000978 -0.999999 0.000000
181.75399780 283.55499268 182.50000000 -0.569619 -0.620326 -0.539194 0.000000
155.25799561 246.83200073 212.50000000 -0.198529 -0.473185 -0.858302 0.000000
141.77699280 189.65600586 112.50000000 -0.333481 0.546136 0.768457 0.000000
181.28900146 278.90600586 186.25000000 -0.379557 -0.257503 -0.888610 0.000000
154.32800293 190.12100220 137.50000000 -0.625948 0.697859 0.348112 0.000000
225.44900513 200.81300354 182.50000000 -0.987514 -0.037937 -0.152898 0.000000
171.99200439 176.64100647 148.75000000 -0.583667 -0.502929 0.637492 0.000000
224.05499268 202.67199707 171.25000000 -0.797126 -0.285703 0.531944 0.000000
158.97700500 231.49200439 221.25000000 -0.147465 -0.573474 -0.805842 0.000000
145.96099854 154.32800293 203.75000000 0.151302 0.582736 -0.798453 0.000000
131.08599854 144.56599426 182.50000000 0.633448 0.739804 -0.226790 0.000000
119.00000000 181.75399780 107.50000000 -0.458852 0.568976 0.682438 0.000000
160.37100220 174.78100586 220.00000000 -0.355448 0.692878 -0.627357 0.000000
127.36699677 232.42199707 98.75000000 -0.643012 -0.123256 0.755873 0.000000
193.37500000 205.46099854 133.75000000 -0.368456 0.368456 0.853511 0.000000
215.68800354 170.13299561 218.75000000 0.347836 -0.133360 -0.928022 0.000000
112.49199677 284.94900513 112.50000000 0.580972 -0.762427 0.284915 0.000000
172.92199707 197.09399414 223.75000000 -0.638825 0.318604 -0.700282 0.000000
210.10899353 184.07800293 148.75000000 0.153155 0.413660 0.897457 0.000000
206.39100647 208.25000000 211.25000000 -0.203867 -0.447911 -0.870525 0.000000
171.06300354 143.17199707 143.75000000 -0.165424 0.836064 0.523099 0.000000
112.49199677 214.29299927 217.50000000 0.631895 -0.283153 -0.721480 0.000000
135.73399353 241.71899414 211.25000000 0.221859 -0.352364 -0.909186 0.000000
123.64800262 166.41400146 128.75000000 -0.516545 0.386187 0.764226 0.000000
165.48399353 173.38699341 215.00000000 -0.405948 0.641232 -0.651174 0.000000
122.71900177 143.17199707 126.25000000 -0.693098 -0.552808 0.462622 0.000000
139.91799927 210.10899353 230.00000000 0.001366 -0.802126 -0.597153 0.000000
207.32000732 205.46099854 211.25000000 -0.350354 -0.425767 -0.834251 0.000000
118.53500366 181.28900146 107.50000000 -0.493188 0.584083 0.644680 0.000000
93.43360138 273.32800293 137.50000000 0.749799 -0.600158 0.278588 0.000000
190.58599854 147.82000732 173.75000000 -0.895137 0.428478 0.123028 0.000000
89.25000000 265.42599487 152.50000000 0.999999 0.000978 0.000978 0.000000
173.85200500 179.42999268 156.25000000 -0.555184 -0.555184 0.619308 0.000000
95.75789642 215.68800354 196.25000000 0.000978 0.999999 0.000978 0.000000
241.71899414 148.75000000 193.75000000 0.684371 -0.015332 -0.728973 0.000000
159.90600586 233.35200500 218.75000000 -0.138296 -0.490587 -0.860348 0.000000
158.97700500 267.75000000 138.75000000 -0.408303 -0.516527 0.752654 0.000000
155.72300720 272.39898682 137.50000000 -0.742811 -0.192239 0.641309 0.000000
132.94500732 209.17999268 101.25000000 -0.510500 -0.065736 0.857361 0.000000
146.89100647 165.48399353 216.25000000 0.149497 0.699161 -0.699161 0.000000
117.14099884 297.03500366 130.00000000 0.631998 -0.763477 0.132973 0.000000
163.16000366 158.04699707 137.50000000 -0.337207 -0.003761 0.941423 0.000000
143.17199707 227.30900574 110.00000000 -0.565746 -0.348525 0.747303 0.000000
214.75799561 140.38299561 163.75000000 0.533362 -0.307280 -0.788102 0.000000
116.21099854 138.05900574 147.50000000 0.784813 0.558334 -0.268944 0.000000
197.09399414 190.58599854 213.75000000 -0.000978 -0.000978 -0.999999 0.000000
225.91400146 210.10899353 158.75000000 -0.486998 -0.325194 0.810606 0.000000
197.09399414 121.78900146 156.25000000 0.454246 0.167969 -0.874898 0.000000
89.25000000 191.05099487 90.00000000 -0.347566 0.432491 0.831955 0.000000
102.26599884 234.28100586 71.25000000 -0.730465 0.199218 0.653249 0.000000
196.16400146 107.37899780 152.50000000 0.541751 0.329552 -0.773241 0.000000
132.01600647 138.98800659 172.50000000 0.628310 0.601359 -0.493552 0.000000
99.47660065 206.39100647 201.25000000 0.862661 0.086125 -0.498395 0.000000
85.06649780 243.57800293 157.50000000 0.999999 0.000978 0.000978 0.000000
89.71489716 235.21099854 72.50000000 0.776308 -0.545817 0.315325 0.000000
254.73500061 164.55499268 203.75000000 0.832184 -0.254750 -0.492517 0.000000
101.33599854 276.58200073 120.00000000 0.783724 -0.468937 0.407277 0.000000
230.56300354 153.39900208 223.75000000 -0.064484 0.783836 -0.617611 0.000000
190.58599854 265.89099121 158.75000000 -0.485959 -0.203110 0.850053 0.000000
224.05499268 206.39100647 158.75000000 -0.658966 0.026696 0.751699 0.000000
102.26599884 277.97698975 183.75000000 0.555249 -0.093743 -0.826384 0.000000
158.04699707 286.34399414 191.25000000 -0.255294 -0.418441 -0.871626 0.000000
231.49200439 112.49199677 196.25000000 0.196485 0.676096 -0.710132 0.000000
90.64459991 202.67199707 155.00000000 0.946587 0.313793 -0.074217 0.000000
158.51199341 208.25000000 117.50000000 -0.751106 -0.152639 0.642294 0.000000
146.89100647 296.57000732 186.25000000 -0.427921 0.427921 -0.796095 0.000000
165.02000427 242.64900208 212.50000000 -0.235768 -0.427986 -0.872491 0.000000
193.37500000 99.94149780 177.50000000 0.168491 0.916079 -0.363883 0.000000
96.22270203 186.86700439 177.50000000 0.705933 0.703010 -0.086232 0.000000
183.14900208 211.96899414 128.75000000 -0.510995 -0.174304 0.841726 0.000000
179.89500427 172.92199707 165.00000000 -0.799333 0.220240 0.559071 0.000000
193.37500000 145.96099854 211.25000000 0.312077 0.262726 -0.913008 0.000000
227.77400208 185.00799561 181.25000000 0.372540 0.612148 -0.697487 0.000000
203.60200500 160.83599854 158.75000000 -0.013650 0.306503 -0.951772 0.000000
103.19499969 238.00000000 71.25000000 -0.706481 0.289962 0.645605 0.000000
94.36329651 198.95300293 190.00000000 0.908575 0.157335 -0.386959 0.000000
139.45300293 315.16400146 158.75000000 0.399694 -0.912611 -0.085941 0.000000
160.37100220 195.23399353 125.00000000 -0.658057 0.658057 0.365952 0.000000
128.29699707 180.35899353 223.75000000 0.247762 0.448403 -0.858806 0.000000
117.14099884 222.19500732 88.75000000 -0.593253 -0.070047 0.801963 0.000000
175.71099854 195.23399353 158.75000000 0.061650 0.453473 0.889135 0.000000
118.06999969 290.06298828 113.75000000 0.566473 -0.745017 0.352219 0.000000
164.55499268 236.14100647 216.25000000 -0.243469 -0.531910 -0.811046 0.000000
83.20709991 224.98399353 112.50000000 0.972496 -0.148735 -0.179244 0.000000
152.46899414 235.21099854 218.75000000 -0.109071 -0.457530 -0.882480 0.000000
187.79699707 139.45300293 208.75000000 0.863203 -0.023109 -0.504328 0.000000
93.89849854 239.85899353 71.25000000 0.751109 -0.616255 0.236780 0.000000
128.29699707 149.67999268 193.75000000 0.378881 0.807320 -0.452419 0.000000
156.18800354 234.28100586 218.75000000 -0.180997 -0.594704 -0.783306 0.000000
254.73500061 189.19099426 207.50000000 0.824463 0.365549 -0.432012 0.000000
132.94500732 225.91400146 223.75000000 0.159543 -0.538270 -0.827534 0.000000
144.10200500 124.11299896 172.50000000 0.614329 0.729816 -0.299947 0.000000
155.25799561 145.03100586 136.25000000 -0.436358 0.212967 0.874206 0.000000
137.59399414 302.14898682 123.75000000 0.001255 -0.937612 0.347682 0.000000
92.03910065 163.62500000 121.25000000 0.643213 0.639889 -0.420498 0.000000
105.05500031 240.78900146 71.25000000 -0.702677 0.216568 0.677749 0.000000
148.28500366 117.14099884 162.50000000 0.364165 0.833954 -0.414613 0.000000
188.72700500 166.41400146 211.25000000 0.119555 0.491184 -0.862812 0.000000
218.47700500 212.43400574 175.00000000 -0.683659 -0.683659 0.255381 0.000000
79.02349854 204.53100586 106.25000000 0.941251 -0.197070 -0.274244 0.000000
188.72700500 145.96099854 208.75000000 0.248373 0.455605 -0.854830 0.000000
92.03910065 270.07400513 172.50000000 0.736867 -0.169342 -0.654485 0.000000
157.11700439 305.86700439 146.25000000 -0.579334 -0.161010 0.799029 0.000000
170.59800720 185.93800354 157.50000000 -0.250167 -0.146924 0.956990 0.000000
87.39070129 253.33999634 172.50000000 0.940531 -0.256257 -0.223012 0.000000
121.78900146 306.79699707 146.25000000 0.583589 -0.809034 0.069917 0.000000
172.92199707 199.88299561 223.75000000 -0.735416 0.321643 -0.596414 0.000000
114.81600189 213.82800293 220.00000000 0.549357 -0.230575 -0.803145 0.000000
131.55099487 196.16400146 105.00000000 -0.439426 0.163878 0.883203 0.000000
163.62500000 292.85198975 186.25000000 -0.267895 -0.448533 -0.852672 0.000000
137.59399414 281.69500732 196.25000000 0.077455 -0.508387 -0.857638 0.000000
149.67999268 207.32000732 228.75000000 -0.289614 -0.189843 -0.938128 0.000000
237.53500366 118.06999969 187.50000000 0.667619 -0.199821 -0.717187 0.000000
96.22270203 243.57800293 72.50000000 0.657626 -0.604079 0.450131 0.000000
259.38299561 187.33200073 212.50000000 0.416700 0.622560 -0.662404 0.000000
171.06300354 204.53100586 136.25000000 -0.001323 -0.475046 0.879960 0.000000
122.25399780 293.78100586 115.00000000 0.254047 -0.889909 0.378843 0.000000
158.97700500 239.85899353 126.25000000 -0.465158 -0.413293 0.782826 0.000000
173.85200500 236.14100647 133.75000000 -0.550532 -0.418272 0.722470 0.000000
96.68750000 244.04299927 72.50000000 0.657626 -0.604079 0.450131 0.000000
186.86700439 199.88299561 153.75000000 0.253880 0.808365 0.531122 0.000000
235.67599487 166.41400146 180.00000000 0.868467 -0.109806 -0.483433 0.000000
196.16400146 161.76600647 171.25000000 -0.719739 0.467082 -0.513624 0.000000
186.86700439 259.38299561 191.25000000 -0.619454 -0.445806 -0.646169 0.000000
86.46099854 189.65600586 88.75000000 -0.048270 0.495115 0.867486 0.000000
178.50000000 170.59800720 155.00000000 -0.986688 -0.158101 0.038083 0.000000
250.08599854 138.52400208 213.75000000 0.001366 0.802126 -0.597153 0.000000
175.71099854 230.09800720 132.50000000 -0.621195 -0.450408 0.641287 0.000000
154.32800293 204.53100586 228.75000000 -0.060138 -0.064512 -0.996103 0.000000
164.55499268 147.82000732 203.75000000 0.487533 0.212824 -0.846769 0.000000
162.23100281 191.51600647 152.50000000 -0.600161 -0.479120 0.640508 0.000000
201.27699280 246.36700439 180.00000000 -0.855542 -0.513885 -0.063010 0.000000
200.81300354 208.25000000 211.25000000 -0.155557 -0.460856 -0.873736 0.000000
222.19500732 167.34399414 163.75000000 0.071075 -0.051393 -0.996146 0.000000
140.38299561 195.23399353 108.75000000 -0.393830 0.419341 0.817955 0.000000
106.91400146 245.43800354 71.25000000 -0.457226 0.019995 0.889126 0.000000
127.36699677 182.68400574 112.50000000 -0.245507 0.901171 0.357234 0.000000
141.31300354 212.89900208 106.25000000 -0.525142 -0.324024 0.786915 0.000000
97.61720276 170.13299561 143.75000000 0.902445 0.195554 -0.383865 0.000000
247.29699707 186.86700439 213.75000000 0.001350 -0.541234 -0.840871 0.000000
107.37899780 288.20300293 182.50000000 0.560188 -0.516450 -0.647665 0.000000
148.75000000 266.82000732 203.75000000 -0.182246 -0.469690 -0.863816 0.000000
105.05500031 198.02400208 91.25000000 -0.477082 0.513653 0.713129 0.000000
201.74200439 127.36699677 158.75000000 0.635225 0.020941 -0.772043 0.000000
145.03100586 309.58599854 173.75000000 0.275633 -0.642082 -0.715372 0.000000
182.21899414 253.80499268 198.75000000 -0.696231 -0.398555 -0.597006 0.000000
99.47660065 246.83200073 72.50000000 0.593766 -0.630771 0.499570 0.000000
256.59399414 139.45300293 201.25000000 0.633232 -0.004139 -0.773951 0.000000
124.57800293 251.01600647 208.75000000 -0.000978 -0.000978 -0.999999 0.000000
136.66400146 243.57800293 108.75000000 -0.742915 -0.243450 0.623546 0.000000
168.27400208 169.66799927 210.00000000 -0.370589 0.443753 -0.815933 0.000000
185.00799561 105.51999664 180.00000000 0.623583 0.765513 0.158538 0.000000
105.05500031 150.14500427 137.50000000 0.861852 0.473203 -0.182457 0.000000
114.81600189 200.81300354 95.00000000 -0.328911 0.341036 0.880632 0.000000
199.88299561 189.19099426 170.00000000 0.449404 -0.724684 -0.522369 0.000000
125.50800323 228.70300293 96.25000000 -0.689669 -0.029618 0.723518 0.000000
87.85549927 235.21099854 190.00000000 0.903486 -0.192262 -0.383078 0.000000
134.80499268 159.90600586 206.25000000 0.104469 0.763656 -0.637115 0.000000
223.12500000 200.81300354 168.75000000 -0.617058 -0.188333 0.764049 0.000000
102.26599884 265.42599487 95.00000000 0.683659 -0.683659 0.255381 0.000000
102.26599884 248.22700500 71.25000000 0.254972 -0.352244 0.900507 0.000000
157.11700439 189.65600586 143.75000000 -0.001366 -0.802126 0.597153 0.000000
108.77300262 276.58200073 192.50000000 0.485368 -0.633161 -0.602931 0.000000
105.05500031 248.22700500 71.25000000 -0.381260 0.108735 0.918051 0.000000
179.42999268 151.53900146 206.25000000 -0.000978 -0.000978 -0.999999 0.000000
182.21899414 109.70300293 186.25000000 0.683659 0.683659 -0.255381 0.000000
158.04699707 199.88299561 228.75000000 -0.000978 -0.000978 -0.999999 0.000000
144.10200500 141.31300354 193.75000000 0.038520 0.413095 -0.909873 0.000000
87.85549927 252.87500000 175.00000000 0.940531 -0.256257 -0.223012 0.000000
160.83599854 200.81300354 151.25000000 -0.906863 0.151853 0.393116 0.000000
203.13699341 243.57800293 177.50000000 -0.855542 -0.513885 -0.063010 0.000000
85.53130341 238.46499634 125.00000000 0.986277 -0.110644 -0.122541 0.000000
175.71099854 149.67999268 168.75000000 -0.902794 0.394703 0.170799 0.000000
219.40600586 211.03900146 188.75000000 -0.750096 -0.562167 -0.348317 0.000000
147.82000732 305.86700439 133.75000000 -0.913509 -0.144534 0.380278 0.000000
107.37899780 249.15600586 72.50000000 -0.381260 0.108735 0.918051 0.000000
175.71099854 204.53100586 223.75000000 -0.712767 0.443610 -0.543298 0.000000
137.12899780 186.86700439 230.00000000 0.250288 0.118012 -0.960952 0.000000
167.34399414 123.64800262 168.75000000 -0.917509 0.186347 0.351356 0.000000
141.31300354 277.04699707 201.25000000 -0.797053 0.088240 -0.597428 0.000000
168.27400208 171.99200439 143.75000000 -0.487649 -0.497635 0.717327 0.000000
129.22700500 274.25799561 106.25000000 -0.927496 0.159913 0.337903 0.000000
151.53900146 184.07800293 231.25000000 0.632727 0.315554 -0.707165 0.000000
134.80499268 158.04699707 133.75000000 -0.114111 -0.695039 0.709859 0.000000
207.32000732 115.74600220 165.00000000 0.785947 0.261982 -0.560046 0.000000
118.06999969 236.14100647 88.75000000 -0.763717 0.178353 0.620425 0.000000
162.69500732 138.05900574 142.50000000 -0.098628 0.699229 0.708062 0.000000
99.47660065 184.54299927 97.50000000 -0.099417 0.446678 0.889154 0.000000
169.20300293 210.57400513 140.00000000 -0.555184 0.555184 0.619308 0.000000
242.64900208 129.22700500 191.25000000 0.525970 -0.006761 -0.850476 0.000000
224.98399353 112.49199677 196.25000000 0.086055 0.704484 -0.704484 0.000000
146.89100647 132.94500732 183.75000000 0.634398 0.621007 -0.460315 0.000000
139.45300293 280.76599121 121.25000000 -0.812284 0.046456 0.581409 0.000000
213.82800293 145.96099854 218.75000000 0.183341 -0.097208 -0.978231 0.000000
229.63299561 187.79699707 183.75000000 0.306019 0.571984 -0.761043 0.000000
216.61700439 178.50000000 171.25000000 -0.049929 0.694720 -0.717545 0.000000
194.30499268 177.57000732 216.25000000 0.582723 -0.292160 -0.758338 0.000000
99.47660065 234.28100586 203.75000000 0.601038 0.070288 -0.796124 0.000000
109.70300293 285.41400146 186.25000000 0.485900 -0.532654 -0.692951 0.000000
86.46099854 206.39100647 136.25000000 0.849163 -0.423805 -0.315137 0.000000
213.82800293 169.20300293 163.75000000 -0.060421 0.540976 -0.838865 0.000000
150.60899353 140.38299561 136.25000000 -0.295562 0.355574 0.886685 0.000000
243.57800293 196.62899780 197.50000000 0.457905 0.738930 -0.494273 0.000000
79.95320129 189.19099426 90.00000000 0.134298 0.313363 0.940089 0.000000
196.16400146 204.99600220 135.00000000 -0.693084 -0.329499 0.641143 0.000000
120.85900116 224.05499268 221.25000000 0.077530 -0.401253 -0.912680 0.000000
197.09399414 136.66400146 156.25000000 0.326047 -0.878052 -0.350311 0.000000
156.18800354 226.84399414 223.75000000 -0.258158 -0.328167 -0.908659 0.000000
178.03500366 158.04699707 207.50000000 0.308739 0.350909 -0.884049 0.000000
182.68400574 212.89900208 217.50000000 -0.420931 0.283172 -0.861760 0.000000
180.35899353 277.97698975 156.25000000 -0.492086 -0.351032 0.796635 0.000000
193.37500000 192.44500732 153.75000000 0.653226 0.495377 0.572623 0.000000
220.80099487 119.93000031 172.50000000 0.558612 -0.163240 -0.813207 0.000000
171.99200439 195.23399353 158.75000000 -0.016879 -0.000993 0.999857 0.000000
196.16400146 160.83599854 158.75000000 -0.589274 0.669402 -0.452389 0.000000
135.73399353 134.80499268 131.25000000 -0.625563 0.215765 0.749744 0.000000
142.24200439 293.78100586 188.75000000 0.063070 -0.517177 -0.853552 0.000000
85.06649780 187.79699707 122.50000000 -0.001379 -0.668888 -0.743362 0.000000
197.09399414 188.72700500 168.75000000 0.517218 -0.735342 -0.437900 0.000000
247.29699707 189.65600586 213.75000000 0.026301 -0.574471 -0.818102 0.000000
164.08999634 304.93798828 155.00000000 -0.624170 -0.600616 0.499672 0.000000
126.43800354 278.90600586 98.75000000 -0.838365 -0.040319 0.543616 0.000000
89.71489716 181.28900146 130.00000000 0.000000 0.000000 0.000000 0.000000
153.39900208 154.32800293 133.75000000 -0.128474 0.276815 0.952296 0.000000
112.49199677 284.01998901 110.00000000 0.580972 -0.762427 0.284915 0.000000
81.81250000 207.32000732 73.75000000 -0.305168 0.682995 0.663619 0.000000
197.55900574 161.76600647 167.50000000 -0.866701 0.450565 -0.214056 0.000000
79.02349854 188.72700500 91.25000000 0.112186 0.339260 0.933979 0.000000
96.68750000 270.53900146 186.25000000 0.814451 -0.364989 -0.451056 0.000000
93.89849854 187.79699707 143.75000000 0.911542 0.260233 -0.318386 0.000000
222.19500732 193.37500000 186.25000000 0.594724 0.769551 -0.232582 0.000000
85.99610138 223.12500000 180.00000000 0.993349 0.109879 0.034407 0.000000
82.74220276 208.25000000 73.75000000 -0.290715 0.698679 0.653707 0.000000
178.50000000 241.71899414 141.25000000 -0.601937 -0.300166 0.739981 0.000000
176.64100647 150.60899353 168.75000000 -0.704825 0.541532 0.458219 0.000000
210.10899353 127.36699677 166.25000000 0.647974 -0.255071 -0.717683 0.000000
175.71099854 161.76600647 208.75000000 0.520103 0.540301 -0.661490 0.000000
193.83999634 159.90600586 162.50000000 -0.493041 0.845860 0.203549 0.000000
81.81250000 181.75399780 95.00000000 -0.274942 0.615043 0.739005 0.000000
156.18800354 221.26600647 118.75000000 -0.363219 0.040358 0.930829 0.000000
164.55499268 248.69200134 135.00000000 -0.488649 -0.442581 0.751894 0.000000
145.03100586 185.00799561 231.25000000 0.009470 0.520825 -0.853611 0.000000
236.14100647 144.10200500 188.75000000 0.637877 -0.001378 -0.770137 0.000000
138.05900574 277.97698975 120.00000000 -0.760742 0.032342 0.648248 0.000000
167.34399414 265.42599487 200.00000000 -0.525069 -0.400753 -0.750799 0.000000
187.79699707 185.00799561 213.75000000 -0.000978 -0.000978 -0.999999 0.000000
162.69500732 197.55900574 135.00000000 -0.657486 0.751616 -0.052770 0.000000
121.78900146 235.21099854 93.75000000 -0.686992 0.058803 0.724282 0.000000
194.77000427 158.04699707 167.50000000 -0.789774 0.607852 0.082298 0.000000
196.16400146 238.00000000 156.25000000 -0.805196 -0.190264 0.561658 0.000000
138.98800659 289.13299561 120.00000000 -0.879301 0.127248 0.458952 0.000000
191.51600647 157.11700439 156.25000000 -0.369362 0.707533 -0.602470 0.000000
239.85899353 113.42199707 191.25000000 0.431451 -0.287122 -0.855225 0.000000
217.54699707 184.07800293 216.25000000 -0.000978 -0.000978 -0.999999 0.000000
182.21899414 220.33599854 216.25000000 -0.451444 0.217473 -0.865392 0.000000
167.80900574 213.82800293 225.00000000 -0.283670 -0.252309 -0.925133 0.000000
142.24200439 287.27398682 126.25000000 -0.803048 0.091157 0.588902 0.000000
138.52400208 133.87500000 133.75000000 -0.644429 0.230489 0.729099 0.000000
102.73100281 176.64100647 180.00000000 0.910561 0.405452 0.080544 0.000000
238.00000000 125.50800323 188.75000000 0.665855 -0.061840 -0.743514 0.000000
107.84400177 194.30499268 216.25000000 0.605139 0.158453 -0.780192 0.000000
147.82000732 260.77700806 207.50000000 -0.457653 -0.346803 -0.818708 0.000000
90.64459991 254.73500061 115.00000000 0.913092 -0.384533 0.135635 0.000000
149.67999268 281.69500732 196.25000000 -0.388365 -0.626342 -0.675920 0.000000
91.10939789 211.03900146 73.75000000 -0.384121 0.647895 0.657787 0.000000
110.63300323 206.39100647 91.25000000 -0.364824 0.483753 0.795541 0.000000
185.00799561 247.29699707 198.75000000 -0.359059 -0.470766 -0.805888 0.000000
103.19499969 285.87899780 137.50000000 0.769736 -0.614878 0.171558 0.000000
147.82000732 208.25000000 228.75000000 -0.186533 -0.291545 -0.938193 0.000000
89.25000000 211.96899414 73.75000000 -0.469790 0.550039 0.690474 0.000000
142.70700073 293.78100586 125.00000000 -0.859833 0.150874 0.487776 0.000000
194.30499268 236.14100647 153.75000000 -0.720685 -0.255012 0.644657 0.000000
133.87500000 274.25799561 113.75000000 -0.555184 -0.555184 -0.619308 0.000000
83.67189789 219.40600586 121.25000000 0.992316 -0.099118 -0.074053 0.000000
243.57800293 185.93800354 193.75000000 0.606002 0.229003 -0.761787 0.000000
152.46899414 313.30499268 146.25000000 -0.850461 -0.151291 -0.503813 0.000000
238.00000000 179.42999268 221.25000000 0.599483 0.423458 -0.679193 0.000000
169.20300293 135.73399353 146.25000000 -0.781483 0.012448 0.623803 0.000000
92.03910065 212.89900208 73.75000000 -0.548758 0.439338 0.711230 0.000000
85.99610138 238.92999268 180.00000000 0.992707 -0.069206 -0.098703 0.000000
136.66400146 194.77000427 107.50000000 -0.222924 0.362798 0.904811 0.000000
136.66400146 140.38299561 183.75000000 0.400915 0.800220 -0.445998 0.000000
161.76600647 123.18399811 190.00000000 0.449949 0.664051 -0.597144 0.000000
127.36699677 258.45300293 208.75000000 0.189010 -0.285584 -0.939530 0.000000
229.63299561 121.78900146 206.25000000 -0.000978 -0.000978 -0.999999 0.000000
132.01600647 172.92199707 221.25000000 0.126624 0.513775 -0.848529 0.000000
110.63300323 248.22700500 208.75000000 -0.000978 -0.000978 -0.999999 0.000000
187.79699707 181.28900146 213.75000000 0.094998 0.116109 -0.988683 0.000000
218.01199341 157.11700439 162.50000000 0.577252 -0.207811 -0.789680 0.000000
222.19500732 216.15199280 172.50000000 0.277243 -0.920792 0.274370 0.000000
98.54689789 239.85899353 203.75000000 0.589428 0.097510 -0.801914 0.000000
142.24200439 152.93400574 202.50000000 0.114158 0.659745 -0.742769 0.000000
206.39100647 207.32000732 211.25000000 -0.203867 -0.447911 -0.870525 0.000000
77.62889862 214.75799561 75.00000000 0.939471 -0.235216 0.249134 0.000000
211.96899414 188.72700500 171.25000000 -0.483841 0.540764 -0.688093 0.000000
189.65600586 144.10200500 208.75000000 0.315293 0.146045 -0.937689 0.000000
220.80099487 103.19499969 175.00000000 0.650127 0.165958 -0.741480 0.000000
185.93800354 223.12500000 136.25000000 -0.654808 -0.434873 0.618152 0.000000
123.64800262 270.53900146 201.25000000 0.134502 -0.475818 -0.869199 0.000000
150.60899353 268.67999268 131.25000000 -0.625888 -0.195302 0.755064 0.000000
153.86300659 151.53900146 135.00000000 -0.579199 0.291993 0.761097 0.000000
241.71899414 175.71099854 221.25000000 -0.232566 -0.102939 -0.967118 0.000000
119.93000031 185.00799561 223.75000000 0.555587 0.258231 -0.790342 0.000000
179.42999268 277.51199341 187.50000000 -0.309395 -0.404831 -0.860457 0.000000
150.60899353 255.66400146 128.75000000 -0.650327 -0.251586 0.716784 0.000000
85.06649780 238.00000000 162.50000000 0.997954 0.030690 -0.056089 0.000000
178.50000000 170.13299561 163.75000000 -0.909021 0.394799 0.133473 0.000000
155.72300720 268.67999268 202.50000000 -0.115250 -0.337614 -0.934202 0.000000
78.09380341 216.61700439 73.75000000 0.936666 -0.230328 0.263830 0.000000
141.31300354 224.05499268 223.75000000 0.626041 0.626041 -0.464915 0.000000
171.06300354 270.53900146 196.25000000 -0.401722 -0.430531 -0.808246 0.000000
114.35199738 186.86700439 218.75000000 0.474997 0.481617 -0.736494 0.000000
152.00399780 278.90600586 197.50000000 -0.435706 -0.612659 -0.659401 0.000000
134.80499268 273.32800293 113.75000000 -0.630194 0.064598 0.773746 0.000000
103.19499969 220.33599854 208.75000000 0.233646 -0.060575 -0.970433 0.000000
104.12500000 187.33200073 210.00000000 0.856562 0.122779 -0.501226 0.000000
107.84400177 203.60200500 216.25000000 0.783705 -0.145352 -0.603887 0.000000
246.36700439 136.66400146 211.25000000 -0.068482 0.862308 -0.501732 0.000000
98.54689789 181.28900146 98.75000000 -0.138848 0.442309 0.886050 0.000000
128.29699707 205.46099854 101.25000000 -0.000978 -0.000978 0.999999 0.000000
230.56300354 164.55499268 223.75000000 0.383656 -0.144749 -0.912061 0.000000
116.21099854 303.54299927 147.50000000 0.683659 -0.683659 0.255381 0.000000
152.46899414 174.78100586 138.75000000 -0.358072 -0.309725 0.880826 0.000000
103.19499969 257.05899048 202.50000000 0.884722 -0.220810 -0.410499 0.000000
120.85900116 167.34399414 211.25000000 0.495389 0.708890 -0.502061 0.000000
170.13299561 196.16400146 158.75000000 0.061801 0.454580 0.888559 0.000000
137.59399414 225.91400146 106.25000000 -0.533386 -0.199070 0.822114 0.000000
150.14500427 273.32800293 132.50000000 -0.586544 -0.298866 0.752758 0.000000
85.06649780 238.92999268 152.50000000 0.999999 -0.000978 -0.000978 0.000000
246.36700439 193.37500000 208.75000000 -0.287833 -0.771266 -0.567715 0.000000
245.43800354 130.15600586 193.75000000 0.525970 -0.006761 -0.850476 0.000000
100.40599823 170.13299561 148.75000000 0.678689 0.110897 -0.726005 0.000000
180.35899353 110.16799927 182.50000000 0.632122 0.738783 -0.233713 0.000000
91.57430267 199.88299561 165.00000000 -0.000978 -0.000978 -0.999999 0.000000
155.25799561 151.53900146 136.25000000 -0.550880 0.111920 0.827046 0.000000
207.32000732 210.10899353 208.75000000 -0.075700 -0.561321 -0.824129 0.000000
155.25799561 163.62500000 136.25000000 -0.025317 -0.106771 0.993961 0.000000
219.40600586 201.74200439 153.75000000 0.193664 -0.172867 0.965718 0.000000
136.66400146 306.79699707 173.75000000 -0.000978 -0.999999 -0.000978 0.000000
186.86700439 204.06700134 215.00000000 -0.385153 0.059972 -0.920902 0.000000
101.33599854 212.89900208 203.75000000 0.853657 -0.215296 -0.474254 0.000000
158.97700500 116.21099854 176.25000000 0.423805 0.849163 -0.315137 0.000000
237.07000732 139.45300293 216.25000000 -0.198237 0.594710 -0.779116 0.000000
119.93000031 251.94500732 208.75000000 -0.000978 -0.000978 -0.999999 0.000000
143.17199707 138.52400208 133.75000000 -0.409215 0.527542 0.744475 0.000000
105.98400116 152.00399780 145.00000000 0.819283 0.496583 -0.286671 0.000000
208.25000000 160.83599854 158.75000000 0.303486 0.420566 -0.854997 0.000000
113.42199707 162.23100281 192.50000000 0.683659 0.683659 -0.255381 0.000000
204.53100586 99.94149780 180.00000000 0.095146 0.660168 -0.745068 0.000000
98.54689789 222.19500732 73.75000000 -0.685073 0.330332 0.649273 0.000000
130.15600586 258.45300293 208.75000000 0.129101 -0.503348 -0.854385 0.000000
166.41400146 304.47299194 170.00000000 -0.683659 -0.683659 -0.255381 0.000000
195.23399353 239.85899353 193.75000000 -0.578500 -0.309281 -0.754774 0.000000
139.45300293 137.59399414 133.75000000 -0.417303 0.282788 0.863649 0.000000
146.89100647 264.96099854 206.25000000 0.022442 -0.426389 -0.904262 0.000000
121.32399750 286.34399414 100.00000000 0.590975 -0.736695 0.328679 0.000000
181.28900146 123.64800262 201.25000000 0.257332 0.440053 -0.860310 0.000000
145.03100586 306.79699707 176.25000000 0.091478 -0.797168 -0.596787 0.000000
127.36699677 288.66799927 192.50000000 0.272681 -0.818044 -0.506408 0.000000
101.33599854 261.70700073 197.50000000 0.646437 -0.488605 -0.585990 0.000000
81.81250000 224.05499268 73.75000000 0.896105 -0.439160 0.064301 0.000000
81.34770203 224.05499268 75.00000000 0.899442 -0.434167 0.050044 0.000000
251.94500732 147.82000732 218.75000000 -0.048910 0.549190 -0.834265 0.000000
91.10939789 206.39100647 183.75000000 0.937612 0.001255 -0.347682 0.000000
138.52400208 226.84399414 223.75000000 -0.054824 -0.558076 -0.827977 0.000000
249.15600586 189.65600586 213.75000000 0.029009 -0.556696 -0.830209 0.000000
75.76959991 203.60200500 92.50000000 0.951236 -0.276165 -0.137416 0.000000
156.18800354 291.92199707 188.75000000 -0.178639 -0.752726 -0.633634 0.000000
242.64900208 166.41400146 221.25000000 -0.059547 -0.210236 -0.975836 0.000000
160.83599854 195.69900513 137.50000000 -0.707106 0.707106 0.001384 0.000000
232.88699341 125.50800323 182.50000000 0.680660 0.038208 -0.731603 0.000000
178.96499634 272.39898682 152.50000000 -0.675232 -0.406466 0.615506 0.000000
179.42999268 185.00799561 213.75000000 -0.005671 0.168993 -0.985601 0.000000
131.08599854 129.22700500 163.75000000 0.626302 0.662850 -0.410336 0.000000
83.20709991 222.19500732 115.00000000 0.971910 -0.149035 -0.182153 0.000000
151.07400513 144.10200500 197.50000000 0.117219 0.678090 -0.725571 0.000000
225.91400146 172.92199707 168.75000000 0.450298 0.405107 -0.795688 0.000000
166.41400146 233.35200500 128.75000000 0.037429 -0.835919 0.547575 0.000000
134.80499268 137.59399414 173.75000000 0.654201 0.533115 -0.536479 0.000000
254.27000427 153.39900208 200.00000000 0.271259 0.594867 -0.756671 0.000000
89.25000000 264.96099854 151.25000000 0.947352 -0.307922 0.087791 0.000000
137.12899780 236.14100647 107.50000000 -0.584442 -0.299426 0.754170 0.000000
100.40599823 269.60998535 108.75000000 0.738309 -0.592909 0.321496 0.000000
199.88299561 192.44500732 148.75000000 0.335345 0.784611 0.521469 0.000000
177.57000732 114.35199738 188.75000000 0.588771 0.767757 -0.252779 0.000000
163.16000366 132.01600647 197.50000000 0.283182 0.427070 -0.858731 0.000000
85.99610138 238.92999268 115.00000000 0.855542 -0.513885 -0.063010 0.000000
182.21899414 158.04699707 208.75000000 0.135151 0.217529 -0.966652 0.000000
216.61700439 164.55499268 161.25000000 0.281529 0.380892 -0.880718 0.000000
168.27400208 196.16400146 226.25000000 -0.541279 0.350619 -0.764253 0.000000
249.15600586 163.62500000 221.25000000 0.000978 0.000978 -0.999999 0.000000
110.63300323 171.06300354 111.25000000 -0.545423 0.495076 0.676324 0.000000
144.10200500 182.21899414 228.75000000 -0.053132 0.448216 -0.892345 0.000000
241.71899414 162.69500732 223.75000000 -0.299055 -0.281550 -0.911754 0.000000
174.78100586 268.67999268 148.75000000 -0.565243 -0.255221 0.784451 0.000000
169.20300293 174.78100586 213.75000000 -0.458852 0.682438 -0.568976 0.000000
227.77400208 207.78500366 172.50000000 -0.994733 0.095838 -0.036352 0.000000
206.39100647 113.88700104 195.00000000 0.029541 0.735722 -0.676639 0.000000
165.48399353 293.78100586 186.25000000 -0.297185 -0.462115 -0.835542 0.000000
77.62889862 212.89900208 92.50000000 0.930594 -0.335014 -0.147516 0.000000
110.63300323 206.39100647 218.75000000 0.767664 -0.270661 -0.580892 0.000000
163.62500000 147.82000732 141.25000000 -0.433868 0.376654 0.818468 0.000000
145.96099854 239.39500427 215.00000000 0.414242 -0.559474 -0.717909 0.000000
178.50000000 169.20300293 158.75000000 -0.996897 0.077501 -0.013802 0.000000
198.95300293 157.11700439 213.75000000 0.393806 -0.074431 -0.916175 0.000000
104.12500000 274.25799561 191.25000000 0.500348 -0.694463 -0.517082 0.000000
165.48399353 289.13299561 148.75000000 -0.705922 -0.108034 0.700002 0.000000
141.31300354 154.32800293 133.75000000 -0.277854 -0.148994 0.948998 0.000000
247.29699707 190.58599854 211.25000000 0.070966 -0.702421 -0.708215 0.000000
164.55499268 198.48800659 130.00000000 -0.610495 0.790964 0.040888 0.000000
122.71900177 188.72700500 226.25000000 0.339816 0.032058 -0.939945 0.000000
152.46899414 160.83599854 136.25000000 -0.221591 -0.218872 0.950259 0.000000
155.25799561 126.43800354 188.75000000 0.636908 0.492386 -0.593215 0.000000
116.21099854 173.38699341 115.00000000 -0.675154 0.567933 0.470765 0.000000
240.32400513 125.50800323 205.00000000 -0.531771 0.397601 -0.747752 0.000000
107.84400177 168.73800659 177.50000000 0.000978 0.000978 0.999999 0.000000
102.26599884 250.08599854 203.75000000 0.556887 -0.001355 -0.830587 0.000000
105.51999664 232.42199707 75.00000000 -0.701855 0.165948 0.692720 0.000000
231.49200439 184.07800293 181.25000000 0.112696 0.572262 -0.812290 0.000000
92.96880341 268.21499634 130.00000000 0.842569 -0.513834 0.161406 0.000000
179.89500427 123.64800262 172.50000000 -0.931882 -0.185817 0.311559 0.000000
189.65600586 136.66400146 153.75000000 -0.000978 -0.000978 -0.999999 0.000000
169.20300293 168.27400208 208.75000000 -0.142014 0.443255 -0.885075 0.000000
98.54689789 228.70300293 198.75000000 0.260910 0.954905 -0.141713 0.000000
195.23399353 225.91400146 203.75000000 -0.665244 -0.464162 -0.584811 0.000000
157.11700439 285.41400146 141.25000000 -0.555441 -0.196307 0.808053 0.000000
158.04699707 214.75799561 226.25000000 -0.000978 -0.000978 -0.999999 0.000000
87.85549927 243.57800293 105.00000000 0.882515 -0.467856 0.047740 0.000000
254.73500061 162.69500732 206.25000000 0.626041 -0.626041 -0.464915 0.000000
117.14099884 240.78900146 208.75000000 -0.000978 -0.000978 -0.999999 0.000000
76.23439789 199.88299561 98.75000000 0.996703 0.013858 -0.079949 0.000000
121.78900146 262.17199707 93.75000000 -0.897725 0.107839 0.427155 0.000000
198.02400208 154.79299927 155.00000000 -0.218969 0.249266 -0.943355 0.000000
109.23799896 290.06298828 182.50000000 0.509651 -0.546656 -0.664397 0.000000
127.36699677 150.60899353 193.75000000 0.602392 0.704158 -0.375879 0.000000
171.06300354 199.88299561 226.25000000 -0.638825 0.318604 -0.700282 0.000000
174.78100586 290.99200439 183.75000000 0.623768 0.443159 0.643835 0.000000
88.78520203 236.14100647 75.00000000 0.778784 -0.590642 0.211274 0.000000
191.05099487 154.32800293 165.00000000 -0.643412 0.492219 0.586295 0.000000
117.60600281 303.07800293 155.00000000 0.708486 -0.705724 -0.001381 0.000000
86.92579651 239.85899353 100.00000000 0.872534 -0.466029 0.146632 0.000000
186.86700439 283.08999634 165.00000000 -0.780479 -0.394296 0.485163 0.000000
182.21899414 120.39499664 200.00000000 0.200162 0.566871 -0.799120 0.000000
233.81700134 124.57800293 182.50000000 0.680660 0.038208 -0.731603 0.000000
158.04699707 151.07400513 202.50000000 0.075300 0.342151 -0.936623 0.000000
92.03910065 249.62100220 195.00000000 0.000978 0.000978 -0.999999 0.000000
184.07800293 266.82000732 188.75000000 -0.662362 -0.159149 -0.732085 0.000000
149.67999268 155.25799561 133.75000000 0.000978 0.000978 0.999999 0.000000
220.80099487 157.11700439 165.00000000 0.577252 -0.207811 -0.789680 0.000000
173.85200500 265.89099121 196.25000000 -0.360442 -0.345104 -0.866594 0.000000
115.28099823 174.31599426 112.50000000 -0.699092 0.545592 0.462168 0.000000
126.43800354 234.28100586 98.75000000 -0.670460 0.061734 0.739373 0.000000
149.67999268 118.06999969 168.75000000 0.515007 0.816855 -0.259838 0.000000
177.10600281 163.62500000 160.00000000 -0.981707 -0.019750 -0.189371 0.000000
93.89849854 163.62500000 123.75000000 0.743040 0.570694 -0.349570 0.000000
92.03910065 238.92999268 73.75000000 0.750940 -0.562800 0.345465 0.000000
176.64100647 181.28900146 213.75000000 -0.288706 0.330161 -0.898689 0.000000
193.37500000 141.31300354 208.75000000 0.454705 0.220600 -0.862890 0.000000
197.09399414 149.67999268 153.75000000 0.149778 0.137399 -0.979126 0.000000
105.05500031 289.59799194 142.50000000 0.701101 -0.701101 0.130055 0.000000
93.43360138 191.51600647 165.00000000 0.980491 0.196558 -0.001149 0.000000
189.65600586 205.46099854 131.25000000 -0.333393 0.398521 0.854418 0.000000
223.12500000 203.60200500 171.25000000 -0.647190 -0.282846 0.707914 0.000000
