172.85099792 196.77699280 178.75000000 0.078606 0.355725 -0.931279 0.000000
258.78900146 215.33200073 151.25000000 0.324906 -0.943402 0.066547 0.000000
121.58200073 190.42999268 138.75000000 0.794869 0.594308 0.122401 0.000000
118.65200043 286.13299561 112.50000000 0.665094 -0.734156 -0.136622 0.000000
181.64100647 303.22299194 131.25000000 -0.422695 -0.862175 -0.279253 0.000000
254.88299561 186.52299500 118.12500000 0.206947 -0.027199 0.977974 0.000000
155.27299500 162.59800720 115.00000000 0.340657 0.937792 0.067079 0.000000
166.99200439 247.07000732 174.37500000 -0.418336 -0.310279 -0.853652 0.000000
229.00399780 181.64100647 113.75000000 -0.967932 0.001191 -0.251210 0.000000
134.76600647 297.36300659 108.75000000 0.291899 -0.941478 0.168562 0.000000
149.41400146 264.16000366 77.50000000 -0.501741 -0.805635 0.314973 0.000000
188.47599792 241.69900513 68.75000000 -0.374923 -0.564840 0.735111 0.000000
213.86700439 149.41400146 148.12500000 -0.051368 0.960961 -0.271875 0.000000
178.71099854 242.18699646 171.87500000 -0.211432 -0.263944 -0.941079 0.000000
215.82000732 230.95700073 133.75000000 -0.894518 -0.425216 -0.137946 0.000000
163.08599854 195.31199646 31.87500000 -0.774287 -0.204732 0.598803 0.000000
137.69500732 201.17199707 173.12500000 0.261783 0.180400 -0.948117 0.000000
114.25800323 239.25799561 154.37500000 0.877190 -0.067903 -0.475318 0.000000
138.67199707 198.24200439 173.12500000 0.427218 0.141454 -0.893015 0.000000
240.23399353 147.94900513 135.00000000 -0.088335 0.981369 -0.170620 0.000000
223.63299561 147.94900513 122.50000000 0.196474 0.977490 -0.076881 0.000000
186.52299500 237.30499268 171.87500000 -0.201678 -0.470582 -0.858999 0.000000
228.51600647 184.57000732 126.87500000 -0.088914 -0.768157 0.634058 0.000000
213.86700439 191.40600586 179.37500000 -0.076613 0.305152 -0.949217 0.000000
273.43701172 204.58999634 127.50000000 -0.184602 -0.590420 0.785701 0.000000
166.01600647 262.20700073 88.75000000 -0.001371 -0.788169 0.615457 0.000000
221.67999268 231.44500732 121.87500000 0.403726 -0.478310 0.779888 0.000000
258.78900146 144.53100586 116.87500000 -0.244994 0.936579 0.250594 0.000000
144.53100586 296.38699341 105.00000000 -0.271441 -0.851128 0.449334 0.000000
104.98000336 234.37500000 103.75000000 0.994147 0.096854 0.047870 0.000000
136.71899414 187.50000000 170.62500000 0.404545 0.327046 -0.854040 0.000000
145.50799561 219.72599792 178.12500000 0.342082 0.032030 -0.939124 0.000000
296.38699341 169.92199707 146.25000000 -0.932182 0.109589 0.345002 0.000000
206.54299927 273.43701172 121.25000000 -0.894715 -0.271530 0.354622 0.000000
211.42599487 199.21899414 98.75000000 -0.655908 -0.272896 -0.703784 0.000000
253.41799927 213.86700439 160.00000000 0.102223 -0.991222 -0.083846 0.000000
294.92199707 208.98399353 173.12500000 -0.000978 -0.000978 -0.999999 0.000000
173.33999634 214.84399414 40.00000000 -0.669985 0.459466 0.583104 0.000000
187.50000000 192.87100220 61.25000000 -0.619586 -0.619586 0.481900 0.000000
268.55499268 189.45300293 175.62500000 -0.182356 -0.129536 -0.974662 0.000000
134.76600647 296.38699341 100.00000000 0.385314 -0.915638 0.114627 0.000000
117.67600250 228.51600647 160.00000000 0.690909 -0.067793 -0.719757 0.000000
210.44900513 199.21899414 82.50000000 -0.991151 -0.037210 -0.127418 0.000000
167.96899414 262.69500732 89.37500000 -0.001371 -0.788169 0.615457 0.000000
109.86299896 250.97599792 67.50000000 0.819006 -0.418250 0.392805 0.000000
144.53100586 184.08200073 20.00000000 0.618994 0.753083 -0.222963 0.000000
160.15600586 210.93699646 33.12500000 -0.141414 0.010021 0.989900 0.000000
159.17999268 161.13299561 110.62500000 0.284698 0.956226 0.067664 0.000000
309.57000732 209.47300720 168.75000000 -0.891825 -0.285324 0.351053 0.000000
244.14100647 172.36300659 182.50000000 -0.167376 -0.122743 -0.978223 0.000000
104.98000336 231.44500732 121.25000000 0.970072 0.242814 0.001184 0.000000
150.87899780 226.56199646 28.75000000 -0.830303 -0.060616 0.554005 0.000000
199.21899414 208.00799561 110.62500000 -0.706122 -0.123907 0.697165 0.000000
179.19900513 193.35899353 50.00000000 -0.702876 -0.446983 0.553328 0.000000
197.26600647 285.15600586 118.12500000 -0.198558 -0.604908 0.771143 0.000000
175.29299927 272.46099854 158.75000000 -0.302946 -0.597877 -0.742137 0.000000
118.65200043 254.88299561 153.75000000 0.811201 -0.557418 -0.176742 0.000000
116.69899750 199.21899414 146.25000000 0.881745 0.438686 -0.173434 0.000000
290.03900146 218.75000000 171.87500000 0.048947 -0.192206 -0.980133 0.000000
171.87500000 292.96899414 144.37500000 -0.152830 -0.532679 -0.832404 0.000000
211.42599487 244.14100647 150.00000000 -0.886816 -0.372373 -0.273672 0.000000
115.23400116 244.14100647 158.12500000 0.129857 -0.389572 -0.911795 0.000000
277.34399414 163.08599854 178.12500000 -0.372993 0.048766 -0.926552 0.000000
129.39399719 294.92199707 106.25000000 0.619865 -0.616506 0.485477 0.000000
266.60101318 216.30799866 143.75000000 0.234602 -0.939797 0.248484 0.000000
198.24200439 151.36700439 135.62500000 0.208768 0.974663 0.080295 0.000000
174.80499268 157.71499634 90.00000000 0.247307 0.968919 -0.005974 0.000000
133.78900146 241.21099854 171.87500000 0.415243 -0.083597 -0.905861 0.000000
182.61700439 153.80900574 166.25000000 0.220658 0.931824 -0.288121 0.000000
212.40199280 245.11700439 123.75000000 -0.993030 -0.115982 -0.020987 0.000000
146.48399353 186.52299500 173.12500000 0.273951 0.342068 -0.898855 0.000000
223.63299561 148.43699646 150.62500000 0.158565 0.955390 -0.249174 0.000000
242.18699646 152.83200073 172.50000000 -0.001264 0.931838 -0.362873 0.000000
256.83599854 187.50000000 118.12500000 -0.128090 -0.308765 0.942474 0.000000
192.38299561 166.99200439 178.12500000 0.291736 0.081686 -0.953004 0.000000
183.59399414 255.85899353 165.62500000 -0.446690 -0.502732 -0.740087 0.000000
288.08599854 187.50000000 173.12500000 -0.230049 -0.153804 -0.960948 0.000000
149.41400146 172.36300659 60.00000000 0.517674 0.854507 0.042794 0.000000
216.79699707 186.52299500 73.12500000 -0.685575 -0.501191 0.528010 0.000000
233.39799500 170.89799500 181.87500000 -0.015588 0.048843 -0.998685 0.000000
266.60101318 207.03100586 129.37500000 0.195139 -0.760582 0.619222 0.000000
209.47300720 255.85899353 115.00000000 -0.990918 -0.051313 0.124292 0.000000
152.34399414 255.37100220 65.00000000 -0.478147 -0.819004 0.317187 0.000000
132.32400513 249.02299500 167.50000000 0.764396 -0.402571 -0.503621 0.000000
145.50799561 235.35099792 175.62500000 0.435250 -0.157615 -0.886406 0.000000
210.93699646 149.90199280 130.00000000 -0.000978 0.999999 -0.000978 0.000000
131.83599854 271.48400879 155.62500000 0.684767 -0.477161 -0.550828 0.000000
211.91400146 204.10099792 180.62500000 0.084474 -0.189761 -0.978189 0.000000
204.10099792 268.55499268 110.62500000 -0.773371 -0.402153 0.490073 0.000000
221.67999268 193.84800720 130.00000000 0.474177 -0.474177 0.741831 0.000000
228.02699280 181.64100647 117.50000000 -0.967932 0.001191 -0.251210 0.000000
136.71899414 261.23001099 51.25000000 -0.363595 -0.929482 0.062142 0.000000
259.76599121 214.35499573 163.75000000 -0.105483 -0.887460 -0.448652 0.000000
233.39799500 210.44900513 167.50000000 -0.264638 -0.963775 -0.033234 0.000000
167.47999573 182.61700439 35.00000000 -0.690304 -0.341072 0.638083 0.000000
107.42199707 221.19099426 113.75000000 0.982896 0.174711 -0.058237 0.000000
110.83999634 227.53900146 55.00000000 0.422899 -0.844238 0.329269 0.000000
111.81600189 273.43701172 108.75000000 0.854811 -0.508304 0.104525 0.000000
302.24600220 187.50000000 147.50000000 -0.619586 0.619586 0.481900 0.000000
304.68701172 196.28900146 171.87500000 0.100235 0.229653 -0.968097 0.000000
275.39099121 184.08200073 176.25000000 -0.142184 -0.169866 -0.975156 0.000000
165.03900146 172.85099792 174.37500000 0.102188 0.440949 -0.891696 0.000000
230.46899414 150.87899780 165.00000000 0.163823 0.937505 -0.306995 0.000000
215.33200073 225.58599854 78.75000000 -0.853437 -0.377751 0.359096 0.000000
119.14099884 285.64401245 117.50000000 0.823898 -0.562072 -0.072571 0.000000
165.03900146 280.27301025 155.62500000 -0.205910 -0.645598 -0.735394 0.000000
241.21099854 217.28500366 130.00000000 -0.748296 -0.206053 0.630552 0.000000
217.77299500 183.59399414 181.87500000 0.151625 -0.241282 -0.958537 0.000000
154.29699707 254.88299561 64.37500000 -0.377482 -0.903932 0.201034 0.000000
172.85099792 236.32800293 174.37500000 -0.029645 -0.205143 -0.978283 0.000000
206.05499268 201.17199707 103.12500000 -0.488342 -0.711679 -0.505009 0.000000
212.89100647 220.70300293 170.62500000 -0.633977 -0.753134 -0.175680 0.000000
231.44500732 159.17999268 180.62500000 -0.054824 0.558076 -0.827977 0.000000
122.55899811 197.26600647 43.75000000 0.772185 0.361001 0.522884 0.000000
102.53900146 241.21099854 133.12500000 0.992959 0.096239 -0.069066 0.000000
115.23400116 229.49200439 44.37500000 0.873015 -0.048119 0.485314 0.000000
185.05900574 178.71099854 47.50000000 -0.452825 -0.519173 0.724851 0.000000
111.81600189 260.74200439 78.75000000 0.890770 -0.434696 0.132547 0.000000
135.74200439 178.71099854 163.12500000 0.137209 0.873808 -0.466512 0.000000
257.81201172 159.66799927 106.25000000 -0.259769 -0.474963 0.840792 0.000000
142.08999634 238.28100586 38.75000000 -0.256115 -0.287593 0.922873 0.000000
136.22999573 295.89801025 135.00000000 0.477896 -0.714347 -0.511199 0.000000
230.46899414 157.71499634 180.00000000 0.004104 0.592307 -0.805702 0.000000
195.31199646 151.85499573 125.00000000 0.449834 0.877832 0.164502 0.000000
160.15600586 240.72300720 51.25000000 -0.123909 -0.703149 0.700163 0.000000
117.67600250 199.21899414 151.25000000 0.778245 0.605973 -0.164716 0.000000
119.14099884 193.84800720 138.75000000 0.813550 0.572821 0.100062 0.000000
125.00000000 280.27301025 145.62500000 0.409433 -0.624924 -0.664707 0.000000
104.98000336 253.90600586 105.00000000 0.972098 -0.207498 0.109408 0.000000
146.97300720 166.01600647 137.50000000 0.488548 0.849323 -0.199929 0.000000
130.85899353 185.54699707 61.87500000 0.679502 0.713095 0.172548 0.000000
151.36700439 280.27301025 155.62500000 0.001371 -0.788169 -0.615457 0.000000
157.22599792 162.10899353 111.87500000 0.414254 0.900614 0.131487 0.000000
148.43699646 236.32800293 176.87500000 0.435250 -0.157615 -0.886406 0.000000
187.50000000 291.01501465 119.37500000 -0.226847 -0.494800 0.838876 0.000000
172.36300659 243.16400146 62.50000000 -0.272135 -0.788091 0.552136 0.000000
154.29699707 170.41000366 61.25000000 0.427984 0.901092 0.069735 0.000000
294.43301392 217.77299500 146.25000000 -0.616063 -0.685432 0.388136 0.000000
243.65199280 198.24200439 177.50000000 -0.068565 -0.131320 -0.988966 0.000000
171.87500000 304.19900513 130.00000000 0.127843 -0.906139 -0.403197 0.000000
184.08200073 201.17199707 56.25000000 -0.684258 0.234378 0.690550 0.000000
177.24600220 157.22599792 170.00000000 0.496368 0.513080 -0.700263 0.000000
293.94500732 219.23800659 148.75000000 -0.641895 -0.690646 0.333135 0.000000
113.28099823 259.27700806 68.75000000 0.822618 -0.445386 0.353456 0.000000
256.83599854 181.64100647 179.37500000 -0.001349 -0.538096 -0.842882 0.000000
169.43400574 213.86700439 36.25000000 0.000978 0.000978 0.999999 0.000000
252.92999268 192.38299561 120.62500000 -0.046698 -0.291547 0.955416 0.000000
118.65200043 211.91400146 38.75000000 0.812893 0.219742 0.539368 0.000000
135.74200439 297.36300659 105.00000000 0.302413 -0.949133 0.087713 0.000000
205.07800293 159.66799927 178.75000000 0.071270 0.304518 -0.949837 0.000000
139.64799500 275.87899780 81.25000000 -0.540038 -0.516485 0.664532 0.000000
228.51600647 162.10899353 183.12500000 -0.044259 0.422471 -0.905295 0.000000
175.78100586 273.92599487 103.75000000 -0.241200 -0.660542 0.710990 0.000000
150.39100647 163.57400513 128.75000000 0.323509 0.944748 -0.052844 0.000000
164.06199646 188.47599792 176.87500000 -0.033483 0.005073 -0.999426 0.000000
119.14099884 200.68400574 50.00000000 0.807781 0.559233 0.186411 0.000000
231.93299866 166.01600647 82.50000000 -0.870914 -0.436206 0.226348 0.000000
125.48799896 212.89100647 171.25000000 0.967932 -0.001191 -0.251210 0.000000
169.92199707 222.65600586 34.37500000 -0.241470 -0.322442 0.915272 0.000000
107.91000366 214.84399414 137.50000000 0.757874 0.604102 -0.246348 0.000000
188.47599792 204.10099792 178.12500000 0.237947 -0.953133 -0.186863 0.000000
200.68400574 256.83599854 153.75000000 -0.581314 -0.291453 -0.759690 0.000000
188.47599792 155.76199341 173.75000000 0.133994 0.357777 -0.924143 0.000000
223.14399719 209.96099854 97.50000000 -0.619586 0.619586 0.481900 0.000000
294.92199707 176.75799561 140.62500000 -0.838876 0.226847 0.494800 0.000000
272.46099854 192.87100220 120.00000000 -0.337548 -0.409102 0.847760 0.000000
197.26600647 267.57800293 103.12500000 -0.277424 -0.897548 0.342700 0.000000
167.96899414 158.20300293 165.62500000 0.436184 0.742336 -0.508607 0.000000
129.39399719 295.89801025 115.00000000 0.379863 -0.924025 0.043375 0.000000
261.23001099 215.82000732 148.75000000 0.325650 -0.942946 0.069315 0.000000
231.44500732 175.78100586 100.62500000 -0.720592 -0.678470 0.142915 0.000000
127.44100189 208.98399353 20.00000000 0.958905 0.277411 0.059536 0.000000
140.62500000 247.07000732 39.37500000 -0.309512 -0.191869 0.931337 0.000000
140.62500000 178.71099854 58.12500000 0.695601 0.695601 -0.179659 0.000000
146.48399353 167.47999573 111.25000000 0.543937 0.838627 0.028918 0.000000
157.22599792 165.03900146 78.12500000 0.358471 0.921981 0.146457 0.000000
128.90600586 262.69500732 160.62500000 0.835995 -0.363681 -0.410913 0.000000
132.32400513 234.37500000 173.75000000 0.258117 -0.211187 -0.942749 0.000000
210.93699646 238.76899719 107.50000000 -0.575362 -0.811334 0.103420 0.000000
147.46099854 210.44900513 20.00000000 -0.619586 0.619586 0.481900 0.000000
113.76899719 212.89100647 61.25000000 0.949663 0.226886 0.216018 0.000000
123.04699707 205.56599426 163.75000000 0.216269 0.808325 -0.547575 0.000000
156.25000000 197.75399780 178.75000000 0.176116 -0.019568 -0.984175 0.000000
227.53900146 209.96099854 115.62500000 -0.942718 -0.050433 0.329757 0.000000
206.54299927 241.21099854 86.25000000 -0.788169 -0.001371 0.615457 0.000000
247.07000732 179.68699646 120.62500000 -0.115166 -0.249741 0.961440 0.000000
212.89100647 194.33599854 105.62500000 -0.513864 -0.850682 -0.110833 0.000000
125.48799896 184.57000732 141.25000000 0.756281 0.616517 0.218964 0.000000
161.13299561 242.18699646 174.37500000 -0.058898 -0.085568 -0.994590 0.000000
119.62899780 194.33599854 106.25000000 0.851667 0.523998 -0.009478 0.000000
114.74600220 226.56199646 45.00000000 0.883332 -0.042193 0.466846 0.000000
217.28500366 190.42999268 78.75000000 -0.613240 -0.756798 0.226259 0.000000
216.79699707 191.89399719 96.25000000 -0.672168 -0.739807 0.029592 0.000000
193.35899353 235.35099792 63.12500000 0.216622 -0.934968 0.280910 0.000000
281.25000000 203.12500000 128.12500000 -0.396555 -0.393395 0.829448 0.000000
150.39100647 213.37899780 20.00000000 -0.658030 0.377666 0.651433 0.000000
160.15600586 208.00799561 179.37500000 -0.000978 -0.000978 -0.999999 0.000000
241.21099854 153.80900574 130.00000000 0.969001 0.060795 -0.239459 0.000000
132.32400513 176.75799561 118.75000000 0.705724 0.708486 0.001381 0.000000
127.93000031 195.31199646 168.12500000 0.895030 0.247058 -0.371327 0.000000
192.87100220 184.57000732 178.75000000 -0.108805 0.326414 -0.938944 0.000000
179.68699646 212.89100647 48.12500000 -0.676140 0.413658 0.609689 0.000000
175.78100586 163.08599854 173.12500000 0.261156 0.609364 -0.748647 0.000000
136.71899414 247.07000732 38.12500000 -0.401199 -0.229468 0.886783 0.000000
109.37500000 215.33200073 120.00000000 0.967722 0.250168 0.030508 0.000000
213.86700439 195.31199646 84.37500000 -0.917206 0.275884 -0.287439 0.000000
188.47599792 273.43701172 154.37500000 -0.450286 -0.203594 -0.869363 0.000000
103.02700043 243.16400146 130.00000000 0.985284 0.154949 0.072152 0.000000
104.98000336 250.00000000 100.00000000 0.967510 -0.174851 0.182622 0.000000
150.39100647 175.78100586 169.37500000 0.324996 0.343136 -0.881269 0.000000
243.16400146 210.93699646 169.37500000 0.485132 -0.873781 -0.033973 0.000000
190.42999268 166.99200439 178.12500000 0.261029 -0.015783 -0.965202 0.000000
105.95700073 238.28100586 93.75000000 0.970797 -0.037665 0.236928 0.000000
186.52299500 270.01901245 102.50000000 -0.121096 -0.830167 0.544204 0.000000
128.41799927 180.66400146 153.75000000 0.690683 0.645179 -0.326652 0.000000
193.35899353 159.17999268 65.62500000 0.128568 0.952992 0.274366 0.000000
268.55499268 162.10899353 113.12500000 -0.838765 -0.326447 0.435783 0.000000
211.91400146 242.67599487 151.25000000 -0.614416 -0.486483 -0.621150 0.000000
242.18699646 204.58999634 175.00000000 -0.153436 -0.474921 -0.866549 0.000000
178.22300720 214.84399414 45.00000000 -0.675633 0.419988 0.605912 0.000000
139.16000366 192.38299561 172.50000000 0.474476 0.316843 -0.821269 0.000000
126.95300293 259.76599121 159.37500000 0.646739 -0.439515 -0.623342 0.000000
178.71099854 273.43701172 104.37500000 -0.149430 -0.677717 0.719980 0.000000
231.44500732 170.89799500 183.12500000 -0.157923 0.017042 -0.987304 0.000000
201.17199707 279.78500366 117.50000000 -0.403597 -0.551857 0.729769 0.000000
119.62899780 261.71899414 58.75000000 0.838057 -0.493064 0.233557 0.000000
271.48400879 147.94900513 160.00000000 0.001116 0.987889 -0.155160 0.000000
289.06201172 153.32000732 166.87500000 -0.001371 0.788169 -0.615457 0.000000
161.13299561 270.50799561 94.37500000 -0.449983 -0.542968 0.709014 0.000000
162.10899353 158.69099426 160.00000000 0.545357 0.545357 -0.636531 0.000000
247.07000732 183.59399414 180.62500000 -0.147306 -0.139879 -0.979150 0.000000
199.21899414 150.87899780 140.00000000 0.205750 0.973883 0.096017 0.000000
220.70300293 215.82000732 88.12500000 -0.762801 0.372455 0.528594 0.000000
148.43699646 222.65600586 19.37500000 -0.503471 -0.444045 0.741175 0.000000
222.16799927 177.73399353 73.75000000 -0.619586 -0.619586 0.481900 0.000000
206.05499268 204.58999634 65.00000000 -0.827993 0.372043 0.419538 0.000000
150.39100647 222.16799927 20.00000000 -0.671070 -0.365889 0.644818 0.000000
166.99200439 243.16400146 58.12500000 -0.365552 -0.890752 0.270061 0.000000
190.42999268 216.79699707 99.37500000 0.587663 -0.256807 0.767270 0.000000
200.19500732 152.83200073 96.25000000 0.000978 0.999999 0.000978 0.000000
112.30500031 267.08999634 142.50000000 0.739225 -0.288984 -0.608304 0.000000
125.48799896 224.60899353 20.00000000 0.903966 0.296406 0.308204 0.000000
153.32000732 216.79699707 179.37500000 -0.000978 -0.000978 -0.999999 0.000000
145.50799561 287.10900879 93.12500000 -0.392167 -0.740030 0.546408 0.000000
227.53900146 161.13299561 181.87500000 -0.020215 0.489201 -0.871937 0.000000
179.68699646 152.83200073 137.50000000 0.000978 0.999999 0.000978 0.000000
125.97699738 195.80099487 163.75000000 0.971830 0.073042 -0.224078 0.000000
175.78100586 296.87500000 140.62500000 0.018125 -0.659482 -0.751502 0.000000
244.14100647 218.26199341 133.75000000 -0.685260 -0.366458 0.629387 0.000000
145.50799561 225.58599854 19.37500000 -0.325707 -0.607663 0.724334 0.000000
120.11699677 262.69500732 151.87500000 0.667214 -0.362296 -0.650820 0.000000
156.25000000 265.62500000 166.87500000 0.020598 -0.547910 -0.836284 0.000000
214.84399414 194.82400513 98.75000000 -0.801028 -0.541826 -0.254518 0.000000
192.38299561 150.87899780 156.25000000 -0.000978 0.999999 -0.000978 0.000000
129.39399719 185.54699707 67.50000000 0.695601 0.695601 0.179659 0.000000
159.66799927 257.81201172 77.50000000 -0.460395 -0.776002 0.431112 0.000000
222.65600586 190.42999268 109.37500000 -0.407348 -0.835142 0.369601 0.000000
149.90199280 260.74200439 71.25000000 -0.470533 -0.762362 0.444301 0.000000
177.24600220 193.35899353 47.50000000 -0.660481 -0.380477 0.647304 0.000000
214.84399414 221.67999268 75.62500000 -0.821915 -0.332868 0.462229 0.000000
104.98000336 228.51600647 110.00000000 0.968855 0.241286 -0.055681 0.000000
211.42599487 262.69500732 130.00000000 -0.888033 -0.154002 0.433222 0.000000
176.75799561 234.86300659 175.00000000 0.037261 -0.219960 -0.974797 0.000000
126.95300293 182.12899780 110.00000000 0.052888 0.945534 -0.321198 0.000000
107.91000366 240.23399353 77.50000000 0.999999 -0.000978 -0.000978 0.000000
274.41400146 167.96899414 118.12500000 -0.055630 0.640455 0.765978 0.000000
118.16400146 207.03100586 158.12500000 0.915229 0.103221 -0.389488 0.000000
119.14099884 195.80099487 101.25000000 0.859615 0.510941 0.001341 0.000000
194.82400513 176.75799561 51.25000000 -0.434583 -0.604420 0.667693 0.000000
157.22599792 296.87500000 141.87500000 -0.009628 -0.799137 -0.601072 0.000000
153.32000732 166.50399780 81.25000000 0.369856 0.929088 -0.001271 0.000000
195.31199646 196.77699280 67.50000000 -0.482801 -0.020173 0.875498 0.000000
140.62500000 227.05099487 20.00000000 0.026369 -0.809115 0.587059 0.000000
297.85101318 158.20300293 146.87500000 -0.802541 -0.176831 0.569789 0.000000
216.30799866 236.32800293 120.00000000 0.511241 -0.849155 0.132544 0.000000
293.94500732 221.19099426 152.50000000 -0.647501 -0.663977 0.374002 0.000000
176.75799561 194.82400513 177.50000000 0.153521 0.146033 -0.977295 0.000000
206.05499268 260.25399780 106.25000000 -0.832289 -0.456113 0.315047 0.000000
248.53500366 214.84399414 151.25000000 0.362237 -0.406144 -0.838947 0.000000
151.36700439 264.64801025 166.87500000 0.048985 -0.547233 -0.835545 0.000000
187.50000000 178.71099854 179.37500000 -0.307909 -0.920864 -0.239167 0.000000
106.93399811 223.63299561 115.00000000 0.982896 0.174711 -0.058237 0.000000
104.98000336 242.18699646 96.25000000 0.983514 0.050770 0.173561 0.000000
161.13299561 278.32000732 100.62500000 -0.496161 -0.620622 0.607167 0.000000
147.46099854 166.50399780 113.75000000 0.708486 0.705724 -0.001381 0.000000
196.28900146 151.85499573 122.50000000 0.449834 0.877832 0.164502 0.000000
214.84399414 199.21899414 123.12500000 0.893109 0.367051 0.260057 0.000000
182.61700439 208.00799561 178.12500000 -0.133983 -0.119499 -0.983752 0.000000
118.65200043 208.98399353 161.25000000 0.854666 0.116742 -0.505882 0.000000
259.76599121 165.03900146 180.62500000 -0.369561 0.335825 -0.866398 0.000000
204.58999634 278.32000732 142.50000000 -0.967932 0.001191 -0.251210 0.000000
110.35199738 215.82000732 146.87500000 0.878660 0.106118 -0.465506 0.000000
188.47599792 221.67999268 176.87500000 -0.142123 -0.172308 -0.974736 0.000000
115.72299957 280.27301025 120.00000000 0.865072 -0.501117 -0.023087 0.000000
236.32800293 212.89100647 124.37500000 -0.693797 0.142973 0.705836 0.000000
217.77299500 201.17199707 114.37500000 0.262736 0.514589 0.816191 0.000000
155.27299500 244.62899780 51.25000000 -0.711923 -0.603907 0.358416 0.000000
192.38299561 205.07800293 63.12500000 -0.182246 0.469690 0.863816 0.000000
124.02300262 270.01901245 63.75000000 0.619586 -0.619586 0.481900 0.000000
150.39100647 203.12500000 178.12500000 0.219392 0.146694 -0.964546 0.000000
270.50799561 210.93699646 133.12500000 0.104578 -0.755613 0.646616 0.000000
253.90600586 147.94900513 107.50000000 0.020336 0.860883 0.508396 0.000000
291.50399780 224.60899353 157.50000000 -0.315536 -0.844020 0.433668 0.000000
190.91799927 291.99200439 142.50000000 -0.169550 -0.859546 -0.482113 0.000000
113.76899719 220.70300293 47.50000000 0.877308 0.282369 0.388069 0.000000
172.85099792 228.51600647 178.12500000 -0.000978 -0.000978 -0.999999 0.000000
107.91000366 231.44500732 78.75000000 0.996024 0.040276 0.079464 0.000000
209.96099854 154.29699707 174.37500000 0.171909 0.835626 -0.521706 0.000000
105.95700073 242.18699646 92.50000000 0.976315 0.077174 0.202123 0.000000
123.53500366 242.18699646 33.75000000 0.738924 -0.409782 0.534856 0.000000
222.65600586 188.47599792 180.62500000 -0.039557 -0.058801 -0.997486 0.000000
312.01199341 208.00799561 173.75000000 -0.893690 -0.446167 -0.047465 0.000000
120.11699677 193.84800720 110.00000000 0.836887 0.543342 -0.066330 0.000000
210.44900513 218.75000000 67.50000000 -0.788169 0.001371 0.615457 0.000000
256.83599854 194.33599854 120.62500000 0.082997 -0.393217 0.915692 0.000000
118.16400146 203.61300659 47.50000000 0.796895 0.510586 0.322894 0.000000
199.70700073 204.10099792 105.00000000 -0.478935 -0.780907 -0.401006 0.000000
218.75000000 207.51899719 103.75000000 -0.437549 0.583954 0.683775 0.000000
222.65600586 185.05900574 83.75000000 -0.783506 -0.570818 0.245530 0.000000
206.05499268 176.75799561 59.37500000 -0.477027 -0.671185 0.567411 0.000000
218.75000000 214.84399414 176.87500000 -0.439915 -0.509115 -0.739782 0.000000
217.77299500 236.81599426 113.75000000 0.360485 -0.917470 -0.168226 0.000000
142.57800293 171.38699341 93.75000000 0.313843 0.941530 0.122574 0.000000
180.66400146 297.85101318 119.37500000 -0.465363 -0.384850 0.797075 0.000000
126.95300293 185.05900574 101.25000000 0.712429 0.641986 0.283371 0.000000
232.42199707 150.39100647 163.12500000 0.088243 0.973162 -0.212530 0.000000
167.47999573 280.27301025 106.25000000 -0.402520 -0.493779 0.770817 0.000000
203.12500000 208.00799561 179.37500000 -0.000978 -0.000978 -0.999999 0.000000
289.06201172 230.46899414 168.12500000 0.220558 -0.566049 -0.794319 0.000000
196.28900146 245.11700439 164.37500000 -0.405024 -0.596790 -0.692674 0.000000
213.86700439 221.19099426 167.50000000 -0.713265 -0.625926 -0.315389 0.000000
163.08599854 204.10099792 179.37500000 0.024869 0.087583 -0.995847 0.000000
210.44900513 264.64801025 123.75000000 -0.901431 -0.189547 0.389222 0.000000
112.79299927 228.51600647 152.50000000 0.984136 0.028979 -0.175035 0.000000
165.03900146 206.05499268 179.37500000 0.001026 0.050296 -0.998734 0.000000
214.84399414 230.46899414 135.62500000 -0.544026 -0.799672 -0.254087 0.000000
153.32000732 220.70300293 179.37500000 -0.000978 -0.000978 -0.999999 0.000000
148.43699646 260.25399780 68.75000000 -0.483399 -0.761969 0.430963 0.000000
215.82000732 228.51600647 86.87500000 -0.874385 -0.480842 0.065129 0.000000
200.19500732 214.84399414 176.87500000 0.073441 -0.464203 -0.882679 0.000000
131.34800720 295.89801025 105.00000000 0.400415 -0.908259 0.121380 0.000000
214.84399414 171.87500000 64.37500000 -0.620924 -0.383754 0.683510 0.000000
217.77299500 231.44500732 151.87500000 -0.912583 -0.014361 -0.408639 0.000000
190.42999268 248.04699707 165.62500000 -0.487530 -0.409265 -0.771244 0.000000
119.62899780 270.50799561 72.50000000 0.767309 -0.541155 0.344077 0.000000
152.34399414 180.17599487 21.25000000 0.635851 0.697648 0.330122 0.000000
122.55899811 191.40600586 87.50000000 0.883301 0.424749 0.198412 0.000000
253.90600586 145.99600220 132.50000000 0.152694 0.920364 -0.360021 0.000000
230.95700073 222.65600586 113.75000000 -0.625719 -0.764433 0.155299 0.000000
184.57000732 151.85499573 160.00000000 0.316601 0.947241 -0.049990 0.000000
104.00399780 237.30499268 110.00000000 0.999999 0.000978 0.000978 0.000000
190.42999268 226.56199646 175.62500000 0.094826 -0.281879 -0.954752 0.000000
272.46099854 219.23800659 156.25000000 0.613074 -0.788643 0.046724 0.000000
125.00000000 242.18699646 30.62500000 0.657030 -0.643790 0.392232 0.000000
102.53900146 250.97599792 125.62500000 0.980131 -0.027062 -0.196497 0.000000
226.56199646 189.45300293 138.12500000 -0.732797 -0.367214 0.572855 0.000000
262.20700073 147.46099854 110.00000000 -0.596968 0.798355 -0.079116 0.000000
161.62100220 161.13299561 101.25000000 0.368035 0.923508 0.108085 0.000000
113.28099823 275.87899780 111.25000000 0.853745 -0.513946 0.083534 0.000000
240.23399353 223.63299561 141.87500000 -0.647641 0.123573 0.751859 0.000000
145.50799561 168.45700073 100.00000000 0.594520 0.795152 0.119494 0.000000
119.62899780 283.20300293 136.25000000 0.560092 -0.775879 -0.290360 0.000000
289.06201172 219.72599792 141.87500000 0.974306 -0.088122 0.207273 0.000000
208.98399353 156.73800659 177.50000000 0.009687 0.626857 -0.779074 0.000000
243.16400146 153.80900574 175.00000000 -0.001264 0.931838 -0.362873 0.000000
280.27301025 227.53900146 166.87500000 -0.173520 -0.810263 -0.559790 0.000000
249.51199341 172.85099792 113.75000000 0.491609 -0.659393 0.568790 0.000000
178.71099854 154.78500366 117.50000000 0.262347 0.964401 0.033255 0.000000
268.55499268 150.39100647 168.12500000 -0.141804 0.855209 -0.498507 0.000000
108.88700104 260.74200439 93.75000000 0.916079 -0.363883 0.168491 0.000000
211.42599487 233.39799500 90.00000000 -0.570727 -0.638070 0.516853 0.000000
122.06999969 220.70300293 163.12500000 0.995848 0.090726 -0.007472 0.000000
198.24200439 240.23399353 73.12500000 -0.359529 -0.836807 0.412908 0.000000
111.32800293 255.85899353 69.37500000 0.868448 -0.406087 0.284413 0.000000
288.08599854 149.90199280 162.50000000 -0.043728 0.982106 -0.183185 0.000000
144.53100586 168.45700073 153.75000000 0.734668 0.658615 -0.162753 0.000000
191.40600586 249.02299500 164.37500000 -0.507180 -0.418547 -0.753384 0.000000
281.25000000 222.65600586 149.37500000 0.627822 -0.421323 0.654467 0.000000
131.83599854 246.09399414 35.62500000 -0.670090 -0.446170 0.593222 0.000000
102.05100250 247.07000732 123.75000000 0.769207 0.297809 -0.565359 0.000000
193.35899353 225.58599854 56.87500000 -0.215963 -0.072810 0.973683 0.000000
142.57800293 273.92599487 81.25000000 -0.412798 -0.697944 0.585212 0.000000
218.75000000 187.98800659 77.50000000 -0.749687 -0.557793 0.356142 0.000000
209.47300720 238.28100586 145.00000000 -0.800328 -0.404190 -0.442838 0.000000
142.57800293 186.03500366 21.25000000 0.716143 0.669740 -0.196437 0.000000
215.82000732 218.26199341 167.50000000 -0.556590 -0.823986 -0.106086 0.000000
121.58200073 188.47599792 145.00000000 0.862735 0.494825 -0.104099 0.000000
279.29699707 145.99600220 143.75000000 -0.000978 0.999999 -0.000978 0.000000
260.74200439 150.87899780 171.25000000 -0.061269 0.899978 -0.431608 0.000000
165.03900146 167.47999573 48.75000000 0.266642 0.944869 0.190068 0.000000
247.55799866 143.55499268 120.00000000 -0.987298 0.151625 -0.047455 0.000000
216.79699707 149.90199280 110.00000000 -0.000978 0.999999 -0.000978 0.000000
262.69500732 145.01899719 118.75000000 -0.330962 0.836032 0.437623 0.000000
136.71899414 174.31599426 107.50000000 0.527322 0.844573 0.092889 0.000000
178.71099854 188.47599792 179.37500000 0.018769 -0.120343 -0.992555 0.000000
120.60500336 199.21899414 162.50000000 0.792180 0.486877 -0.367970 0.000000
175.78100586 236.81599426 55.00000000 -0.347441 -0.792550 0.501148 0.000000
195.31199646 192.38299561 65.62500000 -0.388085 -0.410261 0.825274 0.000000
113.76899719 270.50799561 142.50000000 0.754039 -0.337461 -0.563511 0.000000
209.47300720 244.14100647 152.50000000 -0.640240 -0.475559 -0.603271 0.000000
138.67199707 256.34799194 43.75000000 -0.788169 -0.001371 0.615457 0.000000
126.95300293 239.25799561 169.37500000 0.678672 -0.373023 -0.632660 0.000000
174.80499268 187.98800659 178.75000000 0.084201 -0.232497 -0.968946 0.000000
184.57000732 204.10099792 55.62500000 -0.492737 0.206437 0.845337 0.000000
181.15199280 190.42999268 50.00000000 -0.749701 -0.320840 0.578801 0.000000
139.16000366 190.42999268 21.25000000 0.636662 0.754618 0.158787 0.000000
120.11699677 280.27301025 89.37500000 0.702792 -0.587038 0.401832 0.000000
118.16400146 268.06600952 72.50000000 0.824298 -0.447747 0.346490 0.000000
158.20300293 159.66799927 138.75000000 0.497566 0.857323 -0.132007 0.000000
144.53100586 301.75799561 130.62500000 0.376831 -0.862866 -0.336841 0.000000
208.49600220 268.55499268 121.25000000 -0.892600 -0.287599 0.347205 0.000000
226.56199646 153.80900574 172.50000000 -0.039782 0.943211 -0.329803 0.000000
291.99200439 181.15199280 172.50000000 -0.151245 0.023881 -0.988208 0.000000
154.29699707 178.71099854 171.87500000 0.366506 0.317841 -0.874443 0.000000
144.53100586 260.74200439 166.87500000 0.325885 -0.097100 -0.940410 0.000000
213.86700439 148.92599487 147.50000000 0.065585 0.994895 -0.076701 0.000000
216.79699707 228.51600647 99.37500000 -0.585086 -0.803946 0.106512 0.000000
104.00399780 250.00000000 107.50000000 0.972763 -0.117034 0.200090 0.000000
149.41400146 188.47599792 174.37500000 0.269322 0.337020 -0.902155 0.000000
273.43701172 217.77299500 141.87500000 0.272017 -0.931623 0.241010 0.000000
136.71899414 192.87100220 21.25000000 0.710793 0.686544 0.153071 0.000000
244.62899780 146.48399353 148.75000000 -0.225143 0.969748 0.094333 0.000000
276.85501099 224.60899353 162.50000000 0.821529 -0.457460 0.340325 0.000000
208.98399353 203.12500000 114.37500000 -0.559451 0.623678 0.545930 0.000000
189.94099426 184.57000732 56.25000000 -0.423572 -0.522460 0.740015 0.000000
117.67600250 225.58599854 161.25000000 0.856301 0.023143 -0.515959 0.000000
233.39799500 171.38699341 97.50000000 -0.001371 -0.788169 0.615457 0.000000
133.78900146 238.28100586 29.37500000 -0.802483 -0.203296 0.560974 0.000000
175.78100586 233.88699341 51.25000000 -0.480445 -0.738003 0.473841 0.000000
305.66400146 195.31199646 154.37500000 -0.773103 -0.235835 0.588807 0.000000
118.65200043 259.76599121 57.50000000 0.838057 -0.493064 0.233557 0.000000
118.16400146 242.18699646 159.37500000 0.486755 -0.222907 -0.844619 0.000000
198.24200439 212.89100647 176.87500000 0.003694 -0.306605 -0.951830 0.000000
210.44900513 237.30499268 101.25000000 0.053940 0.267190 0.962133 0.000000
165.03900146 230.95700073 177.50000000 -0.063992 -0.254713 -0.964897 0.000000
209.47300720 259.76599121 115.00000000 -0.951284 -0.225981 0.209743 0.000000
102.05100250 244.14100647 135.00000000 0.954533 -0.213461 -0.208091 0.000000
138.18400574 190.42999268 171.25000000 0.356441 0.209247 -0.910585 0.000000
214.84399414 231.93299866 156.25000000 -0.846042 -0.315131 -0.430007 0.000000
214.84399414 200.19500732 120.62500000 -0.665175 -0.622046 0.413039 0.000000
215.82000732 228.51600647 150.62500000 -0.924093 0.143130 -0.354352 0.000000
273.43701172 210.44900513 131.25000000 0.080081 -0.691610 0.717818 0.000000
176.75799561 178.71099854 39.37500000 -0.552776 -0.304265 0.775797 0.000000
170.89799500 265.62500000 164.37500000 -0.277043 -0.518087 -0.809217 0.000000
119.14099884 205.56599426 42.50000000 0.894834 0.314160 0.317137 0.000000
212.89100647 239.25799561 131.87500000 -0.896239 0.351089 -0.271094 0.000000
131.83599854 214.84399414 173.12500000 0.422400 0.172734 -0.889798 0.000000
148.92599487 197.26600647 21.25000000 -0.560046 -0.261982 0.785947 0.000000
268.55499268 196.28900146 120.62500000 -0.176465 -0.550512 0.815964 0.000000
122.06999969 271.48400879 69.37500000 0.736439 -0.522262 0.430001 0.000000
202.14799500 274.41400146 148.12500000 -0.311838 -0.628523 -0.712542 0.000000
175.78100586 283.69100952 151.25000000 -0.153349 -0.555333 -0.817367 0.000000
210.93699646 240.23399353 154.37500000 -0.597455 -0.573760 -0.560220 0.000000
204.58999634 175.78100586 178.75000000 0.322023 0.047470 -0.945541 0.000000
224.60899353 147.94900513 125.00000000 0.209234 0.977608 -0.022460 0.000000
288.08599854 225.09800720 156.25000000 -0.334638 -0.872502 0.356030 0.000000
262.69500732 192.38299561 176.87500000 -0.330521 -0.333539 -0.882897 0.000000
154.78500366 250.00000000 56.25000000 -0.610576 -0.546305 0.573366 0.000000
301.75799561 161.13299561 166.87500000 -0.001349 0.538096 -0.842882 0.000000
229.49200439 171.87500000 85.62500000 -0.951519 -0.266318 0.153903 0.000000
127.44100189 278.32000732 72.50000000 0.533016 -0.690081 0.489573 0.000000
127.93000031 226.56199646 173.12500000 0.653291 -0.227164 -0.722224 0.000000
147.94900513 200.19500732 21.25000000 -0.576756 -0.184136 0.795893 0.000000
114.74600220 278.32000732 107.50000000 0.861926 -0.503831 0.056907 0.000000
130.85899353 201.17199707 20.62500000 0.822858 0.535990 0.188729 0.000000
126.95300293 281.73800659 78.75000000 0.353293 -0.862405 0.362549 0.000000
239.25799561 152.83200073 172.50000000 0.095666 0.899819 -0.425646 0.000000
146.48399353 201.17199707 20.62500000 -0.568936 -0.207025 0.795897 0.000000
201.66000366 289.06201172 128.75000000 -0.705724 -0.708486 -0.001381 0.000000
106.44499969 253.90600586 96.87500000 0.963156 -0.197873 0.182148 0.000000
130.37100220 202.14799500 21.25000000 0.822858 0.535990 0.188729 0.000000
149.41400146 296.87500000 140.62500000 -0.001371 -0.788169 -0.615457 0.000000
108.88700104 268.55499268 112.50000000 0.899065 -0.433891 0.058487 0.000000
191.40600586 160.64399719 57.50000000 0.310734 0.947803 0.071508 0.000000
158.20300293 173.33999634 33.75000000 0.209847 0.873617 0.439041 0.000000
311.03500366 197.26600647 161.25000000 -0.774540 -0.297411 0.558242 0.000000
129.39399719 203.12500000 21.25000000 0.781131 0.598411 0.178153 0.000000
104.98000336 242.18699646 97.50000000 0.978371 -0.115030 0.171926 0.000000
212.89100647 208.00799561 108.12500000 0.610301 0.746627 0.264728 0.000000
222.65600586 147.94900513 140.00000000 0.189217 0.981344 0.034083 0.000000
195.31199646 210.44900513 98.75000000 0.773050 0.205221 -0.600232 0.000000
200.19500732 153.80900574 86.25000000 0.016812 0.989675 0.142343 0.000000
147.94900513 279.29699707 88.75000000 -0.551358 -0.432146 0.713620 0.000000
173.82800293 154.78500366 128.75000000 0.223244 0.969913 0.097117 0.000000
288.08599854 213.37899780 137.50000000 -0.305890 -0.001228 0.952066 0.000000
114.25800323 209.96099854 64.37500000 0.864643 0.408601 0.292295 0.000000
129.88299561 276.85501099 68.75000000 0.147603 -0.892786 0.425614 0.000000
102.05100250 255.85899353 122.50000000 0.917206 -0.275884 0.287439 0.000000
207.03100586 244.62899780 155.00000000 -0.655113 -0.513649 -0.554068 0.000000
188.47599792 160.64399719 63.75000000 0.102288 0.944501 0.312177 0.000000
253.90600586 155.27299500 178.12500000 -0.142908 0.454707 -0.879101 0.000000
136.22999573 233.39799500 175.00000000 0.219171 -0.227338 -0.948832 0.000000
158.20300293 220.21499634 32.50000000 -0.202399 0.029591 0.978856 0.000000
206.05499268 197.75399780 107.50000000 -0.572306 -0.818186 -0.055111 0.000000
233.39799500 223.14399719 123.75000000 -0.542164 -0.803149 0.247003 0.000000
126.95300293 181.64100647 151.87500000 0.690683 0.645179 -0.326652 0.000000
258.78900146 145.01899719 111.25000000 -0.596968 0.798355 -0.079116 0.000000
143.55499268 289.06201172 94.37500000 -0.394938 -0.739075 0.545703 0.000000
104.98000336 229.49200439 106.25000000 0.999999 -0.000978 -0.000978 0.000000
102.53900146 245.11700439 129.37500000 0.978453 0.184914 0.091845 0.000000
121.09400177 229.49200439 163.12500000 0.613850 0.110405 -0.781665 0.000000
158.20300293 304.19900513 125.00000000 0.105002 -0.945022 -0.309691 0.000000
107.91000366 262.69500732 138.75000000 0.852284 -0.352402 -0.386555 0.000000
111.81600189 274.41400146 113.75000000 0.854823 -0.510618 0.092452 0.000000
175.78100586 237.30499268 174.37500000 0.023133 -0.259336 -0.965510 0.000000
271.97299194 187.50000000 117.50000000 -0.435651 -0.242698 0.866779 0.000000
114.25800323 273.92599487 140.00000000 0.732558 -0.438212 -0.520893 0.000000
159.17999268 295.41000366 142.50000000 -0.023824 -0.758150 -0.651645 0.000000
212.89100647 149.90199280 105.00000000 0.219007 0.965445 0.141253 0.000000
166.01600647 242.67599487 56.25000000 -0.396758 -0.851085 0.343857 0.000000
280.27301025 178.22300720 122.50000000 -0.501804 -0.092400 0.860032 0.000000
166.50399780 173.82800293 175.00000000 0.151242 0.388705 -0.908864 0.000000
274.41400146 146.97300720 150.00000000 -0.037646 0.933352 -0.356984 0.000000
143.06599426 187.50000000 172.50000000 0.308050 0.258877 -0.915471 0.000000
184.08200073 268.55499268 98.75000000 -0.121096 -0.830167 0.544204 0.000000
183.59399414 256.83599854 88.12500000 -0.035325 -0.690952 0.722037 0.000000
121.09400177 220.70300293 166.87500000 0.886686 0.420626 0.191993 0.000000
177.73399353 278.32000732 154.37500000 -0.093665 -0.560547 -0.822808 0.000000
281.73800659 208.98399353 131.25000000 -0.559938 -0.559938 0.610687 0.000000
230.46899414 149.90199280 158.75000000 0.168894 0.968238 -0.184365 0.000000
251.46499634 149.41400146 160.00000000 0.142962 0.986557 -0.079161 0.000000
117.67600250 231.44500732 158.75000000 0.462276 -0.394626 -0.794085 0.000000
172.85099792 204.10099792 179.37500000 -0.000978 -0.000978 -0.999999 0.000000
205.07800293 149.90199280 140.00000000 -0.144676 0.794971 0.589144 0.000000
154.29699707 171.38699341 52.50000000 0.326688 0.936687 0.126066 0.000000
121.09400177 275.87899780 80.00000000 0.855632 -0.501177 0.129289 0.000000
151.36700439 303.22299194 127.50000000 -0.173582 -0.978706 -0.109566 0.000000
152.34399414 290.52700806 103.75000000 -0.480131 -0.716043 0.506712 0.000000
273.43701172 149.90199280 166.25000000 -0.122161 0.869502 -0.478585 0.000000
249.02299500 147.46099854 140.62500000 -0.084771 0.965372 0.246720 0.000000
277.34399414 211.91400146 133.12500000 -0.032362 -0.755572 0.654266 0.000000
214.35499573 224.60899353 76.25000000 -0.826949 -0.352600 0.437983 0.000000
225.58599854 226.56199646 120.62500000 -0.424112 -0.873700 0.238282 0.000000
113.28099823 216.79699707 153.12500000 0.072172 -0.418052 -0.905552 0.000000
126.95300293 225.58599854 171.87500000 0.810990 -0.273455 -0.517221 0.000000
236.32800293 171.38699341 112.50000000 -0.880912 -0.472255 0.031123 0.000000
218.75000000 217.77299500 169.37500000 -0.376443 -0.926332 -0.014133 0.000000
224.12100220 189.45300293 107.50000000 -0.627164 -0.763175 -0.155658 0.000000
172.85099792 163.57400513 62.50000000 -0.001264 0.931838 -0.362873 0.000000
226.56199646 194.82400513 136.25000000 -0.055710 0.635671 0.769947 0.000000
174.80499268 219.72599792 179.37500000 -0.000978 -0.000978 -0.999999 0.000000
206.05499268 236.32800293 163.12500000 -0.395217 -0.606882 -0.689563 0.000000
236.32800293 214.84399414 146.87500000 -0.614826 -0.750057 -0.243729 0.000000
152.83200073 217.77299500 21.25000000 -0.702617 0.026753 0.711065 0.000000
172.36300659 159.17999268 82.50000000 0.268838 0.941623 0.202663 0.000000
216.79699707 154.78500366 87.50000000 0.017938 0.972263 0.233200 0.000000
300.29299927 163.08599854 155.00000000 -0.940218 0.197432 0.277509 0.000000
279.78500366 160.15600586 176.25000000 -0.074799 0.515128 -0.853843 0.000000
260.74200439 147.94900513 135.00000000 -0.910396 0.305414 -0.279110 0.000000
153.32000732 165.03900146 95.62500000 0.340657 0.937792 0.067079 0.000000
230.46899414 152.34399414 168.12500000 0.065973 0.914192 -0.399875 0.000000
189.45300293 230.46899414 174.37500000 -0.363292 -0.382002 -0.849761 0.000000
151.36700439 220.70300293 20.62500000 -0.717591 -0.376037 0.586224 0.000000
172.85099792 183.59399414 39.37500000 -0.580972 -0.284915 0.762427 0.000000
263.67199707 147.94900513 158.75000000 0.077321 0.975711 -0.204961 0.000000
145.50799561 166.50399780 123.75000000 0.752945 0.637806 0.162103 0.000000
216.79699707 233.39799500 130.62500000 -0.720907 -0.685525 -0.101723 0.000000
228.02699280 218.75000000 98.75000000 -0.864265 0.172264 0.472622 0.000000
136.22999573 183.59399414 40.00000000 0.587038 0.721125 0.367921 0.000000
191.40600586 208.98399353 178.12500000 0.022773 -0.233720 -0.972037 0.000000
272.94900513 188.47599792 118.75000000 -0.531639 -0.332475 0.778987 0.000000
142.57800293 258.30099487 52.50000000 -0.338468 -0.921935 0.188352 0.000000
119.14099884 195.80099487 111.25000000 0.836887 0.543342 -0.066330 0.000000
113.28099823 277.83200073 125.00000000 0.801963 -0.593253 0.070047 0.000000
199.21899414 235.35099792 168.12500000 -0.455620 -0.423191 -0.783147 0.000000
230.46899414 223.63299561 138.12500000 -0.153990 -0.890837 -0.427429 0.000000
181.64100647 296.38699341 120.00000000 -0.407152 -0.341633 0.847062 0.000000
152.34399414 168.45700073 73.75000000 0.508302 0.847170 0.154701 0.000000
150.39100647 223.14399719 21.25000000 -0.594070 -0.580530 0.556835 0.000000
202.14799500 201.17199707 106.87500000 -0.551544 -0.816045 -0.172827 0.000000
124.51200104 224.60899353 21.25000000 0.934666 0.234017 0.267648 0.000000
262.69500732 182.61700439 116.87500000 0.305890 0.001228 0.952066 0.000000
193.35899353 256.83599854 90.62500000 -0.001191 -0.967932 -0.251210 0.000000
132.81199646 179.19900513 92.50000000 0.663681 0.744653 0.070850 0.000000
211.42599487 252.92999268 125.00000000 -0.978031 -0.034463 0.205589 0.000000
119.62899780 277.34399414 86.25000000 0.717057 -0.541519 0.438846 0.000000
185.54699707 220.70300293 51.87500000 -0.760344 -0.139471 0.634370 0.000000
110.83999634 212.89100647 88.75000000 0.960852 0.274707 0.036047 0.000000
244.14100647 201.66000366 125.00000000 0.001371 -0.788169 0.615457 0.000000
104.98000336 231.44500732 133.75000000 0.917923 0.038302 0.394905 0.000000
127.93000031 223.63299561 174.37500000 0.872358 -0.241738 -0.424918 0.000000
144.53100586 173.82800293 165.62500000 -0.385541 -0.192048 -0.902483 0.000000
160.15600586 163.08599854 85.62500000 0.442052 0.891120 0.102444 0.000000
166.99200439 178.71099854 178.12500000 0.111917 0.243130 -0.963516 0.000000
228.02699280 224.60899353 111.25000000 -0.629944 -0.764611 0.136164 0.000000
221.67999268 223.14399719 145.00000000 -0.667613 -0.577260 0.470174 0.000000
170.41000366 214.84399414 36.25000000 -0.619586 0.619586 0.481900 0.000000
112.30500031 217.28500366 62.50000000 0.888334 0.329180 0.320161 0.000000
170.89799500 165.52699280 52.50000000 0.129270 0.959734 0.249400 0.000000
113.76899719 227.53900146 46.25000000 0.913409 -0.027599 0.406106 0.000000
244.14100647 202.63699341 126.25000000 0.001371 -0.788169 0.615457 0.000000
152.34399414 164.06199646 160.62500000 0.619586 0.619586 -0.481900 0.000000
297.85101318 178.71099854 170.62500000 -0.235142 0.042642 -0.971025 0.000000
131.83599854 177.24600220 116.25000000 0.766062 0.641453 0.041064 0.000000
121.09400177 264.64801025 151.87500000 0.689629 -0.337478 -0.640719 0.000000
112.79299927 207.03100586 86.25000000 0.908582 0.416599 0.030418 0.000000
179.68699646 191.89399719 50.00000000 -0.702876 -0.446983 0.553328 0.000000
183.59399414 270.50799561 156.87500000 -0.228817 -0.474302 -0.850106 0.000000
304.19900513 165.03900146 161.25000000 -0.788169 0.001371 0.615457 0.000000
208.00799561 240.23399353 144.37500000 -0.176625 -0.055714 -0.982700 0.000000
199.70700073 291.01501465 133.75000000 -0.704211 -0.646462 -0.293555 0.000000
208.49600220 244.14100647 101.25000000 -0.979223 -0.109349 0.170780 0.000000
216.30799866 226.56199646 83.75000000 -0.790084 -0.570530 0.224192 0.000000
120.11699677 239.25799561 38.12500000 0.807378 -0.163881 0.566819 0.000000
208.49600220 269.53100586 141.25000000 -0.806826 -0.570316 -0.154180 0.000000
291.01501465 182.61700439 131.87500000 -0.757170 0.212132 0.617814 0.000000
140.62500000 274.90200806 157.50000000 0.453077 -0.763852 -0.459620 0.000000
219.23800659 185.54699707 181.25000000 -0.022174 -0.190229 -0.981489 0.000000
107.91000366 218.75000000 130.00000000 0.989421 0.144547 -0.012326 0.000000
202.14799500 249.02299500 156.87500000 -0.587563 -0.493283 -0.641437 0.000000
137.69500732 237.30499268 174.37500000 0.156464 -0.227464 -0.961134 0.000000
134.27699280 271.48400879 67.50000000 -0.725139 -0.512741 0.459642 0.000000
129.88299561 188.96499634 42.50000000 0.660656 0.733556 0.159469 0.000000
166.99200439 299.80499268 136.87500000 0.242815 -0.847563 -0.471887 0.000000
265.62500000 159.17999268 110.62500000 -0.639907 -0.020912 0.768168 0.000000
198.24200439 203.61300659 107.50000000 -0.413306 -0.729461 0.545037 0.000000
252.92999268 145.01899719 112.50000000 0.336431 0.937484 0.089094 0.000000
178.71099854 303.71099854 125.62500000 -0.158344 -0.946003 0.282853 0.000000
259.76599121 145.01899719 130.00000000 -0.261951 0.944944 -0.196120 0.000000
169.92199707 293.94500732 144.37500000 -0.152830 -0.532679 -0.832404 0.000000
112.30500031 261.23001099 78.75000000 0.890770 -0.434696 0.132547 0.000000
188.47599792 159.66799927 65.00000000 0.094561 0.957264 0.273319 0.000000
104.00399780 246.09399414 105.00000000 0.997448 -0.024484 0.067064 0.000000
212.89100647 230.46899414 145.62500000 -0.697419 -0.506758 0.506758 0.000000
134.76600647 230.95700073 21.25000000 -0.654389 -0.450206 0.607527 0.000000
103.02700043 243.16400146 122.50000000 0.988670 0.149594 0.012372 0.000000
240.23399353 208.98399353 173.12500000 -0.407622 -0.572652 -0.711276 0.000000
269.53100586 148.92599487 128.75000000 -0.771205 0.634859 -0.046869 0.000000
113.28099823 205.56599426 86.25000000 0.885648 0.463655 0.025535 0.000000
