260.31201172 122.50000000 382.87799072 -0.347076 0.130325 -0.928738 0.000000
109.37500000 228.43800354 305.18099976 -0.543883 -0.658384 0.520309 0.000000
228.75000000 130.00000000 363.25399780 -0.104207 -0.498196 0.860780 0.000000
87.50000000 124.37500000 284.75500488 0.869512 0.434005 0.235774 0.000000
72.50000000 140.00000000 374.46701050 0.521718 0.114171 -0.845444 0.000000
73.12500000 214.06199646 349.23599243 0.673674 -0.532555 -0.512395 0.000000
118.12500000 153.75000000 390.48699951 0.001158 -0.205018 -0.978758 0.000000
78.12500000 225.93800354 325.20599365 0.696503 -0.708384 0.114351 0.000000
82.50000000 92.50000000 344.02999878 0.621919 0.779912 -0.070379 0.000000
172.50000000 114.68800354 329.21099854 -0.078294 -0.548060 0.832767 0.000000
208.12500000 148.12500000 372.06500244 0.145730 -0.755692 0.638507 0.000000
104.06199646 168.75000000 281.15100098 -0.096640 0.047765 0.994173 0.000000
136.87500000 155.93800354 384.48001099 -0.352553 -0.176984 -0.918903 0.000000
89.06250000 94.37500000 315.59399414 0.613357 0.777516 0.138789 0.000000
138.12500000 220.31199646 344.42999268 -0.819894 -0.571272 0.037712 0.000000
70.00000000 107.18800354 356.44500732 0.747044 0.572031 -0.338682 0.000000
144.37500000 110.62500000 391.28900146 -0.079401 0.072691 -0.994189 0.000000
216.25000000 96.56250000 333.21600342 -0.705619 -0.690445 0.159333 0.000000
158.12500000 123.75000000 390.48699951 -0.030985 -0.276389 -0.960546 0.000000
233.12500000 65.93750000 347.63400269 0.025847 0.961249 0.274467 0.000000
212.00000000 93.43750000 288.35998535 -0.162094 -0.899405 0.405951 0.000000
165.62500000 147.50000000 345.63198853 0.032254 -0.935364 0.352213 0.000000
101.87500000 229.37500000 303.17800903 0.071979 -0.908562 0.411501 0.000000
113.75000000 133.75000000 273.54199219 -0.307223 -0.486830 0.817686 0.000000
61.87500000 204.68800354 332.41500854 0.903742 -0.424095 -0.058262 0.000000
86.87500000 171.87500000 275.14300537 -0.495835 0.333214 0.801945 0.000000
118.12500000 131.87500000 275.14300537 -0.456779 -0.424268 0.781889 0.000000
134.06199646 71.25000000 338.82299805 0.179620 0.971986 0.151594 0.000000
120.93800354 231.25000000 320.39999390 -0.603838 -0.732657 0.313996 0.000000
211.25000000 128.75000000 389.68600464 0.113067 0.016466 -0.993451 0.000000
60.31250000 173.12500000 293.16598511 0.998078 -0.007300 0.061533 0.000000
55.93750000 162.00000000 330.01199341 0.986577 0.133833 0.093565 0.000000
234.68800354 88.75000000 347.63400269 -0.438134 -0.490645 0.753197 0.000000
133.43800354 222.00000000 345.23098755 -0.578020 -0.796484 -0.177502 0.000000
61.87500000 127.81199646 334.01699829 0.929913 0.297741 0.215898 0.000000
220.62500000 97.50000000 387.28399658 -0.328704 0.238926 -0.913711 0.000000
79.06250000 111.87500000 307.58401489 0.785955 0.485775 0.382487 0.000000
63.12500000 132.18800354 324.40499878 0.869608 0.394446 0.296976 0.000000
116.87500000 229.06199646 354.04199219 -0.209853 -0.843942 0.493683 0.000000
220.00000000 93.12500000 387.28399658 -0.734156 0.136622 -0.665094 0.000000
140.00000000 99.37500000 388.08499146 0.103765 0.484710 -0.868498 0.000000
238.12500000 115.62500000 388.88500977 -0.159027 0.227370 -0.960736 0.000000
125.62500000 74.06250000 319.59899902 -0.025977 0.958686 0.283276 0.000000
186.87500000 74.37500000 379.27301025 -0.103490 0.578669 -0.808970 0.000000
140.31199646 126.25000000 313.19100952 -0.910647 -0.046803 0.410526 0.000000
114.37500000 199.37500000 298.37200928 -0.689339 -0.305117 0.657051 0.000000
163.75000000 148.43800354 373.26599121 -0.085596 -0.982545 -0.165164 0.000000
97.50000000 225.62500000 355.24301147 0.244777 -0.702747 -0.668005 0.000000
78.12500000 162.50000000 375.26800537 0.532307 -0.219366 -0.817636 0.000000
124.68800354 73.12500000 339.62399292 0.169687 0.980276 0.101324 0.000000
151.56199646 187.50000000 343.62899780 -0.982901 -0.137290 0.122711 0.000000
242.00000000 83.12500000 349.63699341 -0.386366 -0.424525 0.818841 0.000000
280.62500000 128.75000000 364.05499268 -0.883628 0.236926 -0.403817 0.000000
137.50000000 122.18800354 305.98199463 -0.912898 -0.141632 0.382828 0.000000
85.62500000 174.37500000 376.06900024 0.314615 -0.204570 -0.926914 0.000000
91.56250000 169.37500000 278.74798584 -0.335312 0.365934 0.868135 0.000000
182.00000000 112.00000000 331.21398926 -0.168753 -0.367286 0.914671 0.000000
162.50000000 92.50000000 386.48300171 0.035801 0.262949 -0.964145 0.000000
197.50000000 143.75000000 388.88500977 0.043839 -0.113533 -0.992567 0.000000
149.37500000 77.81250000 290.76300049 -0.003487 0.977609 0.210401 0.000000
130.00000000 77.81250000 295.56900024 0.146915 0.919268 0.365189 0.000000
72.50000000 166.25000000 264.73001099 -0.229385 -0.277232 0.933019 0.000000
114.37500000 161.87500000 282.35299683 -0.241002 -0.100736 0.965282 0.000000
170.62500000 143.12500000 338.42199707 -0.202820 -0.433769 0.877900 0.000000
253.75000000 146.25000000 386.48300171 -0.172003 -0.058125 -0.983380 0.000000
67.50000000 212.81199646 323.60400391 0.809085 -0.579578 0.097323 0.000000
225.93800354 93.75000000 313.99200439 -0.634662 -0.745844 -0.202289 0.000000
232.00000000 141.87500000 368.86099243 0.079952 -0.661425 0.745738 0.000000
57.50000000 187.81199646 314.79299927 0.961753 -0.182878 0.203928 0.000000
277.18798828 156.25000000 373.26599121 -0.501840 -0.662965 -0.555548 0.000000
245.62500000 98.12500000 379.27301025 -0.330430 0.466397 -0.820542 0.000000
59.68750000 196.25000000 314.79299927 0.921290 -0.315667 0.227109 0.000000
236.87500000 130.00000000 363.25399780 -0.070833 -0.476384 0.876380 0.000000
147.50000000 204.06199646 349.23599243 -0.852985 -0.476889 -0.212118 0.000000
129.68800354 228.75000000 336.42001343 -0.682852 -0.730331 -0.018154 0.000000
261.25000000 122.50000000 359.24899292 0.245256 -0.326524 0.912815 0.000000
96.56250000 232.00000000 339.62399292 0.245464 -0.935570 -0.253880 0.000000
118.43800354 196.25000000 301.17599487 -0.648473 -0.387764 0.655074 0.000000
142.18800354 122.50000000 392.48999023 -0.101969 -0.025218 -0.994468 0.000000
126.87500000 92.00000000 384.07901001 0.217945 0.585824 -0.780583 0.000000
227.18800354 87.50000000 330.81298828 -0.705724 -0.708486 -0.001381 0.000000
181.87500000 102.00000000 320.80099487 0.118019 -0.834873 0.537641 0.000000
150.62500000 87.81250000 383.67898560 0.158673 0.517540 -0.840818 0.000000
86.25000000 226.25000000 349.63699341 0.321341 -0.741184 -0.589395 0.000000
65.93750000 178.12500000 269.93701172 0.951353 -0.176776 0.252345 0.000000
105.62500000 119.37500000 390.48699951 0.284920 0.078643 -0.955320 0.000000
88.12500000 231.56199646 318.79800415 0.456651 -0.857168 0.238187 0.000000
202.00000000 110.93800354 338.02200317 -0.486400 -0.604214 0.631142 0.000000
78.12500000 139.37500000 272.74099731 0.935340 0.196547 0.294123 0.000000
66.56250000 164.37500000 268.33499146 0.901939 0.080996 0.424200 0.000000
111.25000000 199.06199646 373.26599121 -0.006403 -0.377777 -0.925874 0.000000
170.00000000 148.75000000 372.06500244 -0.059450 -0.928735 -0.365946 0.000000
215.62500000 135.62500000 363.25399780 -0.085982 -0.733031 0.674739 0.000000
240.00000000 116.25000000 356.04400635 0.013780 -0.324454 0.945801 0.000000
225.62500000 159.37500000 381.67700195 -0.115820 -0.804875 0.582032 0.000000
69.37500000 131.87500000 307.18399048 0.859712 0.362715 0.359628 0.000000
130.31199646 154.37500000 293.96701050 -0.849679 -0.183674 0.494277 0.000000
253.43800354 130.62500000 386.08200073 -0.268173 0.035839 -0.962704 0.000000
111.87500000 135.62500000 274.34201050 -0.255135 -0.505631 0.824163 0.000000
147.81199646 199.37500000 340.42498779 -0.926747 -0.234170 0.293777 0.000000
129.37500000 221.25000000 356.84500122 -0.340942 -0.631313 -0.696565 0.000000
74.37500000 112.18800354 314.79299927 0.804420 0.390168 0.447970 0.000000
185.62500000 71.56250000 326.00698853 -0.077430 0.990411 0.114412 0.000000
133.75000000 72.00000000 368.86099243 0.226712 0.742678 -0.630104 0.000000
68.43750000 170.62500000 265.13101196 0.203014 0.082436 0.975699 0.000000
70.31250000 107.50000000 357.24600220 0.751821 0.536549 -0.383249 0.000000
148.12500000 90.93750000 285.95700073 -0.348983 -0.919790 0.179437 0.000000
62.18750000 202.00000000 325.20599365 0.876970 -0.472862 0.085592 0.000000
73.75000000 142.18800354 279.54901123 0.735434 0.670845 0.095416 0.000000
82.18750000 106.25000000 308.38500977 0.719164 0.547226 0.428192 0.000000
115.62500000 102.50000000 387.28399658 0.372963 0.629272 -0.681848 0.000000
70.00000000 145.93800354 295.56900024 0.818085 0.556773 0.144019 0.000000
83.43750000 152.00000000 276.34500122 -0.616179 0.091771 0.782241 0.000000
263.75000000 98.12500000 355.24301147 0.000978 0.000978 0.999999 0.000000
173.12500000 95.62500000 386.48300171 0.307909 0.920864 -0.239167 0.000000
78.75000000 106.87500000 313.59100342 0.719565 0.554148 0.418506 0.000000
277.50000000 152.50000000 375.26800537 -0.612146 -0.123022 -0.781116 0.000000
210.00000000 140.62500000 389.68600464 -0.000978 -0.000978 -0.999999 0.000000
57.81250000 192.00000000 327.60900879 0.956918 -0.289185 0.026064 0.000000
59.06250000 164.37500000 313.19100952 0.963493 0.203186 0.174346 0.000000
153.75000000 68.43750000 366.05700684 0.334098 0.908922 -0.249479 0.000000
71.87500000 143.43800354 293.96701050 0.886135 0.364350 0.286382 0.000000
159.68800354 133.12500000 333.21600342 -0.226434 -0.212875 0.950480 0.000000
118.12500000 203.75000000 370.46200562 -0.133753 -0.545299 -0.827502 0.000000
141.87500000 210.93800354 335.61898804 -0.863111 -0.367707 0.346167 0.000000
232.50000000 92.00000000 382.47799683 -0.360902 0.489223 -0.793984 0.000000
139.37500000 71.56250000 334.01699829 0.054969 0.985926 0.157888 0.000000
141.25000000 139.37500000 312.79000854 -0.990673 0.005534 0.136148 0.000000
153.75000000 152.50000000 353.64199829 -0.689620 -0.707807 0.153080 0.000000
260.62500000 108.43800354 377.27099609 -0.472206 0.388401 -0.791307 0.000000
181.25000000 67.18750000 370.06201172 0.023331 0.961494 -0.273835 0.000000
273.75000000 143.43800354 359.64898682 0.381084 -0.340970 0.859368 0.000000
102.50000000 203.43800354 285.95700073 -0.685432 -0.227432 0.691706 0.000000
230.62500000 132.50000000 364.85501099 -0.109349 -0.170780 0.979223 0.000000
117.50000000 118.75000000 393.69100952 0.234388 0.013088 -0.972055 0.000000
216.56199646 96.87500000 301.97698975 -0.353470 -0.902009 0.247869 0.000000
57.18750000 170.00000000 351.63900757 0.925124 -0.119238 -0.360456 0.000000
150.31199646 157.50000000 352.44000244 -0.898053 -0.405061 0.171538 0.000000
69.37500000 174.37500000 264.73001099 0.792125 -0.097739 0.602482 0.000000
147.81199646 191.87500000 335.61898804 -0.849480 -0.129680 0.511436 0.000000
216.87500000 101.56199646 342.82800293 -0.672014 -0.551353 0.494375 0.000000
270.31201172 106.25000000 368.45999146 -0.755855 0.383641 -0.530568 0.000000
176.25000000 149.37500000 350.43798828 -0.316915 -0.931198 0.180097 0.000000
79.37500000 113.12500000 305.58200073 0.779685 0.437861 0.447627 0.000000
211.25000000 88.12500000 380.87500000 0.287519 0.507478 -0.812280 0.000000
117.50000000 201.25000000 372.06500244 -0.094312 -0.465932 -0.879780 0.000000
161.25000000 126.87500000 332.01400757 -0.234923 -0.183911 0.954457 0.000000
121.87500000 234.68800354 337.22100830 -0.236712 -0.958751 -0.157367 0.000000
215.62500000 62.00000000 359.24899292 -0.077768 0.959995 -0.269002 0.000000
253.75000000 98.12500000 355.24301147 0.000978 0.000978 0.999999 0.000000
209.37500000 148.12500000 372.06500244 -0.001374 -0.630540 0.776155 0.000000
203.75000000 78.75000000 378.47299194 -0.172901 0.477325 -0.861549 0.000000
262.00000000 93.12500000 355.24301147 -0.406739 0.035772 0.912844 0.000000
112.50000000 96.25000000 282.35299683 0.265259 0.703651 0.659176 0.000000
216.25000000 68.43750000 368.45999146 -0.130210 0.835393 -0.534008 0.000000
276.25000000 120.62500000 355.24301147 -0.612501 0.052581 0.788719 0.000000
89.37500000 225.31199646 298.77301025 0.296031 -0.885088 0.359144 0.000000
280.62500000 121.87500000 360.04901123 -0.866594 0.488082 -0.103877 0.000000
55.62500000 162.18800354 338.82299805 0.995704 0.082154 -0.042720 0.000000
138.75000000 81.87500000 376.87100220 0.269609 0.559715 -0.783601 0.000000
137.50000000 219.37500000 351.23800659 -0.698013 -0.544750 -0.464786 0.000000
62.18750000 160.62500000 287.55899048 0.959035 0.273828 0.072596 0.000000
208.75000000 71.56250000 331.61401367 -0.106892 0.962032 0.251133 0.000000
193.12500000 76.25000000 299.17300415 -0.201383 0.971454 0.125390 0.000000
202.81199646 134.37500000 353.24099731 -0.512859 -0.539763 0.667557 0.000000
102.18800354 80.00000000 347.63400269 0.488082 0.866594 -0.103877 0.000000
99.06250000 81.87500000 349.23599243 0.488988 0.859742 -0.147426 0.000000
86.25000000 175.62500000 376.06900024 0.328476 -0.241654 -0.913076 0.000000
122.18800354 138.12500000 280.35000610 -0.677620 -0.226916 0.699529 0.000000
231.25000000 90.31250000 346.83300781 -0.457144 -0.526963 0.716470 0.000000
77.50000000 129.37500000 295.97000122 0.732797 0.367214 0.572855 0.000000
130.62500000 151.25000000 293.56600952 -0.822972 -0.176029 0.540122 0.000000
78.75000000 198.12500000 362.45300293 0.482082 -0.324022 -0.814007 0.000000
141.25000000 131.87500000 392.89099121 -0.195439 -0.164376 -0.966842 0.000000
71.56250000 138.12500000 373.26599121 0.522563 0.136130 -0.841663 0.000000
79.37500000 217.81199646 297.17098999 0.658846 -0.658846 0.363104 0.000000
171.87500000 123.43800354 333.21600342 -0.070617 -0.291456 0.953974 0.000000
225.62500000 91.56250000 322.00201416 -0.614766 -0.744356 -0.260762 0.000000
205.62500000 73.12500000 375.26800537 -0.078665 0.559237 -0.825267 0.000000
67.81250000 190.62500000 277.94699097 0.847760 -0.409102 0.337548 0.000000
154.37500000 135.62500000 332.01400757 -0.370160 -0.339442 0.864732 0.000000
73.12500000 110.93800354 317.99700928 0.807199 0.428473 0.406006 0.000000
64.06250000 150.00000000 365.25601196 0.776794 0.018065 -0.629495 0.000000
122.00000000 157.50000000 389.68600464 -0.074119 -0.247481 -0.966054 0.000000
247.50000000 83.75000000 367.25900269 -0.534932 0.498040 -0.682499 0.000000
226.87500000 94.37500000 347.23300171 -0.457144 -0.526963 0.716470 0.000000
130.00000000 98.75000000 387.28399658 0.063771 0.559769 -0.826191 0.000000
132.50000000 100.62500000 288.76000977 -0.380726 -0.540859 0.750013 0.000000
145.93800354 204.37500000 354.84298706 -0.797363 -0.507702 -0.326266 0.000000
196.25000000 104.06199646 320.39999390 -0.071444 -0.979626 0.187691 0.000000
70.62500000 217.81199646 327.60900879 0.803839 -0.583408 0.116094 0.000000
124.37500000 196.87500000 372.86599731 -0.220810 -0.410499 -0.884722 0.000000
242.50000000 136.25000000 365.65600586 0.043326 -0.261194 0.964314 0.000000
67.81250000 129.37500000 366.05700684 0.821639 0.272840 -0.500467 0.000000
122.00000000 171.87500000 384.07901001 -0.125478 -0.421549 -0.898082 0.000000
178.75000000 67.18750000 348.43499756 0.015448 0.973223 0.229343 0.000000
56.56250000 171.25000000 317.99700928 0.972459 0.143270 0.183842 0.000000
183.12500000 66.56250000 367.65899658 0.025510 0.968161 -0.249025 0.000000
177.81199646 70.00000000 331.61401367 -0.124371 0.984102 0.126786 0.000000
256.25000000 122.00000000 384.88000488 -0.328598 0.117646 -0.937114 0.000000
269.37500000 103.12500000 355.24301147 0.000978 0.000978 0.999999 0.000000
250.00000000 80.31250000 362.05200195 -0.622995 0.585852 -0.518319 0.000000
96.87500000 176.56199646 378.87298584 0.289462 -0.307094 -0.906590 0.000000
223.12500000 103.12500000 388.08499146 -0.334282 0.292682 -0.895875 0.000000
188.75000000 88.75000000 385.68099976 -0.253528 -0.763732 -0.593664 0.000000
109.37500000 78.75000000 356.04400635 0.354908 0.857049 -0.373506 0.000000
162.50000000 147.18800354 344.42999268 0.054698 -0.916522 0.396226 0.000000
109.37500000 140.93800354 277.14599609 -0.076210 -0.453104 0.888194 0.000000
64.06250000 160.00000000 277.94699097 0.964364 0.147062 0.219943 0.000000
141.25000000 110.00000000 392.08999634 -0.087849 0.160054 -0.983191 0.000000
148.43800354 170.00000000 336.42001343 -0.950504 0.247429 0.187938 0.000000
125.62500000 150.62500000 390.48699951 -0.395397 -0.496280 -0.772895 0.000000
150.62500000 172.18800354 343.62899780 -0.944971 0.274082 0.178631 0.000000
161.25000000 72.81250000 318.79800415 0.064446 0.961642 0.266631 0.000000
143.43800354 188.12500000 326.80801392 -0.821989 -0.185513 0.538441 0.000000
116.87500000 155.93800354 281.95199585 -0.291258 -0.092732 0.952139 0.000000
96.25000000 110.00000000 283.95401001 0.664105 0.431086 0.610843 0.000000
157.50000000 134.37500000 388.08499146 -0.241047 -0.227273 -0.943527 0.000000
134.37500000 220.31199646 354.84298706 -0.507414 -0.638903 -0.578216 0.000000
60.00000000 170.31199646 298.77301025 0.998711 -0.019746 0.046766 0.000000
71.56250000 103.75000000 353.24099731 0.777441 0.580343 -0.242461 0.000000
231.87500000 119.37500000 389.68600464 -0.001118 0.157685 -0.987489 0.000000
120.62500000 73.43750000 342.82800293 0.141412 0.987547 0.068953 0.000000
62.18750000 195.62500000 347.63400269 0.840234 -0.319569 -0.438044 0.000000
274.37500000 110.62500000 355.24301147 -0.468844 -0.009297 0.883232 0.000000
67.18750000 210.62500000 343.62899780 0.798153 -0.487849 -0.353491 0.000000
107.18800354 209.37500000 366.85800171 0.115503 -0.568741 -0.814367 0.000000
114.06199646 233.75000000 346.83300781 -0.185679 -0.950082 -0.250735 0.000000
204.37500000 74.68750000 320.39999390 -0.196755 0.924322 0.326981 0.000000
202.00000000 128.12500000 388.88500977 0.040865 0.034578 -0.998566 0.000000
93.75000000 224.37500000 293.56600952 0.151583 -0.884956 0.440313 0.000000
121.25000000 139.68800354 280.35000610 -0.546316 -0.286618 0.787012 0.000000
158.75000000 95.93750000 313.19100952 -0.496060 -0.482788 0.721693 0.000000
61.56250000 161.25000000 293.16598511 0.939696 0.341822 -0.011352 0.000000
149.37500000 129.37500000 391.28900146 -0.263158 -0.153620 -0.952444 0.000000
60.00000000 142.18800354 324.40499878 0.973700 0.145234 0.175544 0.000000
241.25000000 131.56199646 364.45498657 0.115609 -0.563413 0.818047 0.000000
66.25000000 209.68800354 317.99700928 0.813670 -0.565582 0.134381 0.000000
71.25000000 217.50000000 323.20300293 0.768196 -0.620292 0.158469 0.000000
74.37500000 108.12500000 364.85501099 0.692218 0.548770 -0.468706 0.000000
98.75000000 80.93750000 338.82299805 0.513295 0.858186 0.006736 0.000000
281.25000000 123.12500000 358.44799805 -0.835518 0.527929 0.152316 0.000000
104.37500000 126.56199646 268.33499146 -0.189938 -0.563737 0.803819 0.000000
228.12500000 100.00000000 385.68099976 -0.285313 0.279520 -0.916769 0.000000
161.87500000 76.87500000 379.27301025 0.198347 0.598117 -0.776476 0.000000
217.50000000 112.50000000 389.68600464 0.092854 0.031680 -0.995176 0.000000
167.50000000 93.43750000 315.59399414 0.089803 -0.517439 0.850995 0.000000
219.37500000 142.81199646 368.45999146 -0.055222 -0.581957 0.811342 0.000000
243.75000000 158.12500000 386.48300171 -0.240524 -0.199757 -0.949866 0.000000
104.68800354 102.50000000 280.35000610 0.584426 0.680998 0.441234 0.000000
74.37500000 152.50000000 375.26800537 0.546168 -0.156261 -0.822972 0.000000
228.75000000 85.93750000 334.01699829 -0.623352 -0.773664 -0.113471 0.000000
121.25000000 80.00000000 295.16799927 0.326171 0.803494 0.498007 0.000000
153.75000000 78.43750000 295.56900024 -0.262701 0.953456 0.148019 0.000000
81.25000000 225.31199646 313.19100952 0.586840 -0.778840 0.221420 0.000000
66.25000000 119.37500000 329.61199951 0.909774 0.293523 0.293523 0.000000
82.50000000 182.81199646 371.66400146 0.515521 -0.312485 -0.797867 0.000000
264.37500000 110.00000000 355.24301147 0.106711 -0.106711 0.988547 0.000000
138.75000000 81.56250000 282.75299072 0.166338 0.926742 0.336870 0.000000
219.68800354 98.12500000 343.62899780 -0.690405 -0.509863 0.513206 0.000000
260.62500000 121.25000000 382.47799683 -0.340264 0.184957 -0.921961 0.000000
275.93798828 109.37500000 358.04699707 -0.904490 0.118828 0.409607 0.000000
252.00000000 124.37500000 360.04901123 -0.001178 -0.234487 0.972119 0.000000
149.06199646 158.75000000 374.06698608 -0.902117 -0.404887 -0.149169 0.000000
72.81250000 204.37500000 285.15600586 0.384159 0.182727 0.905004 0.000000
191.87500000 129.37500000 340.82598877 -0.538340 -0.416514 0.732603 0.000000
64.68750000 171.25000000 362.05200195 0.688264 -0.209742 -0.694479 0.000000
74.06250000 142.00000000 273.14099121 0.681854 0.649308 0.336859 0.000000
80.93750000 101.87500000 317.19601440 0.677961 0.655200 0.333290 0.000000
148.75000000 155.62500000 342.42700195 -0.939743 -0.313248 0.136961 0.000000
128.43800354 80.00000000 291.56399536 0.328334 0.861683 0.386910 0.000000
79.37500000 227.81199646 330.01199341 0.651281 -0.755255 0.073648 0.000000
132.00000000 119.37500000 392.89099121 -0.051970 0.035000 -0.998035 0.000000
149.68800354 152.00000000 381.27600098 -0.702620 -0.556448 -0.443498 0.000000
209.06199646 65.62500000 350.03698730 0.089695 0.952849 0.289885 0.000000
272.00000000 102.00000000 355.24301147 -0.845268 0.345294 0.407791 0.000000
66.87500000 129.37500000 316.79598999 0.898241 0.350713 0.264885 0.000000
152.18800354 186.87500000 351.63900757 -0.989964 -0.141106 -0.007777 0.000000
185.62500000 114.06199646 330.81298828 -0.185395 -0.424802 0.886099 0.000000
235.62500000 142.00000000 371.26300049 0.072742 -0.563392 0.822981 0.000000
71.56250000 123.75000000 311.58898926 0.842215 0.371704 0.390524 0.000000
75.93750000 126.25000000 374.86801147 0.610803 0.097670 -0.785735 0.000000
68.75000000 214.06199646 323.60400391 0.783393 -0.608647 0.125876 0.000000
138.75000000 80.00000000 375.26800537 0.270158 0.570333 -0.775716 0.000000
213.75000000 138.12500000 365.65600586 -0.167373 -0.583544 0.794646 0.000000
100.31199646 87.50000000 364.45498657 0.465780 0.783873 -0.410600 0.000000
129.37500000 213.43800354 362.05200195 -0.342099 -0.410832 -0.845095 0.000000
100.00000000 170.62500000 280.75000000 -0.188635 0.001143 0.982047 0.000000
215.93800354 98.75000000 338.02200317 -0.737313 -0.588230 0.332196 0.000000
156.87500000 114.37500000 392.08999634 0.137640 -0.016785 -0.990340 0.000000
65.93750000 200.00000000 351.63900757 0.768690 -0.218960 -0.600976 0.000000
100.93800354 83.75000000 358.04699707 0.414102 0.813815 -0.407707 0.000000
69.37500000 194.68800354 278.74798584 0.823128 -0.450272 0.345998 0.000000
233.75000000 72.00000000 328.00900269 -0.455313 0.817025 0.353780 0.000000
231.87500000 103.12500000 385.68099976 -0.189163 0.318075 -0.929002 0.000000
90.00000000 180.62500000 376.06900024 0.260984 -0.249699 -0.932490 0.000000
271.87500000 155.31199646 374.86801147 -0.058786 -0.755611 -0.652378 0.000000
90.93750000 158.75000000 383.67898560 0.437480 -0.370664 -0.819280 0.000000
96.25000000 148.12500000 279.94900513 -0.169997 -0.278795 0.945185 0.000000
102.00000000 171.87500000 281.55200195 -0.122166 0.034745 0.991901 0.000000
66.25000000 184.37500000 274.34201050 0.935570 -0.245464 0.253880 0.000000
93.75000000 207.50000000 365.65600586 0.317348 -0.362901 -0.876124 0.000000
203.75000000 76.56250000 310.78799438 -0.133845 0.970055 0.202679 0.000000
151.56199646 70.62500000 370.06201172 0.167051 0.855952 -0.489327 0.000000
62.50000000 184.37500000 288.76000977 0.933138 -0.232229 0.274452 0.000000
73.75000000 137.50000000 295.16799927 0.811690 0.324359 0.485748 0.000000
206.56199646 66.87500000 346.03201294 0.089294 0.956353 0.278235 0.000000
247.50000000 131.87500000 387.28399658 -0.190334 -0.010382 -0.981664 0.000000
146.25000000 70.31250000 337.22100830 0.113739 0.967418 0.226199 0.000000
153.43800354 110.00000000 322.00201416 -0.272184 -0.711499 0.647831 0.000000
157.50000000 88.12500000 299.17300415 0.552607 0.788763 -0.269219 0.000000
277.81201172 108.12500000 356.44500732 -0.974956 0.210236 0.072538 0.000000
205.62500000 128.43800354 350.83801270 -0.622456 -0.541486 0.565103 0.000000
216.25000000 83.12500000 380.87500000 -0.406185 0.684711 -0.605132 0.000000
73.12500000 209.68800354 294.76800537 0.744209 -0.603973 0.285254 0.000000
144.37500000 107.18800354 307.58401489 -0.777365 -0.339594 0.529509 0.000000
69.68750000 188.75000000 360.45001221 0.580939 -0.320241 -0.748302 0.000000
221.87500000 140.00000000 366.45700073 -0.055131 -0.583826 0.810005 0.000000
86.87500000 95.62500000 318.39700317 0.694085 0.621888 0.362631 0.000000
97.18750000 89.37500000 301.17599487 0.574136 0.775477 0.262687 0.000000
219.37500000 95.93750000 302.77801514 -0.408054 -0.890698 0.200371 0.000000
200.62500000 142.18800354 362.85299683 -0.254547 -0.649807 -0.716210 0.000000
186.87500000 79.37500000 382.47799683 -0.051348 0.509320 -0.859044 0.000000
148.43800354 200.62500000 353.24099731 -0.888850 -0.387295 -0.244842 0.000000
218.12500000 77.18750000 318.79800415 -0.100965 0.992636 0.066932 0.000000
153.75000000 152.18800354 370.86300659 -0.693900 -0.719338 -0.032504 0.000000
78.75000000 96.56250000 335.61898804 0.773360 0.612937 0.161936 0.000000
162.50000000 146.56199646 343.62899780 0.054698 -0.916522 0.396226 0.000000
138.75000000 82.81250000 279.54901123 0.166338 0.926742 0.336870 0.000000
223.75000000 141.56199646 368.45999146 -0.091965 -0.649595 0.754698 0.000000
55.93750000 184.37500000 334.81799316 0.992654 -0.092102 -0.078457 0.000000
248.75000000 156.87500000 376.87100220 -0.026475 -0.597781 0.801222 0.000000
80.00000000 94.68750000 338.02200317 0.656815 0.740983 0.139780 0.000000
76.56250000 108.75000000 368.45999146 0.593866 0.590482 -0.546492 0.000000
162.00000000 92.00000000 387.28399658 -0.065935 0.237615 -0.969119 0.000000
70.31250000 138.12500000 301.17599487 0.807425 0.280639 0.518947 0.000000
136.56199646 138.75000000 303.57901001 -0.899854 0.003929 0.436174 0.000000
219.06199646 132.00000000 362.05200195 -0.248011 -0.550615 0.797066 0.000000
96.87500000 114.68800354 277.14599609 0.817050 0.464846 0.341098 0.000000
117.50000000 131.25000000 274.34201050 -0.403342 -0.384361 0.830410 0.000000
236.25000000 74.37500000 336.82000732 -0.763656 0.439879 0.472584 0.000000
212.50000000 146.25000000 389.68600464 0.000978 0.000978 -0.999999 0.000000
83.12500000 217.18800354 289.96200562 0.590346 -0.696178 0.408446 0.000000
100.62500000 192.00000000 282.35299683 -0.438359 -0.055643 0.897076 0.000000
70.62500000 143.75000000 297.57199097 0.870015 0.347089 0.350147 0.000000
111.25000000 191.87500000 290.36199951 -0.632050 -0.471103 0.615284 0.000000
104.37500000 141.87500000 277.54699707 -0.066643 -0.562920 0.823820 0.000000
65.31250000 174.37500000 269.93701172 0.966431 -0.050865 0.251843 0.000000
243.12500000 130.00000000 364.05499268 0.179598 -0.713786 0.676945 0.000000
78.75000000 180.93800354 370.06201172 0.512580 -0.283722 -0.810410 0.000000
102.81199646 104.37500000 280.35000610 0.732727 0.589756 0.339557 0.000000
193.12500000 65.93750000 361.25100708 -0.044906 0.995608 -0.082146 0.000000
138.75000000 114.68800354 304.38000488 -0.786678 -0.331655 0.520714 0.000000
111.25000000 224.06199646 358.84799194 -0.549901 -0.580357 -0.600661 0.000000
111.25000000 191.56199646 289.96200562 -0.632348 -0.474681 0.612220 0.000000
158.12500000 107.18800354 321.20098877 -0.290224 -0.671845 0.681465 0.000000
141.87500000 105.93800354 302.77801514 -0.773732 -0.444692 0.451208 0.000000
193.12500000 69.68750000 373.26599121 -0.149771 0.715574 -0.682292 0.000000
79.37500000 138.43800354 270.73800659 0.699529 0.226916 0.677620 0.000000
211.25000000 65.93750000 348.43499756 0.065952 0.947903 0.311657 0.000000
95.62500000 225.93800354 296.36999512 0.153247 -0.915262 0.372572 0.000000
126.87500000 74.06250000 321.20098877 -0.044510 0.998888 0.015527 0.000000
106.87500000 204.37500000 291.16400146 -0.766853 -0.142566 0.625788 0.000000
163.43800354 120.62500000 391.68899536 0.089763 -0.190593 -0.977557 0.000000
118.75000000 164.06199646 387.68399048 0.027063 -0.362127 -0.931736 0.000000
233.12500000 82.00000000 376.06900024 -0.318880 0.556036 -0.767554 0.000000
205.62500000 70.93750000 373.26599121 -0.067304 0.786172 -0.614331 0.000000
218.12500000 118.12500000 355.24301147 -0.420235 -0.297089 0.857403 0.000000
144.37500000 97.50000000 296.77099609 -0.673095 -0.640181 0.370285 0.000000
100.62500000 95.93750000 290.76300049 0.647892 0.421379 0.634567 0.000000
210.00000000 67.18750000 367.65899658 0.003829 0.925357 -0.379077 0.000000
176.87500000 106.87500000 388.88500977 -0.941530 0.313843 0.122574 0.000000
102.50000000 231.56199646 308.38500977 0.001284 -0.917945 0.396706 0.000000
108.75000000 102.81199646 274.74301147 -0.098132 0.342791 0.934272 0.000000
203.43800354 153.12500000 383.67898560 0.696042 -0.716051 -0.052882 0.000000
221.25000000 108.12500000 352.83999634 -0.413561 -0.403981 0.815945 0.000000
256.25000000 159.68800354 380.47500610 -0.087180 -0.992944 0.080387 0.000000
146.25000000 96.87500000 299.97399902 -0.746304 -0.533074 0.398575 0.000000
214.68800354 98.75000000 305.98199463 -0.369045 -0.908970 0.193856 0.000000
201.87500000 65.93750000 360.45001221 0.023472 0.991427 -0.128539 0.000000
108.12500000 164.68800354 386.88299561 0.124760 -0.402315 -0.906961 0.000000
275.62500000 107.50000000 356.04400635 -0.959718 -0.173411 -0.221066 0.000000
105.62500000 80.93750000 313.99200439 0.566128 0.802900 0.186686 0.000000
117.50000000 94.37500000 380.07400513 0.227432 0.691706 -0.685432 0.000000
66.56250000 132.00000000 366.85800171 0.844241 0.236632 -0.480897 0.000000
69.06250000 211.87500000 310.78799438 0.812111 -0.519065 0.266547 0.000000
65.93750000 120.00000000 329.21099854 0.829815 0.529701 0.175567 0.000000
152.50000000 152.18800354 350.03698730 -0.695788 -0.630609 0.343820 0.000000
77.50000000 139.06199646 274.74301147 0.862013 0.497261 0.098312 0.000000
136.25000000 78.75000000 373.66699219 0.282224 0.620255 -0.731869 0.000000
156.25000000 148.75000000 347.23300171 -0.297873 -0.850403 0.433690 0.000000
69.37500000 110.00000000 358.44799805 0.793752 0.438099 -0.421933 0.000000
214.37500000 71.87500000 332.81500244 -0.090177 0.897612 0.431464 0.000000
128.12500000 85.62500000 280.75000000 0.390611 0.802119 0.451694 0.000000
263.75000000 122.50000000 358.44799805 0.476455 -0.185535 0.859400 0.000000
160.00000000 136.87500000 386.48300171 -0.169609 -0.343423 -0.923739 0.000000
116.87500000 102.50000000 388.08499146 0.326542 0.638463 -0.696948 0.000000
194.37500000 118.43800354 389.28601074 -0.102554 0.226632 -0.968566 0.000000
228.75000000 142.50000000 369.66101074 -0.001384 -0.712619 0.701550 0.000000
175.93800354 130.62500000 389.28601074 0.135750 -0.338690 -0.931054 0.000000
128.12500000 167.81199646 385.28100586 -0.139938 -0.405680 -0.903239 0.000000
72.18750000 114.37500000 366.85800171 0.771751 0.346402 -0.533298 0.000000
243.43800354 70.62500000 354.04199219 -0.393281 0.850295 -0.349756 0.000000
110.62500000 85.31250000 369.26098633 0.267699 0.806229 -0.527571 0.000000
226.25000000 102.00000000 388.08499146 -0.252213 0.333854 -0.908257 0.000000
228.75000000 69.06250000 339.62399292 -0.300182 0.783014 0.544775 0.000000
71.56250000 145.62500000 275.54400635 0.680943 0.680943 0.269507 0.000000
143.12500000 74.68750000 309.98699951 0.000978 0.999999 0.000978 0.000000
81.25000000 225.62500000 314.39199829 0.583788 -0.781997 0.218340 0.000000
183.12500000 68.43750000 343.62899780 -0.136670 0.954038 0.266706 0.000000
149.06199646 164.37500000 365.25601196 -0.986447 -0.100900 -0.129390 0.000000
117.50000000 135.62500000 276.74600220 -0.381276 -0.441898 0.812007 0.000000
133.75000000 114.37500000 392.89099121 -0.100542 0.062133 -0.992991 0.000000
266.25000000 131.56199646 380.47500610 -0.516261 0.077793 -0.852891 0.000000
78.12500000 187.18800354 366.85800171 0.516377 -0.345860 -0.783413 0.000000
113.12500000 190.93800354 291.56399536 -0.655160 -0.474195 0.588136 0.000000
175.62500000 70.31250000 329.21099854 -0.139426 0.985517 0.096526 0.000000
162.00000000 145.31199646 381.27600098 -0.001370 -0.790530 -0.612421 0.000000
73.75000000 150.00000000 268.73599243 -0.520873 0.259659 0.813184 0.000000
58.12500000 176.87500000 305.58200073 0.974823 0.027510 0.221279 0.000000
100.00000000 173.12500000 280.75000000 -0.188635 0.001143 0.982047 0.000000
100.62500000 83.12500000 319.19799805 0.595917 0.792079 0.132261 0.000000
123.12500000 233.43800354 340.42498779 -0.438838 -0.857799 -0.267584 0.000000
70.00000000 164.06199646 369.26098633 0.597870 -0.208559 -0.773986 0.000000
82.18750000 100.62500000 317.99700928 0.676482 0.663504 0.319585 0.000000
84.68750000 126.87500000 381.27600098 0.577865 0.131534 -0.805463 0.000000
146.25000000 121.87500000 392.08999634 -0.139147 0.028282 -0.989868 0.000000
273.12500000 150.00000000 377.67199707 -0.235209 -0.297932 -0.925156 0.000000
102.50000000 201.25000000 371.26300049 0.179938 -0.486278 -0.855076 0.000000
65.62500000 151.25000000 367.25900269 0.730182 0.001380 -0.683251 0.000000
60.31250000 133.75000000 332.41500854 0.941993 0.255901 0.217170 0.000000
228.75000000 95.62500000 348.83599854 -0.367416 -0.473309 0.800615 0.000000
183.75000000 82.81250000 384.48001099 -0.060708 0.408766 -0.910618 0.000000
56.87500000 163.43800354 324.40499878 0.975787 0.176619 0.129019 0.000000
231.25000000 87.50000000 321.60198975 -0.775216 -0.565955 -0.280599 0.000000
251.87500000 92.00000000 355.24301147 -0.145425 -0.057007 0.987726 0.000000
62.00000000 194.68800354 293.16598511 0.880296 -0.378995 0.285379 0.000000
59.06250000 186.87500000 305.18099976 0.944898 -0.167227 0.281430 0.000000
91.25000000 170.62500000 278.34799194 -0.374770 0.412721 0.830186 0.000000
154.68800354 99.37500000 312.39001465 -0.552364 -0.468926 0.689204 0.000000
60.00000000 187.81199646 348.43499756 0.890231 -0.248195 -0.381952 0.000000
73.43750000 117.50000000 312.39001465 0.816466 0.347196 0.461343 0.000000
62.00000000 200.93800354 304.38000488 0.855976 -0.431830 0.284301 0.000000
84.06250000 111.25000000 376.47000122 0.553651 0.392649 -0.734368 0.000000
232.50000000 160.62500000 383.27899170 -0.006482 -0.913953 -0.405769 0.000000
109.37500000 116.87500000 392.08999634 0.350935 0.092776 -0.931793 0.000000
233.75000000 71.56250000 338.82299805 -0.506668 0.741022 0.440652 0.000000
68.43750000 167.50000000 366.85800171 0.664412 -0.199788 -0.720167 0.000000
141.87500000 107.81199646 304.38000488 -0.782907 -0.376118 0.495572 0.000000
210.62500000 77.18750000 311.58898926 -0.087072 0.977418 0.192540 0.000000
71.25000000 110.62500000 362.45300293 0.756275 0.460984 -0.464265 0.000000
62.81250000 129.37500000 356.44500732 0.901546 0.260316 -0.345617 0.000000
116.87500000 150.62500000 391.28900146 -0.031380 -0.173169 -0.984392 0.000000
65.62500000 166.87500000 269.53601074 0.902354 -0.001302 0.430994 0.000000
263.75000000 104.06199646 373.26599121 -0.554038 0.374261 -0.743620 0.000000
150.00000000 110.00000000 391.28900146 -0.000978 -0.000978 -0.999999 0.000000
72.81250000 117.50000000 313.99200439 0.816466 0.347196 0.461343 0.000000
162.00000000 147.50000000 345.63198853 0.032254 -0.935364 0.352213 0.000000
214.37500000 130.00000000 389.68600464 0.061531 0.009386 -0.998061 0.000000
70.31250000 146.25000000 277.94699097 0.696270 0.677409 0.237329 0.000000
143.75000000 140.93800354 390.08700562 -0.318198 -0.339310 -0.885222 0.000000
158.12500000 150.62500000 356.04400635 -0.290565 -0.955440 -0.052023 0.000000
211.56199646 113.75000000 348.43499756 0.152694 -0.920364 0.360021 0.000000
221.87500000 88.43750000 382.87799072 -0.241828 0.566345 -0.787891 0.000000
114.68800354 76.87500000 356.44500732 0.336814 0.873278 -0.352054 0.000000
142.18800354 119.37500000 313.99200439 -0.824010 -0.379457 0.420737 0.000000
92.81250000 82.00000000 338.82299805 0.511575 0.851664 0.113843 0.000000
83.43750000 223.12500000 301.17599487 0.491254 -0.833129 0.254097 0.000000
122.00000000 73.43750000 335.61898804 0.166971 0.978329 0.122446 0.000000
88.75000000 139.37500000 384.88000488 0.445258 -0.039011 -0.894552 0.000000
258.12500000 136.87500000 364.05499268 0.272841 -0.267127 0.924230 0.000000
75.62500000 109.06199646 315.59399414 0.737360 0.506419 0.447035 0.000000
100.00000000 100.00000000 288.76000977 0.492361 0.442960 0.749245 0.000000
235.93800354 81.25000000 342.82800293 -0.691595 -0.558275 0.458286 0.000000
77.18750000 99.37500000 354.04199219 0.513920 0.801715 -0.305189 0.000000
85.31250000 230.62500000 322.00201416 0.463908 -0.856794 0.225154 0.000000
172.00000000 148.75000000 345.63198853 -0.196095 -0.914633 0.353544 0.000000
65.62500000 180.31199646 273.14099121 0.935570 -0.245464 0.253880 0.000000
198.12500000 142.00000000 388.88500977 0.079243 -0.106806 -0.991117 0.000000
66.56250000 162.00000000 268.33499146 0.897076 0.055643 0.438359 0.000000
221.25000000 94.68750000 301.97698975 -0.421349 -0.882616 0.208457 0.000000
140.31199646 151.25000000 386.08200073 -0.265537 -0.504676 -0.821457 0.000000
262.81201172 112.50000000 378.07199097 -0.511588 0.384909 -0.768194 0.000000
82.81250000 148.75000000 273.94198608 -0.586579 -0.284546 0.758260 0.000000
104.06199646 80.62500000 319.59899902 0.528300 0.838549 0.133173 0.000000
208.12500000 128.75000000 352.83999634 -0.583433 -0.310200 0.750588 0.000000
237.81199646 78.12500000 326.00698853 -0.929828 0.189332 -0.315553 0.000000
102.00000000 202.50000000 371.26300049 0.092112 -0.491739 -0.865857 0.000000
179.06199646 148.12500000 364.45498657 -0.393907 -0.865983 0.308075 0.000000
64.68750000 170.00000000 273.14099121 0.965056 0.028132 0.260528 0.000000
120.31199646 85.62500000 287.55899048 0.456852 0.719334 0.523303 0.000000
269.37500000 140.62500000 360.85000610 0.398504 -0.318495 0.860091 0.000000
247.18800354 72.50000000 354.04199219 -0.590255 0.797363 -0.125744 0.000000
239.37500000 121.25000000 358.44799805 0.025592 -0.470085 0.882250 0.000000
276.25000000 107.50000000 357.64599609 -0.967374 0.245267 -0.063496 0.000000
60.00000000 151.25000000 358.44799805 0.938591 0.117155 -0.324534 0.000000
230.31199646 102.50000000 386.08200073 -0.263321 0.342759 -0.901764 0.000000
227.50000000 87.18750000 340.42498779 -0.710751 -0.609449 0.351291 0.000000
100.00000000 98.75000000 289.56100464 0.641287 0.450408 0.621195 0.000000
258.75000000 148.12500000 384.88000488 -0.263596 -0.066845 -0.962314 0.000000
61.56250000 125.62500000 342.82800293 0.930416 0.359690 0.070345 0.000000
107.50000000 121.25000000 391.28900146 0.355504 0.042973 -0.933686 0.000000
219.37500000 96.87500000 307.98400879 -0.407466 -0.903758 0.131122 0.000000
280.62500000 125.31199646 363.65399170 -0.906100 0.250312 -0.341068 0.000000
136.25000000 103.75000000 292.76599121 -0.613459 -0.452990 0.646890 0.000000
141.25000000 101.87500000 389.68600464 0.001349 0.538096 -0.842882 0.000000
106.25000000 189.37500000 283.95401001 -0.526128 -0.423871 0.737239 0.000000
240.62500000 69.06250000 352.44000244 -0.446052 0.890715 -0.087543 0.000000
110.62500000 82.50000000 364.05499268 0.313523 0.840741 -0.441428 0.000000
69.37500000 215.62500000 340.02499390 0.895403 -0.391281 -0.212493 0.000000
122.50000000 74.06250000 357.24600220 0.321371 0.898950 -0.297675 0.000000
151.87500000 99.68750000 309.98699951 -0.587263 -0.489667 0.644475 0.000000
88.43750000 121.87500000 285.15600586 0.772208 0.349831 0.530389 0.000000
55.93750000 159.37500000 339.62399292 0.998031 0.061658 -0.011496 0.000000
206.25000000 108.12500000 388.88500977 0.045237 0.034717 -0.998373 0.000000
143.43800354 194.37500000 329.21099854 -0.843089 -0.196871 0.500443 0.000000
87.50000000 135.62500000 384.88000488 0.408310 -0.069182 -0.910218 0.000000
206.87500000 77.50000000 377.67199707 -0.031939 0.562403 -0.826246 0.000000
232.00000000 85.62500000 375.26800537 -0.321632 0.542454 -0.776077 0.000000
115.62500000 184.68800354 289.16101074 -0.630108 -0.488964 0.603223 0.000000
242.50000000 126.25000000 360.85000610 0.322291 -0.642962 0.694787 0.000000
145.31199646 124.37500000 325.20599365 -0.697562 -0.176307 0.694495 0.000000
134.37500000 82.81250000 375.66900635 0.309281 0.578500 -0.754774 0.000000
68.75000000 199.37500000 287.95999146 0.880363 -0.429122 0.202026 0.000000
79.37500000 182.50000000 369.66101074 0.516030 -0.309618 -0.798655 0.000000
95.62500000 128.43800354 265.93200684 -0.365088 -0.587742 0.721990 0.000000
282.00000000 132.50000000 356.04400635 -0.711758 -0.346921 0.610776 0.000000
246.87500000 124.06199646 387.68399048 -0.282926 -0.036145 -0.958460 0.000000
156.56199646 111.25000000 391.68899536 0.138241 -0.021354 -0.990168 0.000000
81.25000000 222.18800354 350.03698730 0.843107 -0.342561 -0.414515 0.000000
146.87500000 204.37500000 341.62600708 -0.917168 -0.272984 0.290316 0.000000
246.87500000 120.93800354 358.04699707 -0.095156 -0.288076 0.952868 0.000000
155.62500000 116.87500000 391.28900146 0.112327 -0.032252 -0.993148 0.000000
187.50000000 114.37500000 332.01400757 -0.302045 -0.304992 0.903188 0.000000
252.18800354 78.75000000 356.44500732 -0.704478 0.692358 -0.156046 0.000000
111.87500000 224.37500000 358.44799805 -0.549901 -0.580357 -0.600661 0.000000
77.18750000 100.00000000 331.61401367 0.454392 0.756227 0.470796 0.000000
248.75000000 98.43750000 378.07199097 -0.318759 0.430713 -0.844322 0.000000
76.87500000 178.12500000 369.66101074 0.549194 -0.304046 -0.778423 0.000000
210.00000000 94.68750000 290.76300049 -0.082589 -0.945180 0.315934 0.000000
169.37500000 108.43800354 391.68899536 -0.138844 0.436573 -0.888891 0.000000
212.50000000 121.25000000 353.64199829 -0.545708 -0.247201 0.800683 0.000000
65.31250000 176.25000000 361.25100708 0.684018 -0.261863 -0.680843 0.000000
212.50000000 137.50000000 365.65600586 -0.032447 -0.749114 0.661646 0.000000
137.18800354 205.62500000 362.85299683 -0.372397 -0.494917 -0.785097 0.000000
57.18750000 187.50000000 317.19601440 0.935778 -0.343782 0.078313 0.000000
197.50000000 118.75000000 339.22399902 -0.517218 -0.437900 0.735342 0.000000
112.00000000 193.75000000 375.26800537 -0.024305 -0.346670 -0.937672 0.000000
280.31201172 154.37500000 370.86300659 -0.836724 -0.506876 -0.207290 0.000000
100.00000000 229.06199646 302.77801514 0.092316 -0.905248 0.414733 0.000000
122.50000000 92.50000000 380.07400513 0.199926 0.702067 -0.683470 0.000000
233.12500000 67.81250000 358.04699707 -0.374322 0.844182 -0.383719 0.000000
211.25000000 157.81199646 382.07699585 0.489413 -0.809352 0.324691 0.000000
217.50000000 81.56250000 295.56900024 -0.242091 0.950782 0.193402 0.000000
158.75000000 67.18750000 360.45001221 0.062995 0.990741 -0.120263 0.000000
171.87500000 130.00000000 334.41799927 -0.108638 -0.278795 0.954186 0.000000
248.75000000 81.87500000 364.85501099 -0.554036 0.530460 -0.641604 0.000000
150.93800354 171.87500000 354.04199219 -0.938818 0.312031 0.145796 0.000000
206.25000000 137.18800354 358.04699707 -0.308726 -0.657861 0.686955 0.000000
102.00000000 80.00000000 315.19400024 0.568504 0.801969 0.183437 0.000000
219.68800354 96.87500000 314.79299927 -0.384578 -0.916647 -0.108895 0.000000
122.50000000 111.87500000 394.49200439 -0.001100 0.133100 -0.991102 0.000000
251.25000000 152.00000000 376.06900024 0.084342 -0.541790 0.836272 0.000000
77.81250000 216.87500000 351.63900757 0.603769 -0.539502 -0.586857 0.000000
162.50000000 66.56250000 359.64898682 0.016052 0.996291 -0.084540 0.000000
252.81199646 81.87500000 355.64401245 -0.800658 0.271064 0.534294 0.000000
136.25000000 212.50000000 359.24899292 -0.418088 -0.466893 -0.779239 0.000000
208.75000000 92.00000000 291.16400146 -0.031932 -0.941348 0.335922 0.000000
110.62500000 98.75000000 279.94900513 0.230876 0.698909 0.676921 0.000000
148.75000000 78.43750000 377.27099609 0.213149 0.553575 -0.805060 0.000000
122.00000000 222.50000000 357.64599609 -0.255672 -0.563106 -0.785839 0.000000
205.93800354 114.37500000 342.02700806 -0.679959 -0.430585 0.593509 0.000000
148.75000000 80.93750000 280.35000610 0.096031 0.897682 0.430052 0.000000
91.56250000 85.62500000 341.22601318 0.505198 0.862764 0.020316 0.000000
77.18750000 131.87500000 376.47000122 0.618912 0.110258 -0.777683 0.000000
121.56199646 233.75000000 342.02700806 -0.438838 -0.857799 -0.267584 0.000000
88.12500000 148.75000000 278.34799194 -0.271431 -0.413970 0.868881 0.000000
139.06199646 103.75000000 295.56900024 -0.657178 -0.546248 0.519356 0.000000
258.12500000 131.25000000 361.65100098 0.185323 -0.472945 0.861382 0.000000
221.25000000 82.18750000 296.36999512 -0.248578 0.949487 0.191527 0.000000
62.00000000 141.87500000 310.38800049 0.910647 0.230195 0.343121 0.000000
77.50000000 138.43800354 278.74798584 0.747722 0.662914 0.038164 0.000000
121.87500000 73.43750000 340.42498779 0.138275 0.986833 0.083910 0.000000
158.75000000 76.87500000 378.47299194 0.198347 0.598117 -0.776476 0.000000
225.93800354 93.75000000 313.19100952 -0.602324 -0.769550 -0.212129 0.000000
264.37500000 127.50000000 380.87500000 -0.518834 0.045657 -0.853655 0.000000
146.25000000 138.43800354 390.08700562 -0.361037 -0.306655 -0.880690 0.000000
82.50000000 199.06199646 364.45498657 0.441308 -0.331373 -0.833930 0.000000
182.00000000 138.75000000 388.08499146 0.056555 -0.484163 -0.873148 0.000000
272.00000000 105.93800354 361.25100708 -0.903004 0.259889 -0.342114 0.000000
126.87500000 75.93750000 305.98199463 0.057454 0.986093 0.155946 0.000000
250.62500000 123.75000000 386.48300171 -0.303932 0.110159 -0.946304 0.000000
101.87500000 206.25000000 368.05999756 0.123808 -0.522907 -0.843351 0.000000
210.00000000 96.87500000 386.48300171 0.132622 0.103947 -0.985701 0.000000
88.75000000 230.93800354 315.59399414 0.419730 -0.850303 0.317508 0.000000
66.56250000 184.37500000 359.64898682 0.639774 -0.307801 -0.704235 0.000000
251.87500000 114.37500000 356.84500122 -0.165210 -0.256546 0.952308 0.000000
80.62500000 158.75000000 377.67199707 0.526609 -0.158725 -0.835158 0.000000
103.12500000 230.93800354 350.83801270 0.082102 -0.808056 -0.583356 0.000000
168.75000000 150.31199646 358.84799194 0.001034 -0.998260 0.058965 0.000000
192.50000000 87.50000000 385.68099976 -0.033407 0.072203 -0.996830 0.000000
205.62500000 101.56199646 322.00201416 -0.305547 -0.948115 0.087861 0.000000
62.18750000 203.12500000 339.62399292 0.891757 -0.390604 -0.228467 0.000000
135.62500000 69.68750000 346.03201294 0.226501 0.962303 0.150564 0.000000
103.75000000 223.12500000 359.24899292 0.035363 -0.671900 -0.739797 0.000000
226.25000000 81.25000000 376.06900024 -0.365829 0.538176 -0.759299 0.000000
146.25000000 67.81250000 349.23599243 0.152460 0.988164 0.016940 0.000000
97.50000000 86.56250000 314.79299927 0.607406 0.774861 0.175067 0.000000
162.50000000 72.50000000 376.06900024 0.198347 0.598117 -0.776476 0.000000
218.43800354 152.00000000 377.27099609 0.108001 -0.720500 0.684993 0.000000
134.37500000 69.68750000 354.84298706 0.318075 0.929002 -0.189163 0.000000
81.87500000 219.37500000 353.64199829 0.527188 -0.560874 -0.638352 0.000000
96.87500000 158.75000000 281.55200195 -0.098826 0.304383 0.947409 0.000000
93.12500000 106.56199646 379.67401123 0.360848 0.592705 -0.720063 0.000000
226.87500000 90.62500000 344.02999878 -0.587179 -0.593948 0.549952 0.000000
173.12500000 125.31199646 390.88800049 0.082407 -0.249757 -0.964796 0.000000
175.62500000 125.62500000 333.61599731 -0.049929 -0.225291 0.973011 0.000000
55.93750000 160.00000000 342.02700806 0.998031 0.061658 -0.011496 0.000000
157.50000000 66.56250000 358.84799194 0.070610 0.994143 -0.081818 0.000000
104.37500000 150.93800354 280.35000610 0.012555 -0.172339 0.984958 0.000000
67.18750000 133.75000000 367.65899658 0.844241 0.236632 -0.480897 0.000000
242.81199646 113.12500000 355.64401245 -0.050563 -0.245416 0.968098 0.000000
270.00000000 109.68800354 370.86300659 -0.677467 0.377469 -0.631313 0.000000
114.37500000 113.75000000 392.89099121 0.240899 0.040354 -0.969711 0.000000
100.00000000 202.00000000 368.86099243 0.179871 -0.492044 -0.851786 0.000000
231.87500000 112.50000000 388.88500977 -0.178487 0.240220 -0.954168 0.000000
109.68800354 75.62500000 318.79800415 0.433177 0.870851 0.232327 0.000000
137.81199646 220.00000000 337.22100830 -0.849649 -0.512694 0.123453 0.000000
153.12500000 118.75000000 391.28900146 0.036751 -0.038851 -0.998569 0.000000
141.25000000 148.12500000 388.08499146 -0.261018 -0.483424 -0.835566 0.000000
180.62500000 65.31250000 357.24600220 -0.054456 0.994649 0.087796 0.000000
58.43750000 142.00000000 350.83801270 0.995613 0.067256 -0.065051 0.000000
