133.59399414 104.68800354 417.50000000 0.395653 0.730562 -0.556541 0.000000
113.28099823 170.31199646 467.50000000 -0.000978 -0.000978 -0.999999 0.000000
61.71879959 229.68800354 332.50000000 -0.292907 -0.600220 0.744272 0.000000
105.46900177 233.59399414 447.50000000 -0.000978 -0.000978 -0.999999 0.000000
189.84399414 186.71899414 387.50000000 -0.000978 -0.000978 -0.999999 0.000000
86.71880341 207.03100586 342.50000000 0.690320 -0.690320 0.216602 0.000000
93.35939789 119.53099823 375.00000000 0.702740 0.702740 -0.110959 0.000000
182.81199646 148.43800354 382.50000000 0.000978 0.000978 0.999999 0.000000
216.40600586 135.93800354 387.50000000 -0.509510 0.089413 0.855807 0.000000
81.25000000 243.75000000 357.50000000 -0.679925 -0.297367 0.670280 0.000000
142.96899414 260.15600586 417.50000000 0.000978 0.000978 -0.999999 0.000000
126.95300293 182.81199646 385.00000000 -0.842161 0.537932 0.037337 0.000000
131.25000000 189.06199646 467.50000000 -0.799605 -0.567215 -0.197226 0.000000
67.96880341 246.09399414 432.50000000 0.679558 -0.535257 -0.501698 0.000000
254.68800354 143.75000000 407.50000000 -0.776230 0.266091 0.571544 0.000000
104.68800354 138.28100586 447.50000000 0.247762 0.448403 -0.858806 0.000000
160.15600586 159.37500000 447.50000000 -0.000978 -0.000978 -0.999999 0.000000
193.75000000 193.35899353 385.00000000 0.503407 -0.510097 -0.697411 0.000000
68.35939789 157.81199646 370.00000000 0.887253 0.413463 -0.204524 0.000000
178.90600586 164.84399414 387.50000000 0.105485 -0.062383 0.992462 0.000000
216.40600586 156.25000000 437.50000000 -0.000978 -0.000978 -0.999999 0.000000
146.87500000 172.65600586 397.50000000 -0.025560 0.881132 -0.472179 0.000000
115.62500000 232.03100586 372.50000000 0.001299 -0.905318 -0.424733 0.000000
78.12500000 138.28100586 397.50000000 0.999999 0.000978 0.000978 0.000000
246.09399414 157.81199646 402.50000000 0.000978 0.000978 0.999999 0.000000
219.14100647 139.84399414 390.00000000 -0.589878 -0.197648 0.782930 0.000000
229.68800354 167.18800354 397.50000000 -0.212541 -0.042028 0.976248 0.000000
168.75000000 90.62500000 382.50000000 0.446689 0.894688 -0.001310 0.000000
140.62500000 264.84399414 397.50000000 0.000978 0.000978 0.999999 0.000000
77.34380341 271.09399414 407.50000000 -0.297416 -0.718621 -0.628592 0.000000
136.71899414 272.65600586 397.50000000 -0.540548 -0.004064 0.841304 0.000000
121.09400177 171.87500000 467.50000000 -0.000978 -0.000978 -0.999999 0.000000
103.90599823 247.65600586 437.50000000 -0.350101 -0.534024 -0.769576 0.000000
109.37500000 181.25000000 467.50000000 -0.000978 -0.000978 -0.999999 0.000000
210.93800354 196.87500000 422.50000000 -0.669484 -0.734511 -0.110842 0.000000
76.56250000 285.93798828 397.50000000 0.846469 -0.332040 -0.416220 0.000000
182.03100586 172.65600586 407.50000000 0.043023 -0.842423 0.537097 0.000000
106.25000000 276.17199707 415.00000000 -0.241873 -0.578934 -0.778674 0.000000
83.59380341 183.59399414 462.50000000 -0.000978 -0.000978 -0.999999 0.000000
102.34400177 288.28100586 407.50000000 -0.032889 -0.247274 -0.968387 0.000000
85.93750000 246.87500000 437.50000000 0.276385 -0.915977 -0.290855 0.000000
63.28120041 231.25000000 332.50000000 0.000978 0.000978 0.999999 0.000000
85.93750000 218.75000000 347.50000000 -0.402122 -0.696681 0.594082 0.000000
123.82800293 155.46899414 390.00000000 0.388442 -0.558897 0.732630 0.000000
214.06199646 163.28100586 437.50000000 -0.000978 -0.000978 -0.999999 0.000000
133.20300293 103.90599823 415.00000000 0.403912 0.760402 -0.508570 0.000000
180.46899414 169.53100586 447.50000000 -0.000978 -0.000978 -0.999999 0.000000
161.71899414 244.14100647 415.00000000 -0.443092 -0.718572 -0.536025 0.000000
56.25000000 235.93800354 342.50000000 0.922844 -0.185134 0.337764 0.000000
88.28119659 263.28100586 422.50000000 0.586355 -0.723552 -0.364226 0.000000
68.35939789 246.87500000 430.00000000 0.679558 -0.535257 -0.501698 0.000000
109.76599884 260.93798828 380.00000000 -0.713271 -0.483827 0.507104 0.000000
159.37500000 118.75000000 387.50000000 0.000000 0.000000 0.000000 0.000000
59.37500000 232.03100586 332.50000000 -0.167330 -0.390436 0.905296 0.000000
104.68800354 231.25000000 447.50000000 -0.000978 -0.000978 -0.999999 0.000000
107.03099823 285.15600586 407.50000000 -0.097731 -0.194226 -0.976076 0.000000
254.68800354 174.21899414 412.50000000 -0.516388 -0.492992 0.700216 0.000000
114.06199646 190.62500000 467.50000000 -0.000978 -0.000978 -0.999999 0.000000
243.35899353 149.21899414 435.00000000 -0.554101 -0.102718 -0.826088 0.000000
123.43800354 274.21899414 412.50000000 0.181618 -0.910950 -0.370386 0.000000
119.53099823 186.71899414 467.50000000 -0.000978 -0.000978 -0.999999 0.000000
120.31199646 140.62500000 382.50000000 0.206870 -0.499809 0.841068 0.000000
197.65600586 214.06199646 412.50000000 -0.374026 -0.746418 -0.550422 0.000000
179.68800354 167.18800354 387.50000000 0.539519 -0.689850 0.482728 0.000000
263.28100586 128.90600586 412.50000000 -0.959170 0.218898 0.179098 0.000000
226.56199646 170.31199646 432.50000000 -0.034673 -0.342878 -0.938740 0.000000
225.00000000 189.06199646 407.50000000 -0.162585 -0.541454 0.824860 0.000000
178.12500000 125.78099823 382.50000000 0.000978 0.000978 0.999999 0.000000
221.87500000 190.62500000 412.50000000 0.165306 -0.870416 0.463734 0.000000
73.43750000 143.75000000 422.50000000 -0.000978 -0.000978 -0.999999 0.000000
110.93800354 208.59399414 462.50000000 0.887134 -0.408879 -0.214034 0.000000
100.78099823 236.71899414 447.50000000 -0.000978 -0.000978 -0.999999 0.000000
88.28119659 129.68800354 422.50000000 0.543073 0.812315 -0.212640 0.000000
92.96880341 120.31199646 377.50000000 0.439629 0.856280 -0.271130 0.000000
219.53100586 103.12500000 382.50000000 0.000978 0.000978 0.999999 0.000000
267.96899414 146.09399414 417.50000000 -0.983033 -0.170392 0.067919 0.000000
110.15599823 121.09400177 367.50000000 0.000978 0.000978 0.999999 0.000000
53.90620041 242.18800354 352.50000000 0.753737 -0.627344 0.195756 0.000000
247.65600586 158.59399414 402.50000000 0.720945 -0.689032 0.073980 0.000000
117.96900177 217.18800354 457.50000000 0.048692 -0.524484 -0.850027 0.000000
125.00000000 169.53100586 467.50000000 -0.000978 -0.000978 -0.999999 0.000000
235.54699707 196.09399414 415.00000000 0.311205 -0.711095 0.630472 0.000000
107.81199646 301.56201172 392.50000000 0.040147 -0.527454 -0.848634 0.000000
183.59399414 91.01560211 405.00000000 0.023267 0.963764 -0.265739 0.000000
114.06199646 264.84399414 382.50000000 -0.240347 -0.143157 0.960073 0.000000
222.65600586 176.56199646 397.50000000 -0.044970 -0.146442 0.988197 0.000000
96.09380341 178.12500000 352.50000000 -0.000978 -0.000978 0.999999 0.000000
264.06201172 133.59399414 412.50000000 -0.879640 0.446363 0.164296 0.000000
64.84380341 249.21899414 342.50000000 0.000978 0.000978 0.999999 0.000000
120.31199646 230.85899353 375.00000000 -0.407088 -0.861798 0.302628 0.000000
92.18750000 174.21899414 467.50000000 0.355365 0.134126 -0.925055 0.000000
200.78100586 135.93800354 382.50000000 -0.216201 -0.029862 0.975892 0.000000
149.21899414 211.71899414 367.50000000 0.000978 0.000978 0.999999 0.000000
119.53099823 132.03100586 377.50000000 -0.349169 -0.383310 0.855076 0.000000
218.35899353 153.90600586 390.00000000 -0.698872 -0.189760 0.689615 0.000000
96.87500000 172.65600586 352.50000000 0.000978 0.000978 0.999999 0.000000
176.56199646 228.12500000 397.50000000 -0.676706 0.667015 0.311705 0.000000
225.78100586 110.15599823 387.50000000 0.000978 0.000978 0.999999 0.000000
88.28119659 195.31199646 462.50000000 0.517318 0.117375 -0.847706 0.000000
236.71899414 117.96900177 427.50000000 -0.206126 0.633875 -0.745462 0.000000
137.50000000 153.90600586 452.50000000 -0.000978 -0.000978 -0.999999 0.000000
178.90600586 175.00000000 447.50000000 -0.000978 -0.000978 -0.999999 0.000000
58.98440170 162.50000000 420.00000000 0.874967 0.276544 -0.397437 0.000000
59.37500000 229.68800354 432.50000000 0.380477 -0.660481 -0.647304 0.000000
148.43800354 181.25000000 397.50000000 -0.000978 -0.000978 -0.999999 0.000000
109.37500000 151.56199646 462.50000000 0.534220 0.383920 -0.753136 0.000000
121.09400177 231.25000000 377.50000000 0.001357 -0.831841 0.555013 0.000000
110.15599823 264.06201172 382.50000000 -0.404609 -0.294678 0.865711 0.000000
242.18800354 125.78099823 397.50000000 0.000978 0.000978 0.999999 0.000000
156.25000000 228.12500000 432.50000000 -0.673633 0.265950 -0.689558 0.000000
218.75000000 173.43800354 432.50000000 -0.000978 -0.000978 -0.999999 0.000000
119.53099823 124.21900177 372.50000000 0.000978 0.000978 0.999999 0.000000
134.37500000 176.56199646 467.50000000 -0.662780 0.219887 -0.715802 0.000000
91.40619659 244.53100586 367.50000000 0.000978 0.000978 0.999999 0.000000
167.96899414 182.03100586 447.50000000 -0.907957 -0.369802 -0.197132 0.000000
228.90600586 101.17199707 410.00000000 -0.417845 0.892078 -0.172054 0.000000
86.71880341 238.28100586 362.50000000 -0.542775 -0.391913 0.742832 0.000000
128.90600586 263.28100586 422.50000000 -0.610731 0.122738 -0.782268 0.000000
155.46899414 157.81199646 392.50000000 0.000978 0.000978 0.999999 0.000000
253.90600586 167.96899414 427.50000000 -0.000978 -0.000978 -0.999999 0.000000
139.84399414 238.28100586 387.50000000 0.000978 0.000978 0.999999 0.000000
185.93800354 203.12500000 427.50000000 0.015025 -0.840061 -0.542283 0.000000
226.56199646 141.40600586 392.50000000 0.000978 0.000978 0.999999 0.000000
209.37500000 160.93800354 437.50000000 0.000978 0.000978 -0.999999 0.000000
210.15600586 165.62500000 387.50000000 0.000978 0.000978 0.999999 0.000000
100.00000000 182.81199646 357.50000000 0.000978 0.000978 0.999999 0.000000
197.65600586 139.84399414 382.50000000 -0.218286 -0.012979 0.975798 0.000000
139.84399414 262.50000000 417.50000000 -0.000978 -0.000978 -0.999999 0.000000
253.90600586 125.00000000 422.50000000 -0.355742 -0.064801 -0.932335 0.000000
161.71899414 185.93800354 452.50000000 -0.000978 -0.000978 -0.999999 0.000000
134.37500000 166.40600586 462.50000000 -0.166703 -0.043133 -0.985063 0.000000
197.65600586 106.25000000 427.50000000 -0.072461 0.555535 -0.828330 0.000000
85.93750000 272.65600586 367.50000000 -0.391869 -0.870650 0.297332 0.000000
246.09399414 191.79699707 415.00000000 -0.570954 -0.634955 0.520427 0.000000
120.31199646 121.09400177 437.50000000 0.970485 0.003564 -0.241136 0.000000
246.87500000 133.98399353 430.00000000 -0.388588 0.407621 -0.826344 0.000000
155.46899414 157.03100586 447.50000000 -0.000978 -0.000978 -0.999999 0.000000
132.81199646 187.89100647 465.00000000 -0.799605 -0.567215 -0.197226 0.000000
100.00000000 150.00000000 367.50000000 -0.746802 0.450060 0.489625 0.000000
105.46900177 242.96899414 442.50000000 0.093497 -0.208186 -0.973610 0.000000
187.50000000 128.90600586 442.50000000 -0.000978 -0.000978 -0.999999 0.000000
151.56199646 240.62500000 427.50000000 -0.267735 -0.487495 -0.831063 0.000000
253.12500000 127.34400177 422.50000000 -0.000978 -0.000978 -0.999999 0.000000
225.78100586 180.85899353 400.00000000 -0.300640 -0.641473 0.705781 0.000000
223.43800354 157.03100586 392.50000000 0.000978 0.000978 0.999999 0.000000
229.68800354 195.31199646 422.50000000 -0.003870 -0.398582 -0.917125 0.000000
63.28120041 162.50000000 382.50000000 0.791200 0.495904 0.357886 0.000000
209.76600647 204.68800354 405.00000000 -0.947241 -0.316601 0.049990 0.000000
126.56199646 201.56199646 367.50000000 0.000978 0.000978 0.999999 0.000000
129.68800354 277.73400879 410.00000000 -0.226326 -0.534252 -0.814464 0.000000
225.00000000 122.65599823 387.50000000 -0.501575 -0.501575 0.704872 0.000000
170.31199646 202.34399414 372.50000000 -0.477286 -0.447763 0.756113 0.000000
212.50000000 192.96899414 397.50000000 0.896743 0.162131 -0.411784 0.000000
78.12500000 137.50000000 402.50000000 0.623583 0.765513 0.158538 0.000000
214.06199646 114.06199646 432.50000000 -0.287593 0.517038 -0.806202 0.000000
100.78099823 235.15600586 367.50000000 -0.506769 -0.621255 0.597685 0.000000
178.90600586 193.75000000 442.50000000 -0.484153 -0.735318 -0.474239 0.000000
225.78100586 159.37500000 437.50000000 -0.000978 -0.000978 -0.999999 0.000000
54.68750000 200.00000000 437.50000000 0.905861 -0.083597 -0.415243 0.000000
117.57800293 190.62500000 370.00000000 -0.641993 0.457609 0.615174 0.000000
203.12500000 175.78100586 387.50000000 0.224613 -0.860765 0.456763 0.000000
60.15620041 207.81199646 442.50000000 -0.000978 -0.000978 -0.999999 0.000000
225.78100586 191.01600647 425.00000000 -0.130436 -0.540796 -0.830979 0.000000
63.28120041 167.96899414 377.50000000 0.795229 0.361468 0.486777 0.000000
178.90600586 228.90600586 402.50000000 -0.844238 0.422899 0.329269 0.000000
167.96899414 231.25000000 422.50000000 -0.671037 -0.671037 -0.315307 0.000000
171.09399414 124.21900177 382.50000000 0.000978 0.000978 0.999999 0.000000
86.71880341 262.50000000 422.50000000 0.971664 -0.177013 -0.156638 0.000000
76.56250000 145.31199646 387.50000000 0.769262 0.618130 0.161711 0.000000
175.78100586 182.81199646 392.50000000 -0.297809 -0.769207 -0.565359 0.000000
107.03099823 135.15600586 447.50000000 0.392854 0.392854 -0.831463 0.000000
253.90600586 129.68800354 407.50000000 -0.184767 0.609272 0.771134 0.000000
161.71899414 148.43800354 447.50000000 -0.000978 -0.000978 -0.999999 0.000000
116.01599884 98.43750000 385.00000000 0.470633 0.830252 -0.298641 0.000000
164.45300293 216.40600586 410.00000000 -0.671037 0.671037 0.315307 0.000000
64.06250000 166.01600647 340.00000000 0.849658 0.439478 0.291444 0.000000
61.71879959 271.09399414 372.50000000 0.842214 -0.526202 0.117417 0.000000
66.79689789 196.87500000 450.00000000 0.316916 -0.919200 0.233743 0.000000
191.40600586 169.53100586 442.50000000 -0.139879 -0.147306 -0.979150 0.000000
99.21880341 255.46899414 432.50000000 0.382737 -0.153942 -0.910942 0.000000
179.29699707 230.46899414 410.00000000 -0.104979 -0.970104 -0.218811 0.000000
193.75000000 201.56199646 427.50000000 -0.000978 -0.000978 -0.999999 0.000000
127.34400177 275.00000000 412.50000000 -0.281655 -0.412587 -0.866281 0.000000
109.37500000 145.31199646 382.50000000 -0.237863 -0.688385 0.685235 0.000000
48.43750000 227.34399414 422.50000000 0.820027 -0.418771 -0.390110 0.000000
85.54689789 147.65600586 450.00000000 0.324849 0.741819 -0.586667 0.000000
89.84380341 233.59399414 447.50000000 0.118128 -0.549806 -0.826897 0.000000
120.31199646 219.53100586 452.50000000 -0.151625 -0.241282 -0.958537 0.000000
133.59399414 271.09399414 412.50000000 -0.184269 -0.592402 -0.784286 0.000000
119.53099823 120.70300293 435.00000000 0.671037 0.671037 -0.315307 0.000000
89.06250000 134.37500000 437.50000000 0.702740 0.702740 -0.110959 0.000000
51.17190170 182.81199646 395.00000000 0.968558 0.053055 0.243065 0.000000
195.31199646 189.06199646 437.50000000 -0.743462 0.101582 -0.661019 0.000000
185.15600586 87.89060211 390.00000000 0.001116 0.987889 -0.155160 0.000000
51.95309830 207.03100586 435.00000000 0.950533 -0.016195 -0.310200 0.000000
174.21899414 90.62500000 397.50000000 0.357275 0.926724 -0.116354 0.000000
114.06199646 196.09399414 367.50000000 0.000978 0.000978 0.999999 0.000000
146.09399414 229.68800354 437.50000000 -0.348324 -0.636142 -0.688472 0.000000
133.59399414 178.90600586 467.50000000 -0.328996 0.206513 -0.921474 0.000000
259.37500000 152.34399414 407.50000000 0.000978 0.000978 0.999999 0.000000
183.59399414 130.46899414 442.50000000 -0.000978 -0.000978 -0.999999 0.000000
146.09399414 122.65599823 442.50000000 0.003850 0.391437 -0.920197 0.000000
88.28119659 199.21899414 457.50000000 0.470191 -0.301485 -0.829474 0.000000
153.12500000 215.62500000 442.50000000 -0.000978 -0.000978 -0.999999 0.000000
146.09399414 237.50000000 432.50000000 -0.000978 -0.000978 -0.999999 0.000000
257.81201172 121.09400177 407.50000000 -0.905318 -0.001299 0.424733 0.000000
50.00000000 196.87500000 392.50000000 0.954747 0.161573 0.249703 0.000000
258.59399414 160.93800354 412.50000000 -0.734179 -0.152891 0.661518 0.000000
53.51559830 171.09399414 410.00000000 0.946931 0.321435 0.001241 0.000000
117.96900177 221.09399414 452.50000000 -0.066054 -0.181348 -0.981198 0.000000
135.15600586 101.56199646 412.50000000 0.448235 0.791288 -0.415871 0.000000
96.09380341 117.96900177 382.50000000 0.871082 0.216650 -0.440771 0.000000
91.40619659 296.87500000 392.50000000 0.139241 -0.771066 -0.621345 0.000000
55.85940170 265.62500000 380.00000000 0.885921 -0.429141 0.176020 0.000000
99.21880341 143.75000000 362.50000000 -0.000978 -0.000978 0.999999 0.000000
83.59380341 201.56199646 457.50000000 -0.000978 -0.000978 -0.999999 0.000000
103.51599884 107.81199646 375.00000000 0.702740 0.702740 0.110959 0.000000
101.17199707 210.15600586 360.00000000 -0.895860 -0.349133 0.274849 0.000000
153.90600586 125.78099823 392.50000000 -0.576924 0.287667 0.764464 0.000000
207.81199646 99.21880341 377.50000000 -0.594143 -0.046572 0.803010 0.000000
138.28100586 152.34399414 452.50000000 -0.000978 -0.000978 -0.999999 0.000000
197.65600586 87.50000000 397.50000000 -0.344007 0.686383 -0.640733 0.000000
71.87500000 158.59399414 452.50000000 0.820884 0.382656 -0.423938 0.000000
117.18800354 102.34400177 402.50000000 0.719943 0.438586 -0.537889 0.000000
189.06199646 146.87500000 442.50000000 -0.000978 -0.000978 -0.999999 0.000000
131.25000000 144.53100586 387.50000000 0.268379 0.538328 0.798859 0.000000
227.34399414 100.39099884 410.00000000 -0.833199 0.551279 -0.043265 0.000000
159.76600647 230.46899414 430.00000000 -0.671037 0.671037 -0.315307 0.000000
92.96880341 231.25000000 447.50000000 0.146316 -0.110039 -0.983099 0.000000
242.18800354 166.40600586 432.50000000 -0.000978 -0.000978 -0.999999 0.000000
92.96880341 220.31199646 452.50000000 -0.000978 -0.000978 -0.999999 0.000000
177.34399414 111.71900177 382.50000000 0.207945 -0.777867 0.593027 0.000000
228.12500000 101.56199646 382.50000000 -0.418042 -0.286351 0.862116 0.000000
113.28099823 224.21899414 372.50000000 -0.345856 -0.776970 0.526023 0.000000
197.65600586 167.18800354 387.50000000 -0.000978 -0.000978 0.999999 0.000000
242.96899414 132.81199646 397.50000000 -0.312114 0.345286 0.885078 0.000000
75.78119659 258.98400879 425.00000000 0.954848 0.001223 0.297091 0.000000
210.93800354 161.71899414 387.50000000 0.000978 0.000978 0.999999 0.000000
200.00000000 85.93750000 387.50000000 0.001116 0.987889 -0.155160 0.000000
119.53099823 267.96899414 422.50000000 0.000978 0.000978 -0.999999 0.000000
90.62500000 303.12500000 382.50000000 0.402681 -0.803757 -0.437975 0.000000
117.96900177 194.53100586 367.50000000 -0.070557 0.366100 0.927897 0.000000
154.68800354 165.62500000 452.50000000 -0.000978 -0.000978 -0.999999 0.000000
89.84380341 172.65600586 462.50000000 0.495132 0.001335 -0.868817 0.000000
165.62500000 221.09399414 432.50000000 0.000978 0.000978 -0.999999 0.000000
116.40599823 171.09399414 467.50000000 -0.000978 -0.000978 -0.999999 0.000000
254.68800354 123.43800354 422.50000000 -0.506797 0.520178 -0.687438 0.000000
89.06250000 250.00000000 432.50000000 -0.000978 -0.000978 -0.999999 0.000000
122.65599823 178.12500000 372.50000000 -0.708701 0.481916 0.515267 0.000000
102.34400177 154.29699707 460.00000000 0.312995 0.513185 -0.799171 0.000000
247.26600647 123.43800354 400.00000000 -0.729297 -0.172769 0.662025 0.000000
219.53100586 91.40619659 402.50000000 0.152241 0.755174 -0.637602 0.000000
179.29699707 175.78100586 410.00000000 -0.727517 -0.635587 0.258356 0.000000
165.62500000 157.03100586 447.50000000 -0.000978 -0.000978 -0.999999 0.000000
125.78099823 268.75000000 387.50000000 0.000978 0.000978 0.999999 0.000000
228.12500000 127.34400177 392.50000000 -0.278269 -0.281153 0.918433 0.000000
257.03100586 157.81199646 407.50000000 0.000978 0.000978 0.999999 0.000000
230.46899414 192.96899414 422.50000000 -0.074037 -0.481936 -0.873073 0.000000
144.53100586 257.03100586 397.50000000 -0.206037 -0.051811 0.977172 0.000000
143.75000000 125.00000000 442.50000000 -0.000978 -0.000978 -0.999999 0.000000
210.93800354 111.71900177 382.50000000 0.000978 0.000978 0.999999 0.000000
245.31199646 184.37500000 427.50000000 -0.129945 -0.293380 -0.947123 0.000000
96.87500000 142.18800354 362.50000000 0.000978 0.000978 0.999999 0.000000
167.18800354 214.06199646 432.50000000 0.619586 -0.619586 -0.481900 0.000000
125.78099823 159.37500000 392.50000000 0.251363 -0.326918 0.911011 0.000000
151.56199646 242.18800354 392.50000000 -0.000978 -0.000978 0.999999 0.000000
260.15600586 153.12500000 407.50000000 0.000978 0.000978 0.999999 0.000000
56.25000000 187.89100647 355.00000000 0.949661 0.312372 0.023836 0.000000
200.78100586 161.71899414 442.50000000 -0.047547 -0.154238 -0.986889 0.000000
250.78100586 151.56199646 432.50000000 -0.000978 -0.000978 -0.999999 0.000000
221.09399414 96.09380341 382.50000000 -0.060747 -0.175095 0.982676 0.000000
105.46900177 187.50000000 467.50000000 -0.000978 -0.000978 -0.999999 0.000000
152.34399414 148.43800354 387.50000000 -0.214564 0.008207 0.976676 0.000000
93.35939789 302.34399414 375.00000000 -0.448682 -0.890460 0.075931 0.000000
196.09399414 103.90599823 427.50000000 0.126785 0.723417 -0.678670 0.000000
217.18800354 161.71899414 392.50000000 0.000978 0.000978 0.999999 0.000000
68.75000000 200.00000000 452.50000000 0.397060 0.121208 -0.909754 0.000000
126.56199646 221.09399414 452.50000000 -0.000978 -0.000978 -0.999999 0.000000
109.37500000 263.28100586 427.50000000 -0.000978 -0.000978 -0.999999 0.000000
236.71899414 131.25000000 397.50000000 0.000978 0.000978 0.999999 0.000000
87.50000000 265.62500000 422.50000000 -0.000978 -0.000978 -0.999999 0.000000
243.75000000 153.90600586 402.50000000 -0.279827 -0.229205 0.932288 0.000000
97.65619659 167.96899414 462.50000000 -0.000978 -0.000978 -0.999999 0.000000
86.71880341 149.21899414 352.50000000 0.000978 0.000978 0.999999 0.000000
59.37500000 263.28100586 362.50000000 0.987889 0.001116 0.155160 0.000000
161.71899414 235.93800354 392.50000000 0.000978 0.000978 0.999999 0.000000
157.81199646 178.12500000 402.50000000 0.795782 -0.012413 -0.605456 0.000000
223.43800354 135.15600586 437.50000000 -0.000978 -0.000978 -0.999999 0.000000
229.68800354 147.65600586 392.50000000 -0.441287 -0.377563 0.814071 0.000000
176.17199707 89.84380341 395.00000000 0.303418 0.949319 -0.082040 0.000000
137.89100647 273.43798828 410.00000000 -0.085048 -0.578041 -0.811564 0.000000
101.56199646 133.59399414 362.50000000 0.623724 -0.380159 0.682970 0.000000
220.31199646 127.34400177 387.50000000 -0.362411 -0.035072 0.931358 0.000000
160.93800354 144.53100586 447.50000000 -0.000978 -0.000978 -0.999999 0.000000
223.43800354 171.87500000 432.50000000 -0.003325 -0.142972 -0.989721 0.000000
165.62500000 94.14060211 395.00000000 0.438765 0.873068 -0.212690 0.000000
71.09380341 271.87500000 357.50000000 -0.000978 -0.000978 0.999999 0.000000
117.18800354 150.39100647 390.00000000 0.274942 -0.739005 0.615043 0.000000
80.46880341 240.62500000 352.50000000 -0.751998 -0.240200 0.613844 0.000000
165.62500000 100.00000000 422.50000000 -0.174269 0.786484 -0.592515 0.000000
232.03100586 134.37500000 437.50000000 -0.438054 0.480711 -0.759622 0.000000
65.62500000 163.67199707 370.00000000 0.901635 0.422425 0.092795 0.000000
49.21879959 242.57800293 415.00000000 0.633680 -0.731655 -0.251259 0.000000
161.71899414 208.98399353 370.00000000 -0.529309 -0.660375 0.532669 0.000000
72.65619659 255.46899414 352.50000000 -0.528901 -0.616770 0.582974 0.000000
100.00000000 131.25000000 362.50000000 0.000978 0.000978 0.999999 0.000000
261.71899414 129.68800354 422.50000000 -0.564322 0.359409 -0.743213 0.000000
119.53099823 131.25000000 377.50000000 0.000978 0.000978 0.999999 0.000000
107.03099823 144.92199707 455.00000000 0.254921 0.796041 -0.548940 0.000000
64.84380341 161.71899414 442.50000000 0.865518 0.282400 -0.413678 0.000000
135.93800354 125.78099823 382.50000000 0.000978 0.000978 0.999999 0.000000
214.06199646 109.37500000 427.50000000 -0.210195 0.692865 -0.689751 0.000000
69.53119659 160.15600586 447.50000000 0.678915 0.279553 -0.678915 0.000000
132.81199646 190.62500000 392.50000000 -0.677031 0.405556 0.614128 0.000000
248.43800354 148.43800354 432.50000000 -0.311764 -0.090767 -0.945814 0.000000
65.23439789 189.06199646 450.00000000 0.701919 -0.050035 -0.710497 0.000000
213.28100586 173.04699707 435.00000000 0.006945 -0.720842 -0.693064 0.000000
135.93800354 214.06199646 367.50000000 0.000978 0.000978 0.999999 0.000000
150.78100586 259.37500000 412.50000000 -0.681431 -0.318864 -0.658770 0.000000
158.59399414 168.75000000 452.50000000 -0.000978 -0.000978 -0.999999 0.000000
207.03100586 111.71900177 432.50000000 -0.000978 -0.000978 -0.999999 0.000000
141.40600586 143.75000000 387.50000000 0.000978 0.000978 0.999999 0.000000
52.34379959 249.21899414 412.50000000 0.855044 -0.517419 -0.034312 0.000000
221.09399414 182.03100586 402.50000000 -0.023885 -0.689844 0.723564 0.000000
120.31199646 197.65600586 367.50000000 0.000978 0.000978 0.999999 0.000000
143.75000000 173.04699707 460.00000000 -0.549082 0.373115 -0.747860 0.000000
109.37500000 271.09399414 417.50000000 -0.000978 -0.000978 -0.999999 0.000000
87.50000000 233.59399414 357.50000000 -0.664489 -0.079971 0.743007 0.000000
128.90600586 161.71899414 462.50000000 -0.090767 0.311764 -0.945814 0.000000
81.25000000 295.70300293 390.00000000 0.520158 -0.785839 -0.334502 0.000000
92.18750000 204.68800354 457.50000000 -0.000978 -0.000978 -0.999999 0.000000
63.28120041 181.25000000 447.50000000 -0.000978 -0.000978 -0.999999 0.000000
164.84399414 208.59399414 377.50000000 -0.551164 -0.824541 0.127870 0.000000
267.96899414 152.34399414 417.50000000 -0.967224 0.242120 0.076525 0.000000
168.35899353 174.21899414 450.00000000 -0.539099 0.518945 -0.663377 0.000000
73.43750000 287.89099121 370.00000000 0.702740 -0.702740 0.110959 0.000000
178.90600586 89.45310211 400.00000000 0.297276 0.933699 -0.199580 0.000000
71.87500000 215.62500000 447.50000000 -0.000978 -0.000978 -0.999999 0.000000
57.03120041 167.96899414 387.50000000 -0.000978 -0.000978 0.999999 0.000000
129.68800354 258.59399414 392.50000000 0.000978 0.000978 0.999999 0.000000
102.34400177 254.68800354 432.50000000 0.080559 -0.124925 -0.988890 0.000000
116.40599823 282.03100586 387.50000000 0.000978 0.000978 0.999999 0.000000
148.43800354 210.15600586 447.50000000 -0.984336 0.052921 -0.168172 0.000000
159.37500000 219.53100586 392.50000000 -0.619586 0.619586 0.481900 0.000000
210.15600586 195.31199646 392.50000000 0.165865 -0.719764 -0.674113 0.000000
140.23399353 166.40600586 390.00000000 -0.285931 -0.605407 0.742782 0.000000
97.65619659 148.43800354 457.50000000 -0.512825 0.854708 -0.080526 0.000000
203.12500000 159.37500000 387.50000000 0.000978 0.000978 0.999999 0.000000
263.28100586 147.65600586 422.50000000 -0.324108 0.066384 -0.943688 0.000000
189.84399414 196.09399414 427.50000000 -0.000978 -0.000978 -0.999999 0.000000
89.06250000 196.87500000 462.50000000 0.545083 -0.391216 -0.741509 0.000000
140.62500000 150.00000000 387.50000000 0.000978 0.000978 0.999999 0.000000
151.56199646 110.15599823 427.50000000 0.000978 0.000978 -0.999999 0.000000
268.35900879 143.75000000 415.00000000 -0.953518 -0.084325 0.289299 0.000000
183.59399414 139.84399414 382.50000000 0.000978 0.000978 0.999999 0.000000
154.68800354 216.40600586 372.50000000 -0.572229 -0.666202 0.478256 0.000000
182.81199646 153.12500000 382.50000000 0.000978 0.000978 0.999999 0.000000
47.26559830 197.65600586 420.00000000 0.964884 0.214274 0.151940 0.000000
166.40600586 159.76600647 390.00000000 0.568891 -0.633039 0.525000 0.000000
76.56250000 269.53100586 412.50000000 0.457381 -0.862276 -0.217444 0.000000
121.09400177 167.18800354 467.50000000 -0.000978 -0.000978 -0.999999 0.000000
101.56199646 231.25000000 447.50000000 -0.000978 -0.000978 -0.999999 0.000000
134.37500000 232.42199707 380.00000000 0.183782 -0.503533 0.844203 0.000000
62.50000000 277.34399414 392.50000000 0.595485 -0.793488 -0.125599 0.000000
84.37500000 162.50000000 457.50000000 0.353580 0.261856 -0.898005 0.000000
120.31199646 248.43800354 432.50000000 -0.302183 -0.765849 -0.567592 0.000000
164.06199646 98.43750000 402.50000000 0.661324 0.347808 -0.664590 0.000000
235.93800354 117.18800354 392.50000000 0.000978 0.000978 0.999999 0.000000
92.96880341 296.87500000 372.50000000 0.000978 0.000978 0.999999 0.000000
221.48399353 114.84400177 430.00000000 -0.202612 0.629489 -0.750128 0.000000
128.12500000 269.53100586 417.50000000 -0.261796 -0.258966 -0.929731 0.000000
154.68800354 179.68800354 397.50000000 -0.000978 -0.000978 -0.999999 0.000000
192.96899414 179.68800354 407.50000000 -0.001116 -0.987889 -0.155160 0.000000
89.06250000 256.25000000 367.50000000 0.000978 0.000978 0.999999 0.000000
194.92199707 217.18800354 390.00000000 -0.210195 0.692865 -0.689751 0.000000
104.68800354 168.75000000 467.50000000 -0.000978 -0.000978 -0.999999 0.000000
230.46899414 172.65600586 397.50000000 0.000978 0.000978 0.999999 0.000000
128.90600586 277.73400879 410.00000000 -0.226326 -0.534252 -0.814464 0.000000
178.12500000 175.78100586 447.50000000 -0.000978 -0.000978 -0.999999 0.000000
195.31199646 181.64100647 390.00000000 -0.303802 -0.602782 -0.737806 0.000000
142.18800354 234.37500000 387.50000000 -0.000978 -0.000978 0.999999 0.000000
52.73440170 178.90600586 430.00000000 0.918731 0.322488 -0.227891 0.000000
158.59399414 214.06199646 377.50000000 -0.759039 -0.598078 0.257221 0.000000
232.03100586 191.01600647 425.00000000 0.252784 -0.467267 -0.847208 0.000000
160.15600586 106.25000000 427.50000000 0.542624 0.566290 -0.620383 0.000000
117.96900177 292.96899414 402.50000000 -0.000978 -0.000978 -0.999999 0.000000
187.50000000 172.65600586 442.50000000 -0.000978 -0.000978 -0.999999 0.000000
103.51599884 255.46899414 375.00000000 -0.851792 -0.339786 0.398744 0.000000
99.21880341 190.62500000 357.50000000 -0.000978 -0.000978 0.999999 0.000000
246.87500000 183.59399414 427.50000000 -0.129945 -0.293380 -0.947123 0.000000
244.53100586 184.37500000 412.50000000 -0.916879 0.126227 0.378681 0.000000
79.68750000 277.34399414 362.50000000 0.000978 0.000978 0.999999 0.000000
117.18800354 149.21899414 387.50000000 0.234203 -0.792566 0.563017 0.000000
59.37500000 256.25000000 347.50000000 0.738446 -0.444389 0.507165 0.000000
62.50000000 271.48400879 370.00000000 0.842214 -0.526202 0.117417 0.000000
58.20309830 180.46899414 340.00000000 0.967509 0.249561 0.040569 0.000000
143.75000000 125.00000000 387.50000000 -0.238299 0.230035 0.943556 0.000000
50.39059830 221.09399414 355.00000000 0.937086 -0.050829 0.345379 0.000000
201.56199646 213.28100586 392.50000000 0.517434 0.608449 -0.601707 0.000000
85.93750000 282.03100586 367.50000000 -0.000978 -0.000978 0.999999 0.000000
226.56199646 100.78099823 382.50000000 -0.168211 -0.178483 0.969458 0.000000
149.21899414 174.21899414 397.50000000 -0.000978 -0.000978 -0.999999 0.000000
48.04690170 229.68800354 405.00000000 0.987889 -0.001116 0.155160 0.000000
245.31199646 124.60900116 425.00000000 0.380347 -0.916983 0.120328 0.000000
128.51600647 185.93800354 385.00000000 -0.805478 0.590306 0.052377 0.000000
125.00000000 148.43800354 387.50000000 0.000978 0.000978 0.999999 0.000000
194.53100586 122.65599823 437.50000000 -0.009712 0.761664 -0.647900 0.000000
249.21899414 127.34400177 402.50000000 -0.650794 -0.110679 0.751144 0.000000
72.65619659 196.09399414 452.50000000 -0.000978 -0.000978 -0.999999 0.000000
206.25000000 194.53100586 392.50000000 0.511212 -0.139155 -0.848114 0.000000
162.50000000 150.00000000 387.50000000 0.000978 0.000978 0.999999 0.000000
82.03119659 177.34399414 462.50000000 0.000978 0.000978 -0.999999 0.000000
114.06199646 116.40599823 412.50000000 0.944257 -0.313869 0.099326 0.000000
67.96880341 271.87500000 407.50000000 0.400546 -0.562083 -0.723620 0.000000
75.78119659 228.12500000 342.50000000 -0.321353 -0.492319 0.808922 0.000000
123.43800354 248.43800354 432.50000000 -0.211794 -0.152024 -0.965418 0.000000
141.40600586 210.15600586 452.50000000 -0.000978 -0.000978 -0.999999 0.000000
62.50000000 161.32800293 385.00000000 0.769561 0.526542 0.361289 0.000000
232.81199646 155.46899414 437.50000000 -0.000978 -0.000978 -0.999999 0.000000
96.87500000 160.93800354 357.50000000 -0.526946 0.066044 0.847329 0.000000
169.53100586 90.23439789 385.00000000 0.446689 0.894688 0.001310 0.000000
84.37500000 248.43800354 362.50000000 -0.446403 -0.243630 0.861028 0.000000
205.46899414 195.70300293 425.00000000 -0.292252 -0.486045 -0.823619 0.000000
183.59399414 171.09399414 402.50000000 0.354140 -0.869253 0.344942 0.000000
117.18800354 224.21899414 372.50000000 0.000978 0.000978 0.999999 0.000000
194.92199707 171.09399414 440.00000000 -0.517923 -0.359803 -0.776078 0.000000
69.14060211 154.68800354 435.00000000 0.774514 0.620500 -0.122915 0.000000
106.25000000 237.50000000 442.50000000 -0.000978 -0.000978 -0.999999 0.000000
48.82809830 185.15600586 425.00000000 0.979020 0.201945 0.027162 0.000000
213.28100586 156.25000000 437.50000000 -0.000978 -0.000978 -0.999999 0.000000
150.00000000 200.00000000 452.50000000 -0.224060 -0.449623 -0.864660 0.000000
146.87500000 125.00000000 387.50000000 0.000978 0.000978 0.999999 0.000000
149.21899414 119.14099884 440.00000000 -0.040447 0.556497 -0.829864 0.000000
196.87500000 193.75000000 387.50000000 0.432820 -0.475285 -0.766010 0.000000
190.62500000 184.37500000 437.50000000 -0.624449 0.076434 -0.777317 0.000000
86.71880341 294.53100586 397.50000000 0.164156 -0.986081 0.026403 0.000000
202.34399414 96.87500000 417.50000000 -0.171710 0.963414 -0.205790 0.000000
102.34400177 285.15600586 377.50000000 -0.340167 -0.141851 0.929605 0.000000
249.21899414 162.50000000 432.50000000 -0.437036 0.875554 -0.205925 0.000000
107.03099823 292.96899414 382.50000000 0.000978 0.000978 0.999999 0.000000
50.39059830 238.28100586 400.00000000 0.979973 -0.196938 -0.029482 0.000000
237.50000000 195.31199646 412.50000000 0.293883 -0.150327 0.943946 0.000000
51.56250000 199.21899414 377.50000000 0.981769 0.189908 -0.008057 0.000000
124.21900177 169.53100586 392.50000000 0.000978 0.000978 0.999999 0.000000
210.15600586 190.62500000 427.50000000 -0.269752 -0.139527 -0.952768 0.000000
62.50000000 160.15600586 387.50000000 0.754281 0.542496 0.369809 0.000000
92.18750000 234.37500000 362.50000000 0.000978 0.000978 0.999999 0.000000
171.48399353 91.40619659 395.00000000 0.358693 0.923739 -0.134337 0.000000
80.46880341 175.00000000 342.50000000 -0.584948 0.419240 0.694315 0.000000
105.46900177 256.25000000 432.50000000 -0.000978 -0.000978 -0.999999 0.000000
103.12500000 120.70300293 410.00000000 0.404815 0.914390 0.003880 0.000000
228.90600586 114.84400177 427.50000000 0.000978 0.000978 -0.999999 0.000000
91.01560211 128.90600586 390.00000000 0.436852 0.821282 -0.366956 0.000000
172.65600586 152.34399414 382.50000000 0.229112 -0.759032 0.609408 0.000000
189.06199646 149.21899414 442.50000000 -0.000978 -0.000978 -0.999999 0.000000
103.12500000 231.64100647 370.00000000 -0.806807 -0.128322 0.576712 0.000000
57.03120041 179.68800354 442.50000000 0.842807 -0.026123 -0.537582 0.000000
96.09380341 300.00000000 377.50000000 -0.806167 -0.467737 0.362376 0.000000
132.03100586 150.00000000 452.50000000 -0.480005 0.827109 -0.292381 0.000000
117.18800354 289.84399414 402.50000000 -0.000978 -0.000978 -0.999999 0.000000
56.25000000 255.85899353 415.00000000 0.745482 -0.445973 -0.495343 0.000000
144.14100647 250.78100586 395.00000000 -0.675208 -0.079863 0.733291 0.000000
125.00000000 180.46899414 382.50000000 -0.798330 0.599103 0.061191 0.000000
106.25000000 228.12500000 452.50000000 0.034741 -0.557248 -0.829619 0.000000
130.46899414 192.96899414 367.50000000 0.000978 0.000978 0.999999 0.000000
206.25000000 176.17199707 435.00000000 -0.363089 -0.652245 -0.665389 0.000000
154.68800354 174.21899414 397.50000000 -0.000978 -0.000978 -0.999999 0.000000
114.84400177 281.25000000 412.50000000 -0.442629 -0.058563 -0.894791 0.000000
112.50000000 256.64099121 430.00000000 -0.211328 -0.828590 -0.518439 0.000000
207.03100586 130.46899414 442.50000000 -0.265556 -0.013338 -0.964003 0.000000
112.10900116 189.84399414 365.00000000 -0.001225 0.953933 0.300017 0.000000
189.84399414 160.93800354 442.50000000 -0.000978 -0.000978 -0.999999 0.000000
171.09399414 175.78100586 402.50000000 0.234698 -0.065815 -0.969838 0.000000
82.03119659 294.53100586 392.50000000 0.484006 -0.803483 -0.346632 0.000000
113.28099823 290.62500000 387.50000000 -0.001380 0.677534 0.735490 0.000000
266.01599121 166.40600586 420.00000000 -0.822819 -0.568170 -0.012322 0.000000
100.78099823 122.26599884 405.00000000 0.619697 0.777918 0.104015 0.000000
140.62500000 247.65600586 427.50000000 -0.476761 -0.509984 -0.715972 0.000000
219.53100586 175.00000000 432.50000000 -0.000978 -0.000978 -0.999999 0.000000
147.65600586 139.84399414 387.50000000 0.000978 0.000978 0.999999 0.000000
81.25000000 265.62500000 362.50000000 -0.219536 -0.005870 0.975587 0.000000
156.25000000 239.06199646 392.50000000 -0.467283 -0.648167 0.601271 0.000000
228.90600586 116.40599823 387.50000000 0.000978 0.000978 0.999999 0.000000
80.07810211 139.84399414 390.00000000 0.781074 0.571327 0.252010 0.000000
137.50000000 228.90600586 442.50000000 -0.432202 -0.461560 -0.774702 0.000000
113.28099823 147.65600586 457.50000000 -0.068468 0.306169 -0.949512 0.000000
104.68800354 221.87500000 452.50000000 -0.000978 -0.000978 -0.999999 0.000000
110.93800354 121.09400177 427.50000000 0.421674 0.860216 -0.286739 0.000000
230.46899414 139.06199646 392.50000000 0.000978 0.000978 0.999999 0.000000
204.68800354 96.48439789 415.00000000 0.379471 0.847954 -0.370102 0.000000
119.53099823 118.35900116 430.00000000 0.619808 0.701577 -0.351606 0.000000
168.75000000 107.81199646 382.50000000 0.206149 -0.101200 0.973273 0.000000
202.34399414 207.03100586 417.50000000 -0.413396 -0.825207 -0.384886 0.000000
163.28100586 203.12500000 367.50000000 -0.353213 0.104205 0.929721 0.000000
258.59399414 171.87500000 427.50000000 -0.000978 -0.000978 -0.999999 0.000000
132.81199646 264.84399414 417.50000000 -0.276529 -0.510876 -0.813964 0.000000
156.25000000 176.56199646 452.50000000 -0.000978 -0.000978 -0.999999 0.000000
127.34400177 266.40600586 417.50000000 -0.222637 -0.304885 -0.926001 0.000000
157.81199646 211.32800293 370.00000000 -0.526253 -0.745935 0.408215 0.000000
95.31250000 229.68800354 447.50000000 -0.000978 -0.000978 -0.999999 0.000000
225.78100586 185.15600586 402.50000000 -0.203353 -0.690778 0.693883 0.000000
96.09380341 202.34399414 352.50000000 -0.499387 0.042647 0.865329 0.000000
219.14100647 150.78100586 390.00000000 -0.776939 -0.204619 0.595397 0.000000
111.71900177 170.31199646 467.50000000 -0.000978 -0.000978 -0.999999 0.000000
160.93800354 214.84399414 402.50000000 -0.940617 0.267363 0.209180 0.000000
254.68800354 182.81199646 417.50000000 -0.920802 -0.326920 -0.212712 0.000000
255.46899414 141.40600586 407.50000000 -0.719776 0.223271 0.657322 0.000000
55.85940170 190.62500000 340.00000000 0.952402 0.189942 0.238437 0.000000
67.96880341 274.21899414 357.50000000 0.379439 -0.091120 0.920719 0.000000
96.09380341 130.46899414 437.50000000 0.016858 0.919416 -0.392924 0.000000
78.90619659 260.15600586 357.50000000 -0.553410 -0.124774 0.823510 0.000000
119.53099823 267.18798828 387.50000000 0.000978 0.000978 0.999999 0.000000
130.46899414 124.60900116 440.00000000 0.446496 0.466123 -0.763787 0.000000
154.68800354 203.12500000 367.50000000 -0.716530 -0.357449 0.599012 0.000000
115.62500000 126.56199646 372.50000000 0.000978 0.000978 0.999999 0.000000
256.25000000 175.78100586 427.50000000 -0.000978 -0.000978 -0.999999 0.000000
214.06199646 155.46899414 387.50000000 -0.575802 -0.714390 0.397617 0.000000
71.09380341 171.09399414 452.50000000 0.479800 -0.053617 -0.875738 0.000000
187.10899353 173.43800354 405.00000000 0.434019 -0.866525 0.246498 0.000000
191.40600586 175.78100586 402.50000000 0.538173 -0.839208 0.078099 0.000000
230.46899414 127.34400177 432.50000000 -0.000978 -0.000978 -0.999999 0.000000
182.81199646 100.00000000 372.50000000 -0.000978 -0.000978 -0.999999 0.000000
178.90600586 155.46899414 447.50000000 -0.000978 -0.000978 -0.999999 0.000000
117.96900177 159.37500000 467.50000000 -0.000978 -0.000978 -0.999999 0.000000
263.28100586 165.62500000 417.50000000 -0.056765 -0.988167 0.142491 0.000000
151.56199646 185.15600586 457.50000000 -0.000978 -0.000978 -0.999999 0.000000
102.34400177 300.00000000 392.50000000 0.058641 -0.630745 -0.773771 0.000000
160.93800354 211.32800293 385.00000000 -0.888651 -0.457136 0.036409 0.000000
50.78120041 184.76600647 395.00000000 0.970140 0.063189 0.234172 0.000000
181.25000000 113.28099823 382.50000000 0.282509 -0.900774 0.329840 0.000000
182.03100586 87.89060211 380.00000000 0.671037 0.671037 -0.315307 0.000000
165.62500000 182.81199646 397.50000000 -0.344160 -0.614921 -0.709525 0.000000
204.68800354 175.78100586 392.50000000 0.221172 -0.862120 0.455886 0.000000
57.42190170 257.03100586 360.00000000 0.842123 -0.481431 0.243008 0.000000
88.28119659 239.84399414 442.50000000 -0.000978 -0.000978 -0.999999 0.000000
227.34399414 167.96899414 397.50000000 -0.178106 -0.099494 0.978968 0.000000
128.12500000 212.50000000 457.50000000 -0.014682 -0.152465 -0.988200 0.000000
85.93750000 146.87500000 447.50000000 0.142932 0.681559 -0.717668 0.000000
159.37500000 162.50000000 447.50000000 -0.651067 0.202589 -0.731484 0.000000
111.71900177 214.06199646 367.50000000 0.000978 0.000978 0.999999 0.000000
199.21899414 208.59399414 417.50000000 -0.319326 -0.640274 -0.698628 0.000000
96.09380341 125.78099823 392.50000000 0.590420 0.785701 -0.184602 0.000000
230.46899414 136.71899414 392.50000000 -0.782736 -0.390558 0.484551 0.000000
173.43800354 154.68800354 382.50000000 -0.025265 -0.897572 0.440143 0.000000
178.90600586 196.87500000 437.50000000 -0.000978 -0.000978 -0.999999 0.000000
108.59400177 292.18798828 382.50000000 -0.333776 0.103216 0.936985 0.000000
163.28100586 188.28100586 397.50000000 -0.000978 -0.000978 -0.999999 0.000000
53.90620041 254.68800354 367.50000000 0.812315 -0.543073 0.212640 0.000000
83.59380341 184.37500000 462.50000000 -0.000978 -0.000978 -0.999999 0.000000
55.07809830 194.53100586 340.00000000 0.952402 0.189942 0.238437 0.000000
143.75000000 197.65600586 457.50000000 -0.000978 -0.000978 -0.999999 0.000000
52.73440170 182.03100586 435.00000000 0.788169 0.001371 -0.615457 0.000000
52.34379959 174.21899414 412.50000000 0.958767 0.192817 0.208775 0.000000
111.71900177 298.82800293 395.00000000 -0.241687 -0.891128 -0.384030 0.000000
75.39060211 289.06201172 365.00000000 0.643467 -0.739139 0.199058 0.000000
80.46880341 225.00000000 447.50000000 -0.000978 -0.000978 -0.999999 0.000000
159.76600647 164.84399414 395.00000000 0.956627 -0.190792 -0.220144 0.000000
103.90599823 236.71899414 372.50000000 -0.065657 -0.234134 0.969985 0.000000
84.76560211 142.96899414 445.00000000 0.432935 0.549047 -0.714923 0.000000
206.25000000 138.28100586 442.50000000 -0.000978 -0.000978 -0.999999 0.000000
179.68800354 164.84399414 387.50000000 0.105485 -0.062383 0.992462 0.000000
107.03099823 189.84399414 467.50000000 -0.000978 -0.000978 -0.999999 0.000000
89.06250000 163.28100586 352.50000000 -0.557471 -0.279525 0.781723 0.000000
230.46899414 169.53100586 432.50000000 -0.000978 -0.000978 -0.999999 0.000000
219.53100586 126.56199646 387.50000000 -0.330531 0.045014 0.942721 0.000000
259.76599121 166.40600586 415.00000000 -0.752088 -0.401441 0.522693 0.000000
166.40600586 157.81199646 387.50000000 0.455439 -0.695670 0.555535 0.000000
186.71899414 200.78100586 432.50000000 0.959464 -0.143066 -0.242819 0.000000
90.62500000 218.75000000 352.50000000 -0.000978 -0.000978 0.999999 0.000000
185.93800354 122.65599823 382.50000000 0.000978 0.000978 0.999999 0.000000
135.54699707 146.09399414 385.00000000 0.550316 -0.483408 0.680786 0.000000
148.43800354 185.93800354 457.50000000 -0.013844 -0.333512 -0.942644 0.000000
47.65620041 188.67199707 405.00000000 0.994435 0.103701 0.018557 0.000000
167.96899414 184.37500000 447.50000000 -0.987889 -0.001116 0.155160 0.000000
81.25000000 196.87500000 337.50000000 -0.705614 -0.064934 0.705614 0.000000
129.29699707 282.81201172 395.00000000 -0.367526 -0.522956 0.769053 0.000000
128.90600586 204.68800354 367.50000000 0.000978 0.000978 0.999999 0.000000
78.90619659 294.14099121 385.00000000 0.705724 -0.708486 -0.001381 0.000000
181.25000000 141.40600586 442.50000000 -0.000978 -0.000978 -0.999999 0.000000
139.84399414 105.46900177 422.50000000 0.668350 0.728697 -0.149360 0.000000
100.78099823 213.28100586 362.50000000 -0.910114 -0.145336 0.388033 0.000000
228.90600586 185.93800354 407.50000000 -0.042608 -0.342158 0.938676 0.000000
83.59380341 197.65600586 337.50000000 0.000978 0.000978 0.999999 0.000000
153.12500000 182.81199646 457.50000000 -0.000978 -0.000978 -0.999999 0.000000
164.84399414 244.53100586 412.50000000 -0.501575 -0.501575 -0.704872 0.000000
239.84399414 151.56199646 437.50000000 -0.447672 0.073005 -0.891212 0.000000
146.87500000 103.12500000 422.50000000 -0.702740 0.702740 0.110959 0.000000
89.06250000 137.50000000 442.50000000 0.303871 0.625429 -0.718680 0.000000
114.06199646 127.34400177 372.50000000 0.000978 0.000978 0.999999 0.000000
82.81250000 260.93798828 427.50000000 0.146934 -0.162004 -0.975790 0.000000
185.15600586 192.18800354 437.50000000 -0.000978 -0.000978 -0.999999 0.000000
168.75000000 138.28100586 382.50000000 0.000978 0.000978 0.999999 0.000000
175.78100586 98.04689789 420.00000000 0.144362 0.858879 -0.491413 0.000000
135.15600586 264.06201172 392.50000000 0.000978 0.000978 0.999999 0.000000
237.50000000 194.53100586 412.50000000 0.317510 -0.039529 0.947430 0.000000
90.23439789 139.84399414 445.00000000 0.289765 0.715609 -0.635563 0.000000
125.00000000 245.31199646 437.50000000 -0.361745 -0.286694 -0.887100 0.000000
167.18800354 172.65600586 447.50000000 -0.110199 0.488023 -0.865847 0.000000
240.62500000 143.75000000 397.50000000 0.000978 0.000978 0.999999 0.000000
103.90599823 163.28100586 462.50000000 0.138114 0.329559 -0.933978 0.000000
228.12500000 99.21880341 382.50000000 0.000978 0.000978 0.999999 0.000000
161.71899414 126.56199646 442.50000000 -0.000978 -0.000978 -0.999999 0.000000
105.85900116 272.65600586 380.00000000 -0.563851 0.093735 0.820540 0.000000
81.64060211 232.03100586 350.00000000 -0.763798 -0.572450 0.298184 0.000000
73.43750000 286.71899414 392.50000000 0.719665 -0.581962 -0.378685 0.000000
121.87500000 238.28100586 442.50000000 -0.126415 -0.382023 -0.915466 0.000000
116.40599823 114.84400177 372.50000000 -0.000978 -0.000978 0.999999 0.000000
225.78100586 108.59400177 387.50000000 0.000978 0.000978 0.999999 0.000000
220.31199646 110.15599823 382.50000000 -0.133378 -0.839845 0.526185 0.000000
190.62500000 120.31199646 382.50000000 0.000978 0.000978 0.999999 0.000000
141.40600586 260.15600586 417.50000000 -0.000978 -0.000978 -0.999999 0.000000
194.53100586 110.93800354 377.50000000 0.726005 -0.678689 -0.110897 0.000000
121.87500000 281.25000000 407.50000000 -0.000978 -0.000978 -0.999999 0.000000
181.25000000 205.85899353 415.00000000 -0.000978 -0.000978 -0.999999 0.000000
50.78120041 228.51600647 425.00000000 0.775716 -0.270158 -0.570333 0.000000
116.79699707 117.96900177 425.00000000 0.362607 0.899912 -0.242228 0.000000
160.15600586 181.25000000 452.50000000 -0.000978 -0.000978 -0.999999 0.000000
81.25000000 260.15600586 427.50000000 0.908389 -0.305722 -0.285243 0.000000
174.21899414 230.46899414 412.50000000 -0.114169 -0.965948 -0.232187 0.000000
97.65619659 195.31199646 462.50000000 0.000978 0.000978 -0.999999 0.000000
53.90620041 225.78100586 432.50000000 0.788078 0.023712 -0.615119 0.000000
157.03100586 212.50000000 442.50000000 -0.000978 -0.000978 -0.999999 0.000000
159.76600647 210.15600586 370.00000000 -0.549336 -0.670291 0.498938 0.000000
130.46899414 176.56199646 467.50000000 -0.000978 -0.000978 -0.999999 0.000000
104.29699707 113.28099823 395.00000000 0.373232 0.376355 -0.847971 0.000000
152.34399414 129.68800354 442.50000000 -0.000978 -0.000978 -0.999999 0.000000
164.84399414 170.31199646 402.50000000 -0.000978 -0.000978 -0.999999 0.000000
71.87500000 249.21899414 347.50000000 -0.335647 0.175547 0.925486 0.000000
